x y z curv
0.5078216525836312 0.23902060555428442 0.523762952445203 0.13747225122263956
0.5061668492956759 0.33598794530817244 0.5324374064906643 0.24741295772560465
0.5090395112896019 0.2235932026846 0.5173790171500964 0.17604099194192285
0.5193948742243554 0.10436681820753933 0.46309689843791774 0.18392639497637367
0.5072810412957283 0.2689200040930802 0.5265968267521992 0.15913615307361811
0.5087428714014206 0.255279042162137 0.5189340148023525 0.17584789082720267
0.5053731756904438 0.11786911076212514 0.5365975392847717 0.18417889193302148
0.5046699047896204 0.207843593500796 0.5402841286857697 0.2633246463872857
0.5062493524919889 0.28127465193676165 0.5320048708662137 0.25992663110626524
0.5109435855928015 0.2278653837645716 0.5073980161620019 0.1653424856615741
0.5098130842895235 0.28267641368418117 0.5133240744265832 0.19006574254515438
0.5056391163742956 0.23924205390494985 0.5352036335112628 0.23170403178260685
0.506992356608599 0.2092920007687355 0.5281100229926168 0.19872117948137843
0.5095842406696753 0.10983351406295877 0.5145234634846981 0.15534444842518608
0.504400683169216 0.3570572006391229 0.5416955318069061 0.24789416221460597
0.5071771332779546 0.19202052516033644 0.5271414193406696 0.1901585414305464
0.50904630573995 0.1541529458088748 0.5173433244665083 0.14592133391151024
0.5162759710352307 0.14562241373220575 0.47944598590039156 0.17411539307876908
0.5087415076678836 0.3211233651826151 0.5189412416178582 0.2136485877205864
0.506462727085473 0.3454406512678192 0.5308864507706805 0.26130342540340734
0.5157604241471747 0.1956081033473719 0.48214850022728933 0.17491550152782312
0.5195217925759334 0.1871098470730183 0.46243171250331344 0.23225472922278684
0.5191301289863958 0.2429046814765688 0.46448485704976 0.2257320520404933
0.512142594951261 0.3139103748799152 0.5011130190389611 0.1271789572961631
0.5072382488999958 0.35907732434176587 0.5268212496752633 0.21986272631647863
0.5124853469857611 0.30191759925716116 0.49931632522748853 0.10691404746738166
0.5191999784463642 0.2625770022908357 0.46411873924029023 0.25326569060734555
0.5180260708016373 0.2315224959572333 0.4702722211954603 0.22011226075869642
0.5143084214328817 0.21722164414597747 0.48975980581002265 0.16954673643158852
0.5153651762835565 0.30899645706612094 0.484220512771539 0.16997855903189243
0.5206523411556878 0.2804564247791679 0.45650560113293487 0.24613116387078957
0.5181078301502111 0.21890587970283928 0.4698436281643124 0.19620621166370375
0.5170658169849318 0.2678260038488505 0.475305840828359 0.20025434380560964
0.51349360875497 0.2822867283238111 0.4940310749821646 0.1671023298103937
0.5177001592552183 0.36282148567289446 0.4719808033484982 0.2209261861512374
0.5131207041207262 0.3666236415743273 0.4959859260835141 0.20008167878583089
0.5199008877931117 0.23059494137401787 0.460444587407996 0.2799354294770531
0.5198857701482296 0.2960590505958029 0.4605239232316864 0.276415597584598
0.5182254938142814 0.3515238038111689 0.4692270283061503 0.2504894046926262
0.51266856137221 0.3255290232272803 0.498355963476888 0.10300416361813268
0.5085278073858763 0.33652936917983545 0.5200614617433879 0.20809723774211086
0.5191762599513557 0.14164191684507102 0.4642429025813621 0.19625878706993283
0.5177623302898913 0.27789942465899786 0.47165479075400274 0.2155617173308055
0.5203885011008463 0.12727296316609427 0.45788841689924964 0.22859967855623617
0.5101833320556379 0.2927530296740421 0.5113832806331865 0.18731719024120624
0.514059454504149 0.3471312045004623 0.49106504884955465 0.22720452575038494
0.5126283493513922 0.2612833085052842 0.4985666627756672 0.1709685734359353
0.5083946549878349 0.35022635132216007 0.5207594542962031 0.2436004793875624
0.5143880777976032 0.2573433751311687 0.48934230927337363 0.1424624610656406
0.5083395971816602 0.373926176118484 0.5210480954003632 0.27045679712563103
0.5129488128920542 0.24394540850511842 0.49688679598709273 0.0971684546548302
0.5186932516265219 0.17811301663954027 0.4667748418385579 0.20434078186274265
0.5171623318582916 0.3311174531513755 0.47480000540853834 0.2345158345459573
0.5195337828468916 0.16724341382398794 0.462368833079341 0.24122973423525285
0.5201531847014265 0.3298388223540671 0.4591222053525384 0.28450824706949196
0.5172354361817121 0.2907689235205631 0.4744167429918967 0.1853781499808112
0.5207234374000751 0.3548392130385408 0.45613302333873684 0.258028407434654
0.5195234653305453 0.3432046907040234 0.4624231596284771 0.287743732893028
0.5202607725985009 0.2184714303067823 0.4585580848763294 0.2545699563796604
0.515393674704422 0.36779880501741224 0.4840712076583535 0.19740966961675135
0.5193988996340592 0.31591141905902514 0.4630760848094433 0.24027462329268942
0.5124195828274898 0.29201494997661376 0.4996610417218177 0.13918925585897618
0.5189480846701353 0.37042435131336743 0.46543929410002993 0.2150305326274463
0.5112406242113436 0.36091465726128386 0.5058411384777427 0.209589781108627
0.5150967862826279 0.32579736516180435 0.4856274137162694 0.18609305358847858
0.5191771021188671 0.20988753703769897 0.46423858225609144 0.21442480535052977
0.5154081276122068 0.29573515415462526 0.4839953472166193 0.16836541725694995
0.5175067231737843 0.3009851513463616 0.4729946935740879 0.20650250644322335
0.5179347474860694 0.2513062672620675 0.470750957632452 0.21529268574257282
0.5164675346796409 0.34500926459924414 0.4784420927890457 0.24577289255603235
0.5208016049759204 0.17721093675019656 0.45572303019956206 0.23971283326254184
0.5152101432791502 0.2424267051747802 0.48503309077034834 0.15345530786636266
0.5190590962731372 0.138049392514418 0.44537982016111943 0.20308927891548928
0.5148283061154901 0.2571098917145711 0.42645421345074075 0.22367533814764312
0.5139218144466196 0.19826204560924476 0.42239930087595945 0.20701995103312393
0.5210635209535293 0.20259200827162288 0.4543460767523018 0.2848850036387064
0.5132531764354855 0.24976388816221623 0.41940824187160475 0.1526265816177095
0.5187011677132185 0.27832321837509905 0.4437785437864113 0.23568551080452246
0.5175059851221979 0.2079931922628898 0.4384322523215106 0.19475457041633534
0.5087277703333601 0.17738892760973707 0.39916496411821173 0.20755764167876076
0.505855171222944 0.09608133393203008 0.38631514871083356 0.14914845110204628
0.5197656501630735 0.3484939967041678 0.44854017842742455 0.2658241431929941
0.5197972436528795 0.23260072057181994 0.44868164121331533 0.2566043761109748
0.5201866346114192 0.24818016393195869 0.45042347371980607 0.27558935414167485
0.5121857185913631 0.19224631998521471 0.414633282577326 0.19859250495835862
0.5151567339224378 0.21307418143078594 0.4279234115795292 0.17511244661510686
0.5202578635967632 0.3384720910156942 0.45074199379099245 0.286140843445364
0.5204901318548383 0.10213927369678703 0.4517812709194373 0.1990129767676497
0.5174235428408831 0.2521908880289052 0.43806341365729795 0.24624999464141492
0.5137903696800752 0.17265991975842188 0.4218113431256757 0.18097427277869957
0.516984471939112 0.29638317340460196 0.43609927891475364 0.19798848488185766
0.5206991738092114 0.37048711681863666 0.45271605576586854 0.1836317431719883
0.5181380625742624 0.18642944901614303 0.44125973079484004 0.210793956488317
0.5166505077586527 0.28595499460022444 0.43460537927740583 0.1834733409318561
0.5139526400964584 0.15380766933907036 0.42253724471710247 0.1669512068716418
0.5195754811307103 0.3104560102115895 0.4476895458399984 0.2706637761904183
0.5190187464541878 0.15123478509704802 0.445199308990539 0.23216233196130692
0.5200362156445932 0.2597531014665169 0.4497505954398558 0.27337258896154887
0.5205810059763493 0.19189692874334502 0.4521876696171754 0.2297128474262709
0.5152807564019849 0.23869604561712482 0.4284781674133018 0.20723453796356006
0.520365456704758 0.27153469813231246 0.4512233656902294 0.2544309210061524
0.5111087327380907 0.17318117131454064 0.40981565661080127 0.13685493410711053
0.5091925057876538 0.11451093472004162 0.4012439253526004 0.17160308497032536
0.5127317082985696 0.2391258749754445 0.41707558667103123 0.15929771929024394
0.5090723231679801 0.19367371259486502 0.40070622276194195 0.20147240092258134
0.5199042632510725 0.2969264915858078 0.44916029295739524 0.274166516436024
0.5194566180193958 0.21969887099902918 0.44715794601362335 0.1941180156512153
0.5140049178035484 0.22683930182175302 0.4227710109460174 0.15362292108279393
0.5092451474668458 0.09991973871200018 0.401479422988721 0.18069587056252126
0.5192587851022198 0.3270392223536656 0.4462728594752474 0.2583270085981165
0.5118676632540725 0.33571046487761824 0.4132103661307599 0.21416925105585993
0.5089830780154179 0.3146425999501361 0.40030686254502224 0.14091987941608336
0.508091814781118 0.35648130623057267 0.3963199522116332 0.21978821833073128
0.5041808815918256 0.31466086342683686 0.37882534165523696 0.24146828053241223
0.5081362355377222 0.27554529964018515 0.3965187536279568 0.19934252115667422
0.5030893378530396 0.29172630769192426 0.3739425988971917 0.2740244517087485
0.5031019972899711 0.3643659669311794 0.3739991423713914 0.22628337056593997
0.5188091579849393 0.36142428215400485 0.4442615154888908 0.23770033622025252
0.516608373207226 0.3279985577686114 0.43441685050792317 0.24311326600939745
0.5039778325013136 0.35550849353315045 0.377917000125858 0.2458514455147652
0.5114385291227069 0.34810448506632485 0.4112907187181088 0.21376162235367288
0.5141609674980764 0.35702333246922247 0.42346890993314973 0.19474174448391965
0.5052048659571684 0.276274971703652 0.38340594536436223 0.2629744514322513
0.5104996674598927 0.3243975484795321 0.4070909650098687 0.15990808507782023
0.5072595318685753 0.2621795127060038 0.3925970372169725 0.1803172696123745
0.5116620143421837 0.30798039502795044 0.4122904757160306 0.09563465865668995
0.5019420694480268 0.23786067618452134 0.3688106211169066 0.2858431417538002
0.5024833865661906 0.34463186015675185 0.3712319528774625 0.27582337948015684
0.502315791562957 0.279651810682785 0.37048233176646095 0.2548922613189329
0.5150236638140168 0.3440704167097203 0.4273279986882734 0.2014638278775619
0.5100129998475798 0.2637956454905526 0.4049140408310527 0.16241751362543402
0.5024147743321914 0.32525295077810923 0.3709250546718155 0.264111518671316
0.5135923895180777 0.3249525177826439 0.42092554494614787 0.1780125146517623
0.5169041559260232 0.34911858203063584 0.4357399415607411 0.2396981229903272
0.5015510101140105 0.37652353504396896 0.36706114374510723 0.246090951419442
0.5042383202930513 0.2594659666361341 0.3790823455164284 0.2470174948662369
0.5063781936657565 0.3684059109486513 0.3886544483488784 0.174261867112909
0.5024256594361972 0.21457004550750958 0.3709738771178501 0.23567058725594434
0.5052716761391052 0.34093460657294283 0.38370472914227766 0.2561588140943299
0.5091495724962442 0.28854844458326134 0.401051668051351 0.17806573166275844
0.515158340731622 0.36816337897484336 0.42793041650123237 0.18228422494825167
0.5067908644124893 0.3281939482538609 0.39050048338096277 0.18332995821356415
0.5081034845981804 0.24373784046954344 0.39637228731931745 0.1758336157732269
0.5035311123441177 0.17910048814088103 0.3759189081720352 0.2303435241530999
0.5047522741675815 0.16844918298669764 0.38138150719114905 0.2302017289740478
0.5047840175336185 0.21681543677301382 0.38152344683731776 0.19955704097238677
0.5124625500947604 0.26937975560731464 0.41587153371744207 0.16021389161458074
0.5065220989678945 0.30005329047521295 0.3892982561621491 0.21808251890960761
0.5095712795502253 0.2999538188651796 0.40293806409494914 0.137009566712002
0.5102968338198997 0.22220772519720405 0.40618375581558364 0.16060227876284336
0.5180061965827468 0.3761634633442825 0.4406696350222368 0.2719144860100924
0.5086818197837666 0.21096273297768864 0.3989593753403089 0.16300723078089208
0.5041927562437387 0.24294616035193253 0.3788785446929275 0.24183593577491697
0.5057708298197744 0.250362326153627 0.38593768503097636 0.21491897418461675
0.5134429537852507 0.2903543445646805 0.42025711934900867 0.1609805207495307
0.5037729222283183 0.19404695327311747 0.37700057144213284 0.24520864051502173
0.5116477752042371 0.2824744828553743 0.41222681026660396 0.1923035397465952
0.5065832899955026 0.22599039814690466 0.38957206742767597 0.17047377678657236
0.505715976561548 0.2880870434438841 0.3856922671424695 0.23021901657455374
0.5053890497587289 0.20371734952300005 0.3842299347335082 0.2028372449065393
0.5033363722481445 0.3031632948682719 0.37504763695067633 0.23717533007266905
0.5105916472323394 0.3606272069875602 0.4075023726643635 0.1904931859485962
0.5164673475589656 0.31603479232292275 0.43378601881500467 0.19130723899506397
0.5004158505202816 0.22749489028845646 0.3652290338995976 0.26724064180884527
0.49578130377421714 0.11713748415178168 0.3586351023830922 0.2226364465639665
0.500999828219096 0.11132384990810168 0.3660599533250397 0.2178503029304502
0.4881296223581885 0.2475231190966603 0.34774834062909254 0.24006542273181927
0.48557015674049986 0.17831443608538355 0.34410679215144246 0.23379236743136603
0.48596014076822064 0.2845504930614766 0.3446616165373419 0.19860524909702196
0.49785421825097176 0.2952637992483618 0.3615843513945565 0.27792813534954874
0.4833599372487871 0.23299885496659722 0.3409621000840688 0.2573902349445754
0.49924931378673976 0.3594144648706888 0.3635692511471359 0.23247067408562588
0.47971300023216595 0.1162644189697025 0.335773329246444 0.16929311329918892
0.5014316028246673 0.2666162726748802 0.3666742184141064 0.2732246167447515
0.49048467200861423 0.3027031702195246 0.3510990539833937 0.21863040196477296
0.4911727720709611 0.2105576960443378 0.35207810834898945 0.1939982049912219
0.49572571342343463 0.27214669423984406 0.35855595105196997 0.255972507146584
0.4608120341739264 0.10115555792463715 0.3088812860296803 0.1967078763154727
0.4857813391334502 0.09638460968476577 0.34440729042565277 0.15195558861734648
0.48991748464016127 0.17007598285009362 0.35029211687939454 0.21113602520952168
0.48966159467465387 0.23620495087287297 0.3499280151746192 0.27230121807401614
0.48533702049231187 0.26339360723073224 0.34377505703682554 0.16978907000411078
0.47634227800304696 0.19382370973118584 0.3309774803913684 0.21431798242333694
0.48660010532916553 0.12960082977082726 0.3455722078781248 0.16493413372366245
0.4935315747661131 0.22548401490834039 0.3554341765749521 0.25089992707171144
0.482753416559583 0.2084941814819338 0.3400991595146544 0.19379327622439674
0.500176636830669 0.3103648084797893 0.36488865270840043 0.23988250514190113
0.48769725136588626 0.1503616430999127 0.34713320521938074 0.18369372802673506
0.47764330540582833 0.21972404164775336 0.3328285555642567 0.18489058926734175
0.48410418325572946 0.19013025531553376 0.3420210196994275 0.21944098903360734
0.4878889733915548 0.2728600218696748 0.3474059389096324 0.20802644603775752
0.497386249176218 0.349792915535202 0.36091851063721936 0.3018677637611703
0.49777230785157905 0.19748533928186573 0.3614678469932894 0.25610785761796345
0.4747284075943269 0.2041873880871437 0.3286812826622624 0.20763564432925072
0.4970869961303313 0.20939359192194687 0.36049278991867306 0.23117011508554564
0.4968017150954396 0.2852257447548072 0.36008686734526274 0.24867267432981363
0.4919795855326335 0.2570445170525263 0.35322601463254755 0.24795456270176133
0.4721564792504534 0.1447445932636775 0.325021998719186 0.14054091268119454
0.4679139082887944 0.1728186049896584 0.31898571336624704 0.21136380511679032
0.4970965408143955 0.32179601381205436 0.3605063278390671 0.23128607699371734
0.49063437685408584 0.1858943026940834 0.35131209587577295 0.23518922279594265
0.49831807365131087 0.2548142714435615 0.3622443339919117 0.2611093489803608
0.49158257737362143 0.2916995475629387 0.3526611435934033 0.18931713065543376
0.49590888543671885 0.3392650043714249 0.3588165406539496 0.24790346214395093
0.49652240239867634 0.23861404209715625 0.35968948234168785 0.2794790866118095
0.4874775461230738 0.22443962949728796 0.3468205836882685 0.20185010337181902
0.47201019524993093 0.28960550719996253 0.3248138134457317 0.14456653011110474
0.4693164762552266 0.2401518680363487 0.3209812436031267 0.22382442184458617
0.4759471502038314 0.34238876121089423 0.3304152420065539 0.21818322783538222
0.4800629034401831 0.3098740384488908 0.3362710944125085 0.1274986617879894
0.464725955009076 0.24689460884777573 0.31444990710285114 0.20890472013422592
0.45911211993429496 0.1922693578630446 0.30646263598838486 0.24585161359510452
0.4904064077874388 0.3257053600131117 0.3509876920446254 0.21581784381144956
0.467092540176534 0.340933547786004 0.31781701847531024 0.20827003993609142
0.45644146288103665 0.17908858357428364 0.30266286478012727 0.27303585044715395
0.46413135154876833 0.3263956436853763 0.3136038832271443 0.23394787971827166
0.47729317679046607 0.24112788084660636 0.332330389097568 0.17267379266976488
0.47002174386465095 0.3028124060463755 0.3219846657053145 0.16953251612170261
0.48050632999129084 0.33218150596564533 0.33690198758531364 0.2101941335046555
0.46550868704915027 0.374594621114458 0.31556352021138395 0.26552878176293787
0.4569064493918294 0.1577001567580532 0.303324449562021 0.2246370932371995
0.4786036272586119 0.2566436571297857 0.33419487517786584 0.1716957222275444
0.45518423558888504 0.2929329986211238 0.300874055454597 0.27151519039860356
0.46191514618501256 0.3516647777301881 0.31045068556461464 0.28425259308100587
0.46671271931472535 0.26161870368537976 0.31727664401885647 0.2118539842359004
0.4649650684715947 0.3645831437685487 0.314790070516461 0.24331361265945872
0.4621345318985164 0.22902153200464526 0.31076287067740666 0.22044648004554296
0.4827944761288488 0.3687452775780977 0.34015751846893344 0.17116159965767921
0.45900848301237185 0.21755577420929534 0.3063151732445219 0.22064452559723113
0.46719718852596004 0.20690892036813624 0.31796596102367153 0.21253940234194976
0.4587842111570224 0.2530470760881065 0.3059960688599713 0.27578746639057583
0.4943729131341661 0.3728910960861726 0.35663116661846966 0.285212890297216
0.4607136647486882 0.2025434429600918 0.30874128928636024 0.25075175508207936
0.45850950028740717 0.24041296083081104 0.3056052185403636 0.26452663342294447
0.45545980913894807 0.3102090774133361 0.30126613144477715 0.26704106313466586
0.46511286749911 0.3097124512002037 0.3150003776193933 0.2394961369094584
0.47984812218319 0.35696584174815316 0.335965488779722 0.24266454222379
0.4587466173246323 0.27848157899478915 0.30594257131012503 0.22874642065003262
0.47468374013195624 0.2698409422656821 0.32861770576820676 0.16005984175242294
0.47446305101899133 0.2795249172872493 0.32830370853638047 0.14262029561821896
0.4580406403593393 0.16836323029347078 0.3049381577343449 0.253693686708467
0.46629545773584136 0.2928620260040166 0.3166829579559399 0.19786657608628996
0.4657176363486112 0.2795513155047869 0.3158608461845538 0.1832475863557441
0.4761905799107754 0.3683450813971772 0.3307615809008352 0.21504564703644188
0.4600346192564524 0.2645050052198593 0.3077751289593533 0.25136758423138966
0.4894995195314339 0.3140064464789524 0.34969738760458324 0.23713712336213258
0.4732229547807475 0.3323513246742329 0.3265392959232422 0.19014552437642096
0.4897767780598809 0.365118331033393 0.35009184827735884 0.22827658103084864
0.46762783943664443 0.3534548490075404 0.3185786306127229 0.25165770645262964
0.45499026803187315 0.13819374714337918 0.30059813893645276 0.25401648695748796
0.46069162863645624 0.33861493124989894 0.3087098855882614 0.26327284284545066
0.47190152709607797 0.3605894455762308 0.32465917520155607 0.23253570233044696
0.4550114119978881 0.3689872445790692 0.3006281357876703 0.2299004182016902
0.4862018768918055 0.35405813087963184 0.34500552949878927 0.24749298513400259
0.48497664733318446 0.29851978738325663 0.34326230962282445 0.16422646961676982
0.48215505494395244 0.32237241945718026 0.33924777569870845 0.19782045399245016
0.4741275242472232 0.3141985552745461 0.3278263124090502 0.16705960179870585
0.4589059879657964 0.31842295726436814 0.30616930681595345 0.24723899337624625
0.45648763505440815 0.33049077146200545 0.30272850119794276 0.27077294139965247
0.46547392457962533 0.18792037829533606 0.31551413059303113 0.22014824698581187
0.46965839877298665 0.21793767632633357 0.32146773484453584 0.20935879341993022
0.14456048057977788 0.2276378471831097 0.6150559069752302 0.2770361942657054
0.13248010896401577 0.2890574511121286 0.5978680903876104 0.16877354430833016
0.12670232048672156 0.2290317482301457 0.5896475515690395 0.1772612629256112
0.11838452638136066 0.3528073522594468 0.5778130573149705 0.1916351511387429
0.14280666403163247 0.30960115639353225 0.6125605691760875 0.245209107908578
0.12669184381607423 0.29891189747156727 0.5896326193067496 0.21894917418566126
0.144320715368759 0.23818264902779898 0.6147147682395747 0.27985497875747006
0.14420679094617123 0.2794760552452431 0.61455266259407 0.25446946245057245
0.13326762452028645 0.19993702461741925 0.5989885905500826 0.20340307255451792
0.1249153682379881 0.26968069508447945 0.587105084217646 0.1657631286926953
0.1059771946356878 0.3667434621121525 0.5601600639608398 0.2398422192123997
0.1335437482060925 0.2711331721313513 0.5993814290054686 0.19488568516860394
0.14347082088688004 0.17975653305480788 0.6135055714688428 0.2208635560596393
0.1086563574253942 0.34113554991099165 0.5639719510764203 0.21754779001022911
0.1200463589963009 0.2606741755440757 0.5801775253979108 0.135345826376956
0.13740746854549926 0.28216059127637605 0.6048786752630907 0.21416477739301046
0.13654466664941337 0.18973428508868478 0.6036511267378585 0.25790573907558434
0.13679759389283558 0.36511442393203714 0.6040109225491364 0.2383034787621352
0.14321165350885823 0.3651298984201798 0.6131367620542357 0.2649763894386307
0.1439441463007212 0.1504291830557338 0.6141790236240205 0.2565644826181066
0.13612842356588992 0.24802488296530267 0.6030588797137889 0.21877153471786406
0.14079487894204135 0.3189843509343798 0.6096982243405001 0.23896168190424358
0.11309913883534559 0.2960213969812514 0.5702930988392539 0.17846632883767666
0.13982967636307816 0.22031873814368597 0.6083249838115807 0.22497348478715312
0.14439670270720184 0.3539688522218649 0.6148228386231118 0.2684447646668155
0.13653347519341896 0.30022234984032065 0.6036351622672391 0.21667138279218948
0.12681584056400513 0.25302501004350847 0.5898090574458257 0.1599812932146432
0.1417281796972265 0.26175500592159445 0.6110261338093367 0.23123342407517916
0.11706952776512189 0.31874821133706216 0.5759421073764925 0.1587517543660166
0.12261408076312477 0.3288835957458831 0.583830820528706 0.13178449510422174
0.12113363301320845 0.288986793599227 0.5817244739309106 0.18996084161545598
0.13292700025272808 0.348148620513357 0.5985038992757368 0.2433799251951319
0.1290731671886837 0.32042201063616504 0.5930207267626217 0.183971949113682
0.1359993474733318 0.3115886577041747 0.6028752081242349 0.24627422578723768
0.11174425884508475 0.33110321190587333 0.5683653802910305 0.17818100868808123
0.11301080985551099 0.36156020016593876 0.5701674009645002 0.22493005762932003
0.11831909998357108 0.3011810929753309 0.5777199888494307 0.21006741445009003
0.1068019341474835 0.3548089296418555 0.5613334969450144 0.2616582655648085
0.12495286558917262 0.3086505881839616 0.5871584203476794 0.2014584364110482
0.11220687175707388 0.37354817545664976 0.5690235639371435 0.26332144559810605
0.1338637578929835 0.22413632738609846 0.599836752187505 0.21412145274631028
0.1418138086809961 0.20276562285548522 0.6111479877103302 0.2392713947101392
0.1299228427667698 0.3621208910176865 0.5942296183498285 0.22586157682872404
0.14494909629144453 0.16252458439508902 0.6156088486959911 0.24952423037067475
0.13837066928268252 0.23162508722205238 0.6062491235232886 0.2672243252280696
0.13835034390823653 0.3327380199565567 0.6062201669479454 0.22202800489309799
0.1352501769140059 0.16911012484152535 0.6018093515289414 0.21296799360854646
0.1328793832345487 0.33117804484943525 0.5984361567707852 0.2014081342651406
0.132951446429724 0.21046766548938328 0.5985387325815262 0.20393395453204927
0.14058945780225138 0.2928361232565696 0.6094059636506064 0.25175515986099195
0.14375275801918658 0.12664863453440897 0.6139067278124751 0.2576439649834906
0.13336344227640548 0.2598212178304082 0.5991248963444813 0.1691536752501072
0.1205498982265083 0.3417299089143309 0.5808939239977844 0.1635960911320887
0.10187319127310566 0.3421666430128646 0.554320951262532 0.2831616706146642
0.11108645659397315 0.1179201785471097 0.5674295478231333 0.2003526198785049
0.1319901278403094 0.1601585909136894 0.5971710000161727 0.18198076188530046
0.1070320287153812 0.2327541007420192 0.5616609182146082 0.20479583973172272
0.09955919043142893 0.12381144877577575 0.5510287032005189 0.22393160893697941
0.11371187270846898 0.1902191767115509 0.5711649281787178 0.21991742131836334
0.10175917813576843 0.2948657639062305 0.5541587526028442 0.2366254181826926
0.10334904003984727 0.28214765562332456 0.5564207919393201 0.24060128831316188
0.09880366918723668 0.1927853395557912 0.5499537316752902 0.25267742558131817
0.10960414510874174 0.3056911116655862 0.5653204641900833 0.21407692557228186
0.11948175890404708 0.20564307661730521 0.5793742404531756 0.2012496596165179
0.10993109465506173 0.2698189526698872 0.565785657142786 0.2469445268990542
0.10013897334298347 0.36314069477987065 0.5518535209796231 0.24201723548588513
0.10298099795870355 0.2557276808868996 0.5558971564185993 0.24081993930136295
0.10975578587859969 0.20466335654648493 0.5655362545478977 0.2201880656891495
0.10203282944423415 0.31971012939453547 0.5545480907664678 0.24292160010314073
0.11948311905007715 0.17883828205771915 0.579376185698327 0.1666032120529245
0.10411158313274733 0.3317320373590708 0.5575057096189099 0.20976837894046002
0.10093781155785947 0.2250928254891701 0.5529901492111555 0.2294575496591113
0.11478438539322848 0.25210673769288794 0.5726908618978599 0.14149173099521992
0.1190318898693454 0.22792445214331783 0.5787341643662376 0.15636022991047285
0.12202190850089356 0.21838462954819066 0.5829883270549584 0.15420243312816975
0.10042870447230212 0.3079434430751788 0.5522657673026687 0.23110548036132475
0.10737678526670946 0.17218783905890062 0.5621514559955594 0.23598856661812692
0.10853700138411328 0.28973207178481253 0.5638021521411851 0.1779738065522828
0.1256205569465759 0.19914045172748748 0.5881084438615107 0.16567661418005092
0.11374270271675332 0.15971876098426552 0.5712088041408314 0.20002216161272268
0.1287011793076483 0.10552963905300428 0.5924915478553329 0.15876970433810858
0.11317325421792102 0.23881950936122504 0.5703985706701591 0.1567896917931344
0.10550061129043525 0.21514698084569567 0.5594820442798587 0.22035492709988025
0.09984602111592378 0.2683015916048101 0.5514367479596137 0.2654321953389603
0.10420430980087175 0.18778409447594288 0.5576376938568917 0.24527990571219419
0.1094272713013796 0.25688478008373766 0.5650688287616197 0.24008556341735252
0.10114656058089692 0.20364349009203864 0.5532871626105866 0.23871107839928488
0.11342675519824175 0.21500995692504607 0.5707592574494526 0.185502445124441
0.10794321475483551 0.15170595450202357 0.5629573720853377 0.17924669286685854
0.09039015103208321 0.22387966084611252 0.5145585432507978 0.1412864751423276
0.0938367924060851 0.34110445669592315 0.5299761675726627 0.23356438770794977
0.09654709467290308 0.26980244465328274 0.5421001693613594 0.27572131804686606
0.09322696824779902 0.2326261046782632 0.527248386413316 0.20141139677634282
0.09606980416409183 0.20558606123043993 0.5399651950309845 0.20824317140944218
0.09639516331005327 0.2570739700635922 0.54142055413328 0.2859047510221314
0.08917709160718186 0.3476503012482307 0.509132053292647 0.233510396931251
0.09324281871952994 0.24265610519916558 0.5273192780558769 0.1939968185843779
0.0862677646541156 0.31549877289558237 0.49611788197436596 0.17464187156875946
0.09473461872358625 0.218404276794076 0.5339925330087463 0.20160359223066118
0.09804733519796141 0.24891524645429916 0.54881117709073 0.29551678071149906
0.0959715068460767 0.15118705426522316 0.5395255485525065 0.2172929315684807
0.09182564097896892 0.31015492758101976 0.5209797777783683 0.19288611767911723
0.09756492302009229 0.15898024413579284 0.5466533224532507 0.22234139634254718
0.09095507650065815 0.23459787382949174 0.5170855955915599 0.15800818837946345
0.09205952586825299 0.32832116173487713 0.522025986968472 0.20806008906698495
0.09754686360141257 0.32502234871160657 0.5465723420938461 0.2800813161953889
0.09662828465203498 0.3391476134836381 0.5424632724554068 0.26835606091823727
0.08320250669272199 0.3326906311929539 0.482406130777598 0.17444182016069568
0.08819293270047872 0.3619011174560239 0.5047296265552178 0.1979914058353948
0.09508890821006633 0.328358413014403 0.5355772364761258 0.2547666823615161
0.09012741164987734 0.37369257049729393 0.5133830621210805 0.27968861767499037
0.09154390256693042 0.25105008522250877 0.5197195550363202 0.19646369931232835
0.08337383751826909 0.31180840336430093 0.4831725646779279 0.18526869221058898
0.08837308716587984 0.3079106310634219 0.5055355700092552 0.13553407515360133
0.09710013078082609 0.23712413293307372 0.5445740885064678 0.27069473454651016
0.08916126925003452 0.26731860515375333 0.5090613702634168 0.15779567590055674
0.08371727686609912 0.36271536843853064 0.48470880211574763 0.22719704593412193
0.08952820743499527 0.3328181767853492 0.5107027071814652 0.13497622147658786
0.09691018810643823 0.29728693067006706 0.5437243524626411 0.26273140796253264
0.09187695404377294 0.350823562234972 0.5212092671191642 0.22829935328797613
0.09553881570812282 0.24382107808681291 0.5375898944695123 0.24056167810553705
0.09245398777262312 0.1946034272519086 0.52379067972853 0.17740103584012284
0.08622290306445651 0.3761411623401055 0.4959171324401186 0.27656439740645955
0.08540798848474376 0.32912175372955266 0.4922718537250482 0.1210635469644606
0.0963539114430235 0.2270311475039918 0.5412360587389656 0.23210282928548828
0.09628685435578781 0.36414749052447604 0.54093593259596 0.26129800872961334
0.09276687595188404 0.2630097822009581 0.5251902328734296 0.23028459225266193
0.09358556967662415 0.35980131491379885 0.5288523580745996 0.25420223028186634
0.0885916717667044 0.28485427414664943 0.5065133854357751 0.15130262459589666
0.09540797212227134 0.3064846093492126 0.5370045217443015 0.22701905467656242
0.09531139474536102 0.35212167102485153 0.5365724511387284 0.28301538011086363
0.0855112685214528 0.3557000542145102 0.4927338220429767 0.23163963198253795
0.09281176466447534 0.3741806731623613 0.5253909012573412 0.28080954425355226
0.09806376727298231 0.3727746431735177 0.5488845362569792 0.26505764133039006
0.0811588344169614 0.36166995542012526 0.47326419577444123 0.23111969640459057
0.09413006257218705 0.17272539661734734 0.5312882430662804 0.19637914341445667
0.08754911467750627 0.24712384192385267 0.5018497890345308 0.23167447032295158
0.09110922468345936 0.29260611788793134 0.5177750738957273 0.18759417948751222
0.09368067960702395 0.31680183235579623 0.5292778612852522 0.20166209344084174
0.09291264318619633 0.2729759917463849 0.5258422775365611 0.16004148506944615
0.08656606109868062 0.29538335247907366 0.4974522666501649 0.17785384817049707
0.0792539120102587 0.36640596781314944 0.464742955169993 0.22656573214308848
0.09308567578750782 0.28406662686820894 0.5266162862624475 0.22065489951786427
0.096436020417778 0.31575942443136523 0.5416032499072856 0.21475911856857516
0.09471024778880577 0.2943332532558674 0.5338834257210898 0.19925800510432579
0.09603819788225909 0.19040311004903418 0.5398238294455185 0.223779813183663
0.08262739811277811 0.35163343695728 0.4798334916605131 0.2646621662109538
0.09197049883004102 0.20692840825786948 0.5216278879188175 0.15540795943218383
0.08147324888406418 0.31976069158896925 0.47467070971809544 0.18960871427573678
0.0855566206367738 0.25961084895951114 0.4929368111779574 0.2403421436776913
0.08065066705332564 0.1678955962127439 0.47099129546005536 0.2324726109796132
0.08952277866707808 0.19692889569976374 0.5106785878192168 0.17131543604777366
0.09183875319037604 0.11837254616461487 0.5210386737512193 0.17362822418985488
0.08486527250742207 0.23894567953442591 0.48984425490371186 0.17937427584180018
0.08095501872282884 0.28498545922474333 0.4723525764735988 0.2566649586777803
0.07925762970375057 0.3529584688902673 0.4647596042804786 0.28372818418148626
0.08149358930033512 0.30662990107672217 0.47476171642156245 0.2410726626690124
0.08749968732507982 0.2041740749598721 0.5016287477109839 0.16491212187677745
0.09123827120021417 0.1044251334854267 0.518352576574148 0.15308446747039006
0.08011051898475814 0.18391466372725385 0.46857504570892367 0.2671043751427077
0.08448551538399127 0.19637705416705073 0.48814555969622886 0.2149463305111909
0.08349853025475487 0.28196005882508834 0.4837303896224743 0.24563498987386195
0.08397122159111196 0.1665541217663411 0.48584502787911166 0.1838970237491028
0.08491235032351702 0.22568368103951614 0.49005486534910125 0.15910195837811647
0.08434521782766104 0.18528108858015904 0.48751798681165204 0.228256433264931
0.07947178642702486 0.2157246458723168 0.46571777878106524 0.23824272767169127
0.09605194232277506 0.11198129817527289 0.5398854071238964 0.22931319159108923
0.08222110037901259 0.2107720393182338 0.4780162040456113 0.1880171678975693
0.07972035915853287 0.32864042058615883 0.46682955155630756 0.2284473098500388
0.08153490308828724 0.19628365073326562 0.47494668011817276 0.23633869470649066
0.07915232401976657 0.2672144147790152 0.46428866498595905 0.26182287804122506
0.08040366618613018 0.11723698570297458 0.46988646601267714 0.2195732968635437
0.07883100839206966 0.3156236190794788 0.4628512655955336 0.2524896679808713
0.08543302774877007 0.14707262280579586 0.4923841062096299 0.18582692039065019
0.082067347528161 0.26473960711294414 0.4773283500107076 0.245034681155446
0.08027383256972448 0.2570999831456775 0.4693054876538042 0.25391037792840676
0.08750630698685603 0.23271797257458196 0.5016583188664339 0.13537846097196035
0.08100886418569703 0.24148708797078333 0.47259350317660376 0.2693680876990491
0.08929572408051883 0.16643994482014546 0.5096629549082894 0.1334454930778368
0.08246329888068821 0.2922047696182294 0.4790995077047452 0.19825935464415567
0.08473931378894464 0.2110769060029485 0.4892808472040661 0.17723710429437434
0.07878578903945163 0.2943742221336857 0.46264901736060055 0.26384286889190794
0.08099253763810982 0.2744510575064465 0.4725204235360845 0.20974046062816845
0.08894557433915495 0.2157927342860001 0.5080965714640542 0.14746239400549915
0.08439284855687076 0.27083866890970454 0.4877309308374045 0.23027999863483298
0.08342860895472423 0.24877824404447357 0.4834176598299396 0.2100277373780306
0.09109409858401239 0.3665781937135196 0.3952076234303263 0.20414450269937837
0.08268738833689852 0.261144870840578 0.4392747387621087 0.2269310309788561
0.08096494985241375 0.3511007313616347 0.4483037700091041 0.24774222316455372
0.08439216705573818 0.20541154655872035 0.43033833528029214 0.20629242454040037
0.07870694391799768 0.2377023781241594 0.46013986519161 0.2677503021812838
0.08925973818277191 0.3061691165896247 0.4048230910633083 0.19533759995001637
0.07937656308618063 0.22811412778292223 0.45662976018978185 0.25040727404876906
0.09263631848489995 0.37174119160496494 0.3871234409412251 0.2837003124896067
0.0848748047171101 0.35431489699014224 0.42780863474851183 0.2102064906891546
0.08067050310939984 0.375957793273215 0.44984727703406757 0.26757575453046717
0.07992269842711408 0.2158157569850101 0.4537669428565639 0.22443391409069233
0.0864265846489372 0.3431736916315468 0.4196743123373399 0.15089856019186265
0.08034202548549535 0.18293305589136039 0.4515688100950348 0.2504048838329272
0.09023846692451759 0.3167616877359447 0.39969269230934434 0.2059338036761469
0.07854094034905135 0.19162106141895288 0.46100996600756716 0.28194488674466295
0.08274669498552029 0.36371297153020626 0.4389640281163039 0.24966971581882622
0.08233593625180913 0.21057881955101662 0.4411169381555117 0.20044138435304376
0.08059117090688503 0.29405898046550066 0.4502629942541434 0.22111909945447206
0.08519495541291275 0.32463901593849515 0.42613038171201195 0.16785294417650853
0.08944648891596413 0.336346409336099 0.4038442089472947 0.19092909024683752
0.08785364217461267 0.25542211359881056 0.4121936476587399 0.17921085846918702
0.08648192502377912 0.361418719566444 0.4193842528373198 0.21761886949996304
0.08502389427611294 0.2876833405392499 0.42702700900930846 0.16772082457922277
0.084971792542486 0.21935068817221498 0.4273000088119956 0.20514721479458484
0.09333684969323756 0.3582481680920818 0.38345129107302967 0.2617527862920609
0.0822185685794324 0.2989996081499199 0.4417323164586235 0.19088284744791106
0.08013671971145575 0.3654812501042307 0.452645308746657 0.2157093235893372
0.07869044233971514 0.34159324981134725 0.46022653728569635 0.2751466169373503
0.08664146253319648 0.2638846788351228 0.41854780858259594 0.16815838799707428
0.09131826993447863 0.3422953869241401 0.39403249523800427 0.23617893181759156
0.089206880310347 0.3725948051380853 0.4051002778022222 0.27169182111862533
0.08473739868938396 0.33691841896840447 0.42852887711962495 0.1924030320347016
0.08528067265700291 0.3114730051417187 0.42568103708518656 0.2212618921823569
0.08824204119073024 0.31861865734147116 0.41015779639463584 0.18218537331947474
0.0800316934806471 0.3285707057062029 0.45319578652271625 0.2560358123398684
0.08196414843769188 0.27081733516506723 0.44306591940597195 0.2442745146747464
0.07996170481133995 0.30550848282576193 0.4535626232056958 0.24036044723258224
0.08241025570232077 0.31086286227999016 0.44072752784050645 0.22089619695146023
0.07878061000215698 0.11399182042089269 0.4597535085713431 0.2590106638556827
0.0794337745203809 0.2040323835085274 0.45632982260617383 0.2582243312886724
0.08206418857062633 0.16449038059212173 0.4425413409789316 0.20728364358958704
0.08249348943717764 0.28173562989567014 0.44029117511615046 0.21638383606959222
0.08352237827952172 0.22742766248764468 0.43489773365078765 0.18957734541009572
0.08529892351853036 0.2527290060399226 0.4255852702071854 0.18588896488747583
0.08591514064323383 0.22988469290256708 0.42235507239792214 0.1684490006108996
0.09023584714698887 0.3544535672937566 0.3997064874317362 0.2242210014045004
0.08241621493671092 0.24016191512023996 0.44069617285554996 0.17013942942897944
0.08038953758134425 0.317000723786394 0.45131997773404975 0.22848146234500946
0.08857178211396258 0.2700345977031511 0.40842924083327975 0.20630878378003745
0.08333663172050794 0.37468007952507776 0.43587164599981454 0.2801670292709827
0.08384521597139916 0.27196733219117675 0.4332055185880437 0.1906832881040844
0.08318644446611542 0.3241661864208876 0.4366588316381921 0.225871172652415
0.08645182889844401 0.37481835148206244 0.4195420364793421 0.2538684692843938
0.08079443380509302 0.2556455360848245 0.4491974430477802 0.25875004247832134
0.08013919951665899 0.24541294224479038 0.4526321108355631 0.24528673746255852
0.08767345753430547 0.3529757178724719 0.4131383225234756 0.19962423264671234
0.07967678841051312 0.2783561203175139 0.45505608676478015 0.22897606198445491
0.08088820133195442 0.3393514613386764 0.4487060600285159 0.25369627118864785
0.0827860138308354 0.19819150635402896 0.4387576476350798 0.23780212561593084
0.08282655789873755 0.34949709024341297 0.4385453696750256 0.23260614004609095
0.0848655300522553 0.3682250262115259 0.4278572748374189 0.20009095367306362
0.08703619018686512 0.2817027763770172 0.41647870791610514 0.15400167409108093
0.09472722862998426 0.2513735703216955 0.37616289285538435 0.2680818350294554
0.09386051511708503 0.239583704978445 0.38070611415547906 0.24450097670598783
0.08480355335983775 0.1890432213197919 0.42818185778484524 0.19879338111012063
0.09470233910781148 0.13313492795845058 0.37629319830175617 0.2555960271494579
0.09148088764145967 0.27791172127238906 0.3931799693475035 0.2525859843712206
0.09095016735855496 0.20994862776388132 0.3959618655021742 0.20437024144265886
0.09378973701930336 0.3289490254570437 0.3810772502592914 0.26596481788333626
0.09333455266805118 0.2150804533187808 0.3834631301719201 0.23624817474410195
0.0892791940408422 0.24328412668475063 0.40472100974264397 0.1712347569167399
0.09461159072525308 0.26195987433842494 0.37676907141116023 0.2955598334516578
0.09503938564970874 0.19824662931392992 0.37452651927795966 0.2517903338413363
0.0915615395352884 0.1872971109984759 0.3927570739300334 0.22170763699275262
0.09011725817563562 0.22529731313341983 0.4003279248939545 0.23331759340889202
0.09417642910313073 0.2978891965364051 0.3790502007700074 0.2906377275045794
0.09337277417810452 0.28777072481077787 0.3832628766920804 0.2637064669893893
0.09217714483652667 0.24826129529267288 0.3895302081553482 0.23708070510187035
0.09075657963364775 0.2621540134036698 0.39697670777629346 0.17517762999325318
0.09513451062171185 0.2248988192117589 0.37402791917426015 0.263285647775642
0.0849036907571569 0.15337266766706872 0.427656896912999 0.1915480368852229
0.09398043229547476 0.15296214534161845 0.38007739901270976 0.24169793618443444
0.0838443200976163 0.10033823218065947 0.4332099534237051 0.16733504317124917
0.09336076220034512 0.12312594772480567 0.3833256150739435 0.22961209421690232
0.09408226836495852 0.3097508902655052 0.37954379962986834 0.2641790220495185
0.09005283622508571 0.10635897381493059 0.400665454958551 0.19568626271881767
0.09244011857926084 0.20129698563724616 0.3881516575900468 0.22692425041997996
0.09329440638558509 0.3402642999325409 0.3836737464028896 0.2740366907752321
0.09215695488255743 0.31809563061174406 0.3896361385947509 0.2495684927012616
0.09159949613761836 0.23770843369969288 0.39255817830691003 0.2092498082413457
0.09117095500352755 0.2881392523346262 0.3948046236639975 0.22407965052308568
0.09037767195381194 0.20078314569966826 0.39896282444553366 0.21321976203955265
0.087968855135593 0.1629350826268104 0.41158958245971866 0.2002514383721461
0.09458549911451511 0.27291129945596443 0.3769058565109741 0.2601918319779049
0.09165592070023493 0.17320989848277446 0.39226231653861365 0.18822848021286046
0.09153042020660042 0.2990846204031751 0.39292035314676454 0.2277317738352994
0.08719500795040301 0.20311540494297103 0.4156460782385718 0.20462858636068185
0.09212300871270145 0.22687616198517768 0.38981395552110015 0.21972405477188345
0.08825668084610516 0.11771374647405225 0.4100807624269182 0.14287977045053846
0.08780921590205076 0.21978914518664988 0.41242647608592464 0.18572233373550912
0.09993069754342201 0.19037104391734777 0.3660867020215591 0.22059365649488727
0.10494114399397622 0.22013800050124566 0.3584592000084905 0.22687340498368486
0.1214672293618201 0.32073628284396394 0.3333012134302211 0.17970578033877457
0.11610576837796882 0.23000398677240233 0.3414630482155524 0.19924774239883034
0.10955187476868047 0.25434030352316445 0.35144019582826624 0.2080831004599041
0.107362242916529 0.37324208160930217 0.35477356873105415 0.2842630335963972
0.10302551105540797 0.2822259822470418 0.3613754354921183 0.214548325166516
0.11000771153832416 0.2656677915481878 0.3507462699292294 0.22769792948461584
0.09756964608402621 0.23353126379311848 0.3696810004244576 0.26374521013062957
0.10336063570982712 0.25404904800772565 0.3608652564845724 0.237689095609141
0.11373220806221511 0.2810975965772238 0.34507639231012377 0.21937041723318845
0.09562884520289497 0.3460292397558458 0.3726355698433853 0.2621249811790677
0.1083509870807525 0.33919050542576706 0.3532683678658918 0.24246839534030168
0.12247955444154698 0.2911992282178273 0.33176011662404936 0.2006807353706109
0.1010928874657229 0.37565615933581825 0.36431754879136724 0.2681271952190729
0.1047331730106342 0.30081067785750254 0.35877583121118684 0.23457609974827845
0.10296913955653525 0.17700139656314112 0.3614612088764658 0.22321288549789278
0.10391663366245585 0.23232459289765256 0.36001883973570803 0.24188835199192651
0.11473201621166407 0.32761422831546605 0.3435543808067011 0.15098954057690317
0.10997475963209824 0.20876473837303058 0.3507964105269461 0.1840216224388232
0.09763651396486782 0.3221448131535847 0.36957924150270044 0.2737880994790378
0.09641645824017325 0.15691727265550898 0.37143649317369504 0.26691879715081607
0.0955923825940619 0.35645202415543564 0.3726910818630269 0.2688479898069675
0.09938142153000254 0.3079833131980835 0.3669229242692839 0.250298581516749
0.11798090730318053 0.25071019967438335 0.33860849087313794 0.2328400118690445
0.11439922137052604 0.3425665978694411 0.3440610077839521 0.24206849017295481
0.13450922166822404 0.3626849833622669 0.31344711560550853 0.23574433616784715
0.09967995493322337 0.20451016738121425 0.3664684187384998 0.23403237116229125
0.0968014006060202 0.28435750555279093 0.3708505379682219 0.2681267046807769
0.13407091020074913 0.34880986871882186 0.31411436132594783 0.26218089211872103
0.10810151273487792 0.31369191670326113 0.3536481379789816 0.22683964033954232
0.12382223032151253 0.27745658112568655 0.3297161257895292 0.22222052439374007
0.12899548864716187 0.3385211684244189 0.32184078419379486 0.2622396096552887
0.11220468751450792 0.30459446829917686 0.34740178020111057 0.23287175848876193
0.09758257508787717 0.3672559094596422 0.36966137194554954 0.2075571493963669
0.10579969580497943 0.36148104928097974 0.35715226419803087 0.24139374784074769
0.1316441640814136 0.3752113253424822 0.31780866144806186 0.2824883708623075
0.10099159031799695 0.3436288630001717 0.36447174284522005 0.26839280799341353
0.10699973693132511 0.187038359357991 0.35532534496841767 0.21691084014808756
0.09963686967259261 0.24537660434875028 0.36653402477768326 0.258704289032866
0.10908671108340857 0.29102231979180326 0.3521483395526244 0.24237808701427904
0.09684636881857589 0.33384411750314447 0.3707821017060082 0.2813044993045493
0.12672748483150809 0.36315557801752874 0.3252934266714751 0.20857314170024507
0.11447521273443617 0.31576633619445305 0.34394531369396175 0.23380803683746246
0.10003233451801859 0.27191401337330856 0.36593201050020696 0.25793157482054163
0.11333933317216151 0.3526544739107661 0.3456745031821738 0.24332505260445256
0.11162549773673203 0.3668984129706222 0.3482835186552578 0.21160549261263295
0.11892433676928306 0.37268719422647006 0.3371723361557036 0.2521747314519483
0.12143832745205826 0.3596577382610765 0.3333452270592142 0.22466734592442275
0.11644144484289536 0.29401541190143643 0.3409520661471907 0.23867030846543197
0.09605427537303196 0.21363990191325957 0.3719878749480202 0.2635062248662445
0.11272869267857218 0.24311414584088464 0.3466040508407981 0.2206539019159397
0.11102579732533269 0.22506268868988058 0.349196399031481 0.22314197606869346
0.10631713384036381 0.3261914369035976 0.3563645426275216 0.23439795579395045
0.11271375158758176 0.11991825588165847 0.34662673998760596 0.20785147970906237
0.11341447125568442 0.16372423111418044 0.3455600396018455 0.19466771768190588
0.1236374636398088 0.17861540438302603 0.32999735323981944 0.21811053582415132
0.10891198151682115 0.11173832349301686 0.3524142569894185 0.19918086950106628
0.1408057280302029 0.3492917113823341 0.3038617965100959 0.2819138116172698
0.11368090927960883 0.17606333401984786 0.34515444088409175 0.2199130799024177
0.13743654115185672 0.3374843002616287 0.30899078054589013 0.2989292922124801
0.13643779274369108 0.25774865881109804 0.3105111595608542 0.26310277713382135
0.13527942380794933 0.24434991250264426 0.31227456445652 0.23340441627939043
0.13889415085513662 0.1721082258391054 0.30677174859412426 0.2517878280804414
0.13883320754391087 0.2710838720786706 0.30686457161477165 0.2629242077670996
0.11572161419462834 0.21046314075434167 0.34204784599139765 0.1809822497196585
0.132571640706778 0.27476621767868387 0.3163966988189135 0.21197149003404578
0.13964186072015988 0.16092216603336437 0.30563348749838803 0.2429947660380865
0.1394851598074163 0.29375826103310865 0.3058721007869036 0.20631886118489506
