x y z curv
0.0 0.4228495353032525 0.49797192119659683 0.0
0.0 0.4572857519877853 0.631946666326438 0.0
0.0 0.2009255527259561 0.689525880556406 0.0
0.0 0.5313165814224268 0.7231556601300186 0.0
0.0 0.35561004130501817 0.7701245984448541 0.0
0.0 0.33312409061861253 0.7761062154682667 0.0
0.0 0.37766348612832434 0.7834494374083513 0.0
0.0 0.4353588976598243 0.5094043925124694 0.0
0.0 0.2450334787643852 0.5917215669396869 0.0
0.0 0.4389702217638904 0.35166734891184737 0.0
0.0 0.4235535749778974 0.3097026080720661 0.0
0.0 0.4584171873140537 0.38592523748965935 0.0
0.0 0.47351332363872484 0.3544812271817737 0.0
0.0 0.4030279740367201 0.5057778622843294 0.0
0.0 0.5203152516487026 0.5970645018503945 0.0
0.0 0.5525349488131628 0.5939201031102865 0.03464483653396516
0.0 0.38022659810306175 0.43760575100287846 0.0
0.0 0.42902847923653625 0.5867922980046253 0.0
0.0 0.3250150441357691 0.47644506305192164 0.0
0.0 0.24169526300875566 0.6755385591537809 0.0
0.0 0.4802273797696941 0.5864600360873542 0.0
0.0 0.45563066996452795 0.7610788664697764 0.0
0.0 0.4472917916896627 0.6630309094610455 0.0
0.0 0.16506008521318197 0.7120127461916522 0.0
0.0 0.31414657103305854 0.6296674804594304 0.0
0.0 0.48773655509984054 0.6305627074669324 0.0
0.0 0.3702267557711187 0.6936967244572732 0.0
0.0 0.34964988725754964 0.719930965816151 0.0
0.0 0.4265996578082052 0.670544039189378 0.0
0.0 0.4432959170728622 0.6319465348775093 0.0
0.0 0.13599190409113104 0.6719207863635966 0.0
0.0 0.38373724266613024 0.6195006663359255 0.0
0.0 0.5332079189849113 0.31352737861394603 0.0
0.0 0.39671753295639245 0.6112918585253845 0.0
0.0 0.48089665705850937 0.37802718075110797 0.0
0.0 0.5072349057556688 0.6796918555057818 0.0
0.0 0.45409034453928543 0.4550657530059429 0.0
0.0 0.5112352846127937 0.5368174085623421 0.0
0.0 0.4609573146426996 0.6719583479068597 0.0
0.0 0.5644796795849875 0.7563549138308746 0.0875164951357993
0.0 0.4026616797785423 0.41345605197365526 0.0
0.0 0.40539344968582514 0.4290115897109248 0.0
0.0 0.5110577752699926 0.7581613733618325 0.0
0.0 0.4708880203219197 0.2512599320690383 0.0
0.0 0.5336082924340835 0.7823515732973646 0.0
0.0 0.4119661026231761 0.5507643958682626 0.0
0.0 0.4446698250732586 0.48344166686053136 0.0
0.0 0.3904349723016272 0.3845138915919184 0.0
0.0 0.5491603368019232 0.6781147052405357 0.007897929256773744
0.0 0.5236231467799825 0.24400048172599187 0.00011925779434340201
0.0 0.4774512605937557 0.7633945089322827 0.0
0.0 0.5192570714067828 0.6340606392837457 0.0
0.0 0.5043283159533263 0.6489069896243065 0.0
0.0 0.2980479280723223 0.63637994455719 0.0
0.0 0.3771758280121114 0.7612327809192743 0.0
0.0 0.3973760189437502 0.5556912576259316 0.0
0.0 0.4800478765584703 0.2903278541754878 0.0
0.0 0.4517366280849296 0.7354725931385784 0.0
0.0 0.29870980154995036 0.4599843372404265 0.0
0.0 0.33546087595864976 0.7125249383661774 0.0
0.0 0.2644507756447825 0.5027112360528414 0.0
0.0 0.4048133395834987 0.36905595513753253 0.0
0.0 0.5529108805247116 0.5562814220828997 0.03986681607118286
0.0 0.5136841728691025 0.3110881350069761 0.0
0.0 0.45285990368739226 0.54873885597877 0.0
0.0 0.5070976545377177 0.6602285619657897 0.0
0.0 0.34740814081139226 0.6936473745150702 0.0
0.0 0.4842105985277983 0.2536243803012551 0.0
0.0 0.16979242491129343 0.6619767512066197 0.0
0.0 0.4903324921826729 0.41370649037589785 0.0
0.0 0.1727786551797183 0.6502380535862344 0.0
0.0 0.5155623721511882 0.7783010847858618 0.0
0.0 0.2723816273918262 0.5123298149279037 0.0
0.0 0.22179457790145057 0.6603544144310831 0.0
0.0 0.09675532204522884 0.7042097652848354 0.0
0.0 0.5301923684226605 0.6854816491158215 0.0
0.0 0.4302588569186537 0.3205765526714259 0.0
0.0 0.5031583269014791 0.262466132327911 0.0
0.0 0.3392171658170753 0.6834143235040472 0.0
0.0 0.28971798691627293 0.4838031521024825 0.0
0.0 0.32412809592066033 0.4371935847039136 0.0
0.0 0.4721243280561789 0.30100652142865614 0.0
0.0 0.4030641771692428 0.5271566714148783 0.0
0.0 0.36629669845097934 0.4791759120836745 0.0
0.0 0.30899498583278634 0.5596512893798016 0.0
0.0 0.32302385460163896 0.7562274539097811 0.0
0.0 0.2325759090525138 0.632455727837766 0.0
0.0 0.19511882665429717 0.6650391683976656 0.0
0.0 0.13608306312589946 0.6883893018384 0.0
0.0 0.19931004181258707 0.5741013568740971 0.0
0.0 0.4664268787051856 0.789438010757741 0.0
0.0 0.14607865045056573 0.7190901307001172 0.0
0.0 0.50075413465013 0.34827132331564187 0.0
0.0 0.4002181560806247 0.7292769555259205 0.0
0.0 0.46271644631512304 0.6481030437151654 0.0
0.0 0.4597192186262397 0.3371355739530345 0.0
0.0 0.5056931471646414 0.6149221918644665 0.0
0.0 0.5043702968048068 0.4195003629815667 0.0
0.0 0.5012943089768532 0.8069521413784657 0.0
0.0 0.49368193514989306 0.6588500479017154 0.0
0.0 0.3199294564833629 0.5444980310669779 0.0
0.0 0.13918575279751744 0.6168633042806142 0.0
0.0 0.5343381779969347 0.6976178625887618 0.0
0.0 0.22796779923711477 0.5887717473382483 0.0
0.0 0.30484260196103263 0.7446204739310796 0.0
0.0 0.24549663905676844 0.6294502580887995 0.0
0.0 0.4818619289445705 0.5318210946300106 0.0
0.0 0.437149582765207 0.7328057072754475 0.0
0.0 0.4981666013272015 0.4660550466846657 0.0
0.0 0.5196866788458145 0.28804383735822303 0.0
0.0 0.5501529739924521 0.6099375493531812 0.021124023600465874
0.0 0.37889880638890905 0.45269490146986835 0.0
0.0 0.4160107944556101 0.7076508696359076 0.0
0.0 0.524606683179721 0.7119738238786084 0.0
0.0 0.5326508302466479 0.3020452201961558 0.0
0.0 0.2399574290689226 0.5671005089928787 0.0
0.0 0.3588600900067354 0.7423693999837462 0.0
0.0 0.5366747590447699 0.7554727019830387 0.0
0.0 0.4429276075063371 0.47126333340901677 0.0
0.0 0.5491779230323537 0.5433005081070794 0.02659360517630272
0.0 0.5549721799283095 0.8235378770882895 0.05653498242232935
0.0 0.5250845809991185 0.42227779791558506 0.0
0.0 0.4834231027138118 0.6786856920318477 0.0
0.0 0.4931602814434255 0.27986424051246184 0.0
0.0 0.28362773936809405 0.6621238702845184 0.0
0.0 0.3943692383293184 0.34019885029815333 0.0
0.0 0.2855083567786328 0.7234955154513304 0.0
0.0 0.4554099365274433 0.4426235000878721 0.0
0.0 0.5428337012560769 0.37174244352452457 0.005178156021733491
0.0 0.4109062603051798 0.4922007471657306 0.0
0.0 0.5156730700788446 0.8193881396972177 0.03399526910370172
0.0 0.5053852824246825 0.3042592401960973 0.0
0.0 0.1785577959209771 0.638393161102231 0.0
0.0 0.3879204026541607 0.41524674188043803 0.0
0.0 0.37403193485363695 0.5948545103884697 0.0
0.0 0.4571694936307572 0.3616849058954729 0.0
0.0 0.43686062145627547 0.38200376862369523 0.0
0.0 0.3329497740524369 0.3899258415068306 0.0
0.0 0.5574460478397743 0.7461456704711258 0.04149109302534963
0.0 0.32055887467225525 0.42209992964991794 0.0
0.0 0.5432387272203025 0.43390945285632787 0.002429200165932348
0.0 0.5272401205695387 0.22107820514062007 0.05176067915760136
0.0 0.33570498609863975 0.6992917657171995 0.0
0.0 0.3264148362184973 0.489412608286407 0.0
0.0 0.30105732471144325 0.6216673302379774 0.0
0.0 0.2929195941379229 0.5250871317954418 0.0
0.0 0.3972539522596716 0.46192289640627276 0.0
0.0 0.4989835742110739 0.21951124137579944 0.0
0.0 0.41202770878189143 0.6392631322785021 0.0
0.0 0.42670933928585997 0.43845566019205295 0.0
0.0 0.3004524560564003 0.5115906695297289 0.0
0.0 0.542937725028346 0.6008263458765762 0.0005653598317573479
0.0 0.5366702276328303 0.5749082925847376 0.0
0.0 0.5031633898168255 0.6021163380490476 0.0
0.0 0.4878416753753244 0.5684123517763342 0.0
0.0 0.5345508544336176 0.26621913338960923 0.0
0.0 0.3775743014241101 0.6473241771490219 0.0
0.0 0.2623012996378506 0.5765124659451938 0.0
0.0 0.43102952935085526 0.2869807271970402 0.0
0.0 0.5157088052041644 0.35060646676789753 0.0
0.0 0.3304295333103753 0.5993942075418729 0.0
0.0 0.3599708951536619 0.5245646328753432 0.0
0.0 0.4544905535623564 0.5736780276047958 0.0
0.0 0.5128124966905833 0.3953816143816038 0.0
0.0 0.531040183824786 0.4668192998008419 0.0
0.0 0.28227309279036705 0.5182448011457957 0.0
0.0 0.20121734790450505 0.6270777174475737 0.0
0.0 0.4679054057382534 0.7154231939094837 0.0
0.0 0.47020595566869455 0.6601037030651142 0.0
0.0 0.2698211136441573 0.7149202917197595 0.0
0.0 0.5127609925938412 0.25414753699533577 0.0
0.0 0.3977911120794839 0.6570769910113222 0.0
0.0 0.3864170668560022 0.6624545259012462 0.0
0.0 0.3754439466152638 0.4001171616335847 0.0
0.0 0.19492063827686004 0.6768806233722009 0.0
0.0 0.5076004507132619 0.2290321547407356 0.0
0.0 0.539938182512113 0.7344859036763736 0.0
0.0 0.2565538838328808 0.6252790929954783 0.0
0.0 0.4859892456646249 0.24146689504295474 0.0
0.0 0.34255475176279937 0.7508476449942789 0.0
0.0 0.4288913480162427 0.6481484838968502 0.0
0.0 0.18209756459832432 0.5675713224132153 0.0
0.0 0.2881686580246323 0.4523982986279635 0.0
0.0 0.20601153785457826 0.5605346604668501 0.0
0.0 0.5362987496558542 0.47711397759481056 0.0
0.0 0.5113227946156931 0.7039717891930832 0.0
0.0 0.30826219113505327 0.6473245849345768 0.0
0.0 0.43778470352407883 0.3364666560276591 0.0
0.0 0.5578648468037042 0.6846484675968562 0.056960708121872136
0.0 0.2943882915367233 0.6051839703989286 0.0
0.0 0.35298108428579483 0.6697457708579448 0.0
0.0 0.3141298053125346 0.6959460641286844 0.0
0.0 0.4870642499473264 0.6051090458844521 0.0
0.0 0.34388034801190337 0.5357291110654704 0.0
0.0 0.5182440770692501 0.5855122925880777 0.0
0.0 0.22876123426218337 0.5016008702605387 0.0
0.0 0.29693329541826696 0.588759841251865 0.0
0.0 0.31057306507470944 0.5768274281388581 0.0
0.0 0.37352989079193377 0.5784669082174119 0.0
0.0 0.3855825468392524 0.3694727246508245 0.0
0.0 0.3925840379512132 0.49300439887216646 0.0
0.0 0.44537263210186595 0.43246246255268017 0.0
0.0 0.26511509244785864 0.6348950277721048 0.0
0.0 0.4722790038871915 0.5560411365498822 0.0
0.0 0.1913042865624694 0.6395137722864552 0.0
0.0 0.43886183678753843 0.580007900231658 0.0
0.0 0.23367556737196923 0.7047354997433718 0.0
0.0 0.11673059839772193 0.7078306351752824 0.0
0.0 0.516275813537494 0.49412894828689413 0.0
0.0 0.17934927109430795 0.7174974974903117 0.0
0.0 0.21856561993725485 0.6131639110056358 0.0
0.0 0.49591105497169585 0.7543319294228978 0.0
0.0 0.39129007123897863 0.5879610229536671 0.0
0.0 0.47370756699933414 0.48969013182634297 0.0
0.0 0.3148351613535156 0.4635886170337368 0.0
0.0 0.5132888077346189 0.20458807376577184 0.03782885451490858
0.0 0.47469126069529705 0.36682517218437394 0.0
0.0 0.30629992613589335 0.47298666088362584 0.0
0.0 0.283635296712116 0.5587006243295931 0.0
0.0 0.463095898487284 0.48695675305820446 0.0
0.0 0.4406777232660388 0.4992062871310879 0.0
0.0 0.4513819728908823 0.7068539624783499 0.0
0.0 0.37007180642694454 0.7301516937590817 0.0
0.0 0.32729824986619477 0.7402966600918313 0.0
0.0 0.34534055578406064 0.5667458814862685 0.0
0.0 0.47683743090109165 0.5675689136810681 0.0
0.0 0.36416067567984856 0.510373194469637 0.0
0.0 0.4798489638789286 0.6941910703430486 0.0
0.0 0.23747478872352573 0.722561287971048 0.0
0.0 0.27480786362467136 0.6194382216073511 0.0
0.0 0.4195376583803029 0.7957678332443624 0.0
0.0 0.3534316178120134 0.3973340419137023 0.0
0.0 0.4900771826828098 0.5807058716857489 0.0
0.0 0.40948221761493797 0.4456820509694853 0.0
0.0 0.4661250463705138 0.7677370359754824 0.0
0.0 0.2883920181474218 0.6245566603635632 0.0
0.0 0.26713688884086534 0.5507310048893435 0.0
0.0 0.4923505787282699 0.2930774195362107 0.0
0.0 0.5498808060262597 0.6504179497353058 0.029309126060561703
0.0 0.5249467817823393 0.2071259346648684 0.08220651151508664
0.0 0.4287498115197441 0.4790173231595459 0.0
0.0 0.39689873179325874 0.5759139237417128 0.0
0.0 0.18573676730792066 0.6502948733395595 0.0
0.0 0.3376213571873057 0.4729051754354296 0.0
0.0 0.3956954604002577 0.3947387994265548 0.0
0.0 0.5285767745223867 0.5009448155908474 0.0
0.0 0.20891787572886955 0.5894607566959154 0.0
0.0 0.2516636044050292 0.5779203936821004 0.0
0.0 0.4375460984999546 0.6547288039123513 0.0
0.0 0.43064340364903403 0.372336896585384 0.0
0.0 0.35354488402023254 0.49686914624136674 0.0
0.0 0.3614029925838054 0.720526367974685 0.0
0.0 0.5087374229297522 0.6363184297131258 0.0
0.0 0.5128993524150256 0.7443420069364016 0.0
0.0 0.36189769191053145 0.4049231965087089 0.0
0.0 0.2875330106704688 0.5050094445647806 0.0
0.0 0.35921194493118014 0.6785666120774543 0.0
0.0 0.35430803138438316 0.4612948004459135 0.0
0.0 0.2579465111074553 0.525878487575462 0.0
0.0 0.13546192155755674 0.6608663779725223 0.0
0.0 0.31771626035130657 0.6574079935338746 0.0
0.0 0.47221434243737737 0.6761928034323199 0.0
0.0 0.456762847925931 0.3110716685676484 0.0
0.0 0.25470190399531845 0.6686371350223472 0.0
0.0 0.4526404452049813 0.4205509880952393 0.0
0.0 0.4921506662115607 0.6897124580626703 0.0
0.0 0.22069543540417902 0.72169864291673 0.0
0.0 0.4870775482346068 0.3294362852347376 0.0
0.0 0.4488690798457536 0.2735155177038794 0.0
0.0 0.2308586356231861 0.6184942829799367 0.0
0.0 0.2856729620252618 0.5338120940160949 0.0
0.0 0.1509130553801349 0.7068857410666113 0.0
0.0 0.3593963057015323 0.5800162122730029 0.0
0.0 0.389997030681992 0.7767693302986761 0.0
0.0 0.2610022486018793 0.7503723758395302 0.0
0.0 0.4371528348971492 0.7733690922458024 0.0
0.0 0.5547483072557711 0.7758543102678863 0.04341064286004169
0.0 0.3127294872831796 0.5066652367642932 0.0
0.0 0.4887684534259398 0.7431194534140042 0.0
0.0 0.4209672342732273 0.4236162652169674 0.0
0.0 0.37491850449033604 0.46441851304540943 0.0
0.0 0.47056313598242433 0.6324678985771943 0.0
0.0 0.40377945501143464 0.7156346804389122 0.0
0.0 0.5261355032809708 0.7454825729403753 0.0
0.0 0.5274737754694814 0.8304310003355212 0.06508308689485195
0.0 0.37055503505865545 0.5665187276145374 0.0
0.0 0.1583800338110067 0.7246345182730278 0.0
0.0 0.5381674374377081 0.547116222104632 0.0
0.0 0.19132451063209496 0.6071673508435798 0.0
0.0 0.5299767190110056 0.19575280699286313 0.08724182909897917
0.0 0.41504718484822256 0.676993240851687 0.0
0.0 0.15319178737004163 0.5817155108114771 0.0
0.0 0.3687787245618642 0.6238321092502139 0.0
0.0 0.5262244128761546 0.25423743141035815 0.0
0.0 0.06377102432494601 0.6866288249229201 0.04719248949734196
0.0 0.4698185736863919 0.3148596311612093 0.0
0.0 0.4598694796418413 0.26711052131400675 0.0
0.0 0.5005816938574269 0.5270711171302209 0.0
0.0 0.41267183353318615 0.7336368076512755 0.0
0.0 0.15061309460949596 0.6796581432330744 0.0
0.0 0.5195502582647946 0.41098247241997965 0.0
0.0 0.5222616731477655 0.7958969582944813 0.0
0.0 0.20783501332271498 0.7092166430450932 0.0
0.0 0.40064172332348 0.7700162706550073 0.0
0.0 0.5360508667096113 0.3254949471615879 0.0
0.0 0.282756811047182 0.6778461152666365 0.0
0.0 0.3949090392395429 0.6391979948458759 0.0
0.0 0.23653204483986442 0.5503909906653711 0.0
0.0 0.5017663226206243 0.47831596555987665 0.0
0.0 0.4220742707748255 0.4497969983257132 0.0
0.0 0.22652804340007132 0.5620541855981561 0.0
0.0 0.5105250045060785 0.2405524906323388 0.0
0.0 0.25508332310428095 0.7309012758214595 0.0
0.0 0.4680699133365098 0.5945727094717519 0.0
0.0 0.21087593054262824 0.7282370599483741 0.0
0.0 0.111904515111869 0.6884680494237144 0.0
0.0 0.3691041892668469 0.7704290511962203 0.0
0.0 0.21846341471861744 0.5542476841133528 0.0
0.0 0.4558333638436767 0.28305575509265696 0.0
0.0 0.20709421851392262 0.5444485149711648 0.0
0.0 0.19187189759998552 0.5626184946709872 0.0
0.0 0.5072570515617836 0.2923055346801705 0.0
0.0 0.46737821134782903 0.5802188068563129 0.0
0.0 0.137949049754581 0.6452140872828347 0.0
0.0 0.33278369974487265 0.4472255569480697 0.0
0.0 0.3786634730006073 0.7139874078660979 0.0
0.0 0.47454561708306225 0.2623485712822895 0.0
0.0 0.48488778735007554 0.7982713786092621 0.0
0.0 0.4884726653027343 0.7301861673796263 0.0
0.0 0.45593649323886554 0.4673620598350427 0.0
0.0 0.4990799444670674 0.6254850853646714 0.0
0.0 0.5608442373682571 0.8374056482943842 0.09019547877899141
0.0 0.28703795100857843 0.647311740696414 0.0
0.0 0.44325165824516666 0.7489658514092596 0.0
0.0 0.27047357203853806 0.6734836284898157 0.0
0.0 0.15585770830246695 0.6002780986528031 0.0
0.0 0.383931719377652 0.48311763107595346 0.0
0.0 0.20964126268038974 0.6757133526979391 0.0
0.0 0.36369953042332925 0.6035403970611993 0.0
0.0 0.452932343631763 0.3758084902807759 0.0
0.0 0.4741896488152356 0.6481395730538354 0.0
0.0 0.48011686474451715 0.27419553545639697 0.0
0.0 0.48602769641337507 0.3640552874150973 0.0
0.0 0.4451420225279075 0.7156674010955957 0.0
0.0 0.33988286461825756 0.6499652465074636 0.0
0.0 0.1709202142662146 0.6300118282704559 0.0
0.0 0.3251273793778315 0.5763420343251617 0.0
0.0 0.48417531399675023 0.8174139854035545 0.026974932884260647
0.0 0.5374261365215564 0.7083405434233986 0.0
0.0 0.12548252720918926 0.6128013626254099 0.0
0.0 0.5484311544136709 0.5153545554571337 0.013212633489221767
0.0 0.38449080812341124 0.7348290388478331 0.0
0.0 0.5277902347497079 0.38708927571825513 0.0
0.0 0.48661006991779265 0.34509635942354266 0.0
0.0 0.0815123562893399 0.687535734723399 0.00933029183323853
0.0 0.5094482877168869 0.5181712873330324 0.0
0.0 0.5608843422666311 0.7320469293942943 0.08413506408545715
0.0 0.4079031718459001 0.45998708138175415 0.0
0.0 0.5313463445639787 0.6352704735471634 0.0
0.0 0.32128906023829934 0.645161589125059 0.0
0.0 0.3510651239967104 0.61093626167708 0.0
0.0 0.07138119736091633 0.69547284074721 0.04690998179198307
0.0 0.4738455676450506 0.7044997760979278 0.0
0.0 0.4349902924691429 0.598748690611882 0.0
0.0 0.29939116824153766 0.7015234170229119 0.0
0.0 0.4269516772800291 0.4631056560844804 0.0
0.0 0.11876815254291151 0.6722937873516446 0.0
0.0 0.22706019126629384 0.6005845321031041 0.0
0.0 0.4690877860529283 0.4641927605690663 0.0
0.0 0.258461930807345 0.6860638967123374 0.0
0.0 0.4711323499883846 0.3275544337738902 0.0
0.0 0.46237098223053524 0.6995956067285845 0.0
0.0 0.4109998301934578 0.31213882029904405 0.0
0.0 0.159419987318636 0.6312605229217995 0.0
0.0 0.2508801945323964 0.6570067197251392 0.0
0.0 0.45920875091972124 0.6893290583083508 0.0
0.0 0.38903539659289665 0.5061943567757091 0.0
0.0 0.36793370803345515 0.42685948936015317 0.0
0.0 0.5246448599480478 0.6482660613760751 0.0
0.0 0.32355711536020626 0.6715092840126248 0.0
0.0 0.513649777493045 0.32401606887535656 0.0
0.0 0.46812222585911806 0.7373451667768924 0.0
0.0 0.4246901325134666 0.7689765862167208 0.0
0.0 0.4319171740142328 0.7867693482743003 0.0
0.0 0.48920765565355406 0.5219668171726779 0.0
0.0 0.5441690734993613 0.45112243966204196 0.00983609300878097
0.0 0.3080006535890012 0.6129316592384607 0.0
0.0 0.4223719617369996 0.39454089220577115 0.0
0.0 0.5317082542334656 0.36528175923745543 0.0
0.0 0.5329781547949854 0.343543071101429 0.0
0.0 0.5668461492929084 0.812067269841954 0.06431961235484288
0.0 0.4714653205143904 0.7484098478016485 0.0
0.0 0.3768073644437023 0.7481118720501253 0.0
0.0 0.5243911964104688 0.5528761831818414 0.0
0.0 0.38886159989108027 0.47253056128606286 0.0
0.0 0.3224063183220077 0.7032296826313962 0.0
0.0 0.3284907973291903 0.4637109400873095 0.0
0.0 0.4879751770308891 0.7848172373914821 0.0
0.0 0.5578960529269013 0.8033212008505671 0.057625159167034395
0.0 0.521670171581855 0.3392717899635055 0.0
0.0 0.35906461200380424 0.6918165415516782 0.0
0.0 0.42672404194651653 0.703630226480004 0.0
0.0 0.4764590388974458 0.623292081960544 0.0
0.0 0.2802404835900011 0.735313139092423 0.0
0.0 0.5206097213534746 0.45959033529702287 0.0
0.0 0.05067713817709855 0.3910040992090901 0.039154598653563605
0.0 0.44232789094808994 0.1733101792898373 0.0
0.0 0.04077593450335833 0.026419606668719793 0.08151308259125027
0.0 0.1774725875335436 0.2075494250752781 0.0
0.0 0.1752671110898297 0.2764590806444867 0.0
0.0 0.4133216391453029 0.2343646125772249 0.0
0.0 0.2619537770159459 0.14025058676436114 0.0
0.0 0.19496080021363552 0.14004575001081573 0.0
0.0 0.3541785024828517 0.3581475701206871 0.0
0.0 0.29693563380748567 0.12695355538254127 0.0
0.0 0.1197398727668439 0.33863229155222124 0.0
0.0 0.23439850614741814 0.296021936003416 0.0
0.0 0.06599166479262264 0.13253355869546937 0.0
0.0 0.03973765909834797 0.37103276820961806 0.06505482155129326
0.0 0.27402773671814584 0.37180305114306034 0.0
0.0 0.2720223754124934 0.389622071875885 0.0
0.0 0.05957394325279311 0.37228213663342197 0.0044030654989876475
0.0 0.2975178054779674 0.32463350042977734 0.0
0.0 0.23768620755430167 0.3202843012709327 0.0
0.0 0.2582667549380417 0.3935892437024414 0.0
0.0 0.24464306951592343 0.2414671326246748 0.0
0.0 0.2825271728891516 0.2627545300773956 0.0
0.0 0.10609408382812457 0.5903935517251525 0.0
0.0 0.2663718356165426 0.33719719484649724 0.0
0.0 0.08573393640403798 0.6044846782595349 0.0
0.0 0.2332974062370906 0.36017126975380986 0.0
0.0 0.04209145741077029 0.3312690128890006 0.0536869509153896
0.0 0.1677621627824498 0.3191385492031279 0.0
0.0 0.4184458607112301 0.29568161676992144 0.0
0.0 0.0751996286627508 0.4552971040458215 0.0
0.0 0.11146629162183472 0.15228073778887138 0.0
0.0 0.23644543050693637 0.41881988344035764 0.0
0.0 0.12833482102736998 0.5534255191377444 0.0
0.0 0.09610110646206632 0.5400351709618137 0.0
0.0 0.23644019952388112 0.307354667239836 0.0
0.0 0.42110598385613335 0.20351076389877754 0.0
0.0 0.09679835332850831 0.6388109699160321 0.0
0.0 0.12470777088593504 0.5985758022432559 0.0
0.0 0.23033209995958237 0.16535255981779112 0.0
0.0 0.2095804604315466 0.48600453042554237 0.0
0.0 0.4609531731235007 0.21320466963486578 0.0
0.0 0.3299569688215028 0.144213490175141 0.0
0.0 0.05761018086357941 0.21987363509429214 0.005398435301949106
0.0 0.21927247081942128 0.23786628136231885 0.0
0.0 0.2345780741033561 0.14776371584946055 0.0
0.0 0.12439399169912721 0.47608358285498764 0.0
0.0 0.1158306841231143 0.5085211631718463 0.0
0.0 0.32629303818132477 0.29332976704446173 0.0
0.0 0.09192042699478618 0.582892174503779 0.0
0.0 0.15769844341174208 0.2225473790166549 0.0
0.0 0.1304696823313423 0.5691606848971174 0.0
0.0 0.07260444951944148 0.3928459632342851 0.0
0.0 0.3412881933186507 0.21829763803860847 0.0
0.0 0.4290823030999158 0.21977373667580585 0.0
0.0 0.20107248256432875 0.2500209873209404 0.0
0.0 0.43427389060130045 0.18183712130399557 0.0
0.0 0.06949140182567136 0.04700418179647326 0.0
0.0 0.27184063985903995 0.4350551544165708 0.0
0.0 0.29110899050540795 0.2881709750650846 0.0
0.0 0.10679754511176823 0.5643727492592095 0.0
0.0 0.08873817758069841 0.5521932984025206 0.0
0.0 0.05918765808019801 0.20428095098728877 0.001967702091710685
0.0 0.25398822910546826 0.2756884201597539 0.0
0.0 0.21181969047714638 0.10077472879341619 0.0
0.0 0.08184708823137135 0.6156397680082685 0.0
0.0 0.3029031240274921 0.18513741560293792 0.0
0.0 0.1689904246258071 0.40484122450206034 0.0
0.0 0.2001129003199813 0.2979724428714504 0.0
0.0 0.1322295860705112 0.37324900547241496 0.0
0.0 0.34207840530888595 0.2856886344327738 0.0
0.0 0.24513421534274002 0.28382289879208644 0.0
0.0 0.12951260871595363 0.10531766443116802 0.0
0.0 0.4361390046130481 0.2727582149508748 0.0
0.0 0.18835386575234708 0.3775596933475161 0.0
0.0 0.3627986471760317 0.21596328548492028 0.0
0.0 0.17109517875072155 0.5568631441843876 0.0
0.0 0.2476318523166518 0.3871881110657725 0.0
0.0 0.4344126204009852 0.16098556760660745 0.0
0.0 0.21507803950044646 0.2501104836007815 0.0
0.0 0.04531681369348385 0.27815130602248683 0.03530348902357405
0.0 0.32409136391315274 0.15596172340525397 0.0
0.0 0.2707250147056964 0.16713769619372576 0.0
0.0 0.11969522716528931 0.16161182594506168 0.0
0.0 0.16166089111005372 0.5660119186314417 0.0
0.0 0.2697454809025926 0.19432008199167422 0.0
0.0 0.20384675868235522 0.1658009330617139 0.0
0.0 0.5037441692771971 0.18584859486011612 0.03436744127033704
0.0 0.051577939197812686 0.1483775305787409 0.0250253616497259
0.0 0.24216810802987532 0.3757303556622971 0.0
0.0 0.055677981795040084 0.4326153821078513 0.02604719198317272
0.0 0.4522655212954411 0.19273111066941317 0.0
0.0 0.2753315260719732 0.44663240269476695 0.0
0.0 0.12318761431776273 0.23644517970044654 0.0
0.0 0.24781333300185865 0.1435610704037661 0.0
0.0 0.35464328509079673 0.24404005598253797 0.0
0.0 0.22529520915065918 0.3413651576647483 0.0
0.0 0.1218607424209006 0.07876893878272781 0.0
0.0 0.24407393444128603 0.1809104583796744 0.0
0.0 0.15595863018944625 0.23629657233756415 0.0
0.0 0.08190064253754753 0.27920759127744454 0.0
0.0 0.17442017107250993 0.3452023158244639 0.0
0.0 0.18365721873025279 0.08554000938368828 0.0
0.0 0.3200538187718303 0.1689004364380673 0.0
0.0 0.1994562835352447 0.47287039913792606 0.0
0.0 0.24659784802641802 0.21573888136605723 0.0
0.0 0.14600487144145283 0.29596928358243957 0.0
0.0 0.2940914583780049 0.3447245969929399 0.0
0.0 0.12688011002182822 0.12938757586413652 0.0
0.0 0.05793038899774474 0.3341337943910743 0.0
0.0 0.0956964343709456 0.5270074792665538 0.0
0.0 0.23555989528436314 0.4531897159851426 0.0
0.0 0.10786744523175765 0.37397968165958384 0.0
0.0 0.25460220643216663 0.08200900660854403 0.0
0.0 0.2960778385553561 0.39963540504406414 0.0
0.0 0.485375552083764 0.21376679463804205 0.0
0.0 0.24794366248430172 0.31104852942012956 0.0
0.0 0.3766917578202445 0.2208261118725941 0.0
0.0 0.0715419100457438 0.08063430117567817 0.0
0.0 0.17682760722575142 0.2610003737577203 0.0
0.0 0.2773027279300842 0.2905565928522853 0.0
0.0 0.28253370493227953 0.10265043445814756 0.0
0.0 0.09814472777917391 0.3800381186422995 0.0
0.0 0.043742994331552085 0.5726471822668423 0.03390575876758108
0.0 0.31099758217466184 0.3207090810177895 0.0
0.0 0.14068061899381828 0.18602873039270298 0.0
0.0 0.18159629971645694 0.10526464481520642 0.0
0.0 0.06573165470346848 0.32645292201818615 0.0
0.0 0.1952003326196361 0.2879030320194547 0.0
0.0 0.4155631132841155 0.28321890042410025 0.0
0.0 0.25299005791604884 0.23116409867437251 0.0
0.0 0.11588486581185325 0.19917571615823706 0.0
0.0 0.24924100161531226 0.323186516119531 0.0
0.0 0.3905263101011554 0.2051664804807214 0.0
0.0 0.14644835830805727 0.08654468589862341 0.0
0.0 0.20365000323810994 0.09099932942302136 0.0
0.0 0.2862825583837676 0.4374619939791212 0.0
0.0 0.09669095758023 0.02733918750780784 0.042603873688718014
0.0 0.24353701435823186 0.47893993172659616 0.0
0.0 0.11078593738914704 0.49685905387846646 0.0
0.0 0.36095307247980823 0.18783319840706983 0.0
0.0 0.10809385940150085 0.33999599723584617 0.0
0.0 0.09666047461727131 0.26970886496760166 0.0
0.0 0.2788028607602495 0.20260793277312053 0.0
0.0 0.05337708878482286 0.5852144002392005 0.02578151731237943
0.0 0.2650015772767523 0.32555977717585516 0.0
0.0 0.31315153158734826 0.26370403136957116 0.0
0.0 0.3518828931816391 0.3143164455676659 0.0
0.0 0.22004399198609736 0.11085989533351076 0.0
0.0 0.09396406787326993 0.4572362501551944 0.0
0.0 0.13575416715825822 0.08260059040875142 0.0
0.0 0.26112902895212586 0.3744407635696476 0.0
0.0 0.17043543320182739 0.5191745138175522 0.0
0.0 0.20375968240983383 0.27474099756072545 0.0
0.0 0.32546695634925965 0.19605599591953415 0.0
0.0 0.16306849212418012 0.38370588351998985 0.0
0.0 0.39882632344989855 0.28145029749143646 0.0
0.0 0.1524574765520464 0.38625481718295557 0.0
0.0 0.16054810713838183 0.09612315732083002 0.0
0.0 0.07072559756618373 0.03333260421448582 0.005726303454059467
0.0 0.08311441583364232 0.0651274548052183 0.0
0.0 0.08844825120288839 0.5149473833012008 0.0
0.0 0.08975926709687812 0.5652570577235871 0.0
0.0 0.11180715140090938 0.6189579326396735 0.0
0.0 0.29576490170314235 0.0974151886359364 0.0
0.0 0.36698736766275153 0.3327975334208415 0.0
0.0 0.23835609630563412 0.489698675251215 0.0
0.0 0.11598926540149301 0.21381661906092722 0.0
0.0 0.21767992431408453 0.422420453952105 0.0
0.0 0.4190887817748492 0.18233575346782052 0.0
0.0 0.06338776931465281 0.25218533766443846 0.0
0.0 0.14435973836490767 0.23815693293599433 0.0
0.0 0.118055436074292 0.584027253262999 0.0
0.0 0.2770517400120022 0.4030222186619882 0.0
0.0 0.3759134043872529 0.2645345684056034 0.0
0.0 0.3770336115592174 0.23218562800196801 0.0
0.0 0.4529854974837414 0.1813589462522216 0.0
0.0 0.39222222669426376 0.266190543951875 0.0
0.0 0.04824142035674311 0.6005647614606564 0.034933763074208916
0.0 0.23327313979952685 0.442188171449208 0.0
0.0 0.11451233578243053 0.5735430992785076 0.0
0.0 0.029350969210993172 0.14539194061807548 0.06398602971982002
0.0 0.46081182213501043 0.15496137335677226 0.0
0.0 0.12640466870435213 0.4300937636581707 0.0
0.0 0.19263833904476946 0.5223428278058323 0.0
0.0 0.32048016280762853 0.24978295347161095 0.0
0.0 0.15457831644942369 0.17411206068564866 0.0
0.0 0.13498918169104243 0.27899924022170464 0.0
0.0 0.0340481968602075 0.0350654861641051 0.0747777859532698
0.0 0.2916222901746787 0.37281411289592703 0.0
0.0 0.2864893750576178 0.35428812057006737 0.0
0.0 0.1275631237962658 0.4443573413971288 0.0
0.0 0.1162768223669358 0.10096525788737473 0.0
0.0 0.16408137223318853 0.48049744863480603 0.0
0.0 0.25705906658247335 0.4119463752032325 0.0
0.0 0.07965630535514066 0.6522472326364248 0.0
0.0 0.20413234115755158 0.41720327353547526 0.0
0.0 0.3120170109176078 0.3322229812730486 0.0
0.0 0.39863095622499717 0.30922405684695015 0.0
0.0 0.06928067332583078 0.0922187314695458 0.0
0.0 0.041661827072477155 0.22620810217147813 0.05531144280619055
0.0 0.12501775961830855 0.304063626997444 0.0
0.0 0.18226225319124165 0.36288620744120004 0.0
0.0 0.15169982316671068 0.12053961492228259 0.0
0.0 0.1384924367995744 0.33423124545853466 0.0
0.0 0.2283203261220705 0.19512067160490723 0.0
0.0 0.1823337746385959 0.44476665885476574 0.0
0.0 0.22208461151811948 0.17515497325656448 0.0
0.0 0.05026206580207288 0.662278180382517 0.026039565560512023
0.0 0.2264718137748069 0.4763021179605574 0.0
0.0 0.10013880715003988 0.1936952807084019 0.0
0.0 0.09266422970536414 0.3969856931380442 0.0
0.0 0.13567338826352396 0.5818574219472485 0.0
0.0 0.033739344380667204 0.0648988942205197 0.09529413549194168
0.0 0.05247858323028418 0.06109551091864898 0.012209095447382474
0.0 0.46500356714599206 0.17722447332007019 0.0
0.0 0.1775386555661472 0.4135026175217083 0.0
0.0 0.03232208335202253 0.23657582899819063 0.0923077787231881
0.0 0.23985332236330073 0.08581390010705336 0.0
0.0 0.4003686470102805 0.22802681424790988 0.0
0.0 0.35748293153996324 0.17523610074727822 0.0
0.0 0.07968820328025318 0.33506916060488506 0.0
0.0 0.21196104724322026 0.3378405684436566 0.0
0.0 0.4030126815810008 0.2630842517085611 0.0
0.0 0.3512572888988705 0.16436294673357987 0.0
0.0 0.11062610983248586 0.32795826930579824 0.0
0.0 0.12877792268105556 0.29206110333194113 0.0
0.0 0.13930952420423073 0.26145528521055916 0.0
0.0 0.07903459935475218 0.3481800691484429 0.0
0.0 0.10365209141779064 0.1735964568844019 0.0
0.0 0.1776849695797331 0.4809963669172258 0.0
0.0 0.40337388401046187 0.17388510968890852 0.0
0.0 0.07833843218315092 0.5595358614867669 0.0
0.0 0.14826522732536057 0.3655135491304842 0.0
0.0 0.14985139724375232 0.05598812052856631 0.0
0.0 0.26724472427992213 0.3006852529111023 0.0
0.0 0.2608039963992278 0.09705328500690108 0.0
0.0 0.18906637405290197 0.12683257226230943 0.0
0.0 0.27772429295875317 0.23937139499224452 0.0
0.0 0.21797601577049072 0.16451666733442505 0.0
0.0 0.13831445693621808 0.12504851462725122 0.0
0.0 0.04808610686554052 0.21343618336955694 0.031030055043426836
0.0 0.4260077099575046 0.14626863659094824 0.0
0.0 0.1618550315764064 0.050926226338762454 0.0
0.0 0.46185697827227373 0.2411219049698565 0.0
0.0 0.34365946725143304 0.3390333671702359 0.0
0.0 0.08129192995981337 0.6407786817271298 0.0
0.0 0.08290289457172731 0.5755578509607611 0.0
0.0 0.34240676182974933 0.24740398171116165 0.0
0.0 0.17037952801107492 0.08720889701718648 0.0
0.0 0.2741708556942934 0.13253336556579556 0.0
0.0 0.07024948020471261 0.309217361485299 0.0
0.0 0.21067351681862073 0.23122526680117952 0.0
0.0 0.22492779555593864 0.10020177632533162 0.0
0.0 0.07331447212706763 0.28948701241576225 0.0
0.0 0.46871533933541576 0.20021580250746443 0.0
0.0 0.14043213314709177 0.5154221092397653 0.0
0.0 0.46476192174146913 0.16565796799074728 0.0
0.0 0.05633890720579533 0.519609031222779 0.003117249123989474
0.0 0.07104516926900122 0.19368710302547484 0.0
0.0 0.35545499697303207 0.28465877696410513 0.0
0.0 0.12405234943807258 0.27355700837592767 0.0
0.0 0.3623113408218921 0.1350952319906614 0.0
0.0 0.14545388710914478 0.40975529386963105 0.0
0.0 0.41220998656576446 0.2203495489238706 0.0
0.0 0.46962182825847076 0.22150332021836686 0.0
0.0 0.1648403846645202 0.11582419280439216 0.0
0.0 0.22300079232430678 0.21999038081681896 0.0
0.0 0.29956750291106243 0.1467199131746323 0.0
0.0 0.12966786041741413 0.4073594349580567 0.0
0.0 0.10561924138683616 0.5146827996989631 0.0
0.0 0.2235430749257023 0.1360059562733669 0.0
0.0 0.17009173492374635 0.23834528598898072 0.0
0.0 0.3921226046242568 0.1687416761602344 0.0
0.0 0.07770497845041102 0.469755181332249 0.0
0.0 0.2197279279626209 0.32226966047342526 0.0
0.0 0.10254231599708487 0.3628515437718576 0.0
0.0 0.09019525915381586 0.11939789821988533 0.0
0.0 0.36346496878989226 0.1613003901535108 0.0
0.0 0.05030733712665298 0.36407487794348353 0.027895702145032536
0.0 0.28816758272395193 0.11204659307756167 0.0
0.0 0.3685843153127176 0.29094699530650625 0.0
0.0 0.10076252994404641 0.4234623154829318 0.0
0.0 0.3411198594277358 0.3051829347573435 0.0
0.0 0.06824357935274507 0.24009987043405118 0.0
0.0 0.11117407352926326 0.06457698259233188 0.0
0.0 0.38119746623183676 0.27442519549367794 0.0
0.0 0.3404957592038972 0.26490864117512747 0.0
0.0 0.48290750680209765 0.17480112943913348 0.0
0.0 0.21480004992291285 0.08862811976251643 0.0
0.0 0.19295309352654763 0.3666168273188655 0.0
0.0 0.36192590554412696 0.30727109093905014 0.0
0.0 0.04226226513642451 0.49221232159985934 0.056697933294848485
0.0 0.31412246559148804 0.17821686755610155 0.0
0.0 0.3192427910714304 0.3652784533278861 0.0
0.0 0.09465542152547785 0.232079332300645 0.0
0.0 0.18369326077265644 0.507942092239102 0.0
0.0 0.3411003069368011 0.3675132814675611 0.0
0.0 0.1007906588962468 0.3121332194463656 0.0
0.0 0.1275530581332969 0.20271063518124338 0.0
0.0 0.08858379617227732 0.31365454156546413 0.0
0.0 0.1541410748099055 0.2579354068700589 0.0
0.0 0.32114313159146807 0.30650689396755254 0.0
0.0 0.14089402633303894 0.20298225714194917 0.0
0.0 0.40534971400110353 0.29427965658730815 0.0
0.0 0.20295593613081028 0.40620998017945464 0.0
0.0 0.2072930560515268 0.3816498184888734 0.0
0.0 0.07748669681847646 0.132482912643822 0.0
0.0 0.19481668097009797 0.43569246583730403 0.0
0.0 0.1712914687561265 0.35867871265973833 0.0
0.0 0.3110607423331118 0.2367365435928348 0.0
0.0 0.39918718010600596 0.24656420662453418 0.0
0.0 0.08149606555925186 0.42465619026015783 0.0
0.0 0.07444639276455248 0.48515811608739934 0.0
0.0 0.14431148025155316 0.5018680884568968 0.0
0.0 0.0594760870563187 0.162037892879847 5.2269100505499604e-05
0.0 0.06343792000303007 0.6580293334512318 0.0
0.0 0.14165387734321888 0.06721716562574491 0.0
0.0 0.18578750301848362 0.4708087460549316 0.0
0.0 0.32718321310359616 0.3270873092537854 0.0
0.0 0.044677926708816484 0.5409666420458188 0.04340524875336387
0.0 0.4386144044648101 0.14863084359847478 0.0
0.0 0.28217813663211555 0.30595644587095266 0.0
0.0 0.10177520328472059 0.1158088609514204 0.0
0.0 0.05732114088814272 0.6273295611863241 0.01158451926483229
0.0 0.2144051554340174 0.4754653383735358 0.0
0.0 0.1898264535201375 0.49301477779976555 0.0
0.0 0.25072806097960093 0.3455202910927528 0.0
0.0 0.054144217570620636 0.11587749638906188 0.01906932316018255
0.0 0.05810081746725338 0.3155615181689667 0.005660622702902934
0.0 0.20867790868404112 0.21479933875503732 0.0
0.0 0.18075620054874594 0.22471473349276408 0.0
0.0 0.19968712975032316 0.5132537756595276 0.0
0.0 0.2816491448435524 0.18595305170629312 0.0
0.0 0.1969681586395992 0.1951477004407038 0.0
0.0 0.061910958035472176 0.38884873087124516 0.0
0.0 0.04631919969621054 0.5603704695870152 0.044920172236232854
0.0 0.4058807699407978 0.14181120330932792 0.0
0.0 0.24347265948750943 0.11616549405381581 0.0
0.0 0.3442269894244433 0.13212999617464982 0.0
0.0 0.10230633842332149 0.5752119989877836 0.0
0.0 0.308189748971771 0.12890478678367648 0.0
0.0 0.3761347394234896 0.3020466915151522 0.0
0.0 0.43084595038378304 0.25714767531478927 0.0
0.0 0.06750515755527162 0.46302030453077514 0.0
0.0 0.1417754782292323 0.15176635821980833 0.0
0.0 0.06492247939079482 0.28051925524487603 0.0
0.0 0.06440134384226476 0.6358851424729314 0.0
0.0 0.0364600960951427 0.07637069675300842 0.08221198397727332
0.0 0.1972259785890995 0.11392365802851746 0.0
0.0 0.21256558758320576 0.39618033669213903 0.0
0.0 0.33312683523170983 0.25319699359054404 0.0
0.0 0.24390624402327452 0.2600427487167234 0.0
0.0 0.07979346370800229 0.37509109819932634 0.0
0.0 0.3221219875238459 0.28187965721911595 0.0
0.0 0.08534974981260733 0.49664565591120363 0.0
0.0 0.4268378090444503 0.172328004602386 0.0
0.0 0.32759249839487126 0.3789940439865457 0.0
0.0 0.12126245251244364 0.37642874964057765 0.0
0.0 0.09430542228633147 0.16325539448299226 0.0
0.0 0.07569549155330936 0.628987617923811 0.0
0.0 0.09567147609779578 0.24695775773615075 0.0
0.0 0.09292991079015202 0.2103731651050598 0.0
0.0 0.13575492859491087 0.13968576337243216 0.0
0.0 0.04112464582781333 0.12164611208265456 0.059726224608946096
0.0 0.3583701672758814 0.20129591361578558 0.0
0.0 0.441541892952627 0.19947144111260565 0.0
0.0 0.17572201110300997 0.07057387048382249 0.0
0.0 0.23829641099933016 0.2753243815588112 0.0
0.0 0.3128316463144498 0.40924208749484364 0.0
0.0 0.03578093464009812 0.2960804641909662 0.05212377549351017
0.0 0.056994506110372684 0.4852605243857864 0.010678937202758013
0.0 0.08221989025204601 0.16267599472287955 0.0
0.0 0.3163429625245803 0.3849063286843761 0.0
0.0 0.11249693594213922 0.22662072433018712 0.0
0.0 0.2541406050984025 0.3655200211605018 0.0
0.0 0.16773459453167516 0.4539853675767874 0.0
0.0 0.391812991839487 0.18490608177917836 0.0
0.0 0.028308950492541205 0.1013921796067198 0.07986310128441486
0.0 0.05592901130394286 0.455702978849055 0.016696020108468317
0.0 0.30927407076287855 0.25255605119810853 0.0
0.0 0.12243205739322535 0.18709154245576676 0.0
0.0 0.14240805529837597 0.3493397450422707 0.0
0.0 0.1247489139327044 0.22295611416664213 0.0
0.0 0.34811284266062886 0.1882547647668568 0.0
0.0 0.51995372401194 0.1881357090680013 0.06678620241680773
0.0 0.1533795237500848 0.1085628435607429 0.0
0.0 0.155084298212262 0.18943077116131174 0.0
0.0 0.04445773534959454 0.38164656241130834 0.056467506366304446
0.0 0.1799721997297986 0.32240868002888334 0.0
0.0 0.1464508250316869 0.5681880920835539 0.0
0.0 0.2094846338205241 0.20418486054981613 0.0
0.0 0.2216873079401657 0.14880177390864538 0.0
0.0 0.3393156541046039 0.11811940852256488 0.0
0.0 0.2349378301495058 0.46839654472593895 0.0
0.0 0.2576632578595848 0.4287085965528293 0.0
0.0 0.1273296332580081 0.5423937430093584 0.0
0.0 0.06841017200789906 0.5525081152267176 0.0
0.0 0.35096052718668375 0.22996319451601935 0.0
0.0 0.1912063096866944 0.4102931938438734 0.0
0.0 0.102849137051461 0.20504766030273652 0.0
0.0 0.3236658317220052 0.39558329293444705 0.0
0.0 0.32125656863886853 0.3485987049372539 0.0
0.0 0.14090678849486973 0.38801738697522065 0.0
0.0 0.09948047251901869 0.6094833004145607 0.0
0.0 0.28226272860547486 0.16627238096233093 0.0
0.0 0.05552307242334744 0.3017102656274101 0.011761700674263683
0.0 0.32889401187471656 0.2197652433045505 0.0
0.0 0.09280743618889128 0.3367781033751007 0.0
0.0 0.10285036351188935 0.6295066937013019 0.0
0.0 0.308696639005563 0.3724778174945079 0.0
0.0 0.12306734538140746 0.14380137463096357 0.0
0.0 0.2478836488799301 0.10645186183393449 0.0
0.0 0.049283816493792036 0.10361498434735977 0.03791366123623315
0.0 0.1512664814605565 0.27544668731138544 0.0
0.0 0.43488355501106074 0.23739172095323124 0.0
0.0 0.16426162294009475 0.338502417480086 0.0
0.0 0.3652988310835755 0.35281602352299846 0.0
0.0 0.22089803573092778 0.35775686912556615 0.0
0.0 0.307789871169942 0.20193932046783603 0.0
0.0 0.4094607105251555 0.25288277668492604 0.0
0.0 0.2296455315193501 0.330748091471469 0.0
0.0 0.28480244510997255 0.12621753310250317 0.0
0.0 0.33903600949502105 0.16371749874726382 0.0
0.0 0.09502456081737604 0.2847615856574163 0.0
0.0 0.3306221548303691 0.24025219822867783 0.0
0.0 0.058013172412150114 0.5603368973673579 0.0069689311484067516
0.0 0.07083772871364419 0.5303509672341642 0.0
0.0 0.157842828694841 0.35821420131842213 0.0
0.0 0.11480581622427552 0.5210480508670199 0.0
0.0 0.07534111705227188 0.44211681760545773 0.0
0.0 0.11983625798071348 0.4181447073912345 0.0
0.0 0.16966392780206033 0.49527671536956985 0.0
0.0 0.12285902609490323 0.45448905642880155 0.0
0.0 0.30803535789830383 0.2737601859827054 0.0
0.0 0.4831286993854514 0.2032505826084741 0.0
0.0 0.163777456012326 0.43913951827958647 0.0
0.0 0.08461972256464052 0.191432084028414 0.0
0.0 0.09982927182500302 0.07764216291537893 0.0
0.0 0.4121785471300586 0.27059566283251335 0.0
0.0 0.08812492520369986 0.4751578089615759 0.0
0.0 0.08899959550551433 0.07591326967756351 0.0
0.0 0.19614226101150262 0.3877271510285882 0.0
0.0 0.21036721865023827 0.5036833293215305 0.0
0.0 0.040354547556533185 0.4681130806558394 0.054230605138006885
0.0 0.16352913354117346 0.07506094251923989 0.0
0.0 0.29086900872165083 0.1933733524745616 0.0
0.0 0.25262549883730984 0.4655745270974805 0.0
0.0 0.3812282631150017 0.2926089043886092 0.0
0.0 0.028529455321690808 0.002471887527197667 0.08241688830228226
0.0 0.39444991548478625 0.15282162398893542 0.0
0.0 0.11563630078631837 0.5361992374880087 0.0
0.0 0.14056925219483646 0.16605136449188843 0.0
0.0 0.16792567086810695 0.12815555843626203 0.0
0.0 0.24986749463425384 0.15527756373119012 0.0
0.0 0.07013043883380866 0.5711339180625641 0.0
0.0 0.23357111230241773 0.13160966261679885 0.0
0.0 0.13887266741600238 0.48622131889551545 0.0
0.0 0.33700492379596403 0.19241674260899738 0.0
0.0 0.10584126841482713 0.2374608599010888 0.0
0.0 0.2710567189462533 0.3140425174678281 0.0
0.0 0.061126787845880284 0.02807139261217661 0.03571938844100765
0.0 0.13554475461636845 0.3606414922239273 0.0
0.0 0.05857023833997016 0.6073035606510597 0.00511403507230356
0.0 0.30211865989880893 0.38808672594166044 0.0
0.0 0.254222258764697 0.20271011999394667 0.0
0.0 0.226266641371249 0.2071436138083115 0.0
0.0 0.33116823294941733 0.3157822648384778 0.0
0.0 0.07651961590746167 0.517304144051173 0.0
0.0 0.39055413478852996 0.14087762242495308 0.0
0.0 0.10120635405944158 0.13584733680442015 0.0
0.0 0.2721842205742276 0.418442069202275 0.0
0.0 0.052239091262112985 0.17231093105615208 0.03380047041408938
0.0 0.10358999934549896 0.5517522166983408 0.0
0.0 0.4359339361424112 0.21035915833074417 0.0
0.0 0.07513003935206107 0.21850970382677387 0.0
0.0 0.20755546435315872 0.19098398478581638 0.0
0.0 0.361987395768628 0.23265999925990621 0.0
0.0 0.08258391320361143 0.05368251906622676 0.0
0.0 0.09608338268300068 0.06406009079432681 0.0
0.0 0.22484819917495355 0.08324557846434762 0.0
0.0 0.13895913885619846 0.11328394130901163 0.0
0.0 0.2538998115908974 0.2489029047747292 0.0
0.0 0.11202873413959225 0.2777634654736754 0.0
0.0 0.1938253005841313 0.10171286418386703 0.0
0.0 0.2162842184733154 0.4541150091052564 0.0
0.0 0.26402575396040995 0.44643688131036774 0.0
0.0 0.05172728677996209 0.09077908782607284 0.008650020160335321
0.0 0.4462412052682101 0.16209883197949834 0.0
0.0 0.0763077305749022 0.25365670282690284 0.0
0.0 0.36536459378227154 0.1478671062687687 0.0
0.0 0.1532754606706106 0.47555125363608847 0.0
0.0 0.3734460893568359 0.3138480596001812 0.0
0.0 0.297637869781801 0.2617928932848607 0.0
0.0 0.19628169019291472 0.3521971328481642 0.0
0.0 0.11091661130060193 0.46495617482707574 0.0
0.0 0.11079782391010591 0.4532504802418921 0.0
0.0 0.0841908327516229 0.263313688661443 0.0
0.0 0.06423330161573472 0.6721942648197028 0.009135555348390731
0.0 0.22126271672791203 0.46651969159110834 0.0
0.0 0.2962828957162322 0.35982036267775164 0.0
0.0 0.31385276916506216 0.2909865919370444 0.0
0.0 0.37190832351284925 0.1930426835123486 0.0
0.0 0.18951903343189871 0.4534527593680792 0.0
0.0 0.14783965430110807 0.132526348769962 0.0
0.0 0.325291728519281 0.12141349295070504 0.0
0.0 0.20862341652395702 0.11136848339528391 0.0
0.0 0.039726876223811165 0.19454274188745702 0.05699513935888742
0.0 0.18625086176232367 0.3464090225860469 0.0
0.0 0.048142107919582865 0.24003828316629008 0.031745929695908316
0.0 0.07787277110510331 0.40738653552007836 0.0
0.0 0.15087821926664755 0.5390172764464397 0.0
0.0 0.448591807614839 0.262459317054914 0.0
0.0 0.40623560085566535 0.20344190221157327 0.0
0.0 0.08619584343290743 0.10411433028354022 0.0
0.0 0.299458691705424 0.4109348654862908 0.0
0.0 0.33886560119382775 0.35185057385588847 0.0
0.0 0.23909098718437594 0.19101868257775426 0.0
0.0 0.18444865966997218 0.1702188683659337 0.0
0.0 0.05798725708956812 0.5722194210349747 0.0010078858977226642
0.0 0.49838118227550143 0.20510773785994008 7.03953485654775e-07
0.0 0.14642789608370732 0.5545813570582164 0.0
0.0 0.2206720713549365 0.2910714226315264 0.0
0.0 0.12181207734498241 0.38852553269632006 0.0
0.0 0.06395299375565053 0.1727534135253103 0.0
0.0 0.13516451229008444 0.09450621920248325 0.0
0.0 0.05377541903421347 0.49634247940296206 0.024552697634839884
0.0 0.12683548021273683 0.5253351054623686 0.0
0.0 0.11491154938979471 0.24515093378392855 0.0
0.0 0.1367790560859891 0.21406511185716806 0.0
0.0 0.16498806969572538 0.21292163351486088 0.0
0.0 0.04979196418717706 0.12930295856360552 0.044807596425592025
0.0 0.2053290013060856 0.3676340095092683 0.0
0.0 0.15312248836609715 0.1560593283072227 0.0
0.0 0.31916091426221005 0.10800650274881438 0.0
0.0 0.3822349374398522 0.3295274638645263 0.0
0.0 0.3094755568360428 0.3965989117691857 0.0
0.0 0.2830662143685124 0.277897167422209 0.0
0.0 0.2698466397152552 0.17877575293050346 0.0
0.0 0.0670724037156681 0.4133581867213868 0.0
0.0 0.32569086080250836 0.18176538869396736 0.0
0.0 0.30982586910797544 0.3500604898790459 0.0
0.0 0.18777718982463326 0.27259741237649593 0.0
0.0 0.03962711379260739 0.26051085215465764 0.07327942345880425
0.0 0.17314755371040913 0.39202602342847015 0.0
0.0 0.19166635742650384 0.21624019392336047 0.0
0.0 0.233333344176139 0.3846858893075226 0.0
0.0 0.20964594308394757 0.4436372828298579 0.0
0.0 0.12495116871083783 0.08924433815081692 0.0
0.0 0.36641848763866514 0.2517114579901811 0.0
0.0 0.2266263888351956 0.07215927735701103 0.0
0.0 0.05033195564357154 0.3474897458821157 0.029024809691929856
0.0 0.15607959783920536 0.3085366339523208 0.0
0.0 0.04083367476326495 0.14097450123571634 0.06019796167720625
0.0 0.05720959372232184 0.2681251876030281 0.0036002589417525868
0.0 0.13669701363737113 0.30192242832949956 0.0
0.0 0.040681754083862 0.24816257426198993 0.06027019253052217
0.0 0.08096292702138794 0.09224176207171156 0.0
0.0 0.19807378494770767 0.2631859075987162 0.0
0.0 0.2601338528775254 0.16090031765825655 0.0
0.0 0.13101921611400946 0.3170218405126223 0.0
0.0 0.04072079087188173 0.05324976853534613 0.085594986996254
0.0 0.11479253854304014 0.5568976518604214 0.0
0.0 0.0534047472759653 0.46769923595411617 0.01642032258167679
0.0 0.1724183684558854 0.46772072995604386 0.0
0.0 0.19914314710305386 0.5315723763714205 0.0
0.0 0.31357471502805995 0.2149746916538115 0.0
0.0 0.13797369716666277 0.42940910275099975 0.0
0.0 0.09014645407297905 0.36756814294620527 0.0
0.0 0.11141597578778895 0.6017343570852084 0.0
0.0 0.1072537708632476 0.439701100756133 0.0
0.0 0.30284701165131134 0.2873949249702681 0.0
0.0 0.14133067158291318 0.4442351113445019 0.0
0.0 0.12109331046738811 0.174792051148356 0.0
0.0 0.08228071235838555 0.030711665031838822 0.026294873419926083
0.0 0.08224879738028593 0.5398761140763686 0.0
0.0 0.1890353488418587 0.42649112965719327 0.0
0.0 0.0932918078813713 0.18419194490687013 0.0
0.0 0.30617735271118446 0.10340263317633062 0.0
0.0 0.061471334434522816 0.1849549083927407 0.0
0.0 0.22058874289010916 0.379746293032709 0.0
0.0 0.13844897984712817 0.5468404230644771 0.0
0.0 0.49514144047986375 0.17955251412696135 0.012034290790965333
0.0 0.16875511917699568 0.30618617390000696 0.0
0.0 0.28518690392423296 0.41401617356530873 0.0
0.0 0.2425545030966284 0.20222490108918556 0.0
