x y z curv
0.06231180152416547 0.553754210910146 0.5194269270554468 -2.0622748318755593e-14
0.31736785983818183 0.5537542679080334 0.8070643052207654 0.06418884469705165
0.14584078040221995 0.5537542314401946 0.6230309305161978 -1.4192388334360908e-13
0.3886598399057534 0.5537542647741068 0.7912490884930685 0.038270911645541084
0.0172685175123153 0.5537541968010532 0.4482260012374629 0.04694879230999367
0.06002488282090764 0.5537542024956704 0.47696364267550956 -8.929957300285111e-14
0.09041133987848414 0.5537542126621602 0.5282683926090687 -1.6017378394350503e-13
0.24363114435229385 0.5537542372415664 0.6523073093470657 -2.2158238840060215e-13
0.3280955076024707 0.5537542527334867 0.7304866179851195 1.270796765931728e-13
0.19215818131038795 0.5537542518064427 0.7258083167122938 -1.9262492243569555e-14
0.018467008847172707 0.5537541829602208 0.37837884465037586 0.07698030986143535
0.3778813739791136 0.5537542411230927 0.6718952762671383 -8.152736785771372e-14
0.04583190225244006 0.5537542164193817 0.5472290428841532 5.133565146615304e-14
0.1212743670996929 0.5537542150251689 0.540193216206822 4.4067530991725605e-14
0.32803744139875585 0.5537542350122053 0.6410569447955949 1.2885404246381436e-13
0.1225155855671912 0.5537542225515253 0.5781746458634275 -2.9204390047740914e-13
0.21906437686926283 0.5537542233134549 0.5820196999102458 -1.5629894877169717e-13
0.01771483055289276 0.5537542221618705 0.5762082595126505 0.05242007493183514
0.4232773301994986 0.5537542669578369 0.8022691904159218 0.06607967921183706
0.10643512316115698 0.5537541975553751 0.4520326625255082 -1.9557908597661373e-14
0.28010205809553357 0.5537542176640612 0.5535102868895061 -8.52385728618384e-14
0.19983669426026646 0.553754219590267 0.5632307930831985 -1.7814652058447308e-14
0.11860936217551905 0.5537542181605989 0.5560160266859091 -1.9042043730644168e-14
0.0827388572727887 0.553754182252374 0.37480673298165124 2.5695806026006623e-13
0.02744583320596789 0.5537542476378883 0.7047718728219053 0.029870574678699028
0.01398425863930617 0.55375415612805 0.24297146450171092 0.07013945333997051
0.3179096640055145 0.5537542445805325 0.6893430892544115 -2.17253711842844e-13
0.12800507522566967 0.5537542495834491 0.7145900706534318 1.8987809619883408e-13
0.4921327355876711 0.55375425647138 0.7493497499056315 -1.9500583566701737e-14
0.04695758170137997 0.5537542009708525 0.4692687144823901 4.863845753626413e-14
0.18753407106802508 0.5537542556984976 0.7454494016460209 -1.4709239951091803e-13
0.06293067818922086 0.5537542578062838 0.7560862407113585 -1.8539981886856434e-14
0.4308320286744918 0.5537542517212869 0.7253786059273895 5.063232788341701e-14
0.40899022672453966 0.5537542636427262 0.7855396272551467 0.0071539263425332246
0.12376520588763636 0.5537542090057833 0.5098166502071275 -1.5292449157750235e-13
0.01575041978699341 0.5537541720095691 0.32311685776397703 0.06185285322677086
0.11755328923498404 0.5537542296498086 0.6139958219783175 -2.226009158838894e-14
0.35085976831597476 0.5537542254587913 0.5928460596987831 -1.8860507318560232e-14
0.17151227595548496 0.553754210293576 0.5163154439215857 -2.766104467777181e-13
0.35423584072915754 0.5537542634258217 0.7844450221732446 0.013037159120421601
0.022860726321912328 0.5537541877368028 0.4024836574583316 0.05288381018555746
0.46280454145959904 0.5537542588653661 0.7614308930232594 1.0765277911179879e-13
0.30064919065945295 0.553754231048138 0.6210524489722817 1.8078196553880877e-13
0.1400151845261728 0.5537541907287816 0.41758256004587435 1.8195087686258529e-13
0.28663975025983507 0.5537542242616236 0.5868045983782035 -9.373236411174977e-14
0.47107045110735735 0.5537542570340214 0.7521890934411813 -2.210606063451287e-14
0.0013316166879259123 0.5537542401972522 0.6672230239508861 0.08607548429974562
0.3392454778022118 0.5537542191326146 0.5609212837389671 3.8478445712363214e-14
0.07930741471465078 0.5537542693629055 0.8144062292551498 0.07872605088016425
0.3142767411431242 0.5537542313077004 0.6223623211719841 5.225975351138158e-14
0.2322503653990738 0.5537542252053685 0.5915671607618925 4.947331807720007e-14
0.2953720374947875 0.5537542463359908 0.6982019307651766 -1.590607377863973e-13
0.2286517110568554 0.5537542626200965 0.7803789527493428 0.0016112751276627201
0.11242741336951621 0.5537542336486153 0.6341756255490226 -2.071918553766616e-14
0.31222384998677316 0.5537542160209855 0.5452185808654251 -1.6166327853114999e-13
0.056097905256167736 0.5537542242997797 0.5869971291866711 -8.459607674335735e-14
0.02391097314327218 0.5537542433117676 0.6829402931593739 0.03321306151871406
0.11734977732648591 0.5537542594414073 0.7643378257497035 1.1474959296093837e-13
0.44920262866257604 0.5537542552131873 0.7430003309011098 -2.1574600145334973e-14
0.4389411561760333 0.5537542451893351 0.6924153973198357 -2.123546752284474e-14
0.45308948032389057 0.5537542515183124 0.7243543061624309 -8.765127678046406e-14
0.07558020815346668 0.5537542558827941 0.7463794349755601 4.988182265667179e-14
0.4619216099732509 0.5537542671519426 0.8032487400540911 0.06677403592743403
0.4872474959303171 0.5537542500134055 0.7167598625558202 4.4082078173085806e-14
0.18795197154177018 0.5537542329684235 0.630743074774487 -9.571831778572812e-14
0.14774706136667087 0.5537542480980128 0.7070938829538735 3.944903204850583e-14
0.47629745453192607 0.5537542522229818 0.7279103923974553 -1.641258583532338e-13
0.2576107598653368 0.5537542540770274 0.7372667305469738 1.8738528334387206e-13
0.010568531342468051 0.5537541991233906 0.45994557493540644 0.06764831084771293
0.15297066660062983 0.5537542101855844 0.5157704676799711 -2.472342898184525e-13
0.2106609668381154 0.5537542602590088 0.7684638251620403 1.7412552026737163e-13
0.07834390523069003 0.5537542321060003 0.6263908824660644 4.900721271718113e-14
0.0657448531156886 0.5537541739472711 0.332895391352171 -2.7342315724414545e-13
0.23378727087531997 0.5537542013463189 0.47116350816606406 -2.3396287992341797e-13
0.14125561531562442 0.5537542428713385 0.6807176986024194 -7.767095333386712e-14
0.14956757905569668 0.5537542662030089 0.7984599567048679 0.03732643710454138
0.21082573108668629 0.5537542063505807 0.49641729506809507 -1.6467778295832903e-14
0.27704030345654035 0.553754250838793 0.7209251240844826 -2.0301300161339778e-14
0.23425513940296755 0.5537542191824285 0.5611726572805248 -9.075054685368931e-14
0.1771282893135735 0.5537542324517288 0.6281355964999766 4.208546116203523e-14
0.06601431382035548 0.5537542546863613 0.7403416880486449 -8.696775429779505e-14
0.09557615580646255 0.5537542229004894 0.579935675191549 -3.5723511401729467e-13
0.34452885809712813 0.5537542679427004 0.807239253385402 0.07732237512643977
0.5343787092472658 0.5537542684640944 0.8098704640126522 0.06267173457544191
0.21534045039236296 0.5537542002156048 0.4654574067829517 4.783425457958452e-14
0.3337063833739337 0.5537542308828807 0.6202184885032894 -1.9404972555468012e-14
0.022715460328857493 0.553754212319407 0.5265386973574265 0.06075738864896639
0.2982895989796783 0.5537542604546036 0.7694508943607492 2.4885405382380945e-13
0.011846388878437687 0.5537542635897851 0.7852724227777853 0.06333586675125177
0.09888079630681326 0.553754234834681 0.640161052673671 4.825660101416476e-14
0.06189804667811299 0.55375423520877 0.642048872842971 -1.5901449176807698e-13
0.024906515108545354 0.5537542644182356 0.7894531634128732 0.05851456956069358
0.22794368090829775 0.5537542351092262 0.6415465457016287 -9.22763586356616e-14
0.22210908460619583 0.5537542459805084 0.6964079967948469 -2.2114857522560294e-13
0.2319097334537796 0.5537542073044652 0.5012310335783807 5.328486631001877e-14
0.28665686248099337 0.5537542142644147 0.5363541200398174 -2.1476408937788126e-13
0.19251464643392527 0.5537542123857828 0.5268736768988769 -1.4780606538810553e-13
0.45543688448841035 0.5537542699614088 0.8174265878100583 0.06743629913931483
0.08164260135415513 0.5537542375158178 0.6536912909692125 -2.1791958421438594e-14
0.12116572939072988 0.553754190955838 0.4187283882081443 1.7230324902504922e-13
0.07718375722666221 0.5537542116639524 0.5232309799841115 -1.5574663056406532e-13
0.040653880270063794 0.5537542402200208 0.667337929129165 4.569195159104602e-14
0.07006835014585074 0.5537541983800786 0.45619448908952764 4.668572626546735e-14
0.39859033949614714 0.5537542578280401 0.7561960666912916 -8.386924584810465e-14
0.10366989955589571 0.5537542408678829 0.6706073438988778 -2.1425431887247693e-14
0.019175824070098015 0.5537541698218625 0.3120766923137145 0.06226000845778242
0.13384891281242522 0.5537542457941859 0.6954677196328067 -1.4872799801960415e-13
0.3249839855813193 0.5537542219637628 0.575208548022767 -1.7062165556203741e-13
0.0034770094521996593 0.5537541526521901 0.2254306880512762 0.06710960255941555
0.14476231817131144 0.5537541989136742 0.45888726354608117 1.1674747198359311e-13
0.14736230551970506 0.5537542359098907 0.645587056278132 -8.590464640416916e-14
0.05544607316741473 0.5537541778986392 0.352835797100198 -1.6262239884711456e-13
0.24460499799995672 0.5537542521913313 0.7277506459293972 -8.476023478433576e-14
0.05532550514685427 0.5537541861566982 0.39450973206655826 1.2206457446096887e-13
0.4504122679204152 0.5537542472312864 0.7027200168022013 1.7810930334328772e-13
0.41759534548765437 0.5537542689225889 0.812184224879758 0.06557234043994717
0.28722088189738887 0.5537542603349735 0.7688471857321121 1.1339203373283743e-13
0.34028321439215564 0.5537542385803642 0.6590635041910925 -1.472063934659762e-13
0.18774131224402926 0.5537541935964498 0.432054126822387 4.885135441171651e-14
0.20250875078981825 0.5537542279160094 0.6052462886584118 -2.1332541854473283e-13
0.019526054298146543 0.5537542149979107 0.5400556492821909 0.0715769239468812
0.29068172910489154 0.5537542556413144 0.74516084011753 2.871684694843384e-13
0.1650974319481058 0.5537542176778623 0.5535799219339874 -1.946833880741392e-14
0.0313037584375563 0.5537542191745725 0.5611329912516657 0.018768119911745297
0.4356559798440941 0.5537542552161022 0.743015039789086 -9.191671771127308e-14
0.5211577166232577 0.5537542615665233 0.7750621714842205 -8.990605723068869e-14
0.43097097612144397 0.5537542573688632 0.753878853181698 4.343607059058032e-14
0.11490712484427913 0.5537541960723698 0.44454874143415984 -1.8805055201594447e-14
0.06056167803688431 0.5537542223242706 0.5770278088402422 -1.4729100858292155e-13
0.08085818555715754 0.5537541672272702 0.2989832017813651 -1.991123844136925e-14
0.44163515401267117 0.5537542525058099 0.7293376681808779 -8.381492644642195e-14
0.3680250969151576 0.5537542628537596 0.7815581375301246 0.00041894513397237263
0.016751903665665487 0.5537541933310648 0.4307148558103514 0.054982661479873116
0.1048588595974666 0.553754207945147 0.5044641928545605 4.3218556024196755e-14
0.03255962925272831 0.553754175155849 0.3389944239130087 0.025461853337069094
0.38803642386667964 0.5537542519310972 0.726437399818719 4.753558287453005e-14
0.41804876220623965 0.5537542509720922 0.7215978263750994 4.402252845339405e-14
0.009082141279895237 0.5537542067502754 0.4984343163959998 0.08058898617877197
0.061743738620157335 0.5537542463322251 0.6981829043691723 -1.504807469752296e-13
0.42963236989734377 0.5537542432464228 0.6826105738477727 4.090073528224141e-14
0.5472003877217467 0.5537542648195668 0.7914785162480336 0.026467392411025303
0.10299220510430254 0.5537542577212078 0.7556569119434864 2.4405918542088644e-13
0.01106172399799041 0.5537542133008796 0.5314916546072692 0.08304913602544406
0.19844413082570325 0.5537542341342117 0.6366261748663748 -8.555504336721283e-14
0.18105946595116917 0.5537541996490147 0.46259813123260696 -1.7140840109256986e-14
0.16587275666694265 0.5537542370009543 0.6510930628864601 -1.8202108176039634e-14
0.07695883223456468 0.5537542464503138 0.6987788347431394 -2.105487673638645e-14
0.2750721142225181 0.5537542386640457 0.6594857928200752 4.9735002073562184e-14
0.1617763058148915 0.5537542414598258 0.6735945629259423 5.4116710839615566e-14
0.13165952576513545 0.5537541992174675 0.46042034211443184 4.559391026714314e-14
0.15282628939176307 0.553754186847573 0.397996211770384 -1.5496524565805127e-13
0.13750176316146911 0.5537541834825312 0.3810146732376441 4.6325175290791504e-14
0.18876946338063158 0.5537541973412008 0.45095184968140645 1.315091916921449e-13
0.1358503426600204 0.5537541806571242 0.3667563797308413 -9.088747451368922e-14
0.2957671305027979 0.5537542533705881 0.7337017190680534 3.958839212211841e-14
0.27439436841117815 0.5537542360250511 0.6461682211923274 -2.1885152275454784e-13
0.3889545882020765 0.5537542396704109 0.6645643819812144 -1.536441084195529e-13
0.41301575792548534 0.5537542575829034 0.7549589964526136 -1.4331639326816285e-13
0.1744081803743369 0.5537542636008391 0.7853282225493139 0.013204434314472062
0.14230865375609647 0.5537542601613941 0.7679712100239233 1.1188711488089717e-13
0.08504417872836931 0.5537542419780896 0.6762099514773334 -9.174026955778994e-14
0.12125144954954128 0.5537542005513378 0.4671516591966651 5.113875428310204e-14
0.17223256232217674 0.5537542155427668 0.5428052570525469 -2.0775557060875073e-14
0.005067336279319138 0.5537541686572521 0.30619953561453134 0.07584196992024207
0.04379200620280059 0.5537542429766801 0.6812492901328263 1.1206608074353689e-13
0.26039498311214687 0.55375426058967 0.7701324974896563 -1.990511473179546e-14
0.25709977610756546 0.5537542567778764 0.7508964466549412 1.8837277152699816e-13
0.09727644753347396 0.5537542664965754 0.7999414222822385 0.05664699301202689
0.15928142764270656 0.5537542118783454 0.5243129125489963 -2.124334386560308e-13
0.07184701882209796 0.5537541718603293 0.3223637316160943 -9.631226689273125e-14
0.024807623340677636 0.5537542394831836 0.6636195106114291 0.03637952788641862
0.0906785119513315 0.5537542253574275 0.5923345056021782 -2.9789942372508016e-13
0.14282793668603586 0.553754268493075 0.8100166741081478 0.07119417296092828
0.4279276184647618 0.5537542487790691 0.7105308319994945 -9.00771441869751e-14
0.11658780575714131 0.5537541871089126 0.39931504598015327 4.3352307432633876e-14
0.45024882274915534 0.5537542584038574 0.7591019084177709 1.1655531070113668e-13
0.2571756353999497 0.5537542151810875 0.5409800665393172 -2.090118198867599e-14
0.2268433298013513 0.5537541987324059 0.4579725096708045 -8.803384002063825e-14
0.5600323874285384 0.5537542677085587 0.8060576893007395 0.06061147490524639
0.008772417497362352 0.5537542503567121 0.7184922964227431 0.08383245465824596
0.3641806068259007 0.5537542267864787 0.5995461774232778 -2.185292732069618e-14
0.17531698739143908 0.5537542266854574 0.5990363588691694 -1.9722867834604164e-14
0.4611431687259355 0.5537542457691567 0.6953414431919045 1.1625310779153527e-13
0.1357613993070587 0.5537542281485159 0.6064196156447921 -1.5380672845666793e-13
0.24702223991560263 0.5537542614222273 0.7743339598987062 1.7130378331798596e-13
0.28094962115230854 0.5537542487826591 0.7105489339017376 -9.089207438031345e-14
0.08020392074298101 0.5537542634208535 0.7844199239790907 0.01262151682913105
0.17458525393661709 0.5537541954791387 0.44155503290293674 5.4125419603779625e-14
0.26513625404541646 0.5537542292284572 0.6118695054153944 -1.8506175764938893e-14
0.3936496355583972 0.5537542549840822 0.7418441558596044 4.377533672151524e-14
0.03686659817451561 0.5537541790874134 0.3588348928370315 0.007475576937715414
0.10452428443553172 0.5537542430852262 0.6817970702837435 1.261354800381947e-13
0.1496872158316295 0.5537541889673927 0.4086937882215998 1.296032389628985e-13
0.05763754350223367 0.5537542404346554 0.6684210748457532 -8.07269430825095e-14
0.4473140792641344 0.5537542622939822 0.7787332532908177 -9.297890287156419e-14
0.4040212015889651 0.5537542613252866 0.7738447686716128 1.1208984697816967e-13
0.40680725266016277 0.5537542358309772 0.6451888490276376 4.031452873285246e-14
0.3553468950224084 0.5537542343091146 0.637508830700127 4.9475666704949624e-14
0.004841287126909614 0.5537541845773464 0.3865395968604505 0.079651581566138
0.41778673567222974 0.553754246526606 0.6991638739764892 -9.177395635949191e-14
0.0964688765623004 0.5537541901976726 0.414902336788069 1.0565545485017122e-13
0.15110505047171618 0.5537542021928421 0.4754354422425733 1.139042203350365e-13
0.26627289462882137 0.553754233479575 0.6333225860153117 -1.8893466453251746e-14
0.03703901899827915 0.5537541610180086 0.2676484290578589 0.004474302178736571
0.06311685318335997 0.5537542084043606 0.5067815903170761 -9.064070563732042e-14
0.03578599851754545 0.5537542116127406 0.5229725374415641 0.010463509101618971
0.2796851726019408 0.5537542415642418 0.6741215056230951 -2.0452312425104666e-14
0.4227786980325368 0.5537542560283522 0.7471140217484734 -8.608272747440871e-14
0.09033274011208259 0.5537541783793696 0.3552617856561133 -1.427042635504346e-13
0.08425804288835856 0.55375423451626 0.6385541543365131 1.8166105394128573e-13
0.04402054095959503 0.5537541749175547 0.33779188383208536 -2.0796960866109796e-14
0.05000283648838436 0.5537542115104661 0.5224564151093383 5.001464149016753e-14
0.3808383434576745 0.5537542311924146 0.6217805425073439 -9.28061546275391e-14
0.32506542101165514 0.5537542587118641 0.7606562382544442 -8.389138988459419e-14
0.3829562375269485 0.5537542666595026 0.8007636549895097 0.05359447521010282
0.23348111397201848 0.5537542562862525 0.7484154861497414 2.022219911169964e-13
0.3071565650590395 0.5537542453463312 0.6932076580494291 -2.9021514119129224e-13
0.11529456759069025 0.5537542488768753 0.7110243758065405 -9.382263180878367e-14
0.2003186622929305 0.5537541943427277 0.4358201865450787 -2.013384635453906e-14
0.13555706516945254 0.5537542637054538 0.7858561516920394 0.022548446697686433
0.32989200802136814 0.5537542390106514 0.6612349282888762 -1.4070548183107646e-13
0.029477949552041405 0.5537541938461366 0.4333141445926866 0.029265711343587655
0.2959243850754046 0.5537542364064857 0.6480931162773289 1.0377427027201312e-13
0.38045229280929854 0.5537542434054377 0.6834130309019962 -8.433119453943922e-14
0.4424691369780107 0.553754265030247 0.7925416941612338 0.04176611102596921
0.24572560636413399 0.5537542246102743 0.5885640453372036 -1.5336188895774583e-13
0.13734008341342657 0.5537542346584945 0.6392719388632679 -1.7455050308821538e-14
0.11535007201591443 0.5537542060697842 0.4950002572973399 -1.5184413447746453e-13
0.370200837863263 0.5537542664845191 0.7998806066395522 0.05069637537300387
0.2572012644820975 0.553754242519559 0.6789424703852196 -8.184715079911059e-14
0.15704191317604105 0.5537541843051477 0.3851659729428681 -1.5115263600166973e-13
0.3065852340363982 0.5537542576081095 0.7550861869984792 -1.888707389792701e-14
0.4925725675566521 0.5537542695857135 0.8155306613821367 0.07054459506303828
0.3550017394339632 0.553754222859697 0.5797298440003298 3.7554000011954544e-14
0.20078096966657902 0.5537542152124053 0.5411381045307231 -1.4449154785887828e-13
0.40398617342897114 0.5537542407640342 0.6700833057030167 -9.119423708145114e-14
0.12096539217016347 0.5537542121366692 0.5256165287454377 -1.5110488296452937e-13
0.2616667481717183 0.5537542267711425 0.5994687737423434 -2.023072692113058e-14
0.03127373477368416 0.5537542018368 0.47363867887114525 0.024568722140453945
0.3937708572345442 0.5537542307460253 0.6195278593539837 -1.5866546065785618e-13
0.15512094606424406 0.5537542156065113 0.5431269387148101 -8.908250359759775e-14
0.5154441924897615 0.5537542664042265 0.7994754289228355 0.07138149615331262
0.25972094305964544 0.553754246989049 0.7014975567940893 -1.6944708583474316e-14
0.025019741645307635 0.5537541603096394 0.26407367418879485 0.044579514820140116
0.2454947379024453 0.5537542086300882 0.5079207325507653 -9.139457776108093e-14
0.3220226676884649 0.5537542186933695 0.5587046508996949 3.53816711044359e-14
0.08634684945018702 0.5537541733998627 0.3301329210456678 -8.595487393473882e-14
0.14066054344468293 0.553754206291339 0.49611832733622585 -1.5331283881380654e-13
0.09084513659259622 0.5537542101119031 0.5153986317535557 -1.9158224446803302e-14
0.16610811503606382 0.5537541976129647 0.4523232924128683 1.1200009381045525e-13
0.028762731982743303 0.553754253331007 0.7335019485319364 0.021088301759737558
0.4016470876593836 0.5537542679972334 0.8075144565707643 0.06373333934077705
0.5062562134288668 0.5537542531946718 0.732813985850704 5.104996813847749e-14
0.07546558949339385 0.5537541965311545 0.44686397565209873 1.8275408514065485e-13
0.09716409626563043 0.5537541957316557 0.44282934181414424 2.0188714036210283e-13
0.15880730087351536 0.5537542241533244 0.586258058732957 -1.9067161581472833e-14
0.2067656961828345 0.5537542113410886 0.5216016744492007 1.985582330240644e-13
0.490278940476026 0.553754261864575 0.7765662726842462 3.746610591021389e-14
0.057665521900333555 0.5537542643680388 0.7891998501854954 0.020837044456469167
0.29063534196227087 0.5537542287211671 0.6093094909077843 -2.2462506546353944e-13
0.27284416798451616 0.5537542680428291 0.8077445412881591 0.08175300227603191
0.3092877738402938 0.5537542509004124 0.7212360863019851 5.0371913368496764e-14
0.015838860989438198 0.5537542293277454 0.6123705344794002 0.07113102833579288
0.16316747838703163 0.55375426116771 0.7730495414515369 1.0590927182269745e-13
0.01310839419302862 0.5537541898543632 0.4131698325696717 0.06800053707307765
0.3768661876548387 0.5537542646967637 0.7908587781966062 0.042159854780345216
0.24291930133509024 0.5537542662745103 0.7988207939391697 0.0571322502956523
0.02989749003302701 0.5537541848658271 0.3879954044880073 0.020550616341339676
0.09674348178526952 0.5537542203229104 0.5669280356895112 -1.4687024733792627e-13
0.16313900456259448 0.5537542283786592 0.6075810268313607 -1.539348283045656e-13
0.11619988492747499 0.5537542666449939 0.800690411108244 0.06798506206287509
0.09209516072911293 0.5537541877067953 0.4023322328721838 2.4477888538377463e-13
0.18018723420524985 0.5537542248181023 0.5896128338598573 -8.189532170816769e-14
0.3401184163404824 0.5537542360159684 0.6461223930988863 4.686743795187384e-14
0.11924548413255603 0.5537541816054594 0.37154210964112777 1.2961637731009607e-13
0.17670952619002903 0.5537542567520118 0.7507659146584834 -1.9118469318558157e-14
0.18737962544882872 0.5537541893954926 0.4108541794665047 -8.061563711449057e-14
0.2839112670622937 0.5537542215701019 0.5732219516561783 -2.2133268930794817e-13
0.04789634641552064 0.5537542515772687 0.7246517855504074 -1.88745545697274e-14
0.05844567543324879 0.5537541708857227 0.31744542034293044 -1.5177769945324136e-13
0.2865389251356482 0.5537542437985761 0.6853969768188032 -2.317225813361816e-13
0.3229099988211718 0.5537542507505928 0.7204800296738063 -1.9261513065999218e-14
0.1738332619999002 0.5537542052352409 0.49078877706608703 -1.5533464628122517e-13
0.16926373506195289 0.5537542506168518 0.7198050962936274 -2.111056015720973e-14
0.3351102018047423 0.5537542643899851 0.789310629539711 0.03214942980651916
0.28587997615988975 0.5537542266197084 0.5987045708740178 -9.276555042557131e-14
0.41719232992050503 0.5537542414983395 0.6737889466947174 4.028097528791924e-14
0.37852602530610435 0.5537542506252271 0.7198473827109677 4.076734457076119e-14
0.3251530628303076 0.5537542322152853 0.6269424091345533 -2.181440988418216e-14
0.18022635536345216 0.5537542511899429 0.7226971763620363 -1.935075901906874e-14
0.2029605066148815 0.5537542227100756 0.5789747709969624 4.799170982713007e-14
0.15882888713376986 0.5537542470150033 0.7016285240021631 -1.8902599241640312e-14
0.10650784260355811 0.5537542456949816 0.6949670865646557 4.749059807672161e-14
0.017912577063804832 0.5537542523578057 0.7285907292287495 0.0772379401482027
0.05658895307809594 0.5537542001096559 0.46492272429251164 -9.676410113661204e-14
0.4386020658265096 0.5537542672638369 0.8038134071843139 0.06106225739257059
0.04606119168890981 0.553754249550575 0.7144241644976068 -1.5016461958855485e-13
0.003584334425945605 0.5537542201747876 0.5661805305126674 0.08884635734731597
0.08874617282184115 0.5537542179674051 0.5550410794141498 -1.5601936054397575e-13
0.3531111674949428 0.5537542305699696 0.6186393987998565 1.6613983472300577e-13
0.2526467843463814 0.5537542323638036 0.6276918929474371 -2.042527232959297e-14
0.08717534553735927 0.5537542014034245 0.4714516740016098 1.0192930604444736e-13
0.4890790381186892 0.5537542544278742 0.7390372862751197 -2.0996776764560277e-14
0.05606690787103079 0.5537541902502847 0.41516783773362426 2.473751420766816e-13
0.21344990530305297 0.5537542023247691 0.47610121272478956 1.249861527746238e-13
0.15701761294724512 0.5537542328749308 0.6302712643933114 -2.148861000236596e-14
0.19252932437470605 0.5537542255114973 0.5931120227545235 -1.533422046286973e-13
0.06851436811315975 0.553754260199482 0.768163411760652 -2.036626637417122e-14
0.5561642119365814 0.553754263007403 0.7823335117118314 0.0067333053257856304
0.35678952872097763 0.5537542679843281 0.8074493263990301 0.0736825105011386
0.028466818076921575 0.5537541711945698 0.3190040010862253 0.033571420633276006
0.1526791672699438 0.553754204782311 0.48850308410085125 -7.938560406431142e-14
0.21462483530176166 0.5537542515557534 0.7245432271108835 -1.5658653410817714e-13
0.12494283452310824 0.553754260916489 0.7717817617487592 1.5527823363586637e-13
0.1989102994889334 0.5537542650158207 0.7924688675159139 0.046610846747806904
0.1925905090149317 0.5537542164528069 0.5473977361228457 -1.976079079556343e-14
0.3613824409043132 0.5537542438457715 0.6856351545964002 4.3317449029707514e-14
0.1303978531564224 0.5537542171757974 0.5510462700721295 -1.6636838139402876e-13
0.022582443337022147 0.5537542368361379 0.650261310587225 0.04125263835075282
0.06847984348027762 0.5537541918325786 0.42315281550006945 2.5336884579694016e-13
0.19705490121910585 0.5537542026189999 0.47758603355630136 -1.5674939753298857e-13
0.2966157229296754 0.553754225066659 0.5908671754456647 -1.7970066002671338e-14
0.06828079637485861 0.5537542049107255 0.48915111338886097 1.9480300563248878e-13
0.04245899201198237 0.5537541652038134 0.28877191102618877 -2.2121517184819905e-14
0.014755732668139124 0.5537541806667723 0.36680505643729855 0.07270272675152695
0.01088653588268225 0.5537542612823969 0.7736282879126373 0.06164357145484534
0.030990153391192012 0.5537541663921864 0.2947689831128834 0.022935227693670856
0.009801411688855462 0.5537542323495198 0.6276197862886559 0.08112781850115643
0.23023560438955887 0.5537542387678211 0.6600094862793926 -1.9392423492811697e-14
0.014004098532099768 0.5537541645679472 0.28556303812816464 0.08662419512141448
0.5267908430618199 0.5537542667424374 0.8011821969077956 0.06749502830255341
0.19276257112598583 0.5537542393378714 0.6628862162280141 5.191699450379632e-14
0.4969281537372747 0.5537542518918491 0.7262393477081406 -2.491194564410731e-14
0.1977622088338306 0.5537542363325774 0.6477201316830691 -1.8344553896882363e-14
0.0978240315487378 0.5537542372846869 0.6525249003177775 -1.5450378573965122e-13
0.16135133544285982 0.5537541897144755 0.4124639105899353 -9.788664482472116e-14
0.14485794223454218 0.5537542226889097 0.5788679528844305 -2.194440094379398e-13
0.19439886254941136 0.5537541992189715 0.4604279379931316 -1.8572876188944367e-14
0.24159892843769695 0.5537542310847084 0.6212369942777638 -2.717314864196172e-13
0.2517172601060088 0.5537542452534876 0.6927391205325639 -2.846929100921249e-13
0.4690574006742402 0.5537542624408335 0.7794743339630827 2.6904500934962054e-13
0.016276175156474657 0.5537542198741867 0.5646635629934087 0.051615416389999974
0.15668405479017886 0.5537542678774866 0.8069101357042129 0.07689208868625304
0.01288152641776277 0.5537542419463727 0.6760498857355056 0.08311265167197071
0.24485383612034597 0.5537542395266466 0.6638388667828587 -8.473584675002844e-14
0.40227533684804195 0.5537542382736806 0.6575158449153966 -2.1233327040729686e-14
0.18266627492003032 0.5537542403145842 0.6678151536175162 2.0177371521167935e-13
0.08668807436045178 0.5537542495575395 0.7144593143432464 1.1767551547786025e-13
0.3663222175319305 0.5537542574021266 0.7540467089929783 -2.1664887359231096e-13
0.22495430261642932 0.5537542505783265 0.7196106858256469 -8.213175893114578e-14
0.24604043141866977 0.5537542579504139 0.7568136052966031 1.2887188051197378e-13
0.4959595882205473 0.5537542594138893 0.7641989953172071 4.5342274503544986e-14
0.08131824393222273 0.5537541848274072 0.3878015252563076 -8.646943229924716e-14
0.14959348471911532 0.5537542405668028 0.6690879603090547 4.2884990274770635e-14
0.1695366323108877 0.5537542537628679 0.7356813294338942 -9.482350919056341e-14
0.004292612681589502 0.5537541794317571 0.3605726045574803 0.07806794707545266
0.059587591977918845 0.5537542521733317 0.7276597936386587 -2.1784451516102745e-13
0.0723571054271403 0.5537542485611651 0.7094311529757238 5.2109545628918156e-14
0.411352973727283 0.5537542486772848 0.7100171803143014 -8.251378227314693e-14
0.22847543694674544 0.5537542099506558 0.5145849187195918 -8.45491617866897e-14
0.03915169100026346 0.5537542581034751 0.7575860006784835 -1.9341054826896312e-14
0.06822578121240308 0.5537541690400065 0.308131095093612 -1.954674014506297e-14
0.355484013371283 0.5537542367054693 0.649601930071167 -8.308841439568791e-14
0.35445680478089797 0.5537542536283724 0.7350026221154162 -1.360413261382503e-13
0.06264226751568487 0.5537542498680038 0.716026056896724 -2.1635123641579262e-13
0.13167242154928607 0.5537542144306251 0.5371928779471377 -1.690985908494684e-13
0.14983552075872794 0.5537542207921671 0.5692961241455181 4.6562305158071375e-14
0.4738323337663287 0.5537542604729628 0.7695435615966794 4.392298060400754e-14
0.35409839247525365 0.5537542587548466 0.760873151035975 -9.018912446410882e-14
0.24581051488382882 0.553754215758685 0.5438948856700483 -2.091520688182659e-14
0.06466518583597554 0.553754262325305 0.7788912841989595 4.411196506298013e-14
0.30529381078344786 0.553754214105974 0.5355545584650707 5.067986605459793e-14
0.19606771294544886 0.553754260426799 0.7693105695554961 5.2904524772935924e-14
0.2605239551294814 0.5537542089682878 0.5096274441892762 4.5710992121373186e-14
0.40683722696011626 0.5537542457163843 0.6950751246981807 1.0411712268306715e-13
0.12896745052419173 0.5537542576260387 0.7551766481853504 5.065463550079732e-14
0.04245784248176465 0.5537542185359812 0.557910369358524 1.1621803159982372e-13
0.28356377461126353 0.553754263343964 0.7840319240396872 0.014628821207428802
0.16937625010961255 0.553754186975954 0.3986440819095702 -1.0216630482728446e-13
0.5707904268928667 0.5537542652783806 0.7937939019744493 0.09743977219544273
0.15705341146199361 0.5537541997687849 0.46320254357556156 2.5345167409243626e-13
0.2163009453178395 0.5537542354118121 0.643073531506605 -1.5158571884949464e-13
0.020369749564938967 0.553754201812199 0.4735145306151584 0.05904993281077977
0.5222150237236918 0.5537542642821965 0.7887666976920883 0.01573589297937239
0.04656586087973121 0.5537542458259433 0.6956279735407479 -1.986837943877652e-14
0.1486638943335744 0.553754212671369 0.5283148706000711 -2.310279633211979e-13
0.4565862024649993 0.5537542636148698 0.7853990557948586 0.012548998797536844
0.3593749012533668 0.5537542398961082 0.6657033501479523 -8.719447122851672e-14
0.14895538078152482 0.5537542291985558 0.611718597597906 -8.276587675634716e-14
0.16518144913928942 0.5537542665902673 0.8004142401878337 0.05979394423864629
0.3155486758181972 0.5537542375546801 0.6538874312798566 -2.23302968744399e-14
0.10314788519036035 0.5537542607421242 0.7709018355940219 1.7845562584077543e-13
0.23426358582213086 0.5537542288654568 0.6100376368183438 -1.4669293978250792e-13
0.09504917842243858 0.5537542071086519 0.5002428558402507 -8.418018655295982e-14
0.16902238091258207 0.5537542307564035 0.6195802103926821 1.0938688669036764e-13
0.3157068294119284 0.5537542342471572 0.6371961614786416 5.2508028180411236e-14
0.06312115219333331 0.553754237821863 0.6552357327177505 4.403281934354676e-14
0.3031062533258807 0.5537542338772974 0.6353296785444602 -8.092591682587433e-14
0.39963526994119913 0.5537542653432376 0.7941211826265414 0.04307328644970311
0.31735294034500183 0.5537542537464799 0.7355986427082452 -1.894838630170874e-14
0.13582324983642383 0.553754211767258 0.5237523127464829 -1.6082173220956614e-13
0.057856440488675304 0.5537541828937114 0.3780432114044119 1.1301690664583449e-13
0.035363984112628616 0.5537542511389826 0.7224399934970942 0.0019017205235437645
0.3065832934850204 0.5537542283163321 0.607266510157451 -9.006133404501167e-14
0.3247090561134547 0.553754261863056 0.7765585903465623 -8.887962178930906e-14
0.06602128746036615 0.5537541773249801 0.3499408528308851 -8.817172927579737e-14
0.04263987206334728 0.5537541947908695 0.4380816991899036 -1.8880086679562985e-14
0.3158515340955068 0.5537542645086857 0.7899096446387616 0.014349031082523524
0.5375479449341293 0.5537542591584472 0.7629099218286828 -9.611193255736619e-14
0.060996319278922295 0.5537542194059228 0.5623004938963581 -1.5071940782330088e-13
0.24590030687133352 0.5537542199964538 0.5652806011254893 -1.9114357116426547e-14
0.015828311556749724 0.5537542558932571 0.746432230061527 0.08158572107369019
0.26110810173370924 0.5537542668562595 0.801756568013053 0.053611760943381874
0.0920532682427105 0.5537542321955313 0.6268426982724604 -2.10414828392571e-13
0.21446557022983953 0.5537542639484201 0.7870822785290645 0.009923598058563224
0.12722718241294048 0.5537541765068639 0.34581227101913237 -2.7322100654771942e-14
0.2250331922200001 0.553754259954157 0.7669254050650696 1.7243808933844872e-13
0.3868297155624333 0.5537542689804877 0.8124764057128181 0.0728935340399442
0.002503461575280656 0.5537542553567462 0.7437247497131332 0.08194542330041622
0.02885767124338452 0.5537542344149506 0.6380428950048745 0.022745205761052455
0.12861899312886066 0.5537542063974922 0.4966540229840032 -1.9357476635653158e-14
0.4813439282643048 0.5537542654568727 0.7946946459351361 0.04312353372195347
0.21822396140678452 0.553754239093696 0.6616539986767174 -2.0449360917842777e-14
0.02312749860332427 0.5537541988043002 0.4583353006804366 0.04629469832597353
0.0648446823882427 0.5537541637502537 0.2814365876789673 4.1933858774815846e-14
0.1333980977483499 0.5537542667714639 0.8013286381769985 0.0620649109754895
0.17054801324414615 0.5537542586163832 0.7601743825056583 1.2133694310510812e-13
0.12153318512904251 0.5537542460940164 0.6969807996404092 -8.483834984972514e-14
0.34250154188439125 0.5537542273437294 0.602358316468375 -1.8227798425125425e-14
0.31082187730844724 0.5537542182318087 0.5563754034830678 -1.4591446548952005e-13
0.050583504007046365 0.5537541637826975 0.2816003126732439 4.51411001086519e-14
0.19745324574090556 0.5537542577332566 0.755717725089731 -8.168046260853884e-14
0.12740668232831912 0.5537541791623624 0.35921312817498124 4.4979413364527026e-14
0.24610159677574306 0.5537542546727046 0.7402727878376957 1.7744764179962105e-13
0.27487446137347005 0.5537542254073198 0.5925863035569933 5.191700671646838e-14
0.1679756862599731 0.5537542004879418 0.4668317386740257 -2.02287038352687e-14
0.0881268086176199 0.5537541979147846 0.45384640597607406 1.0812894524032605e-13
0.012505871530265512 0.5537541781493897 0.35410119407174057 0.06974909284599708
0.06132180998571414 0.5537542152176868 0.5411647434420089 -8.9459354730126e-14
0.2834874227482117 0.5537542688097271 0.811614659328818 0.073647149233053
0.025660454275770853 0.5537542603742303 0.7690452668495678 0.041370493151168926
0.12783312480776812 0.5537541851003802 0.3891790766950798 1.1783899648584235e-13
0.27063739388653285 0.553754223058144 0.5807312897856823 -2.2496415815884615e-13
0.044251017039750117 0.553754205602669 0.49264297395259293 -2.3698090186653535e-13
0.14941052086777856 0.5537541947029667 0.4376381122162405 4.78886341227636e-14
0.5794191002155252 0.5537542695202523 0.8152003232863474 0.09156071598673263
0.18384256551167813 0.5537542096608653 0.5131224986830626 -8.494359832320473e-14
0.5075413781387512 0.5537542616605208 0.7755365238903464 -1.5840774592534182e-13
0.010321447794990866 0.5537542160848339 0.5455407581674555 0.08680195366473539
0.01735020804659822 0.5537542350222713 0.641107710882302 0.0741572695827549
0.013857262187941704 0.5537541670827453 0.2982538559689717 0.07358775340341857
0.37500852113421523 0.5537542351639598 0.6418227716425989 5.281669744683432e-14
0.08274249853393607 0.5537542061765449 0.4955390176089389 -2.879882642198127e-13
0.05591477265146575 0.5537542668094858 0.8015205058364394 0.08018485909925983
0.052824762766350196 0.5537542591150638 0.7626909405666034 -1.4173177026504597e-13
0.33518259590467764 0.5537542568846887 0.7514354790396514 1.1044897517445434e-13
0.13862689685609306 0.5537541967339885 0.44788757452110056 -8.460737467141431e-14
0.4683319726576738 0.5537542503874836 0.7186476298262667 1.8312477372484518e-13
0.041753113605322065 0.5537541971388807 0.44993083556257035 -8.998474608777803e-14
0.23126888626142605 0.5537542136351921 0.5331787703127417 -2.1606649104268097e-14
0.012087596885686669 0.5537542111459053 0.5206166707730163 0.09122707891844083
0.38230605805063045 0.5537542274328999 0.6028083159412039 -2.538310775176384e-14
0.07244316868961968 0.553754226037128 0.5957645823673043 -2.1183242222828769e-13
0.2533997892064077 0.5537542130690876 0.5303219507782165 -8.617739480219438e-14
0.14675009858995525 0.5537542265997375 0.5986037745124942 1.211603839432523e-13
0.3952131934511734 0.553754246654184 0.6998076892338586 -1.805615262468028e-14
0.5192935273576167 0.5537542563166303 0.7485688153280656 1.1860310421775597e-13
0.10190643059426267 0.5537541994837354 0.46176404863459797 -2.0612661225136056e-14
0.31148623180790863 0.5537542699356309 0.8172964862901458 0.07357619094356485
0.11562741907012436 0.5537542436857075 0.6848273732524174 -1.9181073441721628e-14
0.14571155673488892 0.5537541852255394 0.38981068881065456 1.1042056788609228e-13
0.10024664013377797 0.5537541842250757 0.3847618877309017 1.1033428955302978e-13
0.32261936104974087 0.553754247576125 0.7044602169681675 1.8818462460995739e-13
0.030585703858471227 0.5537541961413467 0.44489682229017513 0.020862822075712554
0.09663995895648132 0.5537542529851679 0.7317566927064132 1.7684387674517491e-13
0.2355039741139964 0.5537542593036864 0.7636428349548087 3.7190841739569024e-13
0.373720502765067 0.553754253099195 0.732332154283787 -8.864423822899213e-14
0.2491689352561986 0.553754210642339 0.5180754692339484 -2.0590739967457004e-14
0.21566376505966733 0.5537542094179717 0.5118967499196287 -1.8556571594307924e-14
0.3142814044122808 0.5537542232378146 0.581637994108352 -1.553711131661806e-13
0.06335452550889044 0.5537541883761147 0.40570992110282467 1.2239245001987818e-13
0.2761641027112579 0.5537542281559712 0.6064572530061403 1.778316789115196e-13
0.09525521996630291 0.5537542556923631 0.7454184356753288 2.5778769336747005e-13
0.0043910963430287345 0.5537542591686524 0.7629613681798296 0.08257236323468382
0.44306919384337917 0.5537542425787985 0.6792414385040152 1.0077994707606341e-13
0.2758671923020285 0.5537542118327101 0.524082627847077 -8.588095267646012e-14
0.10646282165349534 0.5537542652273213 0.7935361872788118 0.0390874112276792
0.2269560187654262 0.5537542673508133 0.8042523089492886 0.06530645080711395
0.17670648459009827 0.5537542076496385 0.5029729291098327 -8.242484262705312e-14
0.05140068148064147 0.5537542372156217 0.6521763619795528 -2.0322576968452798e-14
0.23444323828055294 0.5537542473702637 0.7034213376707718 -8.386107433595911e-14
0.28847277468334315 0.5537542104438986 0.5170740522138038 -2.7825996942900184e-13
0.1676707815622694 0.5537541845029369 0.38616410881838015 -2.485570165881308e-14
0.18123531140755958 0.5537542446010868 0.689446801613559 4.073388489774897e-14
0.027455331636912175 0.5537542088843339 0.5092037508488962 0.018988861164183003
0.1739485179143209 0.5537542611317858 0.7728682528980191 -8.841577768219183e-14
0.06295057287999052 0.5537541955462828 0.4418938614029799 4.4196042467416397e-14
0.06648380162200573 0.5537542127769473 0.5288476586725189 -9.038198551344338e-14
0.15305876189179884 0.5537542530577018 0.7321227376799291 -1.504810340774571e-13
0.2937416526601646 0.5537542185258696 0.5578593670527695 -8.777188917733687e-14
0.12281767439703543 0.5537542371870274 0.6520320686304353 -1.556709354855476e-13
0.28190089061540335 0.5537542539866184 0.736810487742812 4.664437504675942e-14
0.0659982815935393 0.5537542324263109 0.6280073151288221 -1.674175885504593e-13
0.19707755602432953 0.5537542082206806 0.5058546706009168 5.31022600150753e-14
0.3104435703232747 0.5537542556640683 0.7452756684864039 2.0164562313027806e-13
0.014435169226675142 0.5537541752679919 0.33956034613263064 0.06381404005691292
0.13566006190219626 0.5537541925965349 0.42700809485109403 1.0697978226122385e-13
0.10868308342353279 0.5537542310444116 0.6210336246077258 5.315473531198923e-14
0.038512052421631054 0.553754192233809 0.4251776047344876 0.0029116652039849985
0.19809782109193644 0.553754254304955 0.738416950913592 -2.0525057347375997e-14
0.5921967992603018 0.5537542699390963 0.8173140026716689 0.0879993813642774
0.07544041543044011 0.553754187522072 0.4014000328381324 1.8741396499022592e-13
0.13066145526989553 0.5537541875049518 0.4013136420476535 -1.4649103556872897e-13
0.26223754438355457 0.5537542046651209 0.48791170032806985 1.0233114863230963e-13
0.0921875369378441 0.5537542044726662 0.4869404689283132 -2.6537122941483237e-13
0.02094761004323038 0.5537541624294251 0.27477107942985884 0.04378052569205381
0.5472719378353962 0.5537542676705179 0.8058657163115841 0.06560505314583102
0.05599135917961286 0.5537542173194906 0.5517714042466833 -1.5967411984727858e-13
0.041839718668295556 0.5537542655783481 0.7953076211470742 0.0524490351504452
0.319169363544364 0.5537542257868482 0.5945015809159848 -8.594626758233557e-14
0.2445076802035109 0.5537542337159065 0.634515220904837 4.7456995575794603e-14
0.11079318843500505 0.5537542222115466 0.5764589564275011 -2.910668802043206e-13
0.14464562153321564 0.5537542553132323 0.7435051733743357 -1.5486130833600575e-13
0.002514862620457943 0.5537541642923515 0.284172254631267 0.08674063216220439
0.3676275906510207 0.5537542375327056 0.6537765436242572 -8.456358913968717e-14
0.37532339847555507 0.5537542687772756 0.8114509036030421 0.06247266136474755
0.06252449018549791 0.5537541664426121 0.29502345730615426 1.2074761119511759e-13
0.3321690228753971 0.5537542248733149 0.5898914767754024 -2.7419748084018117e-13
0.36750974274046877 0.5537542332302083 0.6320641785406105 -2.2001322674585287e-14
0.18913899171304693 0.5537542208185664 0.5694293510758355 -1.6678608148759378e-14
0.07570978807265592 0.5537542177964229 0.5541782241451216 -3.045735999285134e-13
0.11411508820021528 0.5537541753888182 0.3401701010764169 -2.617466432847974e-14
0.20469535827599974 0.5537542387408239 0.6598732430377195 -1.721024627045822e-14
0.11586820683517356 0.5537542534439801 0.7340720705273023 4.58517179279846e-14
0.39262540854787475 0.5537542611361519 0.7728903077497511 1.1738192028402414e-13
0.10224720727277131 0.5537542493047815 0.7131837834290322 -9.143452385897868e-14
0.2662172673169175 0.5537542068197143 0.4987847625716081 5.81600513639549e-14
0.09493291843492184 0.5537542147743231 0.5389273315974036 -1.5781159253758483e-13
0.2337437044659762 0.5537542536598311 0.7351613651402381 -1.8584986108898995e-14
0.07124345889463224 0.5537542024807017 0.47688810518562014 -8.948607199171983e-14
0.21322312754581918 0.5537542481964713 0.7075907566880595 -1.991545191651853e-14
0.24986658529598357 0.5537542679359555 0.80720520526129 0.060730685881267094
0.20025805980859349 0.5537542050144721 0.489674680212415 -8.185767363370823e-14
0.03184263867357269 0.5537542699460518 0.8173490474101546 0.05721594591744198
0.39625260301721027 0.553754248703639 0.7101501742395713 -1.739832812525462e-14
0.2512747383949056 0.5537542356355769 0.6442027547446632 -8.765374874866446e-14
0.11176020100437561 0.5537542273210119 0.6022436506933245 -8.560430163298504e-14
0.29512315446658527 0.5537542633068638 0.78384470127636 0.012398961789561468
0.08268655387206562 0.5537542516158682 0.7248465802881594 4.7241126493430264e-14
0.016096928367354366 0.553754258668675 0.7604382552750616 0.07764757337532147
0.1777134141457421 0.5537542373475234 0.6528420104478629 -1.6426405514801513e-13
0.12559055547053535 0.5537541971572224 0.45002340446796385 -1.851241642768154e-14
0.30853807579758286 0.5537542625959702 0.780257208149363 5.556031789228814e-05
0.47035645958294986 0.5537542648873581 0.791820614513486 0.02964812505587302
0.13146377824767147 0.5537542384347491 0.6583286427920495 -2.1371707492425585e-14
0.5254548318616491 0.5537542582871817 0.7585131177566485 1.1724358111371426e-13
0.16344156542226174 0.5537542077605548 0.503532662958903 -1.667548703495853e-14
0.04121868998248646 0.5537542080600861 0.5050442218002286 -9.284193347753586e-14
0.37048869675774304 0.5537542597192355 0.7657398988504861 -2.066985122348658e-14
0.24190222381468324 0.5537542495749149 0.7145470142820349 -1.8619806337774643e-14
0.294689954552434 0.5537542424616797 0.6786503889577177 4.390772790414533e-14
0.1712378731502151 0.5537542230418944 0.5806492766204512 -1.3860519133593513e-13
0.05240668942902804 0.5537542568246582 0.7511325082280451 -8.626539659870976e-14
0.382622393668344 0.5537542371113502 0.6516501926251236 6.040506044674776e-14
0.3533226698943521 0.5537542559044069 0.7464885308080836 -2.2024932795389007e-13
0.3341773714970935 0.553754242853784 0.6806291300996397 1.8336523616720313e-13
0.2735582879323771 0.5537542595894918 0.7650851431828312 1.6956406514008305e-13
0.24193268745320876 0.5537542053315273 0.49127468931635243 -1.852194376830497e-14
0.324119031623006 0.5537542161745583 0.5459935797623626 3.981210916639298e-14
0.07244926617313126 0.5537542530398593 0.7320326879109332 4.748770459029365e-14
0.4230935625478159 0.5537542604883522 0.7696212174158004 -2.0103520207435242e-14
0.07617392626204601 0.5537541759780626 0.3431436936339086 -1.6391471855264763e-13
0.3587183279307198 0.5537542609644938 0.7720240392555108 -1.6113934838624132e-13
0.22806128465831677 0.5537542169377391 0.5498449290699142 -1.9928558545132223e-14
0.029877195246884983 0.5537541895243241 0.41150430618797257 0.02314071877023737
0.4591607738209108 0.5537542485408427 0.7093286356942079 4.879870195986138e-14
0.12413512074627697 0.5537542516856442 0.7251987061823687 4.6551184677132196e-14
0.08355254179761179 0.5537542295120087 0.6133004175030943 -1.6964822965538628e-14
0.14270224095108636 0.5537542151022603 0.5405822570897232 5.369441420491456e-14
0.18489824166690916 0.5537542652772112 0.7937879616877535 0.0396308472511229
0.18007567704528107 0.5537542179510138 0.5549583709399047 1.7094751118602253e-13
0.1314889962518274 0.5537542258288431 0.5947134883365294 -9.511617045797633e-14
0.037150400730175746 0.5537541993766014 0.46122339509827515 0.003153743317121164
0.05669394844515863 0.5537541687173084 0.30650261221956343 -8.806564073320345e-14
0.05043218998692008 0.5537542692956137 0.8140666409462021 0.08268468543709172
0.44326812416734224 0.5537542399088484 0.6657676517324151 1.803631199181489e-13
0.04051362895678316 0.5537541719771525 0.32295327150693953 -2.0404658119569643e-14
0.09135950106564064 0.5537542581231497 0.757685293547553 1.1047824138009056e-13
0.10733545459007522 0.5537542192040318 0.5612816643419084 -1.551987613704963e-13
0.12926472445451342 0.5537542207449493 0.5690578394128835 -8.703340225338138e-14
0.43422992351283746 0.553754262147863 0.7779958678144955 2.481843787157626e-13
0.2705304214975434 0.5537542206815207 0.5687377634974469 -1.598291577645005e-13
0.3351906243668852 0.5537542546911436 0.740365848784147 4.5359747667436346e-14
0.25442824993747587 0.553754222802435 0.5794408644844679 -2.08000689729389e-14
0.028926726973068792 0.5537542062889608 0.49610631391828525 0.03009849218760895
0.26494160062006983 0.5537542132574615 0.5312725724512533 -9.208106626797078e-14
0.47207155441148446 0.5537542683644485 0.8093675995073101 0.07561546134409676
0.17569545705172485 0.5537541893074424 0.4104098367479299 4.803027825292179e-14
0.24845908513480183 0.5537542280008769 0.6056745740508778 -2.192883726069475e-13
