x y z curv
0.0 0.12352765062670616 0.7790217936132013 0.22416305318440094
0.0 0.15301038510564788 0.7803202571178276 0.1835914533135943
0.0 0.2519029611822688 0.7861694419962111 0.1608596011057951
0.0 0.2755081912782265 0.79678997597796 0.17834221646403534
0.0 0.08261399406748 0.7839949803786579 0.12468375947210147
0.0 0.07089928305040202 0.7828715771554409 0.14960857878748643
0.0 0.10383087214106537 0.7919103677902153 0.140509460699381
0.0 0.09286233221988487 0.7890645516645226 0.14779907919436586
0.0 0.30027722067388474 0.802367395149574 0.16688737006738502
0.0 0.310357073310404 0.7974198897620276 0.1639977458340878
0.0 0.13768381479284453 0.7898706692965072 0.1387649224752599
0.0 0.05804689117413529 0.7806094753446174 0.20697664875734603
0.0 0.21768886518196762 0.7946931440957181 0.1591553807321141
0.0 0.19574007910550642 0.7944635601454801 0.18249570926585898
0.0 0.4069770577228214 0.8046900610663986 0.10213877554022596
0.0 0.1260105334327707 0.7923073289033152 0.15901877339879633
0.0 0.17343251353279196 0.7867986706135445 0.17865279115565058
0.0 0.22870979050303086 0.79156729618029 0.15934864064621654
0.0 0.15109424252627468 0.7921379956260958 0.1325777914595499
0.0 0.24691648769970775 0.7975666827835707 0.14402412814649163
0.0 0.09377885969702027 0.8007758950127557 0.12158314944348568
0.0 0.2849607289109157 0.8029058451143949 0.16701020738690545
0.0 0.1379743919367837 0.8013871892728475 0.1312551632090488
0.0 0.1614012333305082 0.7989347827354875 0.1553973425263463
0.0 0.17424419218677506 0.8009129609063304 0.1332509822956667
0.0 0.3410409938734492 0.8073191681322243 0.12359935699598018
0.0 0.43414042161926053 0.8113680333998787 0.11929550925483944
0.0 0.25955759944818635 0.8036728503221312 0.15920395519890623
0.0 0.4553789499209777 0.8113994009518687 0.13290205758056906
0.0 0.12049676071581215 0.8024232029390461 0.12627096491998563
0.0 0.05545066014375857 0.7970441508274113 0.16327909004388239
0.0 0.06967901255499742 0.7962227600261342 0.15530440518576505
0.0 0.36426202652167955 0.8093953563520041 0.14044329310894496
0.0 0.32004943728768587 0.8050675388792956 0.13908945985101137
0.0 0.48033640552338774 0.8134997404509337 0.1330718107893095
0.0 0.3760301408950502 0.8115736875503421 0.12136222064092901
0.0 0.387406423905327 0.8120537296422716 0.1324447173969296
0.0 0.27196272488425144 0.8089846021293716 0.15754431477182107
0.0 0.216376919584918 0.807677406830681 0.13023046147711514
0.0 0.23758535909479256 0.808744237937471 0.0901372990239758
0.0 0.16360811884651544 0.8093131493982361 0.1472139449973163
0.0 0.186080556119199 0.8116450183115343 0.1432644194273318
0.0 0.20798242082628313 0.8145278484400245 0.09326505341509853
0.0 0.12793515398043145 0.810890071942069 0.11726065064132875
0.0 0.0763056687101046 0.8053559110019617 0.13521504978780247
0.0 0.10691667181061609 0.8105619573935152 0.12112975927904832
0.0 0.06555227256518635 0.8086002134063514 0.14299069078068857
0.5960000157356262 0.4431775075621383 0.018209565571839528 0.07688067131339132
0.5960000157356263 0.4863472153328823 0.019065741097131165 0.07672616186017776
0.5960000157356262 0.12826877371672143 0.019128030988933908 0.08463002437723274
0.5960000157356262 0.4322805352678841 0.019637875377916426 0.06854838839750566
0.5960000157356262 0.3325433032648095 0.018949055574095354 0.07755041488178173
0.5960000157356262 0.5291294564173764 0.018710071250384513 0.09061010467963009
0.5960000157356262 0.29432211761537935 0.020556118344785552 0.07061337983304107
0.5960000157356262 0.41936980343700797 0.01836921393234394 0.06857840050823209
0.5960000157356262 0.2790491577007025 0.020449926263526125 0.08193459238552027
0.5960000157356262 0.22050353638557127 0.01947459773633429 0.06685243398546857
0.5960000157356262 0.3786101237260105 0.02265034767771348 0.07001655362527226
0.5960000157356262 0.4563753605852248 0.023280310879858858 0.09358567125862505
0.5960000157356262 0.3558372643752436 0.027279982763783742 0.11641241878824725
0.5960000157356262 0.46137214693111345 0.03536162317780883 0.13326476389325229
0.5960000157356262 0.4411041302786169 0.035043381467843235 0.11277169417131076
0.5960000157356262 0.47576315669257485 0.03398889353063739 0.1850434758858962
0.5960000157356262 0.49096993909800063 0.032924323699980135 0.09750854693363264
0.5960000157356262 0.16522474300385645 0.022763322630671816 0.08124361373988274
0.5960000157356262 0.4272669278620344 0.031129972082939245 0.15753076037540786
0.5960000157356262 0.41522911100510695 0.029583747736676977 0.128558234006697
0.5960000157356262 0.5303642711125961 0.03350017502612623 0.09180351214339343
0.5960000157356262 0.32080953559464626 0.02587924125089603 0.12570102534649316
0.5960000157356262 0.36860700799483886 0.027759106525667935 0.0732916754038805
0.5960000157356262 0.304597837520819 0.02752835589151415 0.07967789338615672
0.5960000157356262 0.25762443715602795 0.026870126531897656 0.08176294253931499
0.5960000157356262 0.5015374797360289 0.03275720491391866 0.16415872541173948
0.5960000157356262 0.5168487633819244 0.03316779209391577 0.12343008666956094
0.5960000157356262 0.34457947377774034 0.03127819371202535 0.14951420194799303
0.5960000157356262 0.40297994215610483 0.030781655532853246 0.12236750574671143
0.5960000157356262 0.2909878349760551 0.03260405472718899 0.16384366288020877
0.5960000157356262 0.3316152140156761 0.0334901193591826 0.15487997063700443
0.5960000157356262 0.4755419191027486 0.045509350216006716 0.1683490997411508
0.5960000157356262 0.2395930745424602 0.031419629395609563 0.1290679606119817
0.5960000157356262 0.4509246425621113 0.046324979163129686 0.15584069407213252
0.5960000157356262 0.37875591214845233 0.03976857141834651 0.15906205027495315
0.5960000157356262 0.5216995300736667 0.050236037366335695 0.13647247893221204
0.5960000157356262 0.3927660267023403 0.038419966723194164 0.1730464527769371
0.5960000157356262 0.41916235086423326 0.04133961622617736 0.16182904126927755
0.5960000157356262 0.2682403592029467 0.03095227733990671 0.11043850331897334
0.5960000157356262 0.2129876570223886 0.03192724418221475 0.11670399668412651
0.5960000157356262 0.49025817574788083 0.05387229539496929 0.1694716360938984
0.5960000157356262 0.5092398298838808 0.05308216195652447 0.12480098009810009
0.5960000157356262 0.3664121695685789 0.04268940979259889 0.15521670779424
0.5960000157356262 0.30653599526243314 0.040172096753169205 0.17682121213509358
0.5960000157356262 0.40640212518604973 0.048966561408085196 0.13935546727276069
0.5960000157356262 0.3888549569910132 0.050409568797152984 0.18717351002260285
0.5960000157356262 0.4652332515950765 0.05499032754541007 0.16992577192520672
0.5960000157356262 0.3250568181892059 0.04290167092566947 0.15713684119125068
0.5960000157356261 0.5148075109218905 0.06446303132637353 0.16690533291033818
0.5960000157356262 0.35492536700899 0.044605021659007885 0.14985226140584545
0.5960000157356262 0.34264178637599196 0.04254711832612344 0.15816485296994584
0.5960000157356262 0.43133776482220093 0.05110483807932089 0.16411649949626442
0.5960000157356262 0.24787342011876096 0.03892122146308584 0.16876162279177673
0.5960000157356262 0.4816131749971261 0.07145239619976093 0.21557462339857517
0.5960000157356262 0.19937385233375438 0.036437858877549016 0.18047540292119127
0.5960000157356262 0.43469658426122737 0.06197684262637679 0.21835568381400258
0.5960000157356262 0.39629209560914086 0.060549951539656297 0.19766883376091102
0.5960000157356262 0.4558934887045123 0.06648688106932595 0.20655020837333726
0.5960000157356262 0.4148930868091332 0.060920595983220756 0.19462460439068485
0.5960000157356262 0.5134709343422177 0.07568168780780936 0.17012482158173428
0.5960000157356262 0.1843959229902144 0.034328039803852635 0.18006468303401377
0.5960000157356263 0.5277664494186658 0.06720868266697375 0.08245501356893675
0.5960000157356262 0.15434324499473218 0.02905604107112382 0.13130133373896954
0.5960000157356262 0.2221164506635741 0.038060676466512025 0.1243787590311401
0.5960000157356262 0.375821512553439 0.05699587030758755 0.1582616809203832
0.5960000157356262 0.4706198700119363 0.07419874245558715 0.19653383845345165
0.5960000157356262 0.5332266725521074 0.08341937559988838 0.09824596153876326
0.5960000157356261 0.43262981419761226 0.07351704057325155 0.17420372783172022
0.5960000157356262 0.1664322181594479 0.03482526852463079 0.14980731618455162
0.5960000157356263 0.500697000287404 0.0753122549589132 0.22003832737448448
0.5960000157356262 0.3282349524178261 0.05616757030472429 0.1628852899836711
0.5960000157356262 0.2891653102920224 0.04813308977190791 0.16870207350881877
0.5960000157356262 0.2607075478884806 0.04814067139076153 0.1691023175983811
0.5960000157356262 0.13889444705333193 0.02985711837564651 0.1128549567903879
0.5960000157356262 0.44567940319625193 0.07101759406485683 0.182499133599309
0.5960000157356262 0.3600361566769212 0.05883150777645741 0.196765811586819
0.5960000157356262 0.3136446220641068 0.0520461462914877 0.20733004705506383
0.5960000157356262 0.34718315213369105 0.058299401455444474 0.2037829959159372
0.5960000157356262 0.38635147215940724 0.06715568734387281 0.2265083978703855
0.5960000157356262 0.3587619148860424 0.07122214674134081 0.2028251349125577
0.5960000157356262 0.4479773173034217 0.08228566191946002 0.2174488034287129
0.5960000157356262 0.5125042608103203 0.08815486735858234 0.16814736516198264
0.5960000157356262 0.48473632776605646 0.09028719455936098 0.2131190642962215
0.5960000157356262 0.3198797827566037 0.0639329586139275 0.19519462948681465
0.5960000157356262 0.402980320352219 0.07233670740649217 0.20449364981057913
0.5960000157356262 0.37623316011667524 0.07438019151870101 0.214118129311613
0.5960000157356262 0.21059867267168303 0.04551805123063569 0.17023404933708888
0.5960000157356261 0.49948652226354356 0.09005349952398622 0.20000675198103285
0.5960000157356262 0.41890598310638727 0.08031103535994073 0.2350294993914618
0.5960000157356262 0.2950978335784068 0.057221296910326576 0.19527246961849645
0.5960000157356262 0.24323231453923413 0.04963972125872714 0.18465480661613556
0.5960000157356262 0.46293165183569746 0.08780010839035898 0.2235423437044711
0.5960000157356262 0.47450305372102264 0.09760282480542473 0.2288386876324885
0.5960000157356262 0.3055497777991681 0.06509463373739284 0.24008690916341652
0.5960000157356262 0.09011606565532788 0.025210775944815966 0.10483371076063289
0.5960000157356262 0.22748308558274116 0.052356591959701194 0.20169392844847683
0.5960000157356262 0.27017003959235786 0.05798454551462126 0.21636192153131448
0.5960000157356262 0.18955701095028843 0.043796242788857784 0.16262742284435058
0.5960000157356262 0.39412049728093107 0.0799957181748218 0.22037836612947184
0.5960000157356262 0.43041952828652646 0.08574354708538164 0.23804215550997776
0.5960000157356262 0.4920953358795556 0.10212381172327904 0.18275785644188386
0.5960000157356263 0.4425190065364512 0.09609661866370695 0.22025513678662736
0.5960000157356262 0.5206424457330707 0.10367795865849469 0.1096999495806498
0.5960000157356262 0.5038436208765306 0.10576243248328562 0.1931663477610199
0.5960000157356262 0.5315105728947416 0.106842009379434 0.057088173795035176
0.5960000157356262 0.462428549430301 0.09997674276600324 0.21521185993140984
0.5960000157356262 0.406395007932888 0.08354312579525791 0.24301735282877474
0.5960000157356262 0.28422793040067856 0.0693299342730999 0.20766933050241185
0.5960000157356262 0.3303499971047038 0.07442505095338528 0.19533717834910272
0.5960000157356262 0.4765586189248053 0.11281351268512281 0.2041053478424613
0.5960000157356263 0.495996756374095 0.11716921095562155 0.1537614640437798
0.5960000157356262 0.17819750709107288 0.045558776154015046 0.1778521200556967
0.5960000157356262 0.5219581869983876 0.12407739451739595 0.13126146178218434
0.5960000157356262 0.5124926611295639 0.1137794491016457 0.15738737096105118
0.5960000157356262 0.3651143343649785 0.08153881367578938 0.21809586139725806
0.5960000157356262 0.45302214052901896 0.10787781427266013 0.185501987918303
0.5960000157356262 0.4199569818034673 0.0928725758900702 0.22651801116085296
0.5960000157356262 0.2519360415547885 0.061700106351209635 0.2283929866142827
0.5960000157356262 0.389077354742176 0.09258467465087947 0.22453256561285873
0.5960000157356262 0.2640372163601482 0.068801844754147 0.22172600256014474
0.5960000157356262 0.3562257299954307 0.09113515322371683 0.21732013404831693
0.5960000157356262 0.5313084954866238 0.13085822849611314 0.10044864350185535
0.5960000157356262 0.3703979469493709 0.09066476798892653 0.21580652589051363
0.5960000157356262 0.16704128719045602 0.046540766831555495 0.14264949473451966
0.5960000157356262 0.5102308337506075 0.13015234294712957 0.1526084742590791
0.5960000157356262 0.4021890836446552 0.1061617732149312 0.24702670539613092
0.5960000157356262 0.4341144514285696 0.11311010361534311 0.20622878207085962
0.5960000157356262 0.48897698351396796 0.1250023098602441 0.16028275697372976
0.5960000157356262 0.23773643527353105 0.06264036436138101 0.21492341933623446
0.5960000157356262 0.3421174468844134 0.0850973379817532 0.23395614170869974
0.5960000157356262 0.41480127793516053 0.10328552904350854 0.19188137278758244
0.5960000157356262 0.3081634588622553 0.08169268925803969 0.21940176581906778
0.5960000157356262 0.15413762588648663 0.04354466906017056 0.14770427388348595
0.5960000157356262 0.457672046801118 0.12997795378395982 0.20520677433846984
0.5960000157356262 0.2011990571798394 0.05641547479765087 0.22820997786851888
0.5960000157356262 0.5303622678558741 0.14914524123087083 0.13906064096048518
0.5960000157356262 0.21682458048679434 0.05979569665036407 0.22988301791636204
0.5960000157356262 0.4655685613267117 0.12277810202124734 0.22611021015183827
0.5960000157356262 0.29250060355224616 0.0827154734847221 0.22484165695820943
0.5960000157356262 0.4468675554024687 0.12202603091049874 0.2042397208117079
0.5960000157356262 0.3875463807101947 0.10598196766855904 0.21455519094784312
0.5960000157356262 0.4117642021930852 0.1174695982680484 0.22421674969815775
0.5960000157356262 0.4965630093049948 0.1410017397444018 0.177449187441195
0.5960000157356262 0.39464348496246526 0.11599951563233701 0.21809731880071506
0.5960000157356262 0.3516469954066656 0.10183008235390206 0.2305873389747847
0.5960000157356262 0.3395835050398906 0.09973729992043703 0.23189747917746026
0.5960000157356262 0.47863896387998284 0.13744655495648775 0.20469086923095722
0.5960000157356262 0.22490127504313978 0.06824361536331443 0.21088233183308902
0.5960000157356262 0.3656090499975121 0.10729621827951001 0.21958646987935007
0.5960000157356263 0.5185910419298653 0.1479685030655729 0.1471684856680516
0.5960000157356262 0.42076882460916454 0.12872657997492656 0.23186440381275503
0.5960000157356262 0.26527818219044685 0.0818757121069479 0.2097018666158782
0.5960000157356262 0.4475901481398107 0.1363836576646665 0.21342332289661284
0.5960000157356262 0.5077970419464998 0.14486496758451226 0.16818253199609542
0.5960000157356261 0.5273823218363612 0.16135906851029314 0.17270016889608855
0.5960000157356262 0.3103476364479858 0.09523971580010601 0.23840480379092355
0.5960000157356262 0.4361548431431855 0.1304931673164268 0.2394496448854928
0.5960000157356262 0.3226264966764139 0.09634548286144239 0.24443649121328165
0.5960000157356262 0.18437067469792273 0.056809060156501515 0.18868053454896705
0.5960000157356262 0.4739038057837543 0.148740829420878 0.21511686216166945
0.5960000157356262 0.2745698648207061 0.0882839428635204 0.21175160922515832
0.5960000157356262 0.21187564911975967 0.07011967711470016 0.21300826208106116
0.5960000157356262 0.42900183310439943 0.1395535358892169 0.2297690686348035
0.5960000157356262 0.49751749562020847 0.1546625697855669 0.19561461653632162
0.5960000157356262 0.32987951591363907 0.10806097513767829 0.21180468743966838
0.5960000157356263 0.3909769779626647 0.12886945568527963 0.20298788003450113
0.5960000157356262 0.23595660956317013 0.07648508485701976 0.1960843791422194
0.5960000157356262 0.2968363697636379 0.09278333218587671 0.22393740380334443
0.5960000157356262 0.4061020144951635 0.13146749046796571 0.23919887216345956
0.5960000157356262 0.5102935818635607 0.15717198445964314 0.1584545958289264
0.5960000157356262 0.3744837799781637 0.1208258319757555 0.20785279293649103
0.5960000157356262 0.5172050270925845 0.16971959862333302 0.15884413227720615
0.5960000157356262 0.48678035852354046 0.1534586965149329 0.23596845837442643
0.5960000157356262 0.4591701002264417 0.1435342255000543 0.1870373020217326
0.5960000157356262 0.5249520880717845 0.1825638126823749 0.12670466820336498
0.5960000157356262 0.49975989798006837 0.16803247006212071 0.20138035981949232
0.5960000157356262 0.2508897598236079 0.08390695940971994 0.19442288003907598
0.5960000157356262 0.3418049714673009 0.1186845404702585 0.23966770432469997
0.5960000157356262 0.360193611613857 0.12063169315172256 0.2203161947926196
0.5960000157356262 0.4740413976890338 0.16440443530519822 0.22305305916338475
0.5960000157356262 0.10698242455214702 0.036275789224786026 0.13376564150374157
0.5960000157356262 0.4142545241126775 0.14090848388301297 0.21641227745335792
0.5960000157356263 0.48515563670558925 0.1693307971977499 0.2113351442370877
0.5960000157356262 0.4654180075724745 0.1565739010092913 0.21666422189990087
0.5960000157356262 0.13627419580683764 0.04532426699712795 0.18521114422584906
0.5960000157356262 0.4107195062012441 0.15303216412203816 0.22256974006468913
0.5960000157356262 0.14632372149894948 0.051282511074639506 0.17253071625531335
0.5960000157356262 0.3080600180968347 0.11126726923720671 0.2260156928801188
0.5960000157356262 0.3799539732264537 0.1374802019796207 0.21673022016017673
0.5960000157356262 0.26257407103488734 0.09696710132781167 0.21255985992881996
0.5960000157356263 0.4408204427311892 0.15543062798635734 0.23744828792032716
0.5960000157356262 0.42275298390357946 0.15613764121443566 0.2563868831207726
0.5960000157356262 0.12442857054499654 0.04329056247190563 0.14017487946088544
0.5960000157356262 0.4540586000060344 0.16200173212780106 0.22531382111973658
0.5960000157356262 0.28035783108704143 0.10233471385074054 0.210581421199865
0.5960000157356262 0.29203069046332397 0.10289057354856845 0.23821284226182024
0.5960000157356261 0.4906339572627415 0.19231806551119046 0.2151164307214698
0.5960000157356261 0.5047308506604741 0.1926790183440342 0.17381642369797076
0.5960000157356262 0.33843394551535655 0.12885301323078466 0.2085966742384265
0.5960000157356262 0.5251793126614027 0.20464574567026825 0.17325141616447928
0.5960000157356262 0.24141795698377497 0.09345812261789138 0.21353684098231232
0.5960000157356262 0.431784189031877 0.16787039041611526 0.22518180315142242
0.5960000157356262 0.35396554259989366 0.133740604665846 0.2074189105517001
0.5960000157356262 0.17359460477238023 0.06559131599376315 0.21187348112980564
0.5960000157356262 0.44551460134312915 0.17151721245469662 0.2157953147842357
0.5960000157356262 0.36436639149872757 0.13736389401856003 0.20643004653469937
0.5960000157356262 0.37291170978256 0.14739775357028928 0.195071493534129
0.5960000157356262 0.47568064321835635 0.1786812002765827 0.24182137182622856
0.5960000157356262 0.15930891988477372 0.05950209735801863 0.16571356076362573
0.5960000157356262 0.38984600910921685 0.151792943177665 0.2208181400950611
0.5960000157356262 0.3589326012518484 0.14707194829304396 0.21435851775153136
0.5960000157356262 0.18393886000561147 0.07199364831236561 0.22115178129514187
0.5960000157356262 0.3229188791063149 0.13053762350439607 0.2123090752701015
0.5960000157356262 0.310312843344178 0.12624060634393036 0.2168783216795585
0.5960000157356262 0.5096163625526033 0.20337740477886182 0.18596113024399957
0.5960000157356263 0.4977698760491976 0.20128120776183242 0.22706448591904987
0.5960000157356262 0.21372191403130972 0.08368217290808683 0.19939327765570525
0.5960000157356262 0.2870209624957826 0.11484472533385832 0.21865763592110748
0.5960000157356262 0.4083792428263394 0.16686458539670812 0.22876757229745778
0.5960000157356262 0.3992026827905122 0.16022282362742218 0.2300650774049063
0.5960000157356262 0.5173878608522281 0.21447674984531795 0.16066807153478077
0.5960000157356262 0.2521757574873792 0.10336216753417231 0.2287768959308969
0.5960000157356262 0.4545305353060184 0.18806811240047838 0.23833009541698458
0.5960000157356262 0.42041811939666746 0.1726244550098834 0.219814818018115
0.5960000157356262 0.34360365918999375 0.14221471535276523 0.2133122504248506
0.5960000157356262 0.5259639926860743 0.22275306921291713 0.15863141610165543
0.5960000157356262 0.222141148004279 0.09470900265501175 0.2404173567472215
0.5960000157356261 0.5307096101637236 0.23298173034108316 0.13453522312491495
0.5960000157356262 0.3887193871347903 0.16675031491179224 0.20291519665362726
0.5960000157356262 0.37557296494128284 0.15803763112538957 0.21372235869082443
0.5960000157356262 0.3623022200210547 0.15838761146349173 0.17776150797553636
0.5960000157356262 0.29973888919309544 0.125007524208167 0.22406258469524523
0.5960000157356262 0.503091838216977 0.21664064556533305 0.21085637281581818
0.5960000157356262 0.47313709615165656 0.20125797531919423 0.20265085956351214
0.5960000157356262 0.43434831606363933 0.18472662447399313 0.209488713330329
0.5960000157356262 0.47812381827522527 0.2118198153957947 0.2011082368935927
0.5960000157356262 0.2595679328100452 0.11170592864077596 0.2272922283683369
0.5960000157356262 0.4101681275445731 0.17761596244706293 0.23695420296969238
0.5960000157356262 0.19701254685852915 0.08148612144951956 0.21795543185122498
0.5960000157356262 0.3148446467350021 0.1396987276358257 0.21854824211465637
0.5960000157356262 0.5071670879142948 0.23368609424756004 0.18868759385256906
0.5960000157356262 0.2068588851046982 0.09178966873859581 0.22574016146547488
0.5960000157356262 0.3772906265895422 0.17090926872794882 0.21869623564032553
0.5960000157356262 0.3963214766400057 0.17752360055625055 0.20887701745603166
0.5960000157356262 0.5204997921305043 0.23877257657395592 0.15369273497998487
0.5960000157356262 0.48472947457396925 0.22254492447014418 0.1921714093103019
0.5960000157356262 0.2719523389503752 0.12114790583482993 0.20502881024298789
0.5960000157356262 0.5383283390187313 0.25146918430718346 0.04619011806809532
0.5960000157356262 0.09621405342346921 0.037653480990001764 0.1660550739368117
0.5960000157356262 0.45591778719426296 0.20266654094390094 0.22254789161652985
0.5960000157356262 0.4302761935954511 0.1965024237729685 0.22080934806055647
0.5960000157356262 0.28246070394275147 0.12602400492143884 0.20917488072833262
0.5960000157356262 0.4445303484403028 0.199521036903903 0.23285476869054536
0.5960000157356262 0.3260909289071667 0.14441526924311013 0.19328445451286497
0.5960000157356262 0.4636548196198482 0.21278451814963825 0.20378611074021963
0.5960000157356262 0.5259990815486267 0.25204354170533755 0.1680671999440732
0.5960000157356262 0.3438584839167298 0.15917376895972316 0.22366159612855033
0.5960000157356262 0.22941007708519084 0.10335180754733234 0.2076977694718852
0.5960000157356262 0.363907548313754 0.1694147001251246 0.19145867384725418
0.5960000157356262 0.2913072667395611 0.1333106626953905 0.22577347858957553
0.5960000157356262 0.2419882443994399 0.10946584276671406 0.20667957956367577
0.5960000157356262 0.4273454275937652 0.20742484999799227 0.22686060848436002
0.5960000157356262 0.3860798949502264 0.1814012554842976 0.19066851716287128
0.5960000157356262 0.44810743418435667 0.21242685297360533 0.21910575562068096
0.5960000157356262 0.4128507413756327 0.1937575447789085 0.2107466980577437
0.5960000157356262 0.494031645849921 0.23468451323257977 0.2202959119444627
0.5960000157356262 0.4904695306538696 0.24907888441310302 0.2308755493261893
0.5960000157356262 0.16919842032310797 0.07687580204568313 0.21224401477407795
0.5960000157356261 0.5014576457295494 0.25560413554022937 0.20102882452988602
0.5960000157356262 0.4713028359617507 0.233739693186982 0.22256572814112857
0.5960000157356262 0.3042683225785699 0.14695200186060692 0.20112130347155802
0.5960000157356262 0.4528840202099114 0.2230211915248865 0.214797664577555
0.5960000157356261 0.48090489214988535 0.24375605692781974 0.20441254008622706
0.5960000157356262 0.5274878396264631 0.26765171581425024 0.11016604062889176
0.5960000157356262 0.32282986513791073 0.15702587819982594 0.1872558214741419
0.5960000157356262 0.15854938001183488 0.07305538167561224 0.20203434248398985
0.5960000157356262 0.4011048670639069 0.19917850012046992 0.21151902912329687
0.5960000157356262 0.13486449305080575 0.060614148098379894 0.19768644901629814
0.5960000157356262 0.44031364621835517 0.2239696919253176 0.18296474204459762
0.5960000157356262 0.4147557450197821 0.20591078999849496 0.22208613200826924
0.5960000157356262 0.4591215480839291 0.23966661364425934 0.22612717117823464
0.5960000157356262 0.26607917702206063 0.1364401710884028 0.18303745143947162
0.5960000157356262 0.3321053102956684 0.16898644315738787 0.20660713959771349
0.5960000157356262 0.23442045723894803 0.11700599029875866 0.22287763019331952
0.5960000157356262 0.2231077320159815 0.11269979985463596 0.2393057629034539
0.5960000157356262 0.1938877218885338 0.0936709856469076 0.1992157783357203
0.5960000157356262 0.4040276666288744 0.21022973302024817 0.20541051183701622
0.5960000157356262 0.31102456695581965 0.15812519001867337 0.218916849332294
0.5960000157356262 0.2775304023716239 0.13958378709548216 0.194484867485928
0.5960000157356262 0.3872039690052656 0.1992539631886304 0.20722860433933823
0.5960000157356262 0.29119297842199426 0.14600947111535892 0.20191519663154672
0.5960000157356262 0.3478636738196637 0.1756778784440235 0.20669651139682974
0.5960000157356262 0.35987732783058757 0.18186082734000683 0.21224544983742322
0.5960000157356262 0.4267355170710664 0.22212805066678715 0.18891618486666417
0.5960000157356262 0.24607603167598674 0.12464209785241384 0.24191646291989297
0.5960000157356262 0.37119761209421204 0.19302230471794174 0.229474710855135
0.5960000157356262 0.4800306476966 0.2598761256674568 0.24205827823854648
0.5960000157356262 0.5200090498271122 0.2810218804784966 0.1297713059386149
0.5960000157356262 0.43372159670708704 0.23503329286658997 0.18473301736493966
0.5960000157356262 0.41570542371606933 0.2224889109083324 0.21208080068295368
0.5960000157356262 0.4531431706751342 0.2494355880866784 0.2113937759503809
0.5960000157356262 0.44308520474139573 0.2417805539638737 0.214581430127657
0.5960000157356262 0.5087607220090953 0.2784660140880148 0.16134251735756822
0.5960000157356261 0.5282234181040353 0.2892415409425354 0.09626998997453837
0.5960000157356262 0.4924557529540437 0.26649510121573977 0.20305798520821375
0.5960000157356262 0.12267785107725665 0.0579685357949209 0.19958720481872838
0.5960000157356262 0.33596434280106025 0.17999010294394668 0.22998948861513838
0.5960000157356262 0.5123891978688302 0.2897609764762945 0.18242128006189245
0.5960000157356262 0.4523039023778043 0.26144564138638315 0.21312249203260603
0.5960000157356262 0.40503555068369057 0.23040999234307835 0.1869521130064424
0.5960000157356262 0.3128475083152059 0.17055299385345957 0.23348914197179288
0.5960000157356262 0.5386064330794759 0.3050256290309408 0.04392413082117307
0.5960000157356262 0.49424793311452986 0.2796737196780128 0.20327931889896095
0.5960000157356262 0.28858715647067273 0.1584506196242613 0.20145007065802495
0.5960000157356261 0.46408857829679284 0.2648621791930541 0.22810641066811188
0.5960000157356262 0.06629881057262962 0.02563911845646695 0.1303547245131909
0.5960000157356262 0.5268055213139144 0.3072923765002273 0.15761591043132653
0.5960000157356262 0.29955728478714166 0.1639096941886898 0.20749329279571047
0.5960000157356262 0.38460415348242133 0.21306922957197102 0.204265278482674
0.5960000157356262 0.47859886756603126 0.27518349718964175 0.21177342339834362
0.5960000157356262 0.35279896129253097 0.19550447287093675 0.21820209179626646
0.5960000157356262 0.5191294316462772 0.29858518802956197 0.1728688999821301
0.5960000157356262 0.36830485197250806 0.2062044055120863 0.23224179652117735
0.5960000157356262 0.5006188322496428 0.2919369996240407 0.20600497096689718
0.5960000157356262 0.43832146791093735 0.2563726273108041 0.25253780378157714
0.5960000157356262 0.3547980673012605 0.20691315894409004 0.23807810057021075
0.5960000157356262 0.197758377798409 0.10843232850117102 0.21201911993121
0.5960000157356262 0.4179044873644595 0.24201098085215333 0.20226042584338955
0.5960000157356262 0.48199737714532787 0.28932293802633163 0.18916475402665672
0.5960000157356262 0.3210032065558373 0.182103115990874 0.23555846589120932
0.5960000157356262 0.4296498583924148 0.24813845815560762 0.23374562823856615
0.5960000157356262 0.11042583691368914 0.05390468977462264 0.1842208327723776
0.5960000157356262 0.2281515787478684 0.1290088268903344 0.22183547245935262
0.5960000157356262 0.16288356722825267 0.0857835591101997 0.21075643037284922
0.5960000157356262 0.17571201156602928 0.09274661693829048 0.22949129843895785
0.5960000157356262 0.46659589346007957 0.27856783786834316 0.2284231692846181
0.5960000157356262 0.14215808360238244 0.07296706791607668 0.19196975987198617
0.5960000157356262 0.3415852190379057 0.20004749778113384 0.22989149127313813
0.5960000157356262 0.2728007420203726 0.15607223107151355 0.2102930007729217
0.5960000157356262 0.39088469888055477 0.22960101079662706 0.2248582923932321
0.5960000157356262 0.18609971735315395 0.10220663502915252 0.23414512861293327
0.5960000157356263 0.5069216088930922 0.30448539351998566 0.2080532447336882
0.5960000157356262 0.44656819034337364 0.27229546177678743 0.21422985172425682
0.5960000157356262 0.5199159234201713 0.3171068843057017 0.12151470584496721
0.5960000157356262 0.25105848976811834 0.14465477868208468 0.2139000065577781
0.5960000157356262 0.3233272214353204 0.19471118047886443 0.20486637960995527
0.5960000157356262 0.3741314400879538 0.22938479508661896 0.21687160497454105
0.5960000157356262 0.3082599648194102 0.18373797266160408 0.22109515778531105
0.5960000157356262 0.4162644011141301 0.25656655946804297 0.2042600170067175
0.5960000157356262 0.528707980164931 0.329727267694395 0.10556176902798263
0.5960000157356262 0.4957699624109538 0.30796539485592955 0.19384005703020057
0.5960000157356262 0.4272633357921396 0.262639951520581 0.23185940344043873
0.5960000157356262 0.49815670269401374 0.3237076185085077 0.22764262432548477
0.5960000157356262 0.29091400849196014 0.1797974202739418 0.22102010115213316
0.5960000157356262 0.39506297242231614 0.24495782320285403 0.19424006208801653
0.5960000157356262 0.21195794274107255 0.12347211004582814 0.21342598844903157
0.5960000157356262 0.44214564991746946 0.2836138749635496 0.2237300751290016
0.5960000157356262 0.47737887718035715 0.3004787455654684 0.2004777419549688
0.5960000157356262 0.2817700581459008 0.1709935677591166 0.19275792768545488
0.5960000157356262 0.35749781655751134 0.22107570376074165 0.2256223267670877
0.5960000157356262 0.426928717111576 0.2747374200729126 0.20503811029671482
0.5960000157356262 0.48306714245910715 0.3107884193756054 0.20170429110092108
0.5960000157356262 0.4566608258092322 0.29307001843275854 0.22555598529739315
0.5960000157356262 0.5148539354457903 0.32892403402270365 0.18546360551149124
0.5960000157356262 0.2552434725790636 0.1565983537755238 0.18865036521191114
0.5960000157356262 0.3420082038400796 0.21426458712347915 0.20973480071573863
0.5960000157356262 0.4662541272463076 0.3129065495228784 0.21675992190031368
0.5960000157356262 0.32675412676766 0.2069319416286118 0.20962266098057514
0.5960000157356262 0.3998875684621925 0.2574935759256445 0.22102197153937206
0.5960000157356262 0.5254683550187271 0.34963790589380606 0.19069924970990498
0.5960000157356262 0.4142079111160956 0.2686612309981044 0.19501392331448994
0.5960000157356262 0.5376447403635735 0.36150728997146425 0.04798290657235053
0.5960000157356261 0.5080148959757507 0.339144465709597 0.18885010419696896
0.5960000157356262 0.3607157795855696 0.23323216654411658 0.24429142361950487
0.5960000157356262 0.37942421673041166 0.24565115406376364 0.24296587273492237
0.5960000157356262 0.3407879905103041 0.22585917666833677 0.20292760166361964
0.5960000157356262 0.12422778962702037 0.06997715548451813 0.20287744446320102
0.5960000157356262 0.45366494966428655 0.3099348686095051 0.22576164095013943
0.5960000157356262 0.5090961009153298 0.35079942314791673 0.20177251485826123
0.5960000157356262 0.21495266286851084 0.13523564236072755 0.21437779851206884
0.5960000157356262 0.4154488721686641 0.2806090980553842 0.22926142784761097
0.5960000157356262 0.4889603839487688 0.33303183913924383 0.22236720485603897
0.5960000157356262 0.5337499981692384 0.371695737805497 0.13773784680728846
0.5960000157356262 0.3911683101124719 0.266828809653354 0.22737577202588857
0.5960000157356262 0.2608777441816787 0.16961695353814998 0.20288826225565038
0.5960000157356262 0.23398695369627764 0.1509021519088996 0.2070647249060286
0.5960000157356262 0.42717400164246744 0.2856183064540831 0.23696594514034747
0.5960000157356262 0.5177725714122705 0.3595605217174388 0.20237205237325961
0.5960000157356262 0.49600698725799275 0.3425962442111363 0.2301198267807168
0.5960000157356262 0.47612147473436994 0.32670405017144516 0.2114609402631202
0.5960000157356262 0.2719220017490781 0.17494852013894022 0.21483412701543833
0.5960000157356262 0.34854581113774113 0.23623569209234055 0.2301885231473711
0.5960000157356262 0.4444700741835891 0.2975248584393347 0.22634715316273846
0.5960000157356262 0.32170358981199043 0.22243221233457128 0.22291658240454004
0.5960000157356262 0.2777173398954997 0.1864381669581252 0.2069367665129474
0.5960000157356262 0.4595346461555064 0.32272864540357465 0.21775556431996107
0.5960000157356262 0.409134207378359 0.29039363862114936 0.21472379355033963
0.5960000157356261 0.5211042785959374 0.3724942810284791 0.16983857462156424
0.5960000157356262 0.30871381697280265 0.20706942894263236 0.2314946220867124
0.5960000157356262 0.1941217433247779 0.12388844496329952 0.19492086343391926
0.5960000157356262 0.1472332961221088 0.0881790289334424 0.2031330527393605
0.5960000157356262 0.2492461074589171 0.16675863891378134 0.1863903622463852
0.5960000157356262 0.3745053061106454 0.2557726858414009 0.23323974306944062
0.5960000157356262 0.3943242783390093 0.28358822616358653 0.20893924099239392
0.5960000157356262 0.5335027181334117 0.3924395292081264 0.08896849886232995
0.5960000157356262 0.33092118699829 0.23181264388479556 0.20130073121005201
0.5960000157356262 0.4470026616347173 0.32832758756507247 0.2372861988921888
0.5960000157356262 0.37472231200821543 0.2709049609017675 0.19777625597121398
0.5960000157356262 0.4326355318373625 0.3153943328131655 0.20636682464471734
0.5960000157356262 0.35642722627914547 0.25294973192233766 0.24136936396610237
0.5960000157356262 0.5065992621064118 0.3715849631572152 0.22024904076164686
0.5960000157356262 0.20268110462055272 0.13309061578851772 0.2114010156667876
0.5960000157356262 0.1709622401197058 0.10963841958825474 0.20845636719165306
0.5960000157356262 0.1612017076753125 0.10140564598454586 0.20115380947361938
0.5960000157356262 0.4845766935674676 0.3573667898211643 0.20500818744852908
0.5960000157356262 0.4773642429719026 0.34529872980061566 0.2031675590654471
0.5960000157356262 0.4592600196800553 0.3351246465253663 0.20603519741160806
0.5960000157356262 0.42406374160552135 0.3049929222495466 0.19662328347433533
0.5960000157356262 0.3088501628935402 0.22023524665577815 0.21340368964936382
0.5960000157356262 0.2967382742525674 0.2091844415504386 0.25598909120763
0.5960000157356262 0.3986483913034701 0.29999174818764673 0.2211795932417814
0.5960000157356262 0.17800935713175192 0.11972488750021547 0.22368356074851078
0.5960000157356262 0.34351565738515755 0.24870525645636876 0.24315672116466203
0.5960000157356262 0.2625704377087005 0.18412041982714944 0.20804540784979877
0.5960000157356262 0.4916377434160218 0.36810902460291206 0.23459986815965864
0.5960000157356262 0.46646025681891906 0.3529546422387082 0.21077983835107755
0.5960000157356261 0.5313692125599367 0.40862356195699934 0.09447799185885153
0.5960000157356262 0.5174315769322967 0.3935243501854863 0.1624280758807851
0.5960000157356262 0.4909765427937488 0.37974362345657575 0.2245496965279992
0.5960000157356262 0.3285109883798761 0.24567349293784116 0.22585662337070794
0.5960000157356263 0.45654318296294716 0.3578147317004041 0.18265287316511633
0.5960000157356262 0.2507875716647533 0.17977691238329804 0.19364622744544369
0.5960000157356262 0.2928388473282666 0.21965109058002816 0.20594288803162705
0.5960000157356262 0.3848255453476477 0.28910479351892976 0.25205040393319966
0.5960000157356262 0.23931647748356688 0.17290277489674544 0.21295627718086174
0.5960000157356262 0.3455463658138712 0.2595071206969616 0.21473442368680395
0.5960000157356263 0.5012852767705175 0.38660293557551073 0.19659497581323326
0.5960000157356262 0.41749506170391254 0.317471222883324 0.20902684257137213
0.5960000157356261 0.5148188712993269 0.4058157427118768 0.15728655632634464
0.5960000157356261 0.44969235022242865 0.34902988314962613 0.18501848366582233
0.5960000157356262 0.4305488179771894 0.32869525888975204 0.2192417669213948
0.5960000157356262 0.40564284810315143 0.3143564330566099 0.18482826252068096
0.5960000157356262 0.2254343381034917 0.16058765822906668 0.19436836507762098
0.5960000157356262 0.46617716206552584 0.3657014478090664 0.21528852609783433
0.5960000157356262 0.13058825530759366 0.08149308168771896 0.17861144730498474
0.5960000157356262 0.4413823559093242 0.3392074991070197 0.19784781535751306
0.5960000157356262 0.21602379152683632 0.1549249219135105 0.22777709651351405
0.5960000157356262 0.4751766614589095 0.3792725539763257 0.21184191290936766
0.5960000157356262 0.3687965907825883 0.28746968409323714 0.23929041672716866
0.5960000157356262 0.5190103087053527 0.41970125252959306 0.12984196777686607
0.5960000157356262 0.1855010850287127 0.1317717935628372 0.2067949314789929
0.5960000157356262 0.09420504141106512 0.053082602713009935 0.19516869965652137
0.5960000157356262 0.27530922494654464 0.20674647759108997 0.21834515002624535
0.5960000157356263 0.41866693658909554 0.32899310860848446 0.20597244072236975
0.5960000157356262 0.43774305612443615 0.3535633690244168 0.1908824355451155
0.5960000157356262 0.4921850068056402 0.3998153044053399 0.22685583346175056
0.5960000157356262 0.34127006597247256 0.27094857224562213 0.21529946315581622
0.5960000157356262 0.39846149644175105 0.3237887862931822 0.21274308604960146
0.5960000157356262 0.30360911848020716 0.23766139184017754 0.21004010793950761
0.5960000157356262 0.35627032305359757 0.2816722325114504 0.21659924064609648
0.5960000157356262 0.3146876583793827 0.24783057729618008 0.21574613539199197
0.5960000157356262 0.5279005414285742 0.4302739667837525 0.07953137344663018
0.5960000157356262 0.2521429740799832 0.19249890251609178 0.2211732501026681
0.5960000157356262 0.2625971284292326 0.20220775543375255 0.21058334621293295
0.5960000157356262 0.07553618423167802 0.0374149536915742 0.1642365546886076
0.5960000157356262 0.42641594548897294 0.34832478461953215 0.20548952458976757
0.5960000157356262 0.32928897153805214 0.2631207777141482 0.2214823081971757
0.5960000157356263 0.4571795648900099 0.3766815900295554 0.19675111999207676
0.5960000157356262 0.4472351529034081 0.3666692441050879 0.20968429927629284
0.5960000157356261 0.49808591538596053 0.410239148253514 0.18946161153171293
0.5960000157356262 0.38245053636768545 0.3061934528730097 0.23708494468443533
0.5960000157356262 0.4709529341746296 0.3917162199581095 0.19702236001414042
0.5960000157356261 0.48080463657629463 0.40787242870974305 0.20721327800205266
0.5960000157356262 0.43228918914433573 0.3639462252856588 0.19607130393175407
0.5960000157356263 0.5025532110854498 0.42433172158913246 0.1991069520683398
0.5960000157356262 0.4032070075340012 0.3365708258057669 0.19581428709113732
0.5960000157356262 0.531581987647702 0.4460874709705533 0.08661080790558186
0.5960000157356262 0.20078510084220685 0.15072361817415464 0.21287613456538867
0.5960000157356262 0.36949644153027233 0.30265224710635485 0.24878719247370698
0.5960000157356262 0.281173570268675 0.2259721488975483 0.22520064382417165
0.5960000157356262 0.3781960399789474 0.3195385139503661 0.20930797156198908
0.5960000157356262 0.4552876023974631 0.38854583757065597 0.20811487184695476
0.5960000157356263 0.5305550896576087 0.4629173207685955 0.04986364098318809
0.5960000157356262 0.23994849336783872 0.19097118365882595 0.18582142759549602
0.5960000157356262 0.41229830375057136 0.3528406494886587 0.20258928522233488
0.5960000157356262 0.29322826213776304 0.24451427494718372 0.21711744606511602
0.5960000157356262 0.1558501678898917 0.11363427123048264 0.1973503750761453
0.5960000157356262 0.49611562332367726 0.4335537379046857 0.23778007664221398
0.5960000157356262 0.48130900045507824 0.42097445016553164 0.21041325752802686
0.5960000157356262 0.19061971882072376 0.14683430484028384 0.22870454431638587
0.5960000157356262 0.5167384256684288 0.44533977566226873 0.1647504507844235
0.5960000157356262 0.22604861000745088 0.1790015005652089 0.20926510424880787
0.5960000157356262 0.3118540585098483 0.2595246201520228 0.19593985136433284
0.5960000157356262 0.2151403417794859 0.1686390421691027 0.2304371660134302
0.5960000157356263 0.4208128765177 0.3613638671930243 0.18660227813531882
0.5960000157356262 0.35265656467091744 0.29694531756299053 0.2196174312109835
0.5960000157356262 0.5064971371086117 0.4402273688642721 0.19680336278179653
0.5960000157356262 0.16422080126844738 0.12141067575898182 0.22605211807527462
0.5960000157356262 0.30347321250543124 0.25086371445624506 0.2056875243580385
0.5960000157356262 0.44496930837418625 0.3808609123372579 0.19873366348011356
0.5960000157356262 0.38895249263964393 0.3298204432282669 0.23705455381263185
0.5960000157356262 0.4448299561339074 0.3947290072311386 0.21720625878510408
0.5960000157356262 0.3996222443125452 0.3497902642155338 0.21143007611197007
0.5960000157356262 0.1733447911213521 0.13164897075633528 0.21421558456068757
0.5960000157356262 0.4963638954861617 0.44697690724766886 0.23011845911795364
0.5960000157356263 0.45717505851083773 0.40363051171570447 0.20433649998928088
0.5960000157356261 0.46663637701668936 0.41456275676956067 0.214606356875271
0.5960000157356261 0.5302419712893354 0.47506303955459667 0.09725817351668
0.5960000157356262 0.42247431511418365 0.3728785715200676 0.2108195396515906
0.5960000157356262 0.14329669828940245 0.10362827723739325 0.20688625612233086
0.5960000157356261 0.3661906218921919 0.31423663415666514 0.23755014658455706
0.5960000157356262 0.34252937094815444 0.29243550371619137 0.23385725739802576
0.5960000157356262 0.5103309097764761 0.4584388867342804 0.17087223941874613
0.5960000157356262 0.24915277260220386 0.20625176476808085 0.20066307921991064
0.5960000157356262 0.5133243551867926 0.4746054204613868 0.1561930761192479
0.5960000157356262 0.4322222760320445 0.3896434307372321 0.20590739070552325
0.5960000157356262 0.4764942629789162 0.4352689870672846 0.24175255287756464
0.5960000157356262 0.38063360843113814 0.3411237398721606 0.2206881813081905
0.5960000157356262 0.40345291426039426 0.36494161444077283 0.22034798082058957
0.5960000157356262 0.20103324662739386 0.1647533635682108 0.22268532612856323
0.5960000157356262 0.46726050666984104 0.42915334490130563 0.2255199366950308
0.5960000157356262 0.37226752668853524 0.3312895717198238 0.22327812664450203
0.5960000157356262 0.25970576528713474 0.21833478326310135 0.20257383890395453
0.5960000157356262 0.33160738958449737 0.2886825345499763 0.23626590240138304
0.5960000157356262 0.5313972991104935 0.4930456088797031 0.10442736706330177
0.5960000157356262 0.2888935035795302 0.2583915210389181 0.25668144678870175
0.5960000157356262 0.3439252665606846 0.3079569088993179 0.23005368806382076
0.5960000157356262 0.44258227450280396 0.4106582983215659 0.1975629904482607
0.5960000157356262 0.2354128631468228 0.2014239263713071 0.2153019451078696
0.5960000157356262 0.41184797952628693 0.3798139054471822 0.20613596262495754
0.5960000157356262 0.3588131578887344 0.3267924294621698 0.22424240671566753
0.5960000157356262 0.4556570753676895 0.4206515726231831 0.21660607030118748
0.5960000157356262 0.42159341842820053 0.385734722968375 0.19816114399108534
0.5960000157356262 0.49346672929047003 0.4575073020721767 0.21342641787648967
0.5960000157356262 0.2805613406903029 0.24437790308620636 0.19138759956787413
0.5960000157356262 0.2606707991710158 0.22913972473038324 0.2041265597304763
0.5960000157356262 0.388326030349238 0.35253801006037067 0.20527877253891047
0.5960000157356261 0.49988143295299603 0.4745249303675017 0.20249478972393137
0.5960000157356262 0.30134392805036037 0.27618038897115205 0.2131700488457771
0.5960000157356262 0.42420260994197717 0.3995910350275218 0.21962960145420504
0.5960000157356262 0.189605797108175 0.15874021547173184 0.23086464897639475
0.5960000157356262 0.33139896648914224 0.3065879311297437 0.23919903403946596
0.5960000157356262 0.46762472256948595 0.4447416432076961 0.23234248757223794
0.5960000157356262 0.4762564125542222 0.45117355316649216 0.21328146122852926
0.5960000157356262 0.48645267353554694 0.4672992354699485 0.23156221233402607
0.5960000157356262 0.5127709471578038 0.4925089743562665 0.16571237359440866
0.5960000157356262 0.17707953385917338 0.14449998062298486 0.2219997620149267
0.5960000157356262 0.31250322093962135 0.2849855259637488 0.21271160828524782
0.5960000157356262 0.2216375927313261 0.1902690068009019 0.20327677405290562
0.5960000157356262 0.524167457442392 0.5020189580061903 0.1419652298472977
0.5960000157356262 0.4346577765733249 0.4199389887019912 0.20571555323952978
0.5960000157356262 0.4229067879946272 0.4133782942468133 0.20936528030694782
0.5960000157356261 0.39688488286802515 0.37909687295847644 0.21631222401758285
0.5960000157356262 0.5136442814928736 0.5061740030824747 0.15165417354066568
0.5960000157356262 0.49787770945603793 0.4879748245411722 0.2423069512327128
0.5960000157356262 0.4556120878834099 0.44462313013544985 0.2160747262491898
0.5960000157356262 0.10517559774369778 0.07318116472210591 0.22339011822287946
0.5960000157356262 0.48576059502917934 0.4781177339229123 0.23987247717262405
0.5960000157356262 0.41269976312710027 0.39956432029520783 0.2218125641806718
0.5960000157356262 0.3758752760102205 0.3561256996989776 0.1933571044433124
0.5960000157356262 0.38214355439268016 0.3652268283788697 0.22055004345861282
0.5960000157356262 0.36632917956598265 0.34813602133022464 0.21883251669178827
0.5960000157356262 0.11321132194023464 0.0819303760015997 0.18440967372354253
0.5960000157356262 0.531299322534182 0.5268420270215374 0.14068798844799105
0.5960000157356262 0.34853049789870405 0.3320312677329259 0.22044385424563148
0.5960000157356262 0.3396912519877979 0.3194823603143795 0.2206355248443024
0.5960000157356262 0.16580194427159006 0.13957806294217498 0.19765683432796372
0.5960000157356262 0.5016330955194805 0.4994051810095559 0.2164896579496974
0.5960000157356262 0.35431924263969766 0.3461043000943574 0.20099485471004186
0.5960000157356262 0.24287023320505455 0.2221363233144206 0.20692344326971918
0.5960000157356262 0.47208949988210147 0.47004831764037946 0.2460663819417575
0.5960000157356262 0.4013427125622992 0.39414823395359705 0.24243907837423978
0.5960000157356262 0.4830435787971058 0.48974903090588906 0.19764659565341758
0.5960000157356262 0.43806549251999993 0.43855329151519257 0.2102281201992058
0.5960000157356263 0.3866662885467233 0.3829994241417131 0.21909442428640433
0.5960000157356262 0.26473427738751276 0.24596802361664083 0.17536995578818737
0.5960000157356262 0.2341403499603945 0.2138331285237203 0.22461716038164364
0.5960000157356262 0.27938092390284286 0.2657721218524126 0.2168814568980503
0.5960000157356262 0.5178057171726016 0.523171745550401 0.1859254863749728
