x y z curv
0.6035590445604767 0.03411308005984353 0.3345370453848978 0.07692089062446568
0.2651118725568258 0.039126018163272665 0.5378776483670522 0.011583887482201124
0.5977071553526163 0.038791633569006036 0.21420437089368422 0.06292242090088379
0.5893620368305714 0.038232289768725176 0.710108177266652 0.030117981838318774
0.5998316056367353 0.030491851394073077 0.6803424033231938 0.04917840653491274
0.4509745293424492 0.029480722926489428 0.4710833239929348 0.006974333994630438
0.585747054979634 0.02847671094860936 0.4872068441660077 0.014111200038282113
0.29378164744650714 0.04056901443125069 0.73684649293397 0.012056101426518584
0.49401382660118454 0.03675985803909848 0.37329922624748285 0.01630004283804321
0.5379576378333508 0.03475336474512029 0.5757399363178225 0.0038441222012356923
0.43427923621734627 0.032643928738154915 0.6856128058014077 0.018463514571484704
0.5683495328630765 0.02794297779368434 0.525687889447937 0.013026339241136964
0.4362372110078559 0.040171060820977295 0.4835209817708659 0.008867572892874832
0.2354351504307287 0.033426779296432826 0.5471874859120683 0.0028882058230110235
0.21725342079097412 0.030711371045275583 0.6699555842310931 0.011905877545131574
0.24126978774631963 0.034272543107966465 0.6593956119211091 0.01085165421766287
0.597946673735804 0.03659243120073811 0.11298021347555495 0.055269299174263486
0.20019674944042742 0.03377945598541982 0.5920292233343606 0.007941626435015467
0.4752553347698805 0.03764099515633572 0.5083889432693215 0.009224467353361578
0.3897355299264752 0.0381267115835222 0.514371275518884 0.004815310385802463
0.45540817033970693 0.03774257456410924 0.4818298007165127 0.014320215242302037
0.3529553678752602 0.03660472375317926 0.4968678273637892 0.00910898029581006
0.4768473316083684 0.039372046529662544 0.5968077244269417 0.016991036467632326
0.40069235797670405 0.03658845307929796 0.6528963700768515 0.009031369638101094
0.5927299404490288 0.030530253934355614 0.6652600642523463 0.03218405800175491
0.5476963270609471 0.03673292144690849 0.31185517359658205 0.011290761396369314
0.251604379665278 0.036136940736218905 0.6457842755195714 0.008837647201476496
0.3601105720189098 0.0269719284888094 0.5394260082683859 0.010363411560830796
0.518581649128844 0.03338782575808094 0.29859325744201 0.005846764649742888
0.21279363067134366 0.03545368931657118 0.6326415830102167 0.006082149950459899
0.37486201910633293 0.03315179743334786 0.563799775592149 0.022884690222627405
0.30726606498966347 0.037036859708422486 0.5101840105617405 0.00900321423079474
0.40659350604917394 0.039074607127209324 0.3705267950994175 0.011052328371158326
0.6061160271350491 0.03864872915659198 0.44691932491082326 0.043295889133598976
0.5784210310326977 0.04203493641224594 0.7357763009827201 0.06096673000152587
0.4041062068995743 0.034270651621918766 0.6367548059543543 0.012323867825827449
0.3587286040038423 0.03508669004090515 0.620241622489737 0.03379597749915517
0.23671590996237107 0.03194710088665649 0.5988887568328436 0.005691559963117889
0.4491784421502619 0.035961581664592734 0.2893848657123526 0.004807267360879451
0.4621508836403051 0.03902732857003014 0.49819976679755196 0.014778975238113215
0.5141374047440994 0.03538024004973572 0.452221054177315 0.005736738674877115
0.483442320171413 0.034809508482602544 0.24283986386463566 0.009115755438192784
0.48298806065475525 0.030249253872223558 0.32013140577232985 0.0027306388746749758
0.6002988746281768 0.035576322542520675 0.20309768371708667 0.02396836216471461
0.5818636523966019 0.03579713130766192 0.42991394492563045 0.05039074829905634
0.09008466620116798 0.031714425433867335 0.6630047743829708 0.02356083005408211
0.27878840327027476 0.02536889877385325 0.5049841933186403 0.00903820611912871
0.5118184154475376 0.03378357214038108 0.23394450181617557 0.006033940751938974
0.591671203430219 0.03938993000440211 0.6325113935139854 0.03437961563329276
0.42807581707942033 0.038388952095029384 0.6724059264264441 0.010199839997770146
0.5095586482079348 0.036976477312754386 0.47111883294541085 0.005099947926581638
0.40996461730367556 0.03964404395616456 0.7012979094474933 0.013716856342192949
0.21890957695375424 0.03592480031056246 0.7361362786872439 0.012602786859565267
0.4675727872167524 0.04301220199354749 0.7115424274361011 0.002232146769860047
0.42970546866343334 0.03603374018346797 0.39822484190079277 0.018536163275989618
0.5503146663380883 0.03272012539962794 0.6883152928672988 0.008574098406095373
0.2900919306897281 0.0337471713860808 0.6458045651639915 0.008294314839944535
0.47598993768168657 0.0360919649538664 0.49089252326032445 0.011859966548846468
0.3378182611284771 0.03704964136355845 0.7393555126256748 0.01787583285378013
0.44541560908758154 0.036740119204765186 0.3094726062311895 0.009475117722338599
0.24021254318969784 0.03618929541428531 0.5756393895750145 0.00503698516413745
0.1463821882484592 0.031579755360749015 0.6730151994264029 0.018103476026261604
0.5605994031407848 0.03767884160583082 0.5321544634957774 0.013731590468260902
0.5656052589473792 0.03716446981367177 0.49604513494386315 0.01285038205272086
0.2262261502172325 0.03174063057444665 0.5209277020868933 0.0026536110253627485
0.3086881976705081 0.04055094795169936 0.62421509576359 0.003742638299873278
0.41186016250912716 0.030407944476194704 0.47265722033923185 0.008636482426060212
0.15987652712962475 0.025667250307654647 0.6688425136014173 0.006056962589946624
0.5723710006203147 0.03157269160799582 0.26570435327328107 0.008593103057495317
0.18555882279417005 0.02972067266028542 0.6977334078542458 0.015800132492659328
0.2970683095383192 0.033355081021817626 0.7190909915386827 0.012815217811501122
0.5386349635344515 0.03054250985958293 0.5108143264014314 0.017057042657249603
0.39300692905377516 0.03206472471622417 0.7106091441557041 0.018560929503557942
0.5984717813468098 0.03647730035861053 0.4228934381419216 0.06694936159097217
0.42959096265642976 0.025035827358988714 0.7184556248791052 0.005379672594791069
0.3794957225758599 0.032958293898442084 0.5231021043830195 0.012239306266343964
0.47773453931998794 0.03105934147641081 0.7396045059132164 0.019406545257328572
0.15944024239709748 0.03867892548792064 0.7343596410961472 0.015758095251173974
0.594635594263036 0.03844843411501488 0.7408009140267825 0.08446874327491657
0.44441495266496833 0.03603844284880876 0.6849410854566895 0.024420181939600237
0.14512363728977506 0.033477546622502755 0.6917638860544372 0.01184109767839714
0.3174408068388359 0.03700168384612513 0.5136291917749068 0.007684375869437915
0.15994341440140442 0.032130433982427625 0.5894973476705117 0.017955537471798632
0.587867170365816 0.030117172954721605 0.13270796700267065 0.0565409340604955
0.24294821254908736 0.03509743598660832 0.6906051667332515 0.009232244474462959
0.5636976642973693 0.029577809090091507 0.6529543412990138 0.007291408004085292
0.12356502722696272 0.037979089018904906 0.6235510059964909 0.009088580166139993
0.27221869985284053 0.0415884404863635 0.5787785010164328 0.004555990680379904
0.10164754969604033 0.03569702732948031 0.6863479734891317 0.016064422132099312
0.24256517296124813 0.03733358789933749 0.6700062465814264 0.007512629031282101
0.1020597582388113 0.03564121539262646 0.6481096602650284 0.014084920603759406
0.47748395290906365 0.04194743341251158 0.4181560357649273 0.021523429493585974
0.43790218166891803 0.03794894138340425 0.49303391404427516 0.024821322519302674
0.20596798924582063 0.03097397563643197 0.7188125329219325 0.014861084961647912
0.612446859548724 0.043190081229113844 0.23609566356997944 0.07099362551883404
0.4128627855160305 0.037101913154779356 0.572418928593596 0.008769289901883411
0.36237847271958507 0.03476741825792927 0.41579346078595797 0.008660720670222328
0.4103737920979785 0.03323656399515488 0.39045667343204965 0.004548683159450414
0.26069614072948566 0.03795370628867161 0.4944922726841656 0.016968884916955872
0.4158198034110185 0.03885993162076095 0.6671803813773578 0.008122170631481995
0.5401086220698782 0.03182670187842317 0.705101184319824 0.005134057628902024
0.4269555300077868 0.0408202725814838 0.505052343519233 0.009369426161702924
0.4690986357666777 0.035525501197379364 0.7295326141492913 0.018777928450187775
0.24793166560885718 0.04034884753999761 0.6816075048908434 0.005009240872583892
0.13977362548899566 0.030828076831992814 0.6439414153431319 0.005732943099901468
0.4868531179644438 0.03007141562872593 0.7302280189581906 0.013396832592290702
0.57363079624228 0.0389719311534061 0.3606727897589604 0.036915499201515815
0.6049810489902371 0.032441861479051086 0.14483547566644134 0.03550424973445195
0.33774982862280784 0.04152924450736055 0.5596818654912069 0.018572855678962937
0.5304836263317373 0.03869225554562389 0.5803972110403589 0.007358534414719164
0.5876468003892426 0.03407845919551992 0.4593181199957291 0.05185947746534485
0.4205815749228447 0.03657829844557023 0.48475711697073176 0.010279015718949104
0.46366113128596126 0.03067971660844174 0.4544048021904205 0.008028749894753563
0.26127536768930976 0.03589532509955226 0.5034579557047303 0.017078709423250966
0.05427520480964389 0.03477900868021777 0.7185794168348142 0.01511596492768805
0.6017625152499287 0.033855835722228375 0.37186502875958555 0.02872252096660545
0.4511494315245166 0.0409216801988678 0.39959437263991876 0.014725871028789781
0.35455778722488335 0.03545084740808119 0.520848333470329 0.014757611631956963
0.4137350587331421 0.04017874114046664 0.6068290998843571 0.011364851333321898
0.21729530463521954 0.03478389050677821 0.6066591691647925 0.00937489279520986
0.3553738767635661 0.029447208929135077 0.4586702519021916 0.0069598890824574405
0.32353689307018824 0.03917475967847519 0.5765958852377685 0.03533275935472038
0.1916439234104056 0.03460278760588942 0.7444184839076419 0.014196715760972449
0.5095086539773401 0.03871331902290292 0.39346124074264566 0.022267246779238536
0.46610129643058584 0.03597431918436752 0.3272585588092684 0.0043050387600961975
0.4098557415766198 0.0342498624042604 0.7433259440189645 0.009661601990579808
0.39757394411388003 0.036251785599027454 0.3423254102049159 0.007216794528353061
0.5808777546554501 0.03634000237627668 0.23454546767259485 0.0071688907440099
0.5431714462813859 0.038846988083630574 0.61759736713452 0.0071653076021369905
0.11447327345728807 0.03984648835912633 0.6791536477911551 0.007180357488940923
0.12177329219232379 0.03636465195500844 0.7236295650913377 0.018436860685955028
0.5708218609874277 0.035249129395814274 0.6237038802258037 0.029466649766146158
0.1615530565433129 0.03449384032479722 0.6382265183978928 0.014836206582276095
0.5137850145837477 0.03492778719052389 0.5604542704444806 0.010557019155607049
0.5772650556176346 0.033500179287606985 0.20806977589565975 0.020220977880289842
0.27123082354345723 0.03383558234228418 0.6366026191981785 0.005620327686216464
0.16032310191935556 0.028927882310083745 0.627062889593085 0.007036584745101529
0.5567534067217708 0.04107299453437163 0.34272225320273625 0.008390079601233997
0.5315875806042394 0.03486178178288245 0.46373334534011845 0.0074389669123976565
0.38441297593836726 0.03694706069328365 0.6355520804698427 0.009298407065388896
0.570200854218172 0.03166094405680153 0.6821526279985202 0.008322443455577559
0.4539734762941141 0.041552094888994535 0.4142705353134221 0.016173141915462576
0.5414468235599171 0.03397611287993063 0.3327008568173989 0.007637867762298574
0.21543103264890978 0.03780539692596875 0.6178604309510716 0.006363519918749924
0.45952750664600944 0.03808010517974801 0.3008414624357278 0.012920845504359506
0.3757058151537958 0.03721543844088747 0.7162810097711603 0.015412822158062186
0.424657655350657 0.038343309186728666 0.5419224389167254 0.003277883450106835
0.4197485302225581 0.03760111903297857 0.4248300179248076 0.00944862234370599
0.5752065187433413 0.036932854073353324 0.7094777024901588 0.00556349882159964
0.5766350753223276 0.028418625320885363 0.5608411102234951 0.006781264677925899
0.48156733299102344 0.036528845248070416 0.30186378068642744 0.007536508284092541
0.4237806375179168 0.038874252229869406 0.6936974444585202 0.01760672232737914
0.3385386988395978 0.03656795052372571 0.5328999382871749 0.02056517733348691
0.2983125138184162 0.031921854124352715 0.5259581000525069 0.0217089837676849
0.39792888447035824 0.031729723564349895 0.6312046899757392 0.012079445570802374
0.611514173708208 0.037757252726736 0.25216050299548104 0.05866115850100862
0.3892309671389863 0.03593887631329025 0.3879457752602396 0.017035595855845485
0.1667218043780633 0.035330548143313774 0.6488544276002703 0.010086435552115507
0.33120862386006494 0.02653882087683387 0.46497116878077577 0.010859679011160512
0.10641940933175024 0.03403410212609883 0.7093950875892286 0.01689754027632241
0.3272727069276947 0.034880817873783616 0.7293335099079964 0.016152301081691564
0.48730016131747034 0.029384867324443946 0.5297111816931004 0.018107558332233122
0.24885625337676928 0.03370654144117323 0.5261194191803684 0.012918146084926023
0.5442093215024522 0.03907053229178218 0.622651209463294 0.01206613137708635
0.1673201392443063 0.03097827874720562 0.6106594102242527 0.010914409427235008
0.6082254737059463 0.03955424275755314 0.7027585936471196 0.05845705770363577
0.5713348582201139 0.035443467923288154 0.6390457660344201 0.017306242954292936
0.5811584407062924 0.036358487975219664 0.3458494626715478 0.025570887931175273
0.09403484293467461 0.04202008072062303 0.7216507233470711 0.011739819924391184
0.527178793117732 0.03939107549324977 0.34290529963887645 0.01153641010390752
0.28592765783223884 0.03314227516274573 0.5366823680495875 0.01762979253948723
0.6021181765500033 0.03411814374135835 0.5805229658813019 0.032621795459717315
0.2803943640718016 0.04043947866306842 0.5548944326838962 0.01225930615742802
0.5849879237772205 0.030873146726888435 0.1589436002638794 0.040030147790161105
0.45387081133090185 0.033890535733434035 0.38513394226040004 0.018022021756849815
0.4607962339880819 0.03821903656833704 0.5920619206144867 0.021502095101792306
0.38156159718086424 0.031772808689796955 0.6089121295070219 0.0240321060145094
0.5261015044541271 0.03467240882315758 0.3849033778604544 0.013947863912557524
0.23007041022256122 0.039705991368114514 0.73461380369952 0.01379448318612165
0.5370331810709098 0.03880909419087614 0.5963243930502278 0.01790191741785969
0.43405994715456325 0.038349934986667555 0.3623533451141109 0.004415081509845247
0.5882218082912014 0.034806431526348186 0.6138739181163927 0.0375449626583397
0.23913006981807597 0.0361443550705122 0.5116274832932239 0.004578075927701011
0.5016623860136887 0.0346877266021236 0.26480531350529757 0.005934348918900406
0.5269871896397555 0.04126369226860811 0.35832648906366893 0.008928895818398288
0.4584948318739001 0.036651545817374974 0.3437228933201084 0.004707310077889543
0.4501884687840025 0.037785552911254704 0.6988771314504425 0.018052911325913256
0.3015078950347997 0.03170881810018572 0.48786619750089955 0.018971216070936808
0.27786932564080563 0.038321095960943595 0.45479927236427015 0.01200416828353999
0.2716217317758988 0.0351087801777381 0.6744112075274913 0.00669005743275444
0.19735153992069254 0.02784040690826639 0.6991548364352941 0.011767984249444322
0.5549537208361024 0.03176157618079812 0.7305340942782855 0.008766602280732661
0.37818223824270286 0.039575425356581775 0.6747883739794693 0.008373730857149531
0.5963885595143921 0.03683580434394668 0.5128601176459022 0.06681238804887102
0.4829148815462803 0.03193039688064705 0.5235106214877018 0.015386236152982822
0.5022469108569377 0.03391008448633198 0.6673649243692376 0.009057568763704948
0.5003583471311795 0.033884392439191946 0.660368117795871 0.013000803183225017
0.17706984851160062 0.03784326721155326 0.6573779018191032 0.0110320549142068
0.33236490710213235 0.029438707097206897 0.496681355336224 0.004941602968482385
0.1936213555016392 0.031422589162242075 0.5835677293216548 0.009484258147319784
0.3030525176247287 0.036499157775050244 0.7310209353014975 0.013958047225069959
0.5711482047425203 0.03214294533730322 0.45185993461390933 0.019713972317860734
0.4965818490582827 0.03434869089367271 0.33312790453916347 0.010571305564033335
0.11742402407355082 0.040536531880112 0.7444170642052181 0.01990656962318767
0.43880321111875303 0.03483621608485027 0.6533507351186788 0.014048759028210137
0.2218202727443809 0.03527836320549194 0.5927021213472584 0.008979445569781887
0.3397240158211622 0.034483624721548534 0.46649967720595276 0.013033116969090796
0.5347362344088488 0.03605124540846736 0.24276738371583859 0.010817008078291276
0.33729620685226724 0.03933046905771286 0.546425503025946 0.018615887721753054
0.47035868252155627 0.036153725968501346 0.6867347693710989 0.01464782569165202
0.45135529630259674 0.0383076171176992 0.7045618437812351 0.01810282786943989
0.34053555984214123 0.02579255761346873 0.6521290254295793 0.006205768302394604
0.3628948006206896 0.03518662689817828 0.37037627845762056 0.008308066172757676
0.09500690933561519 0.03270981127433132 0.6535171080365076 0.015879028635567137
0.37146305437276217 0.03560449966612335 0.49235775458386255 0.010554863185594258
0.606714216886368 0.03663633456649608 0.11357205028703937 0.03195133743226222
0.4622056078817737 0.03396520171395146 0.6380678278075901 0.012709119857577505
0.4294886946280398 0.03705977768384769 0.550574150426223 0.006743714437423642
0.3232387671052072 0.04354471286652316 0.6221384911031029 0.016368060703648653
0.20851418077811054 0.0351270055809489 0.5516944086766835 0.003837015641908782
0.5092537469674728 0.03065526924934777 0.4124514711323265 0.012109704608545905
0.4819598454486157 0.03452893883496984 0.6354779711099308 0.012208003337933114
0.47516612917276074 0.03537443836953095 0.540007351311248 0.0172781060547628
0.5814496936159913 0.03209629722882128 0.5041443618003166 0.08045055251851434
0.2700953962124957 0.03346716542852506 0.7275433929535462 0.005727484500014831
0.4719046045201791 0.03489086233510054 0.5277153308304956 0.013961424791350083
0.0680329958448359 0.0329183989640354 0.7109431139211805 0.01229396170032333
0.577867182273249 0.03194749203086572 0.38841067375145594 0.005829184656159374
0.29510282297571633 0.0376184395013893 0.649873746033621 0.007679595751406181
0.49211308423254424 0.03611527652032698 0.24703926776875398 0.008935308563132799
0.3220635147218032 0.034695324616683836 0.43989712146117893 0.011071605408723125
0.3745354813780495 0.03717010678055715 0.4324833743780094 0.011081028558632368
0.39650944670825755 0.03709145626159989 0.32872299990468457 0.008616260816111878
0.0527434352987105 0.040394776285133195 0.735816360242741 0.013728981018197832
0.5636009932512687 0.03264418131559432 0.6988675612236362 0.012171287288661745
0.30855578255316146 0.03246309028642674 0.5434784703188645 0.013901243075335292
0.45165776086083614 0.033371675457143896 0.35412719352884503 0.004258588169591485
0.41494690593691214 0.042651518665203295 0.6808351309586355 0.007885275410964607
0.4193157905637092 0.03414961762371438 0.5914793131946546 0.01260359716690001
0.23977905427335192 0.03241158115365064 0.7171228188131352 0.014352086606188221
0.5061102637535938 0.03738921758407718 0.3267549714260766 0.011269801360184252
0.588742742079752 0.03514292043480768 0.41477363264980777 0.08001768857443964
0.24335634650245733 0.03307400846077135 0.5962850915915551 0.00850618765967605
0.4181210720103577 0.03640627853370729 0.5352261298718802 0.005345162133209604
0.4148220497428148 0.03726138303575183 0.5980568758501026 0.01223670437724768
0.12369680539590805 0.033933028821562884 0.7159874212307349 0.014742478577303526
0.23193831031601878 0.03362486236825442 0.5610868824835724 0.0027836301196474166
0.5941522770351461 0.026897287129483877 0.2994107767948811 0.037914925588004376
0.3252984337354335 0.0392726286832925 0.6001059504455808 0.03163186851451557
0.19341658941479098 0.03934364921779896 0.6030754577749163 0.0031525561802814676
0.564613325372324 0.02705413766629131 0.607896367099741 0.005430334624977215
0.5342565220523326 0.028227611247582052 0.2732842229350364 0.006645511212673953
0.4809141962190925 0.040007709362690214 0.583019763762219 0.017901128350306644
0.3869984578175971 0.038188608040072666 0.690620059132241 0.009226164223453957
0.4984009272797847 0.03206082958963827 0.609941696601245 0.008201223000864165
0.5699568505957958 0.032777521885675044 0.33206712185267784 0.007601217210371019
0.5068071730982854 0.03221949745608034 0.3142870433668909 0.007336110113186366
0.2562474327127628 0.03688292788710545 0.5734555233739758 0.006803657283867697
0.3018822057392677 0.029710359881287236 0.6777883699068884 0.007974708263393679
0.452808379139503 0.039963540150805464 0.5704594874471303 0.011790752278490503
0.5205922747674975 0.04035863734321009 0.7520450485042279 0.006914812181737608
0.28172469302648656 0.03702136673935407 0.692227486296137 0.006789927771700709
0.4763454086854605 0.039145013175295916 0.28824798714055594 0.010407103361396578
0.5070230427272515 0.036966182942253185 0.6288269588743952 0.0015131544699604656
0.498172332093681 0.037205388173942526 0.5843426004830167 0.02427042926922154
0.18305720815450802 0.03622355173535635 0.7412727012060997 0.017610367818976423
0.541054486886186 0.02774343573366317 0.44746283338303433 0.006854874067952876
0.5608376514210542 0.03952576495624578 0.35824361930677895 0.011191807304721333
0.19247108564555138 0.033878027931764726 0.6784786123960238 0.01863848777308685
0.599211940169794 0.033427967342603636 0.16261270848655998 0.05702182554615138
0.2546257973358498 0.030346090097852777 0.6286370750356346 0.0051361097211066915
0.25888066324901055 0.03581365645721351 0.5977969337245738 0.007230369797235671
0.3042593633180598 0.03415721633831385 0.5908429857035956 0.015483971679040478
0.5339655939896563 0.0391243248707434 0.5266433045339676 0.010579943868676956
0.2262360719698433 0.036322929535551406 0.698174672130188 0.011429731557418391
0.49050451098410747 0.0346795636599462 0.4780960030149162 0.007883119879071877
0.5957340535402714 0.02455267949709155 0.19156653042308314 0.012472362197597595
0.21231797228965696 0.042331662637874044 0.7473213364615804 0.015388901328388768
0.5601163396528678 0.035916579047175615 0.20109276403199033 0.01335778916187701
0.3696541374340381 0.03793037165815395 0.4826129537751784 0.008242283298374299
0.5161627641717421 0.031198897442360388 0.5203723248800727 0.011793039491609638
0.5580524864559525 0.030287671205693256 0.46992379417332447 0.013098864507945743
0.21300919493214074 0.03861874027499002 0.6928751462808151 0.004676250758142582
0.24480722246751727 0.0336630008377112 0.7204238781980333 0.01639526368522153
0.35365292471765397 0.0220500973732 0.5952200769857386 0.0007422247055249977
0.3984603071122737 0.03450294526376985 0.7332055082848532 0.01497180065304308
0.5880368701262858 0.031661616062669394 0.5303015446070363 0.03633306735336783
0.23808385079540118 0.032698986702094035 0.6047666196311715 0.007346387553410677
0.5018669368983679 0.03514612946600618 0.6485983084287814 0.01164284206585884
0.2925405608569253 0.0299480131617197 0.5256419127167481 0.015657392432979828
0.5580542779872874 0.04319767448816926 0.4020598475676154 0.003464432861838699
0.2491637384840051 0.03491677830208595 0.7493940422966525 0.012965473312266045
0.33079905885297217 0.02765456489002302 0.40753485351823804 0.006691711909704898
0.6163740041712875 0.03711964470310325 0.2189014202668188 0.06037521678514197
0.509657966936987 0.034433600798612914 0.6848221524356937 0.011582054594782492
0.5359919039603216 0.03819308113924011 0.6846292182927453 0.0029607507069792996
0.3787541500278337 0.036211308769258856 0.655337203965079 0.012480009182845222
0.43602874202770664 0.03098495522888883 0.6236702599801832 0.009216703031728937
0.547655742117283 0.04041527349508311 0.40778561863088797 0.011020867736438447
0.3914230601275419 0.03503006343297526 0.49886680366748565 0.008064699827877735
0.3315060429492473 0.03340554194638728 0.687152189598336 0.025672867757240925
0.37218175336596204 0.031062182456894502 0.5565845525136055 0.02363152950922918
0.39774430831654095 0.036887110956015934 0.377996513213508 0.010385934607160308
0.5917246840308558 0.035842296474468974 0.5551096655935304 0.035108715170012586
0.22134049385932833 0.03162774546606406 0.6449382256886486 0.011426133460302221
0.142411942340825 0.031027506330822074 0.2670992591335184 0.003714594462420048
0.18188456952812052 0.036188467482990046 0.1348060403519145 0.010079778010223396
0.09082919636825616 0.03729076983985562 0.4920376895138074 0.003626407148417367
0.1576828627575547 0.0390950837129689 0.28432359307083294 0.0071565504429577514
0.18725267427229209 0.03558694885610382 0.24543295203472626 0.007678853861575207
0.17317719781045263 0.03127759754950702 0.11503274750635975 0.01559346509136173
0.327890968496815 0.035334883064549065 0.33388281848282164 0.003931510872443382
0.5058899844593742 0.03590296073264747 0.15676001650810711 0.017119385781394093
0.10943296840831707 0.02915527345559117 0.423642125167283 0.0035076500488794935
0.05978822815768052 0.03450107398183827 0.3973669005576888 0.011728089278566337
0.15596620139842246 0.03335374538624758 0.1099447801567416 0.016763893709722495
0.13639956525525776 0.03778342941614216 0.39577574551394434 0.02118599512325326
0.17333697145366184 0.0309342227710605 0.2195188001556306 0.006495992850924064
0.33733076825660596 0.03340425687939763 0.2943779084662196 0.01700455289743623
0.19461460584393092 0.03572702263940615 0.2727274692365018 0.005759891232067774
0.07903411346119615 0.03589191244623003 0.4445295333583851 0.0037921709137231875
0.12432961335084544 0.03441403935107472 0.5071612586870905 0.006526502791269953
0.24925879046690771 0.03894543019190468 0.2729990321493555 0.00877118218740199
0.136415644048988 0.03886468842416151 0.22292598479019599 0.006248677476212699
0.5246582222334673 0.02996699426409235 0.14795831801949322 0.007412358766092895
0.5562030748129888 0.03863323456431438 0.10883206648163672 0.002920140428993347
0.05631820134575549 0.037826460774330425 0.5406664654055847 0.005301412269222691
0.1707580776511342 0.03334298813293538 0.15700530432652113 0.002287892279874096
0.4150758623844804 0.023754111299584123 0.22399569009366527 0.016962399934417775
0.30989692434046834 0.03396022200860343 0.19024657897761654 0.005368742116270047
0.2681855075218312 0.03791900543708261 0.23341523293320757 0.008773735652430035
0.04037738239393422 0.036386574861096796 0.24844843866950414 0.012714424402957506
0.28154519655497406 0.035725266685090094 0.23719763337180716 0.014974271654531949
0.13014316888184155 0.029780682708769882 0.11273312734760407 0.010643655682987538
0.28750780748728216 0.03144409907853461 0.10588778890190043 0.009380283139733448
0.3250557130351144 0.030715541133228042 0.13106616040707708 0.011027329479009099
0.44245244264524086 0.028397831968437044 0.24725082021436495 0.011045038157545255
0.011124898242668373 0.03399166690763032 0.27625670724786866 0.10620419339881836
0.26423202587902195 0.03648430560534302 0.21165845784105605 0.0108523349407433
0.2861319769710482 0.0326004965531731 0.2728754001681128 0.014597197254567252
0.06790185278690496 0.036739493778891234 0.2964770626923916 0.0033110375959683725
0.032659162306884704 0.027780945397153946 0.1700835806946003 0.008020607220135204
0.24986259482235643 0.04103160712748498 0.41248472685014603 0.00839215942196477
0.21180498202167128 0.032963248124141455 0.4934319838431257 0.004206289821118553
0.019384879557629145 0.032878693667382324 0.601697977645255 0.07652981676464353
0.06877113831900816 0.03207443241144138 0.13748688884442317 0.00411049862446279
0.22931771794858294 0.028591935844809745 0.3606064587998386 0.01279506922762102
0.4185996336310353 0.03019794157959876 0.1504625077213161 0.0010306926335669467
0.00325943870267368 0.04312374159415026 0.12674297021632283 0.08701440671742297
0.47316656359772347 0.03684095193599465 0.23705251806653221 0.01007783158049682
0.25736440786965503 0.037601504613380944 0.23099558676967102 0.011882319468567467
0.45371355063050456 0.038062885944369344 0.11665444335508884 0.0016751150512892162
0.2136691379537807 0.036257665635989374 0.29411919237016587 0.0037768240371337455
0.1999005853459008 0.029463665183214492 0.4265409192489646 0.014694811337804656
0.27513537634573 0.032298472283481275 0.13426375625346962 0.0077738485114694274
0.04081073969406965 0.04093222519843537 0.12734320610532546 0.008418799235576747
0.07877556990453065 0.04007232347694716 0.5235505675706579 0.006798116993502144
0.19798050085827165 0.03540300135564526 0.3515321233344801 0.014552969133071322
0.02530959682411614 0.0357734294484282 0.39344391905064696 0.01681309263610301
0.3945134688422207 0.039271576200706614 0.21251854544712734 0.02738203717568256
0.09827463320072556 0.04132572453548814 0.48156479079761705 0.004250906510860898
0.16998286257166267 0.026541949075317865 0.39002176939439404 0.008522548709891761
0.08868846787493487 0.031452327972823046 0.13572489962873224 0.009300601452481131
0.11849713096924054 0.03638286943636851 0.4660117236317352 0.006428472518419565
0.3991615021981463 0.03582202384240837 0.29199194381642324 0.009788112590712156
0.029811924141351146 0.04321209553783202 0.09559012421696275 0.002053094787776208
-0.00562242766640869 0.03565736839605318 0.5274605525343008 0.03815393115062312
0.145827492637795 0.03804172983412789 0.3675468127671058 0.013430635750225996
0.023817781676962014 0.04278524381328413 0.12977534451619782 0.015463153613034342
0.018414877407921696 0.03845809852305306 0.1557613001312917 0.05947253474915215
0.24496186527502453 0.03375141395071779 0.2937511676094497 0.004097668610593958
0.29543643848999807 0.03504690887483485 0.23095417059974274 0.015565719832313628
0.3588685194301897 0.034443834322141785 0.2806368119943356 0.009166103970535761
0.09752619034666049 0.03134980450351329 0.3076792272319217 0.013442779055503166
0.2632597302593676 0.04032524794895466 0.4623042126595834 0.0027024601077608014
0.17324321392383346 0.03236922109815711 0.19778906942071625 0.004565141149954754
0.1407670776966953 0.04077249135091882 0.400995112227506 0.016981225400955636
0.34552426695148614 0.03644053179178635 0.365783624216951 0.010407558963747626
0.13289381808349005 0.03751055076517004 0.4463440259756885 0.004201662475239439
0.3327837270668681 0.03503062950780103 0.20671247060577935 0.010536643459766702
0.06635723697073889 0.039173562288591604 0.14936330217675814 0.008341482208854438
0.004066519938292928 0.03831850371197034 0.6826381437680313 0.021965702327467456
0.09299047834318865 0.03953783644454496 0.5312145293108392 0.006942983357470685
0.015928427668619963 0.03239448606808466 0.57291786982972 0.03292765446724232
0.26077184226433126 0.029710883811840234 0.3304750277739395 0.014980549945451414
0.26651388369909124 0.035243153530281 0.12196075742088387 0.017454699359317264
0.07564785038530919 0.04026592662187956 0.5356334417818721 0.0077765426332815045
0.17691496854544186 0.036114513759757716 0.27752990135151484 0.007995259157490874
0.2740803898036002 0.035872039431774014 0.15626510475871302 0.006023573507086076
0.1320111542916804 0.040454547059507094 0.3818815267593721 0.008032191866660812
0.07525577836469896 0.02632204610765629 0.5721761868689687 0.001652658706153919
0.2698615323276846 0.02913922183735402 0.19836285697981357 0.005855376429273015
0.26315835392062803 0.04159557342642526 0.4071551948643847 0.008547322463605244
0.01882646137414464 0.03780650552041413 0.20726863244250043 0.021002042455142842
0.27141767257773775 0.04248890498780769 0.2522083052007558 0.012011985058669489
0.11430735567406264 0.03218849298281216 0.5895598305225282 0.005221253377468704
0.4873336914151447 0.029325645178002555 0.17933699360382582 0.009709442856170309
0.060753848526628115 0.03498810917060821 0.4429209014515976 0.004927102272218888
0.5041524991863002 0.032157729194185296 0.11328786647045444 -8.77573151754166e-16
0.4008734616155144 0.029367045699924304 0.26421444458720994 0.0036950984618367728
0.11190147770656503 0.031929637031701645 0.3681461762453618 0.012850822289423107
0.2629213352972496 0.03610431728115001 0.37524991992461254 0.01616610746169065
0.050352263238113586 0.03220743691900343 0.4126981620609347 0.006988819458393137
0.10539783046815235 0.03741856560747618 0.5046687148284889 0.006846582578663879
0.03372873627565794 0.042624164272737346 0.2914790161782243 0.00736892064183633
0.23242581242479454 0.02674912459658165 0.34475713004998537 0.01507282945300449
0.040931404067761225 0.038057958583023806 0.53129605683476 0.0036262297070529417
0.07984125611358774 0.03837995287982157 0.27330539273063054 0.007565099130333474
0.3602965947136734 0.035349810196262654 0.1353995253696456 0.005431838134677814
0.151357692243179 0.03588870466341678 0.1154967066162269 0.012604474139530532
0.03536426309295702 0.03760883011315394 0.10473127185597592 0.0038397469645414413
0.0743233446555928 0.03597412115725584 0.49794514292456465 0.002289574489832466
0.28361606798491606 0.03651862532261395 0.4095406800467578 0.014392993584361347
0.013825967297911532 0.03324641228437657 0.510558460557704 0.1027115039595003
0.3561408714152262 0.032893762796820325 0.16424207580847508 0.008352011195389149
0.19377994237764246 0.037405969494696115 0.21769008577618565 0.0055850168561145325
0.37748431188712384 0.03329655762098356 0.1277288857937992 0.009849887740104929
0.352828221709342 0.03142329087767642 0.17895589144193122 0.014020946696569959
0.01310012097795278 0.03324762842656137 0.23115150012202382 0.054382862648116585
0.06675350275834056 0.03440409842507158 0.4320986946922184 0.011353851877884182
0.26292995281643394 0.03558287684428635 0.43606284445541826 0.008371400085497313
0.12146890559637291 0.033623560551926716 0.25779903301574386 0.005345166406615653
-0.0013083857876215212 0.027501827024123796 0.61743622138816 0.013815828383439631
0.024296117635031027 0.040262490867764185 0.5043367245425079 0.07518559674460375
0.25303206116646354 0.032071187621960574 0.39167453286646364 0.013951216926613571
0.23908525465728675 0.03403392464242598 0.1624381735583814 0.003904524280934757
0.006591483410102212 0.03442646489221287 0.4335631130664454 0.13526190810833522
0.24971336966382102 0.04052429857207149 0.3576689313973261 0.01320278632629022
0.1502219279589745 0.0255585564697157 0.5318299142782272 0.005828994038485373
0.3232670585155289 0.033300758474889725 0.4049157830309835 0.013694286754694845
0.20185624305692937 0.03570725574550309 0.3323948583548523 0.007175123643887962
0.34956206509770854 0.03432031620104749 0.16278135565214633 0.004382728423547225
0.21942454286315718 0.03443855817750223 0.5149567482770271 0.003753456648884292
0.25739766824282717 0.03658383511551883 0.4700940041527694 0.004419808050170214
0.22098433054908426 0.03713638972379557 0.3882519866839217 0.02281988067432429
0.353451863451925 0.027106552559162105 0.2593183497836417 0.001514022552076111
0.022875248386812833 0.03987785391980482 0.18131571495832785 0.022961243709793293
0.16591214582600905 0.029578520164536735 0.5680496441473805 0.020293280528708695
0.0973370270859752 0.03415035075174448 0.3464148043855306 0.013466533238200204
0.11481936970435647 0.0407103062958189 0.5619314921797885 0.008449899917782801
0.32164001161328404 0.03645477903646377 0.14922793069501605 0.004658489902495394
0.07031120422612953 0.032360135872746686 0.42730665217079344 0.013459460815207082
0.2747246892021721 0.03700020315484614 0.296523994571383 0.005911210961461237
0.010137839707845198 0.033284827857732985 0.29363306677460566 0.04386303293802412
0.3667797215728882 0.035953066905102235 0.11825425690848164 0.007436381621980729
0.03654284596090187 0.03877749535421836 0.4780361890829858 0.002245886430558181
0.01285591679928911 0.03970525425844559 0.3769337695283708 0.05317075374212565
0.14898373614623212 0.035181353493009805 0.14898622553698895 0.0024540365149413705
0.478359833265566 0.029762658915872715 0.1825002888337571 0.006694333471646027
0.168874663950074 0.03726578331211301 0.2524995121410827 0.00635541418975729
0.04408012091866049 0.03737473671625043 0.376622283687931 0.010558838578475109
0.10028234306536991 0.03399108417611499 0.6210604260070824 0.011858739431435023
0.2952919353646928 0.03265394715729519 0.3187261622080068 0.008298355915022048
0.2980535046491083 0.036972608701422154 0.1934465217507656 0.005613711724750917
0.01616232804776166 0.03944394828356497 0.32236578933295834 0.058407336438336774
0.2629360785110527 0.032395934077640944 0.18797954189675334 0.010718671547525857
0.43339983682658284 0.03338685253611148 0.2760090034520288 0.006196590646558972
0.004429185244890883 0.041897077408479484 0.35566933374067383 0.028561753380337198
0.21920777307982584 0.03416819748408423 0.4518706006967018 0.010234899295199974
0.22275985041098176 0.038348743268971204 0.274463034337322 0.005383908645942923
0.15787525535336222 0.02999630387130939 0.23934873016905953 0.011678616926889596
0.10791819130189587 0.03762465569095407 0.6226285805619994 0.008700684733686678
0.3524103997316115 0.03116851654379664 0.30192163067856403 0.009258858243274472
0.0412796133988196 0.038320194655810706 0.5087319957133725 0.0047682516197156905
0.48294362725879 0.02854099536487646 0.14136057300181346 0.008269514326141059
0.484034972271857 0.033734472722202674 0.2143100044194735 0.0032498208674545375
0.2756180900165466 0.03810614992515138 0.3480344564586181 0.00865172167108662
0.2410221134868654 0.041102442012503015 0.21647673677308196 0.008435044483643022
0.14942892773889688 0.0379381907093048 0.5600782292232827 0.017625729374751195
0.37902057226456737 0.03225097631953647 0.2868481956736565 0.007376833213093795
0.13111721088764358 0.03755532589266514 0.2979691612501973 0.005829204662694745
0.00043120047133660133 0.038456563485880634 0.33271008996694523 0.06690451682426417
0.32574884829528666 0.03301443425361701 0.27404523072251596 0.011407324282453855
0.39801351206072605 0.03428809544660092 0.19386541667184123 0.03084722605625884
0.15709474189444347 0.0357325138726898 0.4638214090829791 0.004567338060915226
0.2929342369766244 0.03518989732606552 0.425765662164699 0.007942635461010827
0.45533993366005227 0.028791565713688343 0.14833791555944548 0.0048136321789760015
0.3075690384528429 0.032529090769888434 0.1140732613112287 0.017494119294566648
0.3115946027013415 0.034725144748529294 0.38444741346490396 0.009315344670790891
0.19298724387321486 0.03710331341352138 0.4647844568279637 0.008936355744106648
0.05144486761712338 0.039272055311446175 0.5056387225770408 0.005118872937573615
0.005997241567753201 0.04218880830893283 0.1480338787262053 0.058840974595229384
0.32612823073045416 0.03693525303862178 0.3108762466618544 0.006569727159481392
0.11828865494442356 0.034741602944054664 0.3278830300591864 0.021767612767902494
0.33087927596591904 0.028703858463000317 0.30249956492096425 0.0054179777879718085
0.16685559952565882 0.03716811121880238 0.2596907481075612 0.009826997533728234
0.297547908189942 0.036086382328627924 0.3571899362620556 0.0049657169827182854
0.100100874600589 0.03806535834459883 0.4591671367059013 0.007112814860724158
0.07515479738820992 0.04109724286200868 0.45736218818208374 0.004427770328023262
0.20570076307948015 0.041434750371162725 0.1333916470852931 0.007869293642194769
0.548244151069957 0.035011554065061 0.13408321317777747 0.016086882502488412
0.04891386235183146 0.03080766232611866 0.35257609010120267 0.0074354114912645545
0.07963078031027909 0.036677811023806094 0.3212799392737958 0.011258641897609088
-0.004133438698684634 0.04609721334170668 0.3637282048378096 0.06075020635007931
0.1327812749923238 0.035544702749481794 0.5345485302687258 0.0146559737592247
0.0002884139516593355 0.04050218050317189 0.560102683047901 0.06290753083365011
0.020407161221205034 0.03694903478018755 0.299049559526 0.039381268647917855
0.09365259350724814 0.039295393721546876 0.4670250628046244 0.0064208484917429145
0.16460319226676104 0.03544964894705001 0.18734864100471146 0.005336155042276301
0.3005230935331631 0.03871262014346778 0.20363030878054622 0.006397623441901787
0.09775313105408351 0.02833826988309998 0.1800522039658006 0.0032680660067065793
0.4175639834479998 0.03339514454792255 0.2887350671795654 0.0075744125974404435
0.4176546538418379 0.03237845482888279 0.14089395330360394 0.004749492947641793
0.2820934077258995 0.03765338346050136 0.21488904295213132 0.007925400414275377
0.4640557628666307 0.03452727646941615 0.21967570693535043 0.005348855262464447
0.06307353142692834 0.03304568538911348 0.23825522918874323 0.010719361765449891
0.4164741982088194 0.031107482216254832 0.17075941639020226 0.01389420158992659
0.2990717798991072 0.039776523752777224 0.4062170569926962 0.011101254554194695
0.08274886295697188 0.03566915161184927 0.23165849731699623 0.005543761208532747
0.20446666820931575 0.037746146522544745 0.12034057709274704 0.013156267622438766
0.16342915128164834 0.03279255251555602 0.3395202833079384 0.01305587153734106
0.558147959230669 0.03221100678641201 0.1497435732755909 0.019000055324791463
0.4458649809642027 0.02758931282985718 0.17769934616804103 0.0015596546684624893
0.1343985729428433 0.03887166561685413 0.4670181522826185 0.003098408469578383
0.09848878046857092 0.03097830735479317 0.5862671215162953 0.006713721073177524
0.4970650315330088 0.03373537079715652 0.15451248896308492 0.017456829113518636
0.049489813992147816 0.03387888738683357 0.39030052914354074 0.01363448882965227
-0.004410937009518998 0.039288326116692834 0.17339982426283773 0.06628442651846518
0.05347099402708204 0.03918508566597757 0.2114484796259814 0.005142197418371248
0.12367647905917842 0.03693315488292081 0.49286137162855975 0.004914389479319935
0.14234045302883241 0.03418988595043275 0.42630847313184467 0.010786814396570888
0.40915499569447233 0.04215762116433551 0.3064022105380793 0.006657123184684032
0.3455695620424552 0.03563979325576671 0.19092147771395004 0.012553548531502753
0.13419248646606716 0.03955988245160697 0.5900998758383424 0.01428662828217443
0.05462489189253836 0.04027004471489355 0.19080546486709477 0.011366857305325023
0.2873929798819315 0.03398560914238999 0.3679964953784198 0.006342289150573858
0.20779669290171437 0.03484191002079825 0.49919341646887333 0.0033934515263810733
0.5320909220182647 0.04005907562699161 0.16642884855483364 0.019506854252759994
0.15051822532285408 0.04059052312095894 0.578337935501416 0.010928550745059776
0.41476223635893333 0.036697920904693274 0.2637160264580153 0.005003322836010914
0.3603205466568074 0.035813310157852454 0.3576269381637352 0.01099597900062467
0.29379202300793195 0.03815515503004618 0.21879903679395143 0.016401733531411018
0.3999038550729405 0.034133052287700465 0.23427414092958573 0.03155282780234707
0.22131124972544164 0.04248094294945511 0.20036257809690977 0.008402053536313986
0.21343210277125635 0.04105474241157165 0.26637616189302654 0.0036179810429134212
0.13038643535830743 0.03816541069513248 0.22595736195932944 0.01387193126394775
0.08211196228507187 0.04196884630913818 0.39637028314488854 0.006723151829370472
0.06256016108843619 0.03526293078000557 0.22015159062813616 0.0068796499395298895
0.10610093561789592 0.027384197111368212 0.11534952770212939 0.014836102588043496
0.11882344181784091 0.03604645602439663 0.5083353026132985 0.00627477549749891
0.2048568650486775 0.03493308642056083 0.1883208405358973 0.00895175810554015
0.30596681162625344 0.03335574625892421 0.30931874783584346 0.010935795158481858
0.09471515231805913 0.033065147438665704 0.642687570280134 0.02133947246686653
0.14564173775295386 0.03522010914133904 0.17534853676695433 0.0029946460204078205
0.0892571118435471 0.03301156348659802 0.20089907071295762 0.011046547468676069
0.4490265143588814 0.02960411373610068 0.2650154372659169 0.007261464811065091
0.06821185599694662 0.03737427043151529 0.5152936240575529 0.0041338349469569905
0.3745174049778557 0.0331922494332111 0.1143946478775182 0.005700474744199744
0.1599122649302853 0.033839751394698366 0.4808093301386532 0.003161514711134464
0.044336949242293304 0.03808178269276598 0.4531186568808809 0.004474005404829669
0.49073758003971996 0.03350577901667527 0.16114410494591 0.014585393151518862
0.21572476232487905 0.03475788163291088 0.31271466210703874 0.004677863313877675
0.17640594351896097 0.02921415944059357 0.3644356832003677 0.011385149268281955
0.2334013979527361 0.034743805370963145 0.42951381598018357 0.004662411786448045
-0.004287954626681138 0.044060505231443704 0.5747339616887474 0.018725253146552323
0.0956742475065327 0.04159740032936891 0.5148214622503374 0.005640336660457496
0.037652665621619785 0.03569610648445346 0.4339554394091436 0.007617919284040496
0.10365786936039155 0.02468120096135039 0.3358990459935077 0.003989463662566064
0.05410771218935451 0.039204678606334226 0.517396345706706 0.005172863091468101
0.2334423635911249 0.03470497643284549 0.28043238910530205 0.006510626914003898
0.42931528837711996 0.033334611768163436 0.19818757212932672 0.02435872098833302
0.29454328997641044 0.03845430050251011 0.2972335954972079 0.0067419014585347456
0.045972683656237606 0.03987381692765521 0.49411714361380116 0.0049440163653032354
0.1159181985237488 0.030142181857872305 0.24153461532661188 0.0037599708633200227
0.17557496753715773 0.03418120983567284 0.5073055573445502 0.008437708620695056
0.198076319828295 0.03640838993251957 0.20251673617132526 0.004513002282292037
0.04938418857735992 0.04058739952258014 0.46135567887936946 0.002908721838597061
0.19662149210728097 0.029774252327058433 0.5382805787739124 0.0073476614563784135
0.2017692746954774 0.036016422927887405 0.3780297474630671 0.01437894886909611
0.2368185463393761 0.033787322838701825 0.4823399232546028 0.0030219224000529355
0.02346116226378337 0.04111243031291626 0.3181528140951932 0.02698581269958445
0.23889984903181286 0.03914084227404152 0.4154630322322157 0.016858122591260977
0.4685161835481612 0.032859457958603476 0.2041563693286972 0.003337841623466454
0.04921189426278463 0.03589034250314292 0.18310781948113958 0.013330061665902752
0.08549006260300478 0.03679598479603707 0.35553593723079246 0.01656961650611017
0.07162164818839438 0.03544873967049683 0.2612595944676632 0.011111286778035351
0.2046769976593889 0.03405476555004464 0.23825629811288668 0.0035454335847208136
0.19585423647090036 0.030130190331802656 0.1171784035379819 0.012255552232594839
0.3579559796932145 0.03587604989327063 0.21268825074377953 0.025690328635796393
0.08246620365949697 0.03421153114458065 0.41857564069373143 0.010155124199096584
0.44954890243104473 0.034803307558154355 0.1886502848789064 0.0015304779280600634
0.32874188998175047 0.03762867479045873 0.35700590928041914 0.0025728188168408733
0.1213352172847615 0.03916554372873474 0.20676726130205128 0.005818253234788041
0.19524708857959586 0.03249760435297194 0.15818801080027337 0.0022559155957622783
0.09131174784458705 0.03360091766504078 0.24821056998928667 0.012442607365720627
0.12308019140702875 0.03705104099734479 0.16819662534580135 0.0034818293928319316
0.05309789766463269 0.03597201227756386 0.16387298558477012 0.025056562970679395
0.3359912086269869 0.03581991756854053 0.11636161850920035 0.010464537322231859
0.37438344274425445 0.038199732159080076 0.29925519323018723 0.0044149030956410675
0.3117964894852792 0.034659384419553595 0.15522051357607566 0.008892419910814856
0.01438614931133671 0.0377371774972313 0.10555009823639186 0.058561671346919114
0.40941101787283773 0.024589642255726258 0.20531862371278997 0.023391642517491398
0.1675263309236987 0.035345212099277275 0.15047795750696544 0.0021991352185309963
0.26760221648773325 0.034325480483934794 0.1441237875248592 0.005774111533301707
0.19239679919291558 0.03684611401673734 0.28698618139281495 0.003416597677345092
0.3764011399823335 0.03343546766685329 0.24859568554894418 0.005157396205870399
0.025015048358312007 0.03032677419766898 0.550464757854943 0.00755171641125276
0.06241055847127324 0.0315411379453808 0.3785865098658284 0.007742283657122714
0.23619033700771708 0.03737078953731496 0.14055461024486282 0.004073017643939325
0.06329566511350816 0.0408141149994874 0.11164309214126213 0.007178961437035083
