x y z curv
-0.0037154408014247915 0.5475361601192715 0.9926970723655516 0.0068769869878780995
-0.001375944874055144 0.5953327997894138 0.48232228055210313 0.05712057135431994
-0.007271338262876326 0.6159109485824912 0.39452797357761776 0.01008943774242214
-0.0025784205036526228 0.4062870666721126 1.0105948325917498 0.08295567460993356
-0.0037889965717373157 0.6108422260330837 0.4926743736396067 0.09830261814546033
-0.0032202453294300024 0.4383426600736439 0.9505676771428864 0.007139795919355316
-0.01111149516903157 0.5168017879622042 0.6863190019368154 0.009931189226025825
-0.0035460943987651703 0.516240808410538 0.9089660258453436 0.007303098503104179
-0.0063201611511225445 0.3952822000498834 0.8216538183637365 0.015364434821906341
-0.0009590867482833827 0.5597292896149707 0.9874696986936375 0.006107120412554653
-0.005237422700558794 0.425971546839312 0.6135656432683582 0.00561035562806245
-0.006738508174225761 0.19857487979381852 0.9267923785478784 0.009005504547271325
0.0005872223989967098 0.3200701312231632 0.7316390948511868 0.006006671881071524
0.002623318067350212 0.19484458539807414 0.8965514287426529 0.004289052786643953
-0.00484908472788902 0.3730694026039431 1.0126514969598535 0.06142700919788303
-4.34425886289642e-05 0.5350319982906291 0.9731799835491629 0.00812031429786529
-0.0058612513257645165 0.5414590574656966 0.5177840225001099 0.011492390547694341
-0.0006912276244923353 0.3017376118491909 0.7557349835278562 0.003495158586008538
-0.0066042294184158355 0.46798004664480836 0.596969261968351 0.005304767400597124
0.003619765887735493 0.11075847583228628 0.9950264227416021 0.04545941228077164
-0.007553018189718098 0.586404884395054 0.5178042027853076 0.0038615809608233613
-0.0032988395670718726 0.16832188353338 0.9049741486405666 0.012630885703508028
0.0008765727543440568 0.5577110310476009 0.663289735104983 0.010439771301413235
-0.005874938446507895 0.62327129298326 0.7631318286491067 0.11506270459416967
-0.0022247331354922667 0.6194817118513638 0.3510446630263799 0.06674548648888708
-0.002241499296775874 0.4977513632528129 0.78524247121117 0.010922395024507413
0.0006304087347503675 0.32297020625160483 0.8997692962418096 0.006189535664426866
-0.00276462723945578 0.5617184831882532 0.5374519015293364 0.014641322452852271
-0.0055172911155615964 0.620637929975563 0.6492768064313519 0.08604618138825655
0.0017391199140617559 0.22212445369690137 1.007169900826341 0.02928677684130286
-0.0018705211199160827 0.375510334829112 0.9109135548490993 0.0031390654744513865
-0.01093634831297342 0.4878634681327721 0.9920216795357105 0.05809802207438134
-0.0060288354487968475 0.5378833649801132 0.6981249052514308 0.016361952292997667
-0.0023071799071645565 0.5987177168838951 0.6571682112479128 0.0189949114552854
-0.0005661093545971773 0.45283627439640495 0.9766264901850971 0.018841679022472895
-0.0068748379244805815 0.12883968220240305 0.9435466537452019 0.004571609214926123
-0.0037801638891345316 0.15394918753414547 0.9117183007141637 0.005729301570040966
-0.003108776516968615 0.5684936408718578 0.7797830194545852 0.005296590598102439
-0.0010700325753982376 0.3710379982611315 0.9325026717961316 0.00768695461186439
0.0011936235408775708 0.1933205964953316 1.0235346950660484 0.07508428228445915
-0.013162880419308381 0.5422248730579527 0.7911521715807547 0.013082713469302454
-0.006497647114140876 0.4106132925231532 0.8954319252530094 0.005538917185676514
-0.0016527291361648426 0.4044396074808941 0.6522272503267701 0.012611523923972079
-0.0081929725899867 0.6049800315096756 0.4034782054238155 0.010352061090156689
-0.00588364221149033 0.49949389003899886 0.9286273163313497 0.019304754403315083
0.001723511367224547 0.4974161563819794 0.9628609118051109 0.014778949518756053
-0.006600929983832606 0.5977319699378807 0.354268663045252 2.007847276883127e-05
-0.0031214885468277263 0.4733777556140417 0.8973494931613297 0.013021877787452507
-0.0020080075320660436 0.29232584087851216 0.8915043277528809 0.009561676916935772
-0.0036226867868340753 0.2401196065185045 0.8318735411469776 0.005400359326186539
-0.004203574836446729 0.5802034825895969 0.4557760402201529 0.004934007785049648
0.002915625211844578 0.08307613023714813 0.998000647402456 0.0442654829005337
-0.0008705234605593432 0.5945234404608687 0.6284307208211962 0.016103652953090967
-0.002446834974953011 0.6197711857336233 0.7498064145785358 0.10613909983388806
-0.00125470597515163 0.3829557158074688 0.712021948599064 0.004699582315367457
0.0017654871905016065 0.6130144668290113 0.5939282053254105 0.10745693816749345
-0.002050424625492978 0.6109601445177852 0.4459640564923337 0.0332689588599515
0.002153085466093373 0.45205455266033495 0.9591099228466099 0.004912661219428365
-0.0004916858234279868 0.5336598911553568 0.9817020277384478 0.010974180745936278
-0.004865711135990548 0.4225744027899218 0.6754887994689094 0.002567433716013752
-0.003866442103807379 0.26073208558386646 0.8436418181955267 0.012747762666633461
0.0029936714489457662 0.1306401877850786 1.0053064296644878 0.04306140748583428
-0.0016851603103934176 0.4378038867748065 0.8963660612775511 0.005006721723024075
-0.0038441377060718118 0.5870555243247088 0.7064300132713593 0.008383977066861567
0.0035120441648565496 0.38597789915883746 0.7694230451342128 0.009215346979429127
-0.007794839506323556 0.281723753478434 0.915676704186118 0.009282215310991266
-0.0001912380382275203 0.576875059546897 0.6081169918773331 0.007336372149052992
-0.002136183536813663 0.42135480039676526 0.8733636639621171 0.008397900978152262
-0.0013586485922166406 0.5136951702356294 0.7269747171223737 0.003601855468279735
-0.0020695561046119486 0.3583231946136344 0.7991296103037474 0.008343605818199071
0.5513199601799498 0.6372053852626054 0.2989736812811843 0.0009992965023740532
0.02620472865513871 0.6301687948077818 0.29080352525314274 0.038438012443140095
0.15427410957735793 0.618331145068614 0.28889509737339375 0.00041917835217997787
0.006871245185577507 0.08062628327515595 0.28934962855790286 0.01170988268343949
-0.0010296716658258404 0.5748120570239997 0.2977852366544134 0.026974495559832404
2.0770149756921957e-05 0.3165966361633825 0.29427470925919436 0.020367354306970547
0.26479254964829 0.6277882105862309 0.29174300463830627 
0.13890408134128313 0.6286248168255784 0.29596875888969776 0.006890888961225646
0.46466092946539184 0.6261518210155337 0.2851311954465968 0.0034900199397304038
0.38753588922513377 0.6287141012637711 0.30125695840476785 0.005342402031446038
-0.002641894152534662 0.12232753929191621 0.30379131948027344 0.007691712533466131
0.11376237817554981 0.6293130612192747 0.29808595692734197 0.003231986682959284
0.005073711935247957 0.5980711371867914 0.29412435181218827 0.02606565991012071
-0.006576204386986674 0.27447093017934887 0.30382187041010167 0.0031504231654919954
0.006215813730414906 0.618179440291258 0.2970408839271198 0.04273589235702794
-0.00012985332762183253 0.22639788786328735 0.2984709579058897 0.0024982656794844808
0.5986214653222495 0.14086123836727932 0.28836501209744503 0.00023932590125198385
0.5991291899376635 0.286771556303452 0.2978285467572026 0.0047203431648299736
0.6049671933518019 0.5956202265726656 0.30467778604987367 0.0017962290199171349
0.5917952960347508 0.22779746240699272 0.2933122312771133 -5.483551883549012e-14
0.5919963869787073 0.4744214600548344 0.2984323913498866 0.0016647376720612867
0.5925844020167724 0.3618791477871621 0.2954985724136251 2.8057358825947833e-14
0.5952399685053297 0.2099239266802811 0.30746897576445475 0.015782087123667438
0.5988622439835245 0.5335930394513795 0.29193810434621714 0.0006250598189544774
0.5938452114362269 0.6155761852905026 0.30104692616832607 0.06218365864710443
0.5872577436644161 0.34819815433612694 0.2871274914783681 0.006367661629761165
0.6000012043119293 0.55895934316831 0.3028000049807142 0.002956641570659701
0.594599361749202 0.5203705211891642 0.29511023920000007 0.00034283912578316096
0.59252061817188 0.42436506235145716 0.293105808115187 3.0941235070094316e-13
0.6009493740095391 0.30148574136881523 0.30953215889371904 0.003077849712935204
0.5966901286155339 0.12870605266782278 0.3010959667685224 0.007756269344326062
0.5973340026075205 0.46944866089515375 0.38470785841216126 0.008477215303337858
0.5996633648622866 0.23897131040338668 0.37353962328285045 0.0065643897960711945
0.6033444206126191 0.4333626903427745 0.4070580213777276 0.0022548322385267604
0.5996070710672459 0.49473425478821476 0.3617775146697384 0.012879399806590922
0.6014742297579035 0.5512729200046179 0.7628125759578085 0.007042934771393618
0.5984089777635824 0.5981445992261342 0.8476973016159755 0.037418387910344804
0.6037573641521224 0.569613064084876 0.5186590484749769 0.0011225277119557087
0.5964203955141596 0.6103585167115297 0.39147343442311766 0.021004666078293575
0.6009705943900584 0.19376882548509278 0.4106742564670094 0.0075573853674167114
0.5958906132689106 0.6101663453765989 0.789309410836874 0.1253307240092028
0.6056229768077634 0.5967947638492308 0.9431637716838219 0.030001795819619127
0.6014422590368856 0.6191640379999631 0.3181759009880812 0.005948907603584923
0.5972567536340322 0.623286884097319 0.6768600080975221 0.12481737198168613
0.6020104697527894 0.3280870387547451 0.6125755487396932 0.002869731922848007
0.5973737528807826 0.32296986345089457 0.47529452259441435 0.006304638124249377
0.5999828076814111 0.6046218424464952 0.6482985160759921 0.04462465417177835
0.6012230435893193 0.5573313596582591 0.5733474256066431 0.00393641649034991
0.5976703894864228 0.4905401771780007 0.7430851404531107 0.008519752397735336
0.5929545688586627 0.3808303889642231 0.3076475293331495 0.0072948281268687565
0.6002607928595275 0.3284296927053679 0.5016129075743122 0.018353852812666122
0.6077829052012927 0.5171592577797824 0.5287576504898807 0.002976021427639183
0.597741199913578 0.44242602534406944 0.6048462648773216 0.020597415565429014
0.6055291408302074 0.4989485247213089 0.40429380115712654 0.004727107881384262
0.6037142047686016 0.5872575636462594 0.4653964542553245 0.0028021253437327635
0.6022046840199426 0.5796629654866069 0.8757459434943954 0.01498669098596189
0.5907076425444019 0.6246247656907867 0.5562809478834805 0.09214474836340815
0.6104336021923864 0.4127997805403275 0.6171412922434036 0.0072931445059536085
0.6000467727209062 0.4351296981568526 0.3734051842378918 0.010048311713778218
0.6059175545209045 0.5618117391291649 0.5541262753472576 0.0028840965478725785
0.600829102862449 0.29002982033011493 0.566842326160209 0.00658684003826801
0.6014339519987746 0.49529982330563044 0.5153771900346295 0.01168179946474158
0.5997100048570086 0.4068090921151785 0.7197442058872625 0.01907728730656622
0.601788150338882 0.3742519035479657 0.4257595026629474 0.013656858039181066
0.5939369943529157 0.628783455636984 0.7502974300036653 0.12549875374650418
0.6035606919824563 0.3727085540008747 0.6362071923757137 0.004942253731632568
0.5943201332996452 0.5433939706887134 0.7188568777270389 0.007264353606691262
0.6033904592635672 0.6179398523580729 0.35149376656360004 0.10936692637879485
0.5998202165433889 0.5894690040209106 0.7260028868236789 0.00885168674681047
0.6000888403568103 0.5729841775566256 0.7378765801615061 0.008258807715439713
0.6042171929727216 0.5354493130081494 0.8511591413974503 0.008583910573293304
0.6074905242799017 0.2606190674851537 0.32821148741210565 0.003899130969343846
0.5987758895564312 0.4419395293685548 0.5497143757576471 0.012643273444747107
0.5943514071968434 0.6240537510638109 0.9641676700232554 0.1156457644363662
0.6038697764681609 0.48199127535220876 0.3689398493151939 0.013539378566787677
0.6019310844850574 0.3101135852717851 0.5406361754839056 0.013144889644606443
0.6042965528561791 0.39524145822046675 0.4871739036509101 0.006367309773329073
0.5977574704487464 0.2508363211685155 0.3901504536208529 0.0016187269695575686
0.6039614958524346 0.5908308064153681 0.4150714506423136 0.010183181768169552
0.6090450778289778 0.4619389557169236 0.5028432631296287 0.003922654088460608
0.6035906501745936 0.4835480373794061 0.6625152847571125 0.014286533985352191
0.5981663597934236 0.499368886133399 0.5681012754753283 0.0019429001741752645
0.5991723881409808 0.499220452482516 0.7029996063363897 0.009236097407311896
0.5931476506094201 0.3952291095160374 0.7028115191975539 0.004105265146026676
0.6024628346010337 0.5016840467127057 0.7811845050035018 0.009096362705882132
0.5998521810114654 0.5940734138705139 0.5740028431561467 0.014342737669933658
0.6019057472244045 0.1916872456616983 0.45276184746490644 0.007454327964378254
0.6032932474474622 0.2788284840724192 0.4458714532520886 0.0026579128940252164
0.6045888304073497 0.20064488771446903 0.42036489335359667 0.007197477024707105
0.5995534212864411 0.42547067965956775 0.6708110758856904 0.010595498374047886
0.6006077839381513 0.5156742278271997 0.8269961782412323 0.013207910790964733
0.5943665479753713 0.6101750867492196 0.9671239383543146 0.10391905788683055
0.6001301050130962 0.578855558065402 0.6345810671877178 0.006052424271589331
0.6039965880833859 0.46479551233719 0.7854496029305816 0.006648264529835032
0.6029432201601025 0.17162204570560055 0.30085423242551806 0.0060824239214130275
0.5996683808277108 0.38512873469589753 0.6140229433825457 0.010867921892378589
0.6047688183762794 0.2626306531072275 0.3851458552717941 0.005166016277899055
0.6027286263767723 0.5799679773726066 0.6059144777779751 0.00636872591914795
0.5951042647154416 0.4477013536527105 0.5606519875430809 0.011602519266604602
0.5955140091165516 0.5028095455886052 0.6588438836312149 0.004200264779588285
0.6068198790769775 0.4086390748376549 0.5855698621773249 0.012056831350484914
0.6037570130914586 0.614213809126884 0.816471752825425 0.09476516945447276
0.5996572082018342 0.4893775240492698 0.7591674509446212 0.008349748402311046
0.5964419541241052 0.5305905454194318 0.8107080313688965 0.009474661626161555
0.6036602005510345 0.3442791060161067 0.3976262637179764 0.005963306886961301
0.5988481207239444 0.3135420953483704 0.5603486153842218 0.008355630432540815
0.5998987017878862 0.4563413427386877 0.30487123349344636 0.007507691249955476
0.5987912095757599 0.42449579348467614 0.6344732464732679 0.010832497168336428
0.599974613535229 0.07792279511914238 0.321069809090114 0.0034281806832077858
0.6021756160266921 0.5403699055670883 0.618359209547559 0.004940990182387599
0.6026391217232152 0.31713689717147164 0.59855053337865 0.005689365189596262
0.5977360319451023 0.06574351465866657 0.29773445009064786 0.016280327342067077
0.6120438236374687 0.44645755984994107 0.33999879277207823 0.004052974559805865
0.6007901509736736 0.42547007308894963 0.5134395745484626 0.02373202429617379
0.6002927418005476 0.29661112247609966 0.5375003866922093 0.008231437348400457
0.605465204940738 0.3188667742639495 0.39435547427015966 0.0010701572945990695
0.599779802390338 0.5230572348435653 0.7954347470331797 0.012132278045822047
0.6027847039453047 0.28656909818231957 0.42307155682785935 0.0028615147109239147
0.5999166340823373 0.5783270618722226 0.6756838091898841 0.007758020383350152
0.600191592771291 0.18040506967506498 0.34244842661131053 0.009756262747136344
0.599496973731086 0.5621253949196235 0.3260544186827319 0.006510697135214559
0.6060820785101303 0.34379191188531916 0.5728104101615961 0.0065428937265614275
0.6064721861688703 0.49349956209015416 0.8275279631251377 0.010823030403913156
0.6081001441187256 0.437641262462688 0.6831396885910758 0.010204254403053713
0.6033134791570726 0.33450625977301074 0.6487925929002323 0.00396112940270427
0.6031833258295479 0.5767140813609236 0.9521428302962889 0.023334974604042016
0.6042469502061608 0.6159483938885238 0.8729005591906563 0.039074154107980014
0.6046010109348002 0.45512754502204705 0.5418511759911109 0.0066702667073118855
0.601006708816411 0.5193482722044456 0.42268659190634944 0.011744996262307572
0.5929452166137924 0.6242958099511334 0.7636029609822271 0.1338494078322407
0.60307793321902 0.5358395693207417 0.7841352036326645 0.011185784352321732
0.6045934272883988 0.38464223566483075 0.39734726731469033 0.008894421743529843
0.6093859790947694 0.15773443088389413 0.4231196980617305 0.003047093959478631
0.6032599911340181 0.5313481295828307 0.42461798838883513 0.010797496369147406
0.5994248456923142 0.21592216806282852 0.4016503408496238 0.0034318653780660733
0.6065911535477722 0.46456703989413717 0.36961890888938875 0.008129256247096837
0.6051210141146877 0.1475343216357375 0.38060606103839384 1.875159939967795e-13
0.5994115884261436 0.41893552469114437 0.6721513603280463 0.014516075934259435
0.603374844580627 0.5269322648680813 0.5847983599724598 0.002196924416049208
0.5963003926995908 0.27304785815318533 0.5552769143816583 0.008378372683352587
0.6007061051767743 0.5439618479929295 0.5290459061357558 0.009415941568171805
0.6011445590834449 0.4598524413968333 0.6583658331048773 0.007237692145850174
0.6019776041838644 0.43703612164064354 0.3669432204108014 0.00960055335620013
0.5997831270870464 0.29747834191849876 0.42952379074278746 0.006120066858950467
0.6018965762666348 0.4333090338682947 0.6442667370997068 0.01215596662389064
0.6110364772185821 0.21992167650894795 0.48897521534656896 0.003561576571776193
0.6023079723319894 0.5916722957848201 0.7128600029623077 0.008342622869697556
0.6017958850044582 0.577025485317045 0.8344909000834365 0.011820977436983364
0.6023291028469966 0.5953751105390324 0.7560408356275482 0.04161238305368804
0.6058609798131267 0.31679236748171447 0.5466841978789589 0.013359153125427882
0.597509093840073 0.6148251171855288 0.439382664465056 0.15084261112624422
0.6050408707224832 0.43186013620988706 0.6860537619265838 0.014773395560829291
0.6029332034802043 0.4994269201653551 0.4247713518445847 0.01088779443802924
0.6011717486386963 0.3432358571854234 0.3790943164019817 0.004545553042629064
0.6034009095540813 0.09044497528414897 0.34140364835117504 0.0018665186389544208
0.6000815717805262 0.3010957059180622 0.49463999474173553 0.002290289642150134
0.5994192084302894 0.3816852849668584 0.6057473858069342 0.00943038026361166
0.6018107979808293 0.5077656075112147 0.6388516503475054 0.01288957594308209
0.6008109706477754 0.5167444575858895 0.5822726304969007 0.0027362221759386343
0.6031444518268458 0.4300795864762431 0.6165933965019192 0.01751573065959812
0.6033224755076192 0.5443104262548332 0.7533636067298302 0.007700776902859254
0.6007074773723766 0.5515729040670807 0.8400346713383952 0.012458455072911516
0.6031678760990264 0.483019498337542 0.4780672841921975 0.009664956964146853
0.5976582467762528 0.3005185081712619 0.3990672223025628 0.005584298394799878
0.6054293989223725 0.4089054218698151 0.5782912469000692 0.011299094320394866
0.599847296421871 0.3035236297213078 0.38232973823020855 0.007910732273116691
0.6037326313569144 0.5527911569653065 0.6005600391735092 0.003990148807315993
0.6001808703643715 0.6207639412947059 0.7429509946598881 0.08919213644654927
0.5981898357573846 0.5840292196718765 0.3518209032440097 0.008654909089820289
0.6030579759420789 0.3693388234770303 0.45046324897640866 0.00785994449922062
0.6110492160462909 0.5621575617002 0.42361427298053894 0.00022261536931550318
0.6040758245023635 0.1354965566008378 0.3592935071513298 0.004365150985775194
0.6027512533390307 0.47746468001431114 0.7747021693234077 0.010998342742587291
0.5997771231644972 0.5088953038193811 0.6809438770476732 0.011518977769598324
0.6061949435586111 0.41985214613645133 0.4405592566767836 0.012900154653817978
0.5983477570240264 0.5634908540789904 0.873107278243744 0.010316160524380912
0.5996433291237654 0.5463097849395404 0.5834543374316955 0.0030334325387813598
0.5999175892057652 0.6243000085419983 0.4419413326457255 0.15708860711964198
0.5999487425096911 0.41518558630143504 0.46308061352290014 0.006036525394632904
0.6032781207347174 0.4811778051673161 0.6781174722601075 0.011850806201668375
0.6017339110102502 0.24777836049932478 0.5253757342458112 0.004439337745796908
0.600217270147697 0.39742085292978924 0.6007741329643915 0.010138905957012511
0.6055448096463999 0.5796595615479445 0.33729615812951863 0.002581779542507875
0.5947155138052376 0.4028758751013394 0.671571497188464 0.015647675463583793
0.6006463824518437 0.33527720716261306 0.3267710095736549 0.003837677539871356
0.598217729288206 0.5049241283823711 0.7307983241404132 0.011006101106107214
0.605629803558008 0.5467228829617735 0.48561375827898967 0.003506001058220252
0.5960255527960168 0.579858920773241 0.8894327766548794 0.005437871412690457
0.6041823198370019 0.054674032096999725 0.30839049126372553 0.016785592844944183
0.6018033572140847 0.48558188890940224 0.3148674019255411 0.0035249718175955724
0.5997587000712294 0.48573600851773696 0.3990481347417448 0.00945881133346075
0.6025006604285283 0.09947276476794685 0.31476272481033013 0.009246532487005838
0.5982911124782102 0.5904621630397078 0.9622961316951689 0.02379719159416872
0.6017682222242273 0.418689533439816 0.3968978837095214 0.003993696456774485
0.5950197017934289 0.6109697639858027 0.36684786839618944 0.057357511074556056
0.6035537816682657 0.46705196249530645 0.514851545466152 0.005767639219219443
0.5952794711014716 0.6145340773045018 0.7236458692920221 0.08448879706560641
0.6036516546673971 0.5800670566831553 0.7229709207310192 0.009860792335817551
0.6046997271120073 0.6270141618942674 0.5256156690504223 0.10915356922763773
0.5994955132388068 0.15342891661690036 0.302631874960366 0.0002178510841668753
0.6053727916292473 0.49214090316935927 0.352099772155847 0.012696564437583891
0.6057711842750562 0.6125492752846763 0.6973534546729152 0.03771251486033659
0.602856077523988 0.5847439550555035 0.44467437841964697 0.004797652646163955
0.6071488662132063 0.5768232486787206 0.923366386631634 0.005972185428730352
0.5974152429342403 0.3893918880497192 0.6841582795265797 0.006853033244471482
0.6092113356146719 0.43621575685088526 0.7343218536323366 0.0029030128970004513
0.6021711891638053 0.5312407253164967 0.4674686508550119 0.011059483719058426
0.6006177178155853 0.5800893733910323 0.7763768448079569 0.010827992055089962
0.6003733297341207 0.6231100252335295 0.6026810190918565 0.11594962640779828
0.6036418527858259 0.3453689703863714 0.6282469731915998 0.006645758929346589
0.6033092554591712 0.26821636712337177 0.5199553337818604 0.0055552873202149135
0.6025809820198116 0.5022406533895111 0.5201250201921201 0.009534542012241484
0.6003633066682811 0.5983669232521793 0.48185724708054495 0.08686871505013352
0.5980624364228235 0.5239080966419372 0.6686367168889343 0.007864697892113377
0.5997663035733649 0.626292264353008 0.9040329266571479 0.020039580902515786
0.6058784121749197 0.4497919437581428 0.5100517010619736 0.009531258004274653
0.5984911930423968 0.35795723013163994 0.6376928641196308 0.002910559513927925
0.6061634399317898 0.4557112579392977 0.3428172360026432 0.015266332146012683
0.6018207855262236 0.561362528440333 0.35797942781898845 0.01086653509160878
0.6109134009726161 0.3967242662540084 0.5292636832534476 0.010284517289401213
0.6037724385239875 0.467419959435129 0.7578604230573694 0.0067934462159372835
0.602525369389714 0.20508583072254116 0.33827643355312953 0.00470406455358557
0.5970657530945386 0.5413717216699 0.8835977446547909 0.009159182839076479
0.6020426597252818 0.6281944385684302 0.7965738206342814 0.1086673832478315
0.6015127939084822 0.30513422667226847 0.6052474715566525 0.0022600519443262976
0.5967690039137785 0.627829491483944 0.6372957709323472 0.11810763213672587
0.597815427095153 0.5055836321191534 0.5414822435653716 0.00781861027716074
0.5973517206259528 0.25830690457945676 0.5485283755087328 0.006703863770918084
0.6000554406665617 0.5599010563890338 0.5165691482113552 0.009802286220037662
0.6003323315792682 0.49183935874020956 0.6055387560658932 0.0010563976627577937
0.6004055173979964 0.6348622571293219 0.6203635467958705 0.062207495888091255
0.6090920932705013 0.5266127517674717 0.35293141996208843 0.0155739356944949
0.6037186865312133 0.48222457432413846 0.5319685995288734 0.009209560977215809
0.6026436982069668 0.3882396488568842 0.34136093102676784 0.008270844250716293
0.5933420127287776 0.40760841518716984 0.7025225144511978 0.01668540794743034
0.6032321953717177 0.39012131186275106 0.6447479694018297 0.010164425334492778
0.6048230659344426 0.28870718854374705 0.5491339929207715 0.004434586305873506
0.6054449816592724 0.2460639400197043 0.47343777669708087 0.009118470510977637
0.6027858385952164 0.2116859030167747 0.3759684983496684 0.0036650044764478485
0.5974063299004634 0.5265618821096563 0.3776520321164799 0.009044065788139866
0.6046710213778511 0.4291611484490989 0.46794443867860314 0.005939177549464675
0.5984878677464349 0.3399183272410926 0.5942221441795758 0.004535818840471876
0.6054845195005341 0.36790413844507497 0.5358365063194442 0.014919390289507384
0.6042347741042263 0.39913924417134816 0.42558080583346153 0.0026061322321828365
0.5980856484564387 0.24800019785134536 0.5372253342949562 0.008469753530691732
0.6037471572907377 0.33409421586212296 0.4509188930668028 0.018478423987976705
0.6069165413465475 0.15733879263458958 0.3562103953954721 0.0030705829226966054
0.5988443261524097 0.6143108587877527 0.7541773986204642 0.08577869225948992
0.5957117763857721 0.5608956481159018 0.8944241401101427 0.013549120490008375
0.5980738933375589 0.2917273758247969 0.3810549610083632 0.0074098094518958
0.6047586483560639 0.38507533234277475 0.46057339651339446 0.005382436727854896
0.5994397865368025 0.4706890023483129 0.573021415851568 0.007371109664843284
0.6025296334309853 0.285211013483337 0.36379712467766234 0.002062200717849392
0.601398397745213 0.5438282291882707 0.5547279103195831 0.006358196669755734
0.6056574842123202 0.6133754133659808 0.9340185239039951 0.06414209760710747
0.6086212010336916 0.5591083847462673 0.8077744473524685 0.007596041135153955
0.6101243961827603 0.612900363183606 0.9477061407829545 0.07587790094180225
0.606788787953353 0.5590385224687925 0.6450268424115706 0.010395308148828683
0.6049383568897275 0.10767983835687854 0.33028190607720553 0.00431267801391616
0.6001436973050398 0.5874212403564741 0.8554774266047747 0.011688104251184916
0.6047571228620553 0.23960154127559508 0.45844809182236496 0.007352353701428873
0.5988228221483106 0.541511495601199 0.896376027643235 0.0032492559464623607
0.6029468717377081 0.38955613887344237 0.5384637777576478 0.01858929425477864
0.6043179557008151 0.6370936097177614 0.6149181062552866 0.053185759290703315
0.6084414585532946 0.5575889215556651 0.8567080619503005 0.004010665740729822
0.604125643794475 0.559455349964333 0.6934928794679834 0.013438084670162305
0.6037532152928401 0.37743926748166934 0.6298194512915709 0.010290916489752723
0.5991559588369454 0.5360483532107996 0.8673811597821398 0.011536883176515703
0.5993446379289468 0.4847493727665436 0.6000898900865677 0.0017534398309686538
0.5957294843829607 0.451268244539767 0.5913205847678634 0.0028496438778334576
0.595241511725388 0.4214408103557263 0.690340607051975 0.011511361526232356
0.6010574599168226 0.25654257155950466 0.4262518712206747 0.004987879280662772
0.6007736429376502 0.3118549640351097 0.5119657648821069 0.008984827245145963
0.5951195037989585 0.1289106590369068 0.32419280431272834 0.003659324207960897
0.5991554840373514 0.52516386503516 0.4774049466517443 0.00515244014781581
0.6022178598120975 0.18519921672817907 0.3227250847135066 0.00843391445080322
0.6032011176438614 0.3663928072400483 0.6000053822587676 0.00609832221866713
0.5939921968508748 0.6227717907252323 0.3701234489369664 0.04389884780077624
0.6123247270889713 0.4456371573271267 0.4291422967177411 0.003448632332935414
0.6098235393113436 0.38953476519851865 0.36620122583566606 0.0037848120948573913
0.5996540992148588 0.2026745402527647 0.4738587968649308 0.009366686606328879
0.6048932568438756 0.5894880736360547 0.39987548340401635 0.00339273995938494
0.6019049854046027 0.26385433105247086 0.49341109435323705 0.005864505615276711
0.6008762888652628 0.22054361668201578 0.4551968997840873 0.010361154268924895
0.5981021239488948 0.5194682003990854 0.7527990423111536 0.005106856026439776
0.6066392812824393 0.423028314888756 0.5388600786427425 0.015900128997610338
0.5995356287062575 0.26094433183436927 0.45278555079946975 0.0035522616326029814
0.6057694640198227 0.4895491859702046 0.7786223058968558 0.00873913878021186
0.6009978603685233 0.6162755266705839 0.6493140862171232 0.10733390750467986
0.5994824856700393 0.631269838723419 0.9964761911133718 0.0596717556521435
0.6038174082776374 0.284469004389468 0.5089401133866122 0.00423008983164372
0.6010489962424269 0.400635507315747 0.6328331686793417 0.012385197355264676
0.5979388695150403 0.22367853745787278 0.510641737810469 0.0110218953559935
0.599589117372633 0.5556478386568955 0.33487003977794705 0.007741142028144121
0.6015698074174328 0.26557194446642923 0.5286125588099253 0.006101344997628745
0.6059127165305587 0.33414551947692583 0.43608100926785726 0.008992182022037644
0.5978689037693646 0.5969227650161189 0.802769065707429 0.011733207463274622
0.6038297571232478 0.36814192193660794 0.6806121608471527 0.00454214800401836
0.6035348640821807 0.2633600090574474 0.3985102037901307 0.006362877823357097
0.6018555212496287 0.6022102780396976 0.5107838277425536 0.060973644160599375
0.598810459466919 0.6214502846101547 0.8636105294951503 0.06326771425694859
0.5999944455944679 0.5324760388689395 0.5676849983790418 0.0035554152193142973
0.6020910013913306 0.09806371896444394 0.3063533322800639 0.00858684573088153
0.6031065405656081 0.5483431030352397 0.7471332211190383 0.009670384111093907
0.6100402152252029 0.622553426867919 0.9531622986716369 0.13504582635965795
0.5927679409610566 0.5974230400131634 0.7761218050709091 0.04506179886037655
0.6044811845387245 0.6094188651304833 0.558951615921492 0.05421846894253007
0.5990731979822477 0.40839121279572704 0.6596809469763949 0.014535493683118317
0.5981003313765292 0.4263309670098219 0.5021057900834165 0.008988772109116628
0.6014496525616987 0.3167221815813542 0.4565919279367126 0.010827119243420074
0.6010211976907063 0.5971341587153117 0.8234127464997032 0.0148068007602674
0.5993991091297118 0.30936618787947373 0.3275212655877455 0.0042796904305859775
0.6046687277791559 0.6158193273487855 0.3364590966216016 0.061013377764690534
0.5952360575390031 0.6264271705621685 1.0035421943759206 0.08739837665588679
0.6009289631309994 0.3930466526861995 0.344151164392238 0.01268928883352954
0.5964974194608833 0.43266280816431535 0.5525693734087588 0.02411158495554778
0.6028990600625488 0.519059519518998 0.5714389923029618 0.0027657601972969174
0.6022974972253369 0.21738298900455305 0.43817305333199436 0.006610675885379335
0.6010772878059376 0.5359927917301934 0.3276745640824704 0.00868369106536902
0.6078172531110189 0.4602944654229318 0.6871706127396484 0.010430846193119977
0.600205056901502 0.31565094178257813 0.314304378390523 0.005491565409019587
0.6023538995245571 0.47252806335821373 0.4661522257612452 0.003432484706850651
0.5979927038395353 0.5086634844079407 0.8618463008172684 0.009285319730212238
0.6010602030035881 0.5216907566369967 0.8900913567711953 0.003091145689836281
0.6000037164120581 0.28101434821633836 0.3273823078863304 0.004332150007821011
0.6011847090503781 0.28284423935574265 0.46262404456673883 0.003408385892669751
0.6045154204751383 0.59029021585767 0.5292636690042434 0.003551701732269061
0.60308088927408 0.2689927707659923 0.346094003761257 0.004205723495223658
0.6040415607565734 0.4188817090960071 0.42537599805577264 0.008935081686923151
0.5979757583216476 0.4009960010461481 0.5516534834359673 0.01911344369963116
0.602441536489279 0.3672318802461616 0.36480321150933587 0.008976810328593739
0.601846751649785 0.2827156424594669 0.34009857471978205 0.0032993603711307506
0.5974303973776007 0.5650099876725292 0.49826738484065847 0.004296864473622736
0.6009007771360263 0.5489475761511565 0.3169390376243074 0.008194726202406208
0.6027172292689188 0.3159274817937578 0.49736424746085844 0.004867988545650571
0.5984136800978265 0.45162307010010333 0.453339269241598 0.005017893729333898
0.602562368254 0.5460634761022493 0.5419275174583587 0.010964032145781214
0.5979572365656376 0.6162883725814218 0.9093590587499817 0.019684670997034633
0.6009583575420134 0.35393132766783636 0.4949716815910055 0.008250628775707189
0.6010961981056625 0.5761976083507249 0.6985571155517585 0.00464191794323264
0.6077549692955047 0.49698650588469845 0.4868924289640757 0.0046865469084439865
0.6006592469486838 0.5450108760137103 0.8196340293177147 0.010970747205892632
0.595204619999858 0.4629853387315334 0.7156656695537268 0.0010613151071632418
0.6025669883357311 0.5431510731722838 0.41096538366050206 0.0002136787351954396
0.605275837676612 0.2342204470087124 0.30841350983638866 0.01480131372315255
0.60352513312996 0.5175895443380872 0.7110558684962838 0.009749060606640889
0.6037604076912337 0.548881559947751 0.3868709355566803 0.013071835555948987
0.6008666568162454 0.5557567832501784 0.9290265909373122 0.01109249629007481
0.5993590899961592 0.3014630677276887 0.4642206947881211 0.0042988114384083604
0.5989134892922914 0.5249569750143834 0.8509812791504435 0.01152752820526899
0.6005439976837305 0.3070239645746197 0.40889322206780865 0.005326428942534818
0.5964232101543229 0.6240969929620064 0.8259882997799507 0.08074817369384538
0.5994329390766922 0.41329148251977194 0.37640680323393755 0.0089218553897565
0.6051841347694583 0.3408007171537714 0.3425116669701102 0.00018035446295610396
0.6010071911990782 0.3817234079491366 0.4412302607002885 0.012409701271067233
0.5985572941903408 0.4054333525493337 0.6363545142291505 0.009581371845041502
0.6010605579558674 0.3628933923400908 0.41945211299526874 0.008963138276901001
0.6031926135668586 0.2795623076457694 0.5022987682788427 0.00294069462279639
0.601793179930133 0.611464451884011 0.8412144067047156 0.042759897925967065
0.6025624349629298 0.6245602396318178 0.40953814890017043 0.04691626400885349
0.6037894098283764 0.1842778981556013 0.42675002539082163 0.011596640903495797
0.6016651671172601 0.4490499955083527 0.6547536957156287 0.0070196827698255386
0.6015504042314884 0.475833176865547 0.41743601431684735 0.022126550753048823
0.6074439115798592 0.3486847386381306 0.47333300089062164 0.01209520876536801
0.5978238547088502 0.30515440103056296 0.5814230641298922 0.004955215311155667
0.6005149960046247 0.5357182327978068 0.5205636190851455 0.009026796223530007
0.601412108281519 0.3492369596542283 0.5408718950644552 0.015491959985569579
0.6051826816571116 0.545257033578053 0.36962630280185893 0.020518835074539086
0.5971560196058608 0.5855534447289642 0.5017515573284819 0.006275401040431265
0.60125899294878 0.22738000404377262 0.36802674603286806 0.005012063764506974
0.6006645346757478 0.18825952102137877 0.4365562987806517 0.007911844944938922
0.5994113161078154 0.34201541624567344 0.525238746349158 0.007625171297772199
0.6061219938451083 0.5630437652441145 0.8179703987987077 0.013436519394447784
0.6042244160994354 0.5065960613617632 0.7477617071549285 0.008495950135308775
0.6034730563423895 0.569890707622867 0.8503102125527947 0.00799786711855223
0.5991418686265934 0.4787082296682019 0.80428754757528 0.004013593653091105
0.6067373614544667 0.47362295405327354 0.7598882035971549 0.006534739802406173
0.6079090691893665 0.5453515010010236 0.6361090503127543 0.015323975920298251
0.6005426333409354 0.5332551194711789 0.6131369295729329 0.003713235973730069
0.5996883056175828 0.31739967512979633 0.43119029370269096 0.004737198529158958
0.5999756940114934 0.2729428941278429 0.4702284471974399 0.0031149401723726267
0.5982329234651969 0.4924753512068272 0.7031405247346029 0.011838608754311152
0.6010710306337921 0.6372373385725368 0.6934931584174103 0.04131879923878281
0.6071409668315423 0.3359297523256274 0.5508480751077132 0.0174454257566831
0.6064532738241135 0.5758639651854853 0.5414285611701953 0.0035548954825117504
0.6012387436526465 0.5065914129866061 0.33962036687402225 0.011371186423517152
0.6007409578001196 0.40671451823386645 0.45989167769150135 0.004281950670251434
0.6017592270978741 0.44500951057440524 0.4767002041695876 0.010416749093369726
0.5983209666016633 0.4897097755282161 0.4361558598282815 0.005679589236151622
0.5956200895174997 0.6116382393105995 0.7353918650962188 0.07834248017513101
0.5990514909305148 0.22785385986394896 0.42723562409506155 0.005774269420471597
0.6018423264305691 0.5968488299771058 0.6931177046155093 0.011024452458402272
0.6008910145204297 0.5863408313560187 0.629856321790075 0.007394785820164857
0.6024863484311194 0.5654157495762456 0.5898455783150258 0.004916576499927325
0.6002482721401097 0.5945675752630482 0.6661335493935258 0.016357562683241574
0.6092213708042077 0.25526735898372704 0.30215040236040985 0.017101911433246825
0.5945714324063894 0.5096249581444582 0.8491406699968327 0.00748377946057081
0.6036142184681563 0.4254324312658612 0.39516109832076457 0.0053345559800233415
0.6011943420360458 0.5945076037897806 0.657234258166672 0.0033419412075421026
0.6023063052135391 0.3695800252209408 0.5838025341501721 0.005078381361431445
0.6007072926538063 0.27518601322720554 0.5299482697195407 0.004581872687480656
0.5996481946665613 0.521167022979399 0.4019106216825672 0.006174646030636333
0.6097926484260258 0.5287886287534677 0.3496336617817411 0.01186317585451687
0.6030291206422491 0.4796265991762948 0.7203556190306324 0.016278183580861996
0.5989838415117876 0.3006860449919281 0.367018591582805 0.008537484897016903
0.6003583943886791 0.5320315159741985 0.8440031819022472 0.016069339837499756
0.5979752610770773 0.6040265495140833 0.8642972428175765 0.06848918968027587
0.6006905140487413 0.37929446775101266 0.6687077204948613 0.00899000217921736
0.5984526474097772 0.5469074742184964 0.4617003409110295 0.006959036688882653
0.6053417671553977 0.44037257280671255 0.7799930841486965 0.001682672138941285
0.6015788184792779 0.5940434813827855 0.5802891502638873 0.018685744085999587
0.6019126678329686 0.11468626223032788 0.35569323572109973 0.016356919658044956
0.6078273496325145 0.4803739712986265 0.6503559780698865 0.009448573982899411
0.6053506130177421 0.49962091640792766 0.8260458884839265 0.009599589171107061
0.5974325596782433 0.4106577956649686 0.7353785903039596 0.013017120698874965
0.5994236436021422 0.3563999101282763 0.6213974764253544 0.004912504922095157
0.6021140181856075 0.5467284338915015 0.7858590533705903 0.013353998650684746
0.5985372505518356 0.5409160910731959 0.2986097172785733 0.0035140901913398577
0.6031283295668376 0.34588872716219493 0.5467183509296507 0.01980832481998513
0.6019408855047402 0.2939890671335988 0.3189141754555184 0.004091034899840866
0.6060686628551579 0.20612030441707896 0.41866097981486783 0.005179752810652969
0.5975814445448382 0.47339424885199666 0.5461735279650062 0.005887396512416804
0.6075314889289428 0.19029585116017816 0.3834348717698059 0.008366147494464082
0.5978155971372366 0.496887628278284 0.31633440200856167 0.005913662940431373
0.6023097975883978 0.5803888667821836 0.937906357768325 0.010905149701666776
0.595898291092192 0.3206878821543093 0.3038145796204441 0.003933409671723605
0.5979936291045177 0.2834614712607851 0.476548574958095 0.0033321920531492687
0.6037829818158275 0.3926241987649738 0.5081097876274935 0.009947046804135575
0.6052070009174015 0.45693030608896484 0.632032998715595 0.006315135884220195
0.5988957315819464 0.18724836551250415 0.3399638157281694 0.005107181693307268
0.614488484065204 0.5450418222388106 0.6592767110458715 0.009149186340974093
0.6057608357161153 0.6077717120092267 0.8817548280015873 0.010480001143286927
0.6039828194110989 0.5240259061489267 0.7232660094181533 0.010817944651930107
0.6045852098589749 0.4728751886452495 0.6391060362884902 0.009729809975767483
0.6012763049160648 0.17042796871255028 0.38841769020841915 0.0069528009030575665
0.5994729089780945 0.627575945226421 0.5887928013585799 0.14201834715976813
0.5979664068119883 0.42866464749642924 0.49612875802908535 0.009307901685479299
0.5963408857187394 0.5717364097417975 0.7734478725846915 0.0073688440392854935
0.6008561337687323 0.5715635237235402 0.46299599646013145 0.010926680458152697
0.6000918038252554 0.17810467355290907 0.4492543518828087 0.0030584020678253634
0.6016899028023126 0.40317602495294136 0.5055395101683772 0.011038757926637974
0.6021084586092247 0.5688949718336718 0.5789253467090069 0.004768771701357023
0.6031869216755444 0.6096266996853905 0.8844938624576698 0.053829573034390635
0.5978558783965215 0.23033794610296904 0.41399941659661793 0.006334670405087245
0.6038129519463714 0.4166861525657384 0.36417809168790505 0.016695784761143355
0.59894161894435 0.5653110872724507 0.7348401322886345 0.007584740148309421
0.6026833341970208 0.6037130617052888 0.9069785668878518 0.03487570169919346
0.6004824264097766 0.3625086678987989 0.31099559446404973 0.0010762797388534926
0.6097299212004299 0.324441114688729 0.5340102155976107 0.007770173578617858
0.5984293866277355 0.6034404071500186 0.9900387418976407 0.029295719163588297
0.6016995210428575 0.2460349622684707 0.35349536575931617 0.0058246906504642315
0.6016296834237203 0.5292405363583312 0.6780231934192505 0.02138566761564013
0.5968182693324334 0.5351807788836499 0.7171577048471018 0.008575496532327987
0.5969026254848107 0.427638100932819 0.5643899388019001 0.02146261822686454
0.6005399826396266 0.4790339969137225 0.37567012902705815 0.023052862123908946
0.6028589703949279 0.6180676826489406 0.425851148976374 0.06833503877475407
0.5989316146195319 0.5666146052869475 0.7031288213154273 0.005269725087277705
0.6083719393037742 0.37779981161738035 0.49584766343656467 0.010789640739668325
0.6041521215386773 0.23406489105307604 0.46363450212754714 0.011603468460593932
0.6057522085804625 0.4709891336845471 0.36887885605281634 0.008937399136743983
0.6074982131750041 0.5952457829985529 0.6148453899764638 0.00038229446498786135
0.5976977172490983 0.2526684945973175 0.5085498021654797 0.0024696745326019853
0.6021724916045396 0.39105391826204433 0.6235934522073253 0.012735430164417761
0.6028621542910807 0.4133258033703757 0.30304401925542657 1.80569516530116e-14
0.603179999637875 0.5926997162954262 0.683064426000158 0.005809517902119539
0.6042328604463889 0.25636512681391976 0.43759536054366616 0.0046647522250546775
0.6017808364625951 0.580846918572922 0.6594725466678528 0.007694778289251584
0.6011094280920362 0.36587679596639666 0.5646663980144794 0.006235186605110744
0.602271287208446 0.42959050892028483 0.3076393796787454 0.006411934484823379
0.6004221322983233 0.30532225136769786 0.34530434921272757 0.0032866243559178374
0.6066320421527692 0.5022450656466207 0.44989695230228516 0.005532839972359568
0.6122260072843194 0.35032531293039304 0.4543327833984226 0.00812964451428009
0.5975559996731038 0.5815426855191159 0.805387085973906 0.011322990025177433
0.5976694401611632 0.6175515902066572 0.7796234470663574 0.05985027953581469
0.6030347752509273 0.5344910604937985 0.4939551163089747 0.0058931101284619035
0.601834632808968 0.3831354556989827 0.6678927137853449 0.007294788048957743
0.6022868417827438 0.360942248994744 0.3509659898789565 0.009122465342056098
0.5983578121826341 0.4409032295034232 0.5892604204227301 0.008824139773263769
0.6030173711114073 0.3711557274460456 0.686063869906975 0.00499338848465492
0.5990186585428973 0.3083742865162946 0.3698393504247911 0.005955262338269587
0.6050064724799643 0.5082903321297073 0.8089784603423715 0.009786425262834249
0.5997766112168403 0.37326408338236633 0.6124724699092015 0.005245579705104052
0.6005444604406871 0.6105670441669167 0.6347115177815523 0.06299047526285993
0.5967403994406877 0.14627867229894223 0.32642594512699213 0.007298643041276806
0.6033509486609426 0.2424968547549237 0.32877336630147674 0.014290563323079004
0.5980960539967524 0.5782609977079409 0.3751520624483746 0.007975952830443287
0.5956084470565529 0.47727820187007813 0.560267939350612 0.009785828668556307
0.5991009076285443 0.4122937189376155 0.38523835287690417 0.008526923600722828
0.6008667031978135 0.5784300425785728 0.6110325377621334 0.005658519333092332
0.6039191805938985 0.5891885823588142 0.39577282170003136 0.003107052221006014
0.5978336337766198 0.5086280813214649 0.316390438429815 0.005325146945041178
0.6022418610297602 0.6067430602454501 1.0039561295317405 0.026805212536820985
0.6013294078420969 0.11994078446683422 0.6666217833462609 0.0041188870639638385
0.6038287565902548 0.046988995137410276 0.3787299195263728 0.00619654565496924
0.599211230048812 0.08354753652712199 0.6055794650485437 0.006890089781283039
0.5947830318869561 0.17065801270077186 0.5917283864912315 0.00510301713317161
0.6047612076749808 0.08722990359045169 0.7385459355937851 0.009696381641992623
0.6014496139786858 0.37112213176700215 0.861198772897534 0.0067727741710764755
0.6085312354811712 0.3937171241651314 0.9932371794814466 0.015987274231236137
0.6002184888333861 0.14575348827854795 0.639767520212631 0.006653175438822255
0.5971124039610357 0.27738333476286514 0.6353283209097479 0.0012061996225493294
0.6018329412303126 0.17478278007692005 1.0082192635977814 0.016054278151587942
0.59885258584522 0.16714629679942852 1.0071880457992803 0.01337625674748571
0.603513569687384 0.31949392230491963 0.7371196093716547 0.007829073236531595
0.6001605310425171 0.23297076836214595 0.5432390660851929 0.004806287931452638
0.5963383466375372 0.5533767875411848 0.9952823010799846 0.07643532477869858
0.6024800546469163 0.047491058410111156 0.7409069067548926 0.015321039584237854
0.6032517960948568 0.05794405790397299 0.9485363986446563 0.00787363404893002
0.5965349622220251 0.201774099273073 0.7024571506943725 0.008224189095333442
0.6009209497632838 0.11208669110834987 0.716528512475776 0.0039369487253180235
0.5973948725262962 0.3726773272646481 0.7921515352198799 0.008936432761443656
0.6035206151425012 0.19918581993024992 0.7481633570691852 0.00822617124627277
0.5962712007322956 0.4674754881910638 0.8839074273462676 0.014042570624615001
0.6097540132102205 0.34197633338253863 0.6881347540591614 0.0031597623005752682
0.5994335508609968 0.3504203848221704 0.747015273324168 0.0040001588146320885
0.6021522391245169 0.16775326631857923 0.8034179160880464 0.008226445763881134
0.6006955210847127 0.49964834868299507 0.907375959991649 0.00702410819729223
0.6059229883688839 0.41471533993089843 0.7691401755009385 0.009147426355762055
0.6010190427793523 0.44323746471740394 0.9220222362875109 0.012610684299533366
0.6001969519354265 0.19038201647032538 0.9284885294302139 0.005688373373146772
0.5971174127496076 0.5917099159169771 0.9776564090550904 0.018895035239914832
0.6078661235813257 0.22225088647228824 0.7983970806629418 0.004841444562112124
0.597813682263244 0.3891046683752622 0.9314022782869078 0.010569199115475917
0.5975911058462537 0.187080795226071 0.591712388695121 0.007355039308594401
0.6005559804755929 0.2771060112968694 0.8254234474651535 0.00783348599846512
0.6058577351089657 0.3731369375701012 0.7504800555326246 0.0059343443465041095
0.6012515972424535 0.33872941019005354 0.9414938267123237 0.015171758596880799
0.6006894397314002 0.05904454782903891 0.6840821015126568 0.012338705705342734
0.5934823226294137 0.058400250128088235 0.7583574853952818 0.007561186822514496
0.6046639016456848 0.18390819342242995 0.5366417652408382 0.011691290293690834
0.6016668349828835 0.5370836333378013 0.9899764998298403 0.022956831000080367
0.6003209664205128 0.2583717382917064 1.0079550602371186 0.037399941289349495
0.6044830427352003 0.046172360135256614 0.8952045102563505 0.021986989196751048
0.5998160484365926 0.32953064788547803 0.7464548271984399 0.00561554369492421
0.6043602976446398 0.20133625557904525 0.7855175898497558 0.004252095361986107
0.5975209906772545 0.4472239693864547 0.890376613645314 0.0073061140688730096
0.6025248126042387 0.04787612903356289 0.3956835380904742 0.0073747918563223
0.6013467127484695 0.4695762120122295 0.9523288084430294 0.019896978994075925
0.6027528067338492 0.0561820576940256 0.7133409844546618 0.019474329201223675
0.6049433389874813 0.14718916862740355 0.8340645691343425 0.006399228982909167
0.6088975694159625 0.27592583637688145 0.9818565659590707 0.01051154248963893
