x y z curv
0.041674602136887264 -0.003680970984555556 0.4387477783906407 0.013333774438331987
0.12450125954737114 -0.0006352910739893247 0.34649688189008365 0.0055495819255822094
0.341647519393878 0.0007146523074379875 0.36250757679396334 0.004423675175883278
0.22339228918488885 -0.0025459881889680824 0.35266985785412525 0.0009910346338763614
0.2861426955454979 -0.00324514288225448 0.35110657183375826 0.008222288957278709
-0.004327958810317747 -0.0042009434555131085 0.3733256853487278 0.03921208460988427
0.05775136369223489 -0.007669329751289445 0.31700799413713754 0.0014403480481542871
0.18446321850980857 0.0026128341181644666 0.3948473881621816 0.015587616755547656
0.2877390273951467 -0.010342053813519565 0.31018971931374617 0.0045634144050537995
0.07377217401737174 -0.0017411706950488288 0.38224898350733233 0.009258566252964017
0.019173592369990142 -0.0020790674793331855 0.4165924126971842 0.05633576905007787
-0.0021421491545869937 0.002003918103443797 0.4316989239084524 0.029922701705275594
0.5202679299363132 -0.010200555113032712 0.3027237949385388 0.0007382424458776038
0.3832991108722176 -0.003556484760055053 0.3268223962599812 0.0017232150294731676
0.14133078949653985 -0.0031798472784718554 0.358580285249637 0.006513738372741479
0.2566387399420473 -0.0032074238532279987 0.30609542819299523 0.01021934669794216
0.09625524470009707 -0.006363934792589036 0.34467952281404635 0.008925029347690204
0.17297750614685936 -0.009890232378266499 0.3460705385518421 0.004121955278006519
0.04081434585806557 -0.001673010445212573 0.3354873260484967 0.009037063394676937
0.1944384280522093 0.002361187973701133 0.39907416212555724 0.00904862660235392
0.42810521933324697 -0.0045921622164685665 0.3126748954097069 0.0007873700453482029
0.3526789646149121 -0.00045680204822451566 0.3256113623803481 0.0033232059446633307
0.16098137711510965 -0.009573931806639435 0.3750827760286269 0.01032116918072872
0.2327225720794891 -0.006988437297543103 0.314306011482513 0.0032645590308508967
0.47139359869959313 -0.005499162576696072 0.29638784422127706 0.007644920293360529
0.23581511503186034 -0.005371699870462586 0.3517274667386266 0.009462042825093138
0.060942830444676334 -0.0003448952848154885 0.29162259277824265 0.0047588126316697316
0.26251907873436847 -0.012541959596645448 0.3831850960355117 0.022736949518448756
0.46959222350488466 0.0004054753515594402 0.3293534635634437 0.006274403953584019
0.034646277181978005 -0.006411020679436532 0.3881754012149458 0.0017236582767678585
0.4100126983243865 -0.0012117267850701341 0.33527042133394636 0.00434870060117122
0.016867581563934735 -0.0017261271509269097 0.35022942498754434 0.12278457339739862
0.012708860464513671 -0.0034383553694614065 0.3267067255246162 0.07247837330653387
0.3465875326157091 0.0025737684144319945 0.33965347777506844 0.006347220061108602
0.11800393338545334 -0.0008107520188143092 0.3830988190125279 0.0038819682674155137
0.09739519297433222 0.0026110635501017964 0.2996079135679962 0.0015796842365248982
0.07008358156501197 -0.00472933778406251 0.41638072864172404 0.01514601672974574
0.17998403378632089 -0.009519943663471527 0.2901346396743817 
0.45091946246429593 -0.008140039373003824 0.3189377197697711 0.003546121179315409
0.32853120069932684 0.0016842138325122331 0.33650701506829506 0.004816664258334099
0.4798735270579006 -0.0009291939310048685 0.31861938402524187 0.007746251762608612
0.04799182316668049 -0.007571406552368229 0.3628507046630046 0.001273865844813857
0.0494483760095764 -0.0035189415419846553 0.375913289747906 0.0028094902618361066
0.19948573887911264 -0.01009881299314569 0.3494392867044591 0.0017489733147982114
0.32570841514469695 0.0014411888322947162 0.31251921572934804 0.01999870303327029
0.16980817251167574 -0.007954073561881854 0.3547903902312598 0.005881442115656722
0.40517269978328635 -0.001355771148108197 0.3260082900347711 0.004775371464832505
0.07491851354342102 -0.0035979426937880615 0.36054656560827214 0.012613384155629974
0.22151356519611437 -0.004787408868116857 0.3791380269228944 0.008192999557525013
0.13853547031711114 -0.007275598309494816 0.3102179999042162 0.017580149763307025
0.07932945835835843 -0.001868717119318865 0.3479167610483287 0.00865285937025031
0.3098584292852273 0.00024251613620760422 0.3164000004000405 0.017373431952572516
0.14786958703520803 -0.00878828629549897 0.3318098428846527 0.008284707334232068
0.025029180124505133 -0.007240800335054372 0.4413553119673771 0.008335564450208608
0.14510933401386453 0.001164458015927318 0.3949918948135651 0.014807305199866056
0.4480357680101527 0.00015250084504329247 0.4353855090757858 0.005918438949418544
0.20681220476394238 -0.004918587677881382 0.44844796361703476 0.004725239683291527
0.3625906824091984 -0.0010896184913481734 0.3946132706313623 0.004900059561713845
0.5495687661927752 -0.007621387641229254 0.40127459863395193 0.005069427977901887
0.3258608580734854 -0.0026477168218481248 0.3926951447494328 0.004160854270658528
0.4236178649773537 -0.0025198728486828187 0.42138968847216685 0.004225693893830494
0.4940333178084847 0.0005988994178271534 0.4022767974374901 0.0028548630269931317
0.4947506930932469 -0.0068813357200214744 0.35698714819848876 0.007303524893118775
0.32090840497660944 -0.0022530521689854348 0.40873763176425354 0.004257657300886205
0.34830870003296704 -0.003413981864867178 0.388052240320472 0.005246475637437951
0.427361242095762 -0.004294314801881184 0.36186128054282524 0.006185636053978261
0.45799253714183424 -0.0027652170510144383 0.4331664974191601 0.006211182990307473
0.47391759712843645 -0.003200875236591553 0.43748644244333595 0.008541914774810188
0.25717478620541595 -0.011867918073844005 0.41042131584704955 0.007944426465498524
0.4303199876303117 -0.005948795153385526 0.33941211807633304 0.0001264692208636836
0.19275853520190817 -0.002230987007539649 0.42817220381286425 0.008095982228132929
0.39292531005416376 -0.002320753319481803 0.43141107332530093 0.008707707737741176
0.26193009859245187 -0.0055634988146025174 0.43537037228072517 0.0022534454763308343
0.5079298413703527 -0.0021579121480003135 0.38313216375111503 0.003873639267332606
0.47601305074460365 -0.0052025696683566805 0.38647035797085233 0.004591323395344648
0.4688752512010923 -0.0022321662315587885 0.41300412280723386 0.004813898702640733
0.6018964895114154 -0.008697531778652326 0.34406872535068533 0.018314946594710273
0.5261661905100536 -0.002174126967565696 0.45331864963994795 0.0002300299682676636
0.5368479789620432 -0.006102501811363539 0.39960947993563545 0.0038894760622175525
0.28377260377316726 -0.0028555188638429425 0.38110542908546247 0.013080587189891421
0.09334427137853835 -0.0020787750148660343 0.43720867385296697 0.0261818484754744
0.4618729362923058 -0.010894042948950218 0.36828566995707024 0.00256933218402085
0.4672153266876222 -0.003921787304069525 0.4211609284194119 0.006315133490841077
0.5580543740063216 -0.004750447729032574 0.37229191495061287 0.004077989201313457
0.3658534918802221 -0.002903476137901892 0.36379363843230195 0.005489816856705326
0.40478366304932534 -0.0025053976419644177 0.39934051475266047 0.0048986106983017925
0.5726913808027798 -0.002451706213092738 0.3591264909854304 0.02838594822206794
0.06396981159360147 -0.00029468931064622234 0.4465437242647627 0.013414829083244192
0.3250053705676501 -0.008156499191487601 0.4356278380664011 0.005439609753587391
0.4133998299463474 -0.006442661535891379 0.38007239674863025 0.003106602665325456
0.5157140901315539 -0.004763207902572971 0.34183743102068676 0.005167795870108722
0.3761042382691655 -0.006272077615948894 0.44009188112244746 0.006951060858683437
0.5989022953282508 0.0021072457653810318 0.43528057702024314 0.06423095109567152
0.5164418541466658 -0.0030968485962371258 0.35422927427861584 0.0041148453671800795
0.43821255656601904 -0.004074880983785465 0.39193495611265494 0.005295585451604331
0.5918632702148061 -0.0016737038994952182 0.38701958594548375 0.080312576822542
0.17518993580376377 -0.0005883613587808067 0.4548014620334495 0.00816332395420244
0.47536484679533786 -0.004207647592231493 0.350929120477855 0.007471694981221938
0.5245933046868514 -0.005463612689694662 0.3793468926674411 0.0036187482062444718
0.3320046362863069 -0.002959877526649646 0.37966478715244384 0.005589234482530672
0.5484755759874708 -0.002830696723833804 0.4405572670272398 0.004706436227298011
0.5303623901294117 -0.0071360399892900815 0.3551523175832564 0.002042368971500459
0.3562396285376318 -0.0013617356292991959 0.39574832374982666 0.00405464638864769
0.47999542355470554 -0.00045935260008384855 0.4101304644348803 0.004720652112688971
0.43529422274893886 -0.004242109738896649 0.41836714606071296 0.003142927619700145
0.2513816156614852 -0.004312587643032594 0.4287566382608088 0.011557940470301195
0.4485425297532198 0.00034772829268065765 0.40268559936333764 0.0032968248225900675
0.33882841745686554 0.00024034582517047475 0.4009584448256531 0.003993975601780283
0.24278929331031696 -0.0071464622132920265 0.42326751718102945 0.008418772646080623
0.30620848279254775 -0.006228153150621944 0.38340364695761636 0.004932435377383499
0.37228516398795786 -0.005526784506667868 0.4139130336519698 0.002034799488939445
0.40417650725783866 -0.00036385701584934265 0.4092505028513639 0.004086582652047812
0.1371291376912597 0.004293561494304165 0.44724706977255635 0.005473055317013304
0.3953486858034662 -0.0011270662503287097 0.41078093992732045 0.0076269705878959345
0.521081511333748 -0.0014370334565961377 0.40589611547029325 0.0014929755934802893
0.40031576414441195 0.002323805614646275 0.4414620771929056 0.0071350714792916105
0.37904070327059985 -0.005980299249859155 0.4494842856545912 0.0053704933963715056
0.17457675900522618 -0.006395298172615452 0.4314518641435829 0.01403837194969691
0.43341736140355047 -0.0029304675108679534 0.4394787997500625 0.004931284109510472
0.23340548212984968 -0.0006138540996927025 0.406642737275593 0.002398490692724176
0.5778911537658343 -0.0001274567263410683 0.41510965554322765 0.04660181058381818
0.49963975774252456 0.0011193715937973876 0.41331597985040536 0.0031622774313293813
0.18684453113939717 -0.004116484028761732 0.425794001333701 0.009195794200087468
0.4024293188460987 -0.0012192641890352604 0.4244587966440648 0.008503265546805042
0.1329818437713443 -0.005036990677802988 0.42408255710212356 0.01864166064492121
0.4669870031311047 -0.0026574911783569 0.4301702010921235 0.006824840879667539
0.5778922997579503 -0.0015024541256794307 0.34237427973507245 0.03366656635887875
0.37074191585212996 0.0003768274677762641 0.38220743942302854 0.004674563098678003
0.43096080787436025 -0.005878482469587362 0.4036436160365229 0.003048762483719026
0.169125101529815 -0.0074633585558268 0.4407147125065855 0.006353825255646284
0.563005245443029 -0.004029598145415085 0.4370038020573599 0.003517119216917005
0.21646070045713067 -0.0021377699435880856 0.4146561840938245 0.0059858047538296644
0.29714795366286767 -0.00634789181225502 0.41917284454055354 0.00502329614023751
0.34997783733471705 -0.003810250681861576 0.4428562811403263 0.0035704368364718082
0.3900408340759202 -0.0067403628632776245 0.3680504689492454 0.002134105688263735
0.4970307802179028 -0.0041671628982123884 0.37475856245790534 0.004955009238361773
0.5343249949255894 -0.0034647074613128864 0.4115098511726726 0.001317248606208083
0.5677906252411598 -0.008263986852275864 0.381158357536317 0.0047987307105569876
0.33894402794783485 -0.0019022131283602803 0.4249893152846966 0.005180731926015004
0.5459105883012144 -0.0076911037999373 0.3924483159231821 0.006736188727979055
0.5011898653498928 -0.003807004666243745 0.4415971988927459 0.005694411526012752
0.5715784049781887 -0.0032402957706366233 0.3140382668765961 0.032838810140556764
0.5894338618834039 -0.0041333771213769984 0.32886303430906544 0.04526342242543257
0.1589152287875605 -0.0038347695373666785 0.4306118740021309 0.013742666928615564
0.47863664928857874 -0.00019100738308603488 0.4233618620835769 0.007147150609607053
0.4889561700948784 -0.0034179778353392904 0.4558236165307005 0.005681744886939199
0.35884360669237764 -0.0027890499545425353 0.4100218488602161 0.0030297082982750968
0.5407617650166425 -0.0028635294455550504 0.32464554032212645 0.00581420010269737
0.4370451056372853 0.0003054341898033463 0.4425864562382725 0.005232633158088048
0.5155911190419473 -0.004196149299711029 0.3315663406757202 0.009180645625844424
0.29333933346336005 -0.003924284014869986 0.42788302822381147 0.00860998624688597
0.5538433846414872 -0.0009139236411129232 0.31971523714812816 0.0028878545147523627
0.5520250680126515 -0.002834463020243657 0.4163012762843373 0.007432295692806549
0.4992298659309589 -0.0027741231773204785 0.39094285832496223 0.0036015975610852015
0.44926681151048997 -0.0055398052156108634 0.3787820684512666 0.007749876095103872
0.5559041148084166 -0.00223607959252594 0.33775901911327166 0.0031100291933469568
-0.003139073469461407 0.015660813572981117 0.41732895619179167 0.05542123574081091
0.5924533716360534 0.0004846446935695128 0.44319536299244494 0.019306698150051208
0.5988016935280129 0.006045269604851867 0.31561779478073143 0.09266283075789906
0.6041664729668327 3.836170839744638e-05 0.4108884873036624 0.03594814275867741
0.5935803801311113 -0.003327687687721662 0.3977601866956674 0.07936726779368253
0.6028213417421798 0.012489293160854224 0.3333317538325185 0.09510304448985873
0.6040076343858165 0.014596907597230962 0.30881188585322555 0.07112587748422798
0.5948887925176558 0.002609333933351858 0.373712004952159 0.07725704929051012
0.6004065785163741 0.008117205116362167 0.33854520030345325 0.08043323444991748
-0.0005334226560668699 0.0056705106567671495 0.3281666707585255 0.07951151378722737
0.0011915071290671674 0.00840675529650127 0.3451280132851994 0.05897733689968351
0.0007138819584478254 0.0039092028222541255 0.356699716046245 0.043682308172755806
-0.0022169717245877 0.009143635358664151 0.38553417827796044 0.06313674514211186
0.008009987180542234 -0.002649081392512345 0.4077458713365499 0.056030669541457
0.006633425783799467 0.005254851468866989 0.45439095563121146 0.041708849404515906
0.27606924639077435 -0.0037411667912401296 0.4449707039783013 0.0006510056392387193
0.476354387033317 0.001627909943203337 0.45592865965075585 0.00679366439001618
0.5245190945413929 -0.004181371634127707 0.6793424262513319 0.012835886552287644
0.5166671698763794 -0.0060754548544794075 0.7069799271081096 0.003724408271345607
0.45857895357064143 -0.005335799497748488 0.6313857977061221 0.007531115731151645
0.49407847796287435 -0.004069893036514365 0.7140869473437155 0.004527599438904519
0.27455657168293207 -0.004751068681356985 0.6642939267327436 0.017035795988054096
0.23798652778517532 0.0035529905088436883 0.6943450439692535 0.008340360756721376
0.4760294856889001 -0.002268517245593692 0.6792996325406624 0.002483559636710349
0.4045069622788953 0.0005643349356265107 0.7053849326358853 0.007025803465940255
0.29769365153705635 0.0005144722381873807 0.7048860174724343 0.008369742862932064
0.48872305205361866 -0.002270894119554343 0.6646492182910714 0.01584851545662224
0.26297010513259766 -0.007338840721716414 0.6732447218232173 0.008293191367777234
0.4633169283642078 -0.006059365064726181 0.6905163190255155 0.0013584898330949071
0.36162692832481563 -0.006302407865722696 0.7018045380793597 0.014128333494250672
0.44845282530519737 -0.004601079640564317 0.660377342868375 0.009165250658256793
0.5345447252710088 -0.00537348213534476 0.6907776633748309 0.0028445893244197695
0.26447947934209093 0.0010533512477208995 0.6933988386166051 0.007875383203674813
0.40509691979445533 -0.0013934839679118438 0.6627397337508789 0.006453220201424683
0.2748105506934777 -0.0022567608098498677 0.6836499926772245 0.009903297094496829
0.45224611303181556 -0.0015605943991888235 0.6803157144804947 0.0033507517536372814
0.5083160463903055 0.004244542369795355 0.6447671785079157 0.011166884667410773
0.5864661294439324 -0.004623407928907045 0.6341372918409051 0.07878069182564064
0.3248539869934386 -0.0009033183664023803 0.6730672359973326 0.011087155713752184
0.5021487015285788 -0.005943029135838022 0.6924475957168047 0.001801080529378915
0.5604061545387028 -0.001960058373386057 0.6915412276329745 0.01290591988378173
0.5290963384316278 -0.006384816468081378 0.6645620600872963 0.015169917003373602
0.5338027094603341 -0.002596037000766055 0.6266274483454216 0.03353158481850967
0.15215692930868416 -0.007528468670930477 0.6813693306280277 0.009908925959015252
0.6014208826192404 -0.002026090158084614 0.6713656967718958 0.08175871347779251
0.36493905416887457 -0.009295085151801403 0.6849321548894569 0.013515262000958355
0.5821861815834366 -0.00047107644840980957 0.7112544038227868 0.08876471675071815
0.3854542148284849 -0.0051434640634116235 0.6959471631990622 0.004806888081424535
0.4809906515669578 -0.0034649004947904846 0.6549711102189831 0.015672630779556166
0.42318937937025786 -0.00756577806781314 0.6695370636838043 0.0016457770224601069
0.2901980974634531 -0.0074875724989398144 0.6868421082418955 0.00871136051848991
0.3148812070673111 -0.0017646621722546534 0.6749099547832558 0.011620444276106444
0.24670861090611787 -0.002372559101448956 0.6762757156682273 0.013759986644817812
0.1790691041546796 -0.0012568194782055337 0.6866384741898802 0.011573497428260412
0.5495054207603124 -0.004321474595326368 0.6769661306286388 0.009132821733129546
0.4347593996189793 -0.0013609538794018738 0.6787449710474946 0.004093975087675883
0.3930823263736538 -0.0023819394866911644 0.6760786876266834 0.009404569647270421
0.4974541350306404 -0.003414022559778769 0.6809216025172501 0.004676253022283611
0.4661687220385715 -0.004649778896587099 0.7013275062591812 0.00148723556572834
0.4194233035823228 -0.0020711757618392247 0.6493278993951966 0.008113309780393207
0.29960485411264665 -0.004452636131243988 0.6903793847197427 0.00833581552622609
0.21227990307930766 -0.0075580212542865535 0.6898847938236583 0.008136602712353357
0.1551532495910049 -0.008035609302949335 0.7013075474610382 0.007352368648362243
0.5430955697304313 -0.011561376805575417 0.6455303870145978 0.010833966194669264
0.43732105764485685 -0.003461005937285933 0.7002480442045699 0.005069261552501863
0.3818303719203294 -0.00813324757668238 0.6690516119421643 0.0029649936629592096
0.13019185188531796 -0.0032782552569452397 0.7074906612129331 0.013595364812749868
0.5924464469638175 -0.005663607235613725 0.651422008815847 0.07990925431930405
0.34605872063219756 -0.0002565062683662049 0.6518305192689373 0.008254549584265681
0.3347756281983566 -0.0032883887926183435 0.684641779073724 0.009985341016488795
0.010486066005320802 -0.0005030287147149027 0.7126289710176323 0.09083636242335998
0.5645156510776559 -0.0006781394372743529 0.6633919436377438 0.01021916828987048
0.27846630450400034 -0.002617768274213035 0.694772688986856 0.01126502765711692
0.22231775820597488 -0.006174530821336589 0.7022484666575901 0.007953935292377881
0.024773328686553134 -0.00180986560959171 0.7131302140231278 0.06040224806341154
0.31509553104793026 -0.003535478657132412 0.7065459176447307 0.0068086688501101346
0.36953791593714147 -0.009473268098452212 0.6899049702680143 0.013814482750677134
0.5973724996727469 -0.0007542710361822056 0.614636131770433 0.06274686027571617
0.5938391200918413 -0.010023862104077484 0.6932428603266576 0.0844352977208261
0.19567727421547484 -0.005383171036967303 0.7007279047238982 0.0007266995600449293
0.4881415160359629 -0.004918578696858592 0.6909689058977528 0.001850572249002101
0.5771606790679269 -0.005426797370006878 0.6709645069283432 0.09561293462451087
0.15582500175012912 -0.007598881568277164 0.634367911307548 0.004895373449704023
0.1276758531732919 -0.00028111130120636 0.6721145199122684 0.011634487175951273
0.06731441245278434 -0.006499755547083306 0.6626172327340274 0.006594263516548986
0.032845164161681144 -0.0013937382996979848 0.6967767232107768 0.02235195554677205
0.21443973603138727 -0.0035549368664530363 0.6519205241757565 0.0057612663448996975
0.03914666553886344 0.0008423426397717455 0.6976412738494501 0.009723926383875203
0.3061940896739816 -0.012888132809069653 0.6264802735216342 0.030095845655184982
0.273880855130688 -0.011357201478127618 0.6498225483834893 0.01556787543423495
0.03100014451289618 -0.005600065154882827 0.624281294714627 0.019935762427072557
0.10713985187539313 0.0003553534911042298 0.672158522473095 0.009219545173190846
0.10572393255948324 -0.006943009010732223 0.6489633191488947 0.010968626781188148
0.41936094245806965 -0.0057098065814976985 0.6222127032921355 0.009012267133899418
0.46896521317245055 -0.0071684237574233005 0.620054499763842 0.010449872833830705
0.12226331650226904 -0.0076810911269090615 0.656425718098379 0.014668475372733119
0.3682221273979836 -0.003309899669838735 0.6162152791250108 0.010622305663934817
0.09044420640694673 -0.0025757222833167003 0.629481674331438 0.0062766976551212285
0.3209472724704578 -0.00272320530174372 0.6449258292646267 0.028432578228212085
0.06960976163457304 -0.004073405306988612 0.6246863834551368 0.005671410169305935
0.2301537824048566 -0.007193081485313156 0.6501052947556853 0.0031669426491039783
0.19151448237121738 -0.003840815656729823 0.6628684415507345 0.006468091148489741
0.2175760287801469 -0.004025518007444094 0.6279364141727041 0.006147414170451716
0.30719660066818866 0.0009172920750162478 0.6574875399094597 0.01971528422506659
0.39556376810852184 -0.007791355529509825 0.6297946495583157 0.005665346463546958
0.11181720091003253 -0.002076212936462648 0.6157180096026926 0.005484757712954341
0.3310907250722404 -0.009599188041259206 0.64775730840666 0.014421398070847344
0.11350345184698028 -0.0032275508934094675 0.6364316489242856 0.007856277078460053
0.17513359277173063 0.002304049075593201 0.6656384187807413 0.011400490241556229
0.08991756006744721 -0.007393208422293675 0.6721948697599552 0.007705583826481894
0.5741528279713716 0.0020033817459877822 0.6191958616922328 0.09382731633836577
0.1272530300781568 -0.0040879538129889575 0.6435638683034036 0.012363756323314695
0.08289340046558369 -0.0009386044820174279 0.6420321349516951 0.007164591008311881
0.2806248197221246 -0.0009125098600284029 0.620817593585334 0.030237030497455495
0.449742334645355 -0.00018436347369174422 0.6389025257962615 0.006749778597933927
0.04171755936560088 -0.004376983218968614 0.6424980080373857 0.009667553462081029
0.42485142503903084 -0.0005473864938457382 0.6401123664896685 0.007623878297237728
0.19621469374698525 -0.006206440436597155 0.6547378237628452 0.004488377172291503
0.013140072052710785 -0.010865147045459654 0.6346353441625234 0.058391301353434524
0.426830965262162 -0.0005718914678910521 0.6280145471431828 0.009735507320326804
0.22976559726748724 -0.0020636152887771237 0.6623018468296412 0.009839330623383756
0.30218414909770314 0.0014320530183828542 0.6468747938919341 0.02820292643750536
0.28360144361042544 -0.0011823731229111862 0.6600336470564465 0.01489514405566066
0.06483691383588547 -0.0031100364303360416 0.6910812440293652 0.003563715676417961
0.19075430211771627 -0.0020373518093756092 0.6484759469263728 0.008228829850363929
0.18186338515166925 -0.0009265334205500686 0.6263516537584007 0.009246559908136298
0.14195473874000955 0.0004909230686343487 0.6559590540350945 0.013313927551588466
0.06718508494690814 -0.00953905132195159 0.6157018248091594 0.000764130707962568
0.5018674802855663 -0.012395665299196735 0.6255358906393568 0.017822455150831203
0.47730151344182903 -0.010982648663933283 0.634808789903794 0.021307831010702487
0.1334719237573303 -0.0018089971262077436 0.6870898186679745 0.011844653750924618
0.03872734297461623 -0.011041930568956497 0.6608516082414208 0.004907652142527259
0.25947895267148996 -0.0037897456373929897 0.6264086864485243 0.008853719118567617
0.24338581553890581 -0.002593710416100812 0.6619746774828424 0.008103739973617597
0.3660927017238231 -0.005618847098334468 0.6358214782760346 0.008063979479331988
0.02519446188812508 0.0009822586323779772 0.6840879196290379 0.03683260572293511
0.13798274830292526 0.0013381624301284892 0.6126010748005427 0.010860092281287807
0.06722403590048957 -0.004476169849201215 0.6339178628172258 0.008747368222560083
0.30398310877245077 5.045854204643642e-05 0.6412389446878599 0.02964703845207295
0.23291038350264287 -0.0058030469533051155 0.6355089326535716 0.0057157308526320115
0.6026167495950149 0.01235242550962228 0.6368488966636565 0.046839789715133806
0.6009479561842292 0.0058469290306684685 0.6554554231504944 0.07829728213823814
0.59793329000261 0.0033817563893578867 0.6943568919549103 0.10406841264758829
0.5966614769049831 0.010100580340141833 0.7081776342179367 0.020545593105106834
-0.0036899978953656605 0.012345696446585452 0.6399649992473688 0.03172127943021147
-0.0018485452098474188 0.010825349792116487 0.6672763063371631 0.07723409097458354
-0.0009932159192961832 -0.009183117182155311 0.6783286210267027 0.05124296179439222
-0.007113712590874157 -0.0020513020385455353 0.6527703616907207 0.02142398768463696
0.001554965080184594 0.005298416781609234 0.703184605837638 0.11559015289955578
0.602229764565542 0.006329713463411466 0.6145632839671009 0.0693822463503902
0.4076992950663736 -0.004446111618045587 0.6187596819797657 0.009302109485966093
0.21339177177563337 -0.0012353819575563773 0.6185925450597302 0.006469172225907437
0.08116175645797494 0.000757923016004875 0.7071428272495153 0.0032036185120922584
0.09424560408818516 -0.00263589109178223 0.702334765461405 0.007336229556343727
0.37347345452075964 -0.006599956219227553 0.7118191920610648 0.01706715385703302
0.4279077735978454 -0.0036463790811476927 0.7061859569793923 0.004992471066081752
0.38811468742203425 0.0009369992899117001 0.7095710941813073 0.009645786807344197
-0.0030656263638939992 0.017805743085265058 0.9199459439234313 0.07554179052469114
-0.001102731570271287 0.00818923250574713 0.8908803138203624 0.06922486484399142
-0.004275368450467048 0.009037323491583565 0.9032703605317478 0.06728652528989457
0.0024725260479630164 -0.004731014947870432 0.9070233829258094 0.06513386135244856
-0.004295969604582592 0.010474064205440056 0.9566650581540697 0.047946923349611675
0.13489055651808618 -0.007186229734609036 0.8986328989926262 0.008145938587376157
0.17608770974268462 -0.003783444440928976 0.8874242356537815 0.005950964087682924
0.46652414846480583 0.0019288850874027976 0.8916373981707572 0.01203006447645472
0.07826818478111147 -0.00029575752685304216 0.9227833811957988 0.012490776881035432
0.014553981146104126 0.000756348320885961 0.9199454986712386 0.11089854722459605
0.20183233915957624 -0.003307101517297729 0.8689640653239346 0.00479035455276656
0.02185424644855846 -0.00568944312738952 0.8788132555233665 0.05300392288979464
0.4222325452492414 0.0009333527788347033 0.8907933417144284 0.0036132320686283097
0.19383369228292469 -0.0017471437731193188 0.9044232000178893 0.00820972355073022
0.12250981883818314 -0.007298171602990589 0.8839845832054062 0.02088027351863277
0.1621864501886584 -0.005204781182357433 0.9262325935993386 0.009663958090065997
0.499489642588704 -0.007999060336485566 0.8911578027229113 0.009548069570283622
0.30651602857291543 -0.001280900307587136 0.9048678177182448 0.008231823851155026
0.10057336633012987 -0.006932443648030951 0.8960878374727896 0.012077299891905261
0.10095466583087327 0.005720476084471281 0.922408784444984 0.008935777920874313
0.4106248677705045 -0.002827350154397836 0.8863316851805942 0.003831489525894689
0.2586937428550601 -0.004725735759063347 0.9052090286193302 0.006259258995813022
0.0665055280430977 -0.009349730430726986 0.9050309409829527 0.01540995681557901
0.08219633732547758 -0.004708794381460984 0.8922736454837806 0.02110634912026048
0.4618072499232063 0.0007685358686062361 0.8913072968992278 0.010159039611575181
0.02624589056255986 -0.0017846338367081477 0.9138212668712161 0.03625668512961198
0.3958491219988386 -0.00302935490122142 0.8987836039072107 0.01023005049929927
0.14697379608930675 -0.007790457492773988 0.894564284285233 0.009049394872401502
0.08033000089972286 -0.0011856690340865037 0.9097087880672642 0.019977138493123252
0.32706958549233633 -0.007302177312014208 0.8858480534582508 0.0018660165504847737
0.25573467654093823 0.00025676481765959166 0.9238958395893491 0.004959908785192812
0.14192968413783985 -0.0077455077806323535 0.8782092198301628 0.00966035515687562
0.25142571555274545 -0.001977686548182895 0.9120177499369718 0.0041023561565476695
0.2189640861413476 -0.005922645525518601 0.8753399660181477 0.004575137684363164
0.08308467741429984 -0.012722403670637362 0.8756738246151123 0.008347695092061451
0.3841884166937265 0.00026120322629829835 0.8808247893043761 0.005127686752788754
0.08301986114904963 0.00022986897650206534 0.9332694555503755 0.008848464810196145
0.07614893076451207 -0.004067610295775652 0.9406863195268204 0.009505592325420588
0.33858918324113 -0.00505547793319356 0.8825637933264807 0.008343113607462087
0.08353536819408189 -0.0005935512638143183 0.9124215518371163 0.014208175750164942
0.1172228470230654 -0.0005123030271118149 0.9289802816842744 0.01374316297278735
0.29861469715528355 0.0018963738869641178 0.8881369106097021 0.011370608323750316
0.035479768094837064 -0.00568326717912458 0.9618881660641103 0.012380459384048768
0.14880685209895256 -0.0052751252073305515 0.8814736410063785 0.009342165941692458
0.00879126664425927 -0.008435265482401227 0.8909775483533638 0.09472242464092016
0.05074816950028464 -0.010631558199752297 0.9448787764422669 0.013612743427964622
0.01282567664815763 0.0015346770989406147 0.9449791881408257 0.06056032919479517
0.169541563575443 -0.00574035669757795 0.9036428462047883 0.006981240207619682
0.32153647460727786 0.00018864200527816925 0.8975464916041166 0.0026588861658830413
0.002719669116586095 0.00373571011774606 0.9372408320256419 0.06916796451310928
0.27683543111222164 -0.007518740183004108 0.8777713408442374 0.006651282607862381
0.2190002318565985 -0.0004840971238842409 0.898487828252553 0.003695505388561708
0.35274957250021555 -0.005779471865832272 0.9144469342211996 0.012286274651581833
0.20887820569985335 -0.0032361023165004836 0.9052159685487794 0.006828554105235513
0.24968482195582795 -0.004017504657250353 0.885163924785442 0.006261581159344153
0.35314010980505295 -0.005326287480815674 0.8811107537890666 0.009113482602015752
0.2364076862465087 0.000872744068232357 0.8818159911894096 0.006006614848775712
0.47776747428893623 -0.004511560618460955 0.8837689891113315 0.007458124739412244
0.25086080023863755 0.00021013731938851178 0.9016967103649695 0.003604742820473619
0.035284552504431015 -0.0027120961700724685 0.8752350040186282 0.011027193534923976
0.1671146924720466 -0.008951431675152796 0.8978976295875596 0.005205565868577057
0.4479842059348507 -0.0025436897058066514 0.8872169768050937 0.008927500628342038
0.30702734229850853 0.002006921909899435 0.8683467992256977 0.013633925036254895
0.12475323279773842 -0.006182998044330205 0.8988894418800272 0.011449814320432999
0.28126447412533484 -0.005591268561221742 0.9015473484308795 0.007204789494380969
0.19540883078717217 -0.003494318066648735 0.8773710805141837 0.007318789368191218
0.34504460325266945 -0.0037148497866221005 0.8822841812140314 0.011301810521535944
0.23282238726687363 -0.003472065703695314 0.9233745623508962 0.007865231284606575
0.12748742791428336 -0.006681081442990078 0.9388885436728671 0.011798479747960392
0.060011420208101164 -0.003937134731295445 0.875412900831724 0.017954726968072737
0.22220930337522293 -0.0014093820069900798 0.9020981148838705 0.00329671563107056
0.024963605303567997 -0.0021116900748247274 0.9388527693486579 0.03822311074163921
0.04326720954358359 -0.0005094789859016275 0.8990157916850794 0.010078979955580726
0.13464810836123678 -0.006835087438454186 0.9384012481339754 0.013117436722557165
0.11504899697098085 0.0026245056328523535 0.9145229148396324 0.008288043650550324
0.040103180718578595 -0.008394459809128374 0.9335510058428114 0.007278177775955584
0.07314070088486563 -0.007240395395205494 0.8888750958429241 0.013567078563464022
0.18529361565367833 -0.007077578889528908 0.928358245467453 0.014764872746891861
0.037801186767535806 -0.00033748612572311157 0.8831780756524575 0.00988868848597773
0.24426737411687088 -0.00035344012647186814 0.9260609751532861 0.005470663258191815
0.5338075374179746 0.0037156021838485216 0.9624577147220034 0.012366527707200276
0.2231769221627074 0.0033506924499879572 0.9564095889953607 0.00841718895861268
0.268750695899678 -0.00021421133993893986 0.9562907774225753 0.015657758491014702
0.4596334089496155 0.00302013910230684 0.9203684357805969 0.0051928503194002594
0.36704761157532584 -0.01265776842846224 0.913875810178663 0.008160270563017071
0.24015085978788855 -0.005112188920450371 0.9548745379695243 0.012151444604053444
0.42602162958009115 -0.005030029747571366 0.9515711992226171 0.0032638689858120124
0.4059422176770613 -0.0007791824699600715 0.9493977523486964 0.006864470442245727
0.3623240147845338 -0.00312827384642824 0.9603796250180403 0.017674843177607695
0.5615464061729585 -0.011333071658654801 0.9370449178636311 0.01593675311982244
0.38483640129933844 0.004784585744926839 0.9556463928054426 0.006378642510247653
0.16678067948229472 -0.010318996911519527 0.9392677802592995 0.008857213681145353
0.5454537474676291 -0.003881718500212851 0.9341240858671435 0.013403944334585556
0.5302373390610422 -0.0024747097342420164 0.935181073140738 0.017300870761036258
0.5942029062346639 -0.0009754675589293785 0.9040672428101834 0.05144133112898681
0.5491958543974278 -0.0044193285010162625 0.9091434920146956 0.012265758718613089
0.5804326016319591 -0.0033371787054487447 0.9441988252710903 0.04142329159822479
0.44322225038219054 -0.003957971086671489 0.937864240062251 0.007396815906755359
0.26035758913057955 -0.0032738294361976256 0.9549923530860208 0.015676718846189274
0.4119894744314997 0.0006575780829256106 0.9086240639011371 0.0016363103206235793
0.3479772563143352 -0.012018002286043694 0.9450933647305 0.009694160550704848
0.1886118823365303 -0.001319123714084634 0.9431869228003427 0.01472725281816113
0.5736504849426776 -0.005827321983574639 0.9423839496983273 0.033641865540099396
0.5679276372516407 -0.010688826485187828 0.9325844697172053 0.0225745687211541
0.3774093173876002 -0.004556281215942823 0.9262840143225168 0.013136052454699508
0.3119952998983154 -0.003149263485532756 0.9151501750146651 0.010780254856357798
0.22830054496319116 -0.001353164253166639 0.9366965038721726 0.012742348921940025
0.41747284295693377 -0.005974546095102656 0.9243957950671003 0.006437355517348699
0.578149025351071 -0.002440755252882171 0.89289578399358 0.061238889533087294
0.10033869472608661 -0.004688875413177325 0.9663851607682707 0.0039803767149441775
0.09075149492017649 -0.002732716432668468 0.9531244085565298 0.017111963318391744
0.2962029521515401 -0.002863559687885985 0.9265691220772122 0.011751496705872876
0.19681620182149515 -0.004629866768457334 0.9556187128122865 0.01342653927540008
0.36296918148408264 -0.00196316536062366 0.9381773008896819 0.02193968364103872
0.5578591029171093 -0.004923131547282205 0.9003381358307823 0.006892425266398426
0.5279814799891392 -0.00992324133261603 0.9009409602402746 0.005048005771929545
0.29403447754678846 -0.000547103345281257 0.9179967306843783 0.010853463197412724
0.13916656863846324 0.0014548257520681576 0.9639792189679811 0.0031349908610157043
0.5918951960159928 -0.004135183863796363 0.8864329452714559 0.04669588357167231
0.39064074178521513 0.0029897847988721426 0.9451841243240299 0.010195772753328865
0.30274942626785717 0.004654343654093175 0.9543715844517342 0.009231643621262497
0.43191077088553403 -0.004142210026465468 0.9562474329350121 0.004448974646644116
0.4752188095625981 -0.0023540152333942983 0.95056107608448 0.014576555411266907
0.4445406870878074 -0.0025212163166118086 0.9089141544581391 0.008389398605554082
0.5005141559791361 -0.011730457896971936 0.9260236520289136 0.003987191913953754
0.5202641364741454 -0.0069551745364047225 0.9541386692689751 0.0105934337561157
0.5043546060610483 -0.003870954630621038 0.9465583536607028 0.015845523378492612
0.38808654199885856 0.0014541668113634283 0.9423005209188019 0.012053410756031812
0.48086311575358864 -0.0005464249900057365 0.9447272958772946 0.016856450294719633
0.3887717017077601 -0.00547049619358491 0.9194128289065547 0.015747286862978063
0.5388432079663918 -0.004878845094703288 0.8823417449698421 0.007271557538599306
0.2484060595851619 -0.002522659656132883 0.9469608706240481 0.014402910707137081
0.4796392844216497 -0.002554251288227365 0.9331822467713298 0.019492998937997545
0.5982773811920092 0.004030973850147513 0.9539027643051552 0.045969728457282505
0.3328566410940468 -7.955743415941079e-06 0.9554649470075334 0.01870958252774911
0.4770634529948935 -0.006357710414178136 0.9225215027409059 0.01047982224849836
0.4481829655299056 -0.0020305256933474676 0.9047352992432526 0.008777068713772105
0.320091714148367 0.000609094708428525 0.9540854262987307 0.01064016887847159
0.19370286509510584 -0.011977349696795831 0.9297277700138743 0.005366394755519676
0.2962676367175131 -0.0025181432060005495 0.9384949200563053 0.007185538164878971
0.219678868016259 0.0050901689273264985 0.9598249285245982 0.00682415226573934
0.41868857450565994 0.002316975785362265 0.9545884031443604 0.002791315958896998
0.5721531832881659 -0.0015698906187362768 0.8764790064798421 0.04301890190493148
0.10844368472483851 -0.0024125671099201216 0.9583666838128637 0.01616704287373886
0.279574244636145 -0.0061128706735450525 0.9359233140355795 0.0069951169848972115
0.32095546908732037 -0.003615850233157294 0.9310998679612326 0.012986054069560242
0.5895890256739474 0.003187016012479972 0.9426536992701863 0.04218986457704936
0.2093585185061179 -0.001913426002112405 0.9320942910261524 0.016320088601549203
0.2615799814887842 -0.005050927215132759 0.9603633369770064 0.016164537559219688
0.5982249818911869 0.012985866323107585 0.9442271649956623 0.0342652389928082
0.5958943441326808 0.014293424091129835 0.9041900533910104 0.040673871045505426
0.5937118771672372 0.01186644236592172 0.9146305535788168 0.025274479582492553
0.3540128169705483 -0.007530297537683967 0.9697641374791636 0.022953187404666144
0.43726409714876224 0.0020376372637098622 0.871807765454144 0.006520641193189235
0.5902086502958935 -0.002357881609505062 0.8678462238151288 0.0397228759627177
0.3765548872910305 0.000613662477233757 0.875669926777075 0.0027075204256254955
0.003591468402264618 0.007027298598513019 0.6165855236798915 0.05440792203783148
0.1383934136350231 0.0018506354065211197 0.6061990169528446 0.007915484763734848
0.18264476767355073 -0.0050726440390236206 0.6117133072766485 0.005833461501459382
0.026695077843834583 -0.0007683334882194887 0.6066902135013474 0.02952943826644972
0.32102671757152923 -0.011752590978233666 0.6035972768534452 0.006750959719645612
0.5494641445163617 -0.004790980053215765 0.6157788866320475 0.01516401181170758
0.3525218842595893 -0.0034489877710330123 0.6057654547076606 0.010324545966865401
0.4369830734760895 -0.004071565222215607 0.610911585734654 0.005967467334936913
0.5815853608198736 -0.0010231323270508941 0.611029893838335 0.10754636277605586
0.47560872483277106 -0.003495698565510787 0.6088738101731267 0.006267388765939978
0.03983398900087839 -0.0060946821988671785 0.6014152757756702 0.004682897283141939
0.10743895142821613 -0.004666455555728646 0.6057789610194749 0.005670640202988378
0.07833349690239219 -0.006029013792266764 0.6008614586497829 0.004594023223483509
0.33794802647945416 -0.0034262981614577963 0.6089921959801253 0.0077904462952667584
0.12709497526151828 -0.0013649520503374356 0.6095356498607517 0.010492975111358967
0.11920816193332623 -0.001805565060397414 0.6043904000887393 0.011269365933926832
0.4133359998935989 -0.000295704350119145 0.6026606513524524 0.010851478585034479
0.009296470147076994 -0.002777626941769869 0.599033512381419 0.10698554561284607
0.36389649701612264 -0.0024041018763108005 0.5964906140480617 0.007423939663378188
0.1638392277385962 -0.001571163403666359 0.6058547260981003 0.014284446282094887
0.26186684489305684 0.0021593925770845286 0.6072638120438417 0.014142281015622676
0.2225199010704956 -0.0015174919767904516 0.604031393236555 0.00460613896899048
0.4521813446251698 -0.0028245310869008276 0.5965383618118707 0.0027006163076993004
0.24249516780608626 0.001657856499015636 0.6084159725613327 0.0020141906097540596
0.2766525717338842 0.0009341732897221876 0.6011732829987387 0.016255530471053787
0.3937775014970378 0.000762201343934019 0.6144036161676253 0.00395493257293996
0.5597939921032011 -0.0028423401594448207 0.6004236269840157 0.014175793237212773
0.3535888613499954 -0.0040537377488508095 0.6116630577578887 0.01063405908293177
0.5870773933790127 -0.007605355816196941 0.5784578281930535 0.10172019295172006
0.5003069394849979 -0.003635446086755985 0.5856337821090943 0.0038749043896077868
0.26902375778986953 0.003057126027906103 0.5879765856075909 0.005895299994593657
0.21638316100632304 -0.0006369571528818678 0.5797303779949969 0.00882139982553762
0.4131577922226726 -0.0006736229108539517 0.5846959573369543 0.003604240983025763
0.35216335250117314 -0.007949073643473279 0.5848010116558273 0.007686910447083929
0.14856831767866838 -0.0025477370626048597 0.5733074839365655 0.009197784220530771
0.5368009723061123 -0.009521762226984129 0.5822372277532194 0.007412890280437701
0.2273536162052706 -0.0005205390273219286 0.5830953470941028 0.007990789858585935
0.029715352963204933 -0.00021184145768290107 0.4896095625474567 0.03907670274299703
0.5323360332141805 -0.004677821629405103 0.4972916525166886 0.006023330214203047
0.10471470711572631 -0.00321978646878532 0.47772323643459397 0.004505775097033646
0.03777032286540118 -0.00019822863618389186 0.47901807600214524 0.019708587221622796
0.4382222580477588 -0.003420846811414505 0.4806678438107158 0.002460305173242356
0.5545162141359729 -0.005594634256541886 0.47574636746026655 0.002308974956712296
0.2874193488015992 0.0024496741479633497 0.4752408077861835 0.01855909119438235
0.24618946921353702 -0.003963520284802824 0.47887169631784954 0.009468434605379404
0.5815827300426288 -0.005326407792965815 0.4840704846953882 0.05337147031345621
0.5944210742641374 0.006169690082191488 0.4902097679849277 0.04509020636057006
0.5721248443785907 -0.0050625125430700255 0.4659334647901325 0.023156208404197423
0.459375489736018 0.0003703951256840562 0.4745945413279355 0.006099152624651448
0.20302844940790865 -0.0053931361802457565 0.47905534984901593 0.002096412390097953
0.02408377090261439 0.0003535711067359042 0.4717022403536221 0.03828781611450613
0.08199271621445672 -0.005018594849893166 0.4736613323357692 0.00044632371986139184
0.35729292128061296 -0.006836893411548108 0.4779988785670545 0.004999689479193023
0.053398881447479514 0.00074339057297105 0.4831664848394121 0.00413658627040707
0.1671398175314771 -0.006744412872977336 0.48332049439464775 0.002461704940918107
0.04059257744808936 -0.006312000241171363 0.45941261186809734 0.008266798877830389
0.4616164506516689 0.0037051854959986785 0.4502107047238128 0.004345185623690012
0.427448970312426 -3.36974824111082e-05 0.4544869887090175 0.00743083171658224
0.21883755427156207 -0.0010430731808571177 0.4540930265660999 0.0026080935368048685
0.12091576288521919 0.003976448460607358 0.44670197299285164 0.011097379888659744
0.14352471306170209 0.003522693467449807 0.45006603332793876 0.005870713817099045
0.23169116493014255 -0.0020216939540685735 0.45654887552391515 0.0025794463663832584
0.017936760129514263 0.0004933839093610771 0.4524171989049154 0.006328617584215832
0.30718012119319327 2.361261463897286e-05 0.4553853658492689 0.0027262318556080314
0.16377843806275064 -0.00042051253569087453 0.4619938725439853 0.008337355101979717
0.40733536221290334 0.0028911143308023657 0.4494681555982637 0.008239708362232237
0.5965428257275841 0.009459475453080065 0.48123124639514686 0.023003737441413142
0.009467095602190058 -0.009525264598224462 0.7435223435767614 0.04785354014996073
0.041371293099580084 -0.0002973240767939236 0.7395474725628224 0.017199095333893757
0.04853212571026177 -0.002356161693991647 0.7321210130852233 0.003885918868348101
0.08973929951084987 -0.0036277087184150352 0.7367528475487742 0.009258449562972145
0.1896578886029964 -0.004214673756961639 0.7273843304220435 0.004191346916133621
0.22158694814105087 -0.0024565037128478425 0.7311007868512158 0.014782431187049335
0.5178428507228876 9.35815183327447e-06 0.7330567458828094 0.004388154642021567
0.33059986907903977 -0.0037527782664949164 0.7301142953678702 0.007631710262613113
0.4259580286122578 -0.002911346202601064 0.7327859029598777 0.013276592125467113
0.5927139871255055 -0.0044880943075219165 0.7308328131525854 0.043835099970668055
0.5498223542328308 -0.006886820775312812 0.7293279292408249 0.012031809683764272
0.3970499699866666 -0.001186138498473013 0.7373537606236732 0.0047176192863553346
0.3094991939358323 -0.0016201436839411957 0.7307086157240591 0.006989243111189202
0.2052854663315363 -0.005425518868260187 0.7386963664308966 0.008420765613209605
0.24783444915142266 0.0013716007459040414 0.7268514273800925 0.008614203215870751
0.07226523634505638 0.00032455751829019207 0.7295771951225607 0.006295028904555256
0.298093826523984 -0.004755667483748006 0.7345237111887014 0.006669138559277403
0.13280615055004832 0.004436777365519655 0.7309840324566934 0.012356413643821097
0.02401235001263363 0.0004934077844354142 0.7407175988403676 0.07313581305729017
0.2707329619757627 -0.0048397788011137945 0.7332684011792973 0.004997711934687797
0.41639376649613513 -0.0025172312690621926 0.7339965038214575 0.010504017352189242
0.4744074200237978 -0.004940355638405893 0.7292227165761226 0.01595926386913033
0.35537840769606494 0.0012417971686744834 0.7266641348487284 0.007418337247771171
0.0021212415180626365 0.0015806988895873163 0.7400157102719104 0.08651065444869493
0.23687797719356268 0.0033346284270921473 0.7224153345634851 0.007650017519396858
0.0028981105427979036 0.013287664023359427 0.716621354857162 0.08867753717591377
0.003230512405328348 -0.0014184437087284433 0.7061429351735916 0.0989567704453133
0.5987620783166855 0.0035139911101896787 0.7045654346133502 0.022984783300561418
0.3641240631445329 -0.0062997522246132495 0.7159778135781538 0.012751019741129683
0.26090911129065614 -0.0013193344744753671 0.717596526821941 0.0076210190058601576
0.27091206089452446 0.0018051840978011045 0.7103736518652614 0.011736617313354883
0.34255412398671586 -0.0011918995222429704 0.7080231323688223 0.007797982495396776
0.11144899593392757 -0.004472873729120571 0.7128652495595748 0.007614889378983389
0.2868439013228725 0.002289624770895223 0.7115403209585884 0.008709524748182509
0.41257581486787454 -0.0009228414669951324 0.7012265316384599 0.00466220771211203
0.06172720145923411 -0.005423767572581548 0.6978699682095594 0.0038435641639668616
0.16327735093977813 -0.0009161396948126422 0.7181210384442588 0.007857326602069906
-0.0018136711006408843 0.24683137444144437 0.47450457191521456 0.0060434785885168756
-0.00326642884820304 0.11993016849982654 0.6282908960281032 0.007943347315894363
0.00019766947740864087 0.08623719526284918 0.3194538386088779 0.022445530481268842
-0.0008529668291650506 0.23473975147343357 0.6804615153755381 0.00887872106429699
-0.0012152768489080141 0.19901194964322655 0.48972724734238987 0.006358195138719979
-0.0018168769623430117 0.309109741375558 0.6283384049176821 0.006355750714177352
-0.012840966634710089 0.10533031740177357 0.3070668413692102 0.013641410834808776
-0.0026527928032059776 0.2531461046278328 0.40879937418909956 0.01332507151636209
-0.003050770534201807 0.34964131741986143 0.4011598532338678 0.004704640385186653
-0.0033461488943255613 0.14584541950109514 0.8033471331183378 0.005223851722272724
-0.0023066242952270374 0.32854320761023037 0.32692702018587594 0.004968329448919834
-0.007723209872177052 0.37278612430968167 0.5261010852855129 0.01283779774904653
-0.004378115823797217 0.28089479595737304 0.29612612260531984 0.005466165780814633
-0.005140827962318697 0.3269695536305998 0.3747625554407378 0.007831040473340128
