x y z curv
-0.004398965885619984 0.2239831438087518 0.05051190748777708 0.026554856216560424
-0.004781538290181485 0.4057260500952573 0.1544699494094586 0.001480491937806974
0.0006139270903446933 0.4677040198187542 0.4192635368193108 0.10065107468852745
-0.005897540152965895 0.435371812386657 0.10088444008370615 0.04916147772588127
-0.0059623617877868716 0.23283303893432838 0.20839234115355168 0.0028880660125637173
-0.01032733120764301 0.46113783481676823 0.34857544487217407 0.07558882386414414
-0.006973440993445227 0.07764111622614257 0.04409560979306565 0.0030636121831805565
-0.0019958257366598656 0.17352748945239985 0.018583234648553604 0.004994796885241984
-0.0037332515323896475 0.19132964098411767 0.17871264199337097 0.006509311603771433
-0.009255131427974161 0.4109818060576424 0.04564768626278249 0.0017422742643229464
-0.007747088771463065 0.24076928133478037 0.0554198242581604 0.019608141500232837
0.0003750621409736607 0.46787345258961444 0.0768462313890629 0.08622886835690015
0.001279709284633495 0.06600331451185303 0.5167966116215867 0.009816143135415808
-0.0020303730239316985 0.3125794956997002 0.40341158607999933 0.006892815675093613
-0.0008766306897771419 0.08348287118571056 0.4093567399753141 0.0034378087176883763
-0.008863170443360876 0.07851057050389768 0.5117808623645478 0.010759676060477811
-0.004582840775353232 0.13806993949996182 0.24603860156325733 0.004956394662260291
-0.0035557278110778857 0.17398990218333688 0.38441480708779935 0.0011211122143425028
-0.00027694281873899204 0.10157030416843957 0.09892601771820077 0.0029958333346076517
0.000367955623944648 0.16489281001578396 0.5254557499680257 0.11002128001262794
0.00479936453759545 0.04324269000613446 0.3304583223664009 0.01903845791861012
-0.013109217546351793 0.2526738731006577 0.375978903306476 0.016333639810357146
-0.0019394488099958372 0.18790754202957996 0.35354109209751117 0.006324719562040458
-0.004089044692547316 0.12976164542744673 0.5368682252375275 0.08912356348127366
-0.0019329547489767118 0.21922043708795974 0.42676341295226344 0.01048135519222204
-0.00878222385511925 0.13301875644905817 0.27448501413701043 0.009993668877861088
-0.0013236252705237557 0.17635818574419782 0.3603761675311977 0.0037574361048834707
-0.00866435098135103 0.2834600797816634 0.5120984735124116 0.12301140192382735
0.0018775355983036096 0.24440211747196908 0.5051377944362881 0.11946218106689538
-0.001210454158929003 0.23134551621261437 0.4432229383373662 0.0112568241564737
-0.006680006067692847 0.09193998521400025 0.20639524418614486 0.011255962729741597
-0.0061535795003452055 0.05592277256429668 0.2800132635860143 0.004217102787564968
0.002590373715922838 0.2777288574759306 0.33078712770032986 0.028333970716218522
-0.0029883872306807036 0.1690867769227548 0.18157151570924926 0.004702124705027615
-0.004911475317256784 0.12410595795812725 0.4954285681041292 0.006553926487103013
0.0009637423450802277 0.24386670150005638 0.4340481900640737 0.0018071894821579397
-0.002980430737920807 0.2890823717848053 0.47794203871409074 0.16649569521283566
-3.180820241711618e-05 0.160495270177744 0.21568567482072465 0.004623822845856395
-0.0034918618224288075 0.10560044875531806 0.32389328580407434 0.021760089237140262
-0.004366957443901637 0.12612591612492066 0.5551047410267969 0.04219857122486416
-0.001436252084720722 0.31391585661565335 0.5033607213089593 0.1701184487160305
0.002579570003295452 0.3723302815403861 0.5405561949885038 0.17023809638179188
0.0019559624362408125 0.04950025147741362 0.5302563561102673 0.03124846109375705
0.0003181754239139862 0.21577766085244204 0.54608877186071 0.14461018839540116
-0.005750884162190838 0.1479186317594821 0.2116076150507577 0.002360670082625626
-0.00489797790737555 0.18788598322676076 0.5379714771100226 0.10938365620038937
0.002141622260755855 0.2779244660124034 0.31712971601115014 0.029816797963794398
0.0008646429661832096 0.2223902972632166 0.3828241913781746 0.01261519447421377
-0.006960507344650216 0.12119243538414012 0.1763644108030351 0.00977257297686861
-0.007059390186576803 0.20610089470421253 0.2728459164172467 0.005065660563140124
-0.0012876053104054655 0.07165207714898976 0.39521843823998826 0.009393276914298388
-0.003572664890892245 0.1552304964348371 0.45948180855693244 0.011265466640558481
0.001757887712214483 0.2824835971410735 0.5477844861664797 0.14762389951970098
-0.000660169481156565 0.3364471846035939 0.40207971879188475 0.006200240716155959
0.0005146010990154158 0.26680168136702365 0.5489596977910655 0.1306304996555139
-0.0028975693019723365 0.11069849203316653 0.1686802902144991 0.005330866852462502
-0.0076517237319287225 0.3627921637028239 0.5208829019051655 0.13684136219029366
-0.0053785968019983785 0.14916581550738478 0.4960605632455196 0.07629418991290413
-0.0021153790100314467 0.3470728651841295 0.48271317863809327 0.08297127487147904
-0.0035126053759836234 0.0549875969268467 0.23209209968796737 0.019353434402122553
-0.0020559193165452056 0.0957705200610879 0.49376167619593175 0.010823407337903435
0.0007178431669133986 0.28482097357078756 0.36908064235586696 0.023015950528715072
-0.008906699761673744 0.15759112728981645 0.3481524372457349 0.0047475670669006225
-0.003970115473679465 0.0564604534688152 0.4133372212232941 0.008579238975004032
-0.00658837570855994 0.2283365436731112 0.28213123990948674 0.0087638103622041
0.0012725026688379577 0.1693433364132033 0.55209591398824 0.10398404819392769
-0.00761534709654456 0.10342278872776976 0.265440788975482 0.012207131378657012
-0.0008964306652533419 0.15361678605546328 0.5188010147029302 0.07833392904075683
-0.004840696958755841 0.44590349575520954 0.5189938272280418 0.09424858644618928
-8.085286532202633e-05 0.0647187447898842 0.21164066466821493 0.0158052457336494
-0.0033494199066728676 0.13068916025971916 0.23782074979689838 0.005473841805176266
0.00011952119180145079 0.06357094281715661 0.37005280205062047 0.017137938253759262
-0.0021006407869818295 0.09660691657373086 0.16590508834814396 0.0030833561896733614
0.003461236363985088 0.07368952689426926 0.35942566436512124 0.021586962415828127
-0.002274205356409208 0.3608988332564881 0.44258322349741247 0.10712573118477253
0.00015963208753791362 0.12759901578580476 0.12003388895970682 0.009573367437504183
-0.004165220926727122 0.14729925165667804 0.3033020957567428 0.00995873823143256
0.0014625466769502147 0.07557662805162672 0.373168205351155 0.011037311212804045
-0.005509433931915227 0.09647656353825501 0.14304062329074338 0.0007380695454090978
-0.0010461632247817404 0.27006707817147224 0.49110701211948726 0.19011562034140161
-0.0038048268901602306 0.22613728296973074 0.5163992360005325 0.11520606643468426
-0.00215346429503825 0.13773604707052509 0.4056401671205877 0.0026536901733124354
-0.00040526507570704765 0.24001835540851083 0.5446293766357252 0.09417075216496269
0.002651509638477228 0.18372540349319372 0.5176267303180885 0.09990425044936876
-0.0033014009078780864 0.1036039964700523 0.36673705268508755 0.006726671010299616
-0.0005871289656738597 0.2524399450741045 0.5090363260806323 0.11594538310476339
-0.003388423265881495 0.2137701208277672 0.22188396789628498 0.001839975118750675
-0.0030212250629909803 0.1940789085507831 0.4928621430794606 0.12487840914753234
0.0005337386995437169 0.24475528209041816 0.39069101280892615 0.00963710148345068
0.001273008807453038 0.33572767019290783 0.4270690347345499 0.0028481653432399336
-0.0037755724306024726 0.2696143797472846 0.2875975698363545 0.010433708473593198
-0.0010379711841365744 0.3500830579962526 0.49891394502669506 0.1494124083542038
-0.004697561822210448 0.205823644479807 0.30470649554252655 0.004233321839082214
-0.00423611923952088 0.08612348466735259 0.23329024465900722 0.007987058263311657
-0.0037141665943770065 0.23490102660876597 0.3012940396412156 0.013651334339370571
-0.0015301911755353113 0.4118640184952714 0.5400942389783232 0.12214719731041532
0.0016571522633668106 0.2214923959825399 0.40739263167503975 0.0113200259110236
-0.0014060557812100862 0.1185405595033815 0.13692396695476886 0.005419264392566167
-0.003952374942068839 0.06555613046129742 0.3457546736695314 0.032255004479921086
-0.001652745617967492 0.36815379079730476 0.4492803630299806 0.06889083903230529
0.0008658689990751583 0.18703899469663754 0.233416854548173 0.0027045783004864886
-0.010009295282099248 0.12802768448842988 0.3388765515809335 0.004224735460133341
-0.003269240552873352 0.10298236249453271 0.3700798042336111 0.004871463531846754
-0.002529866820595839 0.39648540561060264 0.49678032098065467 0.11135193335062919
-0.0001474676118415762 0.37130470169858404 0.48660214552864867 0.08631320754415395
-0.0016164913572815067 0.08455395347948128 0.13950330990715243 0.006616260082298886
0.0024224197155410035 0.0939459125919394 0.3583150614621892 0.013454023367815534
-0.005584964261424435 0.14041666228593117 0.4516037346107556 0.00879765429221781
-0.00944457550894749 0.2824209649219187 0.4447186275002515 0.003936066946851194
0.0017532034465516245 0.08336830443449177 0.3814895851981289 0.002987692460612588
-0.001015170451470991 0.3365685125939512 0.4377814387128462 0.08658613671800203
-0.0007767501594325185 0.04794370675142491 0.25736402652835366 0.02204767578141867
-0.007133225950473638 0.37181102737159255 0.4372367191664409 0.0041676085693853745
-0.005719170898037095 0.07933091293875932 0.2958546249613942 0.01452633360755704
-0.010660394099060817 0.07140437071345165 0.19190988482111576 0.01477520445253646
-0.010793544649700546 0.20600178318759388 0.5183291881289086 0.11449217239021868
-0.005402432616156377 0.26502957444850045 0.3993387091983106 0.02236930163451802
-0.003585062336806612 0.2630090936006805 0.40900675063387254 0.01542068771240271
-0.009849575699596607 0.15626018102120112 0.16953626703294755 0.0010465024603530607
-0.008518745609021178 0.11384823916992318 0.22525951307071126 0.00563430955107996
-0.005306466209677538 0.18422745326402795 0.4494580120672125 0.04981832019831944
-0.0052358941059912865 0.21971769922999324 0.46413768945797756 0.0718945160672917
-0.007438223222018439 0.41959611235143124 0.5043328786192887 0.11432078235483539
0.008641949581164762 0.3797256649357985 0.5579410277583962 0.06991567968961168
-0.0037190205105624313 0.1312243766491225 0.4873625806251948 0.006479945730826381
-0.005947349442653417 0.23875263539312483 0.3757660551832824 0.0204822653141192
-0.002267499499652803 0.13705105557584035 0.20729076171262178 0.0022229548228109007
0.0010700112639823217 0.4504139574579848 0.533701191774937 0.1289583732551945
-0.004251480689938378 0.399480623370486 0.50567757316523 0.11452196177202274
-0.005116158688988672 0.318178190894649 0.5255303247642764 0.12490694396141502
-0.00172203911339876 0.0985914712332042 0.49289611933839705 0.008440318576527994
-0.004779055135633747 0.11306886079052313 0.45942436610192466 0.00576222089779938
-0.0024554851354652565 0.15605360250662614 0.24123273087103445 0.005539006194342436
-0.004184391284691217 0.10261986291189648 0.33234228872465255 0.024930528593881306
-0.00776218587026568 0.3982830895101195 0.5434245602431481 0.12695855102043724
-0.004864108437457272 0.12837380069706594 0.2970112253561152 0.005158032180776045
0.0003959641376711581 0.16586160708012526 0.20637759076091955 0.00452487975544561
-0.006436376032804062 0.22641943175832094 0.4844648553694404 0.13685674326101668
-7.622794990450768e-06 0.08930595306956414 0.26376511689244025 0.004883540189697201
-0.009245223462185924 0.26552525274955696 0.4681010012779059 0.18600264003313838
-0.005798451655467147 0.1396880251616265 0.3720496106104749 0.006736394149092387
-0.012006537276619551 0.10033640929062349 0.5430185695160763 0.01830438524186024
0.00044334853971363054 0.2978155016210711 0.36637643063668107 0.1694490196850348
-0.00831913192106503 0.06778056192805457 0.1103490744595921 0.006911292888027471
-0.0021180657251026434 0.2820696861226449 0.5393673754007529 0.14363169642274287
8.378799262048718e-07 0.0817862597706989 0.4853056399354707 0.014229342327375735
-0.009673077759787398 0.10155058197635208 0.22920799574687056 0.007692476387579464
-0.0005663604050614482 0.27930838143392756 0.3471802908215976 0.030951630381912863
-0.000395107698753714 0.3019084172426198 0.4155128537273854 0.00481257735611874
-0.002955410707926369 0.05487370643547111 0.05819679703797206 0.011085385137223278
-0.002490815276158657 0.24392864452943192 0.4189586568204588 0.004441408431723862
-0.0012313989282139082 0.17483917859149484 0.2600311440633339 0.0022030270450653076
-0.0064889702570139355 0.1575865714222212 0.41236135276879227 0.0038742443545900624
-0.0012659774053618747 0.3187482639784356 0.46227144346255084 0.06513811728994688
-0.005006635482418474 0.18640992151649716 0.26352331557973446 0.0020152805238926905
-0.001889496117904699 0.1272029535301835 0.5148749182137895 0.08387956563210822
-0.002703937589326563 0.07038095044990808 0.5347602122870881 0.07121120464895025
-0.004834561361681775 0.04560467141668071 0.2211513234191646 0.01477426599336083
-0.003134470091221992 0.3259200453774578 0.5551401120555354 0.1705373671895004
-0.002589584022353805 0.3747051909578433 0.4973082435423573 0.15325171883260796
-0.008287582139382084 0.04981137882743508 0.1879188403086572 0.01626955127790555
0.0010531262864378861 0.17620854124507074 0.2236082634246906 0.006037932423393369
-0.0064361929929303485 0.0639705204253034 0.030382031999948697 0.012795003658312503
-0.00452761445752044 0.42389462888450413 0.5106101196596288 0.12881423294293792
0.002655493157344337 0.18549292754443183 0.5139600219573767 0.10114878483266211
0.0019997699117092803 0.2272912242127274 0.395033354134486 0.01734273821341323
-0.007801025045723138 0.19840129213050592 0.4136584723345745 0.0026107742307378634
0.000103155969159939 0.14494581217039948 0.5367020703853695 0.18331650983099188
-0.002641305390549448 0.35226861698354556 0.4231662658634641 0.005639925923029403
-0.014239921201512316 0.11811541267162239 0.2888952055389762 0.003989428185658456
-0.009147980175301815 0.11769689244355518 0.18945478187471998 0.004194539457865582
-0.0063774996362765905 0.11327982052340574 0.4340406617176163 0.004690917807422452
0.004418291882756086 0.30924813561160047 0.5445649547387548 0.12500810682384414
-0.006040634056617033 0.20240244639532054 0.34464987656420865 0.014815170808359607
-0.0016795309199589012 0.12367155364163278 0.3849955800900416 0.004706746409366408
-0.0048966943814382395 0.33295028730012377 0.5025442305456542 0.20519446655831527
-0.007295311206043523 0.1858339971662198 0.3235079822206854 0.005676220488036828
-0.0018020508765830149 0.3914218104714223 0.4606640666976119 0.05321941884750073
-0.001172647819733492 0.24183419604760684 0.26318871368818847 0.004406242733989822
-0.0072158616686443825 0.2592333750232196 0.34902550595119336 0.008942199806292355
-0.0025365780165571695 0.31762069887549815 0.403953132677046 0.004997650926716213
-0.008954659772378826 0.20076707826876372 0.45008926465310417 0.0388435944425203
0.0008084816023822665 0.4028004087365928 0.47504921074121803 0.10875952822426299
-0.003592121226521545 0.1126668677921245 0.3981328393974412 0.003364419341487931
-0.0031784328601159916 0.44190407579292373 0.5503223857915088 0.0961967509298905
-0.004344288547767245 0.37597088865246603 0.46291656046089147 0.006653292905047281
-0.0029799985973855553 0.1103971624359296 0.2565899915368316 0.014250052896954597
0.0014239625736407041 0.35301806760262533 0.46134290483635704 0.06758250515918451
-0.01587552889530227 0.07790730528652552 0.3268892022878372 0.0036666709291585144
-0.010149880934399023 0.30558389234958677 0.34205716818170734 0.01421746641135274
-0.00460316356535878 0.16638071460440693 0.299007231162525 0.0006872912747738796
-0.0017206822158928757 0.2227891851773419 0.5017522572740133 0.13283841922339001
-0.0016605052663615741 0.05116483128095817 0.5393199993302324 0.042344130063247575
0.0007933329867990138 0.1731051756140116 0.5470465767437919 0.11912437322282572
-0.00853036828381766 0.0721386288219025 0.463975334127358 0.005233700024826708
-0.007367011849692591 0.0700534824745513 0.4361341791817701 0.006540583541157114
-0.0031080750933761 0.051041379321885114 0.27871633243083876 0.004671408366382278
-0.006532828988930581 0.23218598303635862 0.26794953562441515 0.003249745772408581
-0.004072258143059913 0.11494214616296208 0.3283819540914516 0.03048354063975883
-0.0008867223113720739 0.3407712285152117 0.4524476957028031 0.11728573620629822
-0.005259120690861942 0.25834830801303826 0.4208381476136238 0.003743549640786552
-0.004782393711952336 0.23793579363541204 0.4544650258233052 0.06646619056049798
-0.008925883495283638 0.13782901185665672 0.42669741033259684 0.00555216681254096
-0.0010910634772725118 0.08213591399525703 0.4204969513634769 0.0033363798449615434
-0.005256377618685775 0.07371937129875523 0.24604930949550177 0.0068254084552251595
-0.0036888091704114253 0.12422719709195451 0.35214996517834346 0.0067344395725322595
0.0004900472445049961 0.13953274006305968 0.4730612837863344 0.011269872616811361
-0.007711874166461859 0.22712442256884444 0.37124404151140333 0.02076885654538598
-0.004205531458509604 0.2956088061874353 0.35623573792471214 0.1377203128310125
0.00021863642750392996 0.16461669610328505 0.23144311363161485 0.0049872550725318585
-0.0016159411877141924 0.1436678159247869 0.22901396092381113 0.0037345156186331997
-0.005337838902059621 0.29865900940378165 0.41288874817642945 0.004607132795578075
-0.00656378308901783 0.06356444618996675 0.4753800409811933 0.010911877466454561
0.0018849940181977199 0.04252744141098606 0.4066276990256689 0.014056903044403948
-0.009200298175727602 0.05276588723135967 0.09636096566225363 0.006842126357927167
0.0003918605013935653 0.056916617867857074 0.14264530655758606 0.012527484584835963
0.0012735408831557572 0.17503062373060582 0.495833643335309 0.09377768220426884
-0.0014661308355163427 0.10968071560284368 0.3540458307734543 0.005443899877121875
-0.0023481574745366695 0.19481647600341814 0.37825478716391964 0.012323037730600844
0.0022450349555590927 0.20267806212800896 0.4719520955545224 0.1087080747564671
-0.007874188201515317 0.05610702107687765 0.17266773415867823 0.006273666875973104
-0.010303306420731828 0.16264900405596924 0.4390613033471527 0.0032836983582438155
0.002668196126852421 0.22587539374075916 0.3351085041699009 0.0001160680033392191
-0.0005354092756106695 0.18416377666026987 0.48147655876896067 0.06940626207476398
-0.0016305663025876149 0.1737353065221466 0.36434908906225894 0.005740995503041207
-0.005278745690338216 0.3496434912818403 0.5173210523558669 0.12256071977362425
-0.001997056829782697 0.11296287978586314 0.12068659554054335 0.009012793686023965
-0.008388736165283808 0.31849147049524434 0.4881997584692867 0.06450968852837895
-0.002018423321115852 0.2533575175849906 0.5285332998661855 0.13578824623771008
-0.0005596409370981952 0.12469317193827348 0.448154658573522 0.005477816856999796
-0.006126323156956515 0.1079381565380361 0.5114125500298436 0.007723161748634851
-0.005271775846433218 0.1549763974578001 0.2860267724903918 0.007901089151915045
-0.0002466252791495316 0.20506280012961922 0.5419359020102192 0.10159223998267533
-0.005632065979011031 0.2172885273421857 0.2599178567938953 0.0027855090313646173
-0.0053527328649799226 0.1845395675824986 0.3086046804243874 0.0011745050199502888
-0.006254507680431271 0.2574936888952027 0.30426910323525996 0.006542719988870644
-0.006719081301726938 0.07454233048842013 0.09029180674551064 0.007584710067229289
-0.002931945902442554 0.07584198903088625 0.21687214393477355 0.006687589202302954
-0.0041455393732153815 0.3126429723732185 0.3781241465890416 0.00976027315162725
0.0007162955991885636 0.2523590333167502 0.47361188037508606 0.16370452988396583
-0.0032078726422855113 0.1880282413308214 0.2176981413674118 0.00275131863512881
0.0032554495992029426 0.429653664964688 0.5471557541846466 0.12426143454752392
8.913459299526338e-05 0.12696346427487445 0.3678076704808537 0.004838265686924438
-0.009177304602943467 0.3893514320494504 0.5292348709677344 0.11137797997499178
-0.007538168829772213 0.3261724127938835 0.49115987200214706 0.1213028471968293
-0.006371422687475115 0.3126054507956007 0.5295397352944667 0.1475613110430792
0.002219641978271358 0.15844227931939836 0.48056037628357723 0.051635562022882504
-0.00535807781586055 0.05814251930065751 0.41201340981521 0.009308204451918324
0.0001257527139275199 0.10694728062321689 0.47034289179958927 0.006870891043052418
-0.004392538212603172 0.05224425859751884 0.3177990870871382 0.018017727055666854
-0.002766812762346417 0.09888071717041008 0.4291203436534966 0.009802729087475093
-0.00626769632913926 0.14907887304782333 0.399046810834218 0.005233601584493059
0.013137511785565246 0.4018551475418694 0.5515182429095452 0.15060955125104017
0.023192514587756764 0.3580315138769128 0.5387712683788772 0.16401840248176314
0.002023393639274026 0.25748156293386093 0.5554275783564528 0.14746809700971178
0.022196340371160556 0.14229546210724855 0.5558156147743355 0.07160884831266408
0.016766209285929895 0.05841240501030124 0.5530920373251521 0.09040782359311055
0.008215609359351547 0.3292578151547543 0.5544314025329725 0.12524967699036127
0.01573304091848631 0.30466484337665134 0.5506416300100194 0.13448787974652415
0.01672548704926662 0.16306984688778356 0.5489998084161211 0.1303086235440529
0.0014548149058978936 0.17775260593897058 0.5519119028343351 0.10590142384860411
-0.0020176237690292496 0.07882011957968245 0.5476616205965198 0.054335354928081364
0.010726792829141915 0.08927952577192376 0.5536196424073666 0.006849047504499578
0.000920972963396136 0.18482798320193303 0.5492177409350004 0.1145126348214599
0.004328240048207995 0.30339052950942724 0.5443965162885473 0.11351708965807356
0.018783986950035053 0.22038139659773615 0.5550358409875522 0.083675882502416
0.00150547257199445 0.10881777951058859 0.5543547971454158 0.05359909776185521
-0.003241952138583841 0.34144777418663697 0.5478459653806087 0.12659640916360246
0.02081238722057563 0.3690659348947787 0.5521783731685886 0.0652620996207397
-0.0015136675801464736 0.3551830268149217 0.5497724884761325 0.17472924981883606
0.004927864073564441 0.4045256986165653 0.5532308202872261 0.13283281216260537
0.7960234839955185 0.019653614220104695 0.3888353000999313 0.012583920926179073
0.7992443105858659 0.03172040917354181 0.4859020586373611 0.061766469919821106
0.8024156046832637 0.046217365151395955 0.3483854442423203 0.016731188688272006
0.7986213228780792 0.04296429161011671 0.44161397097061034 0.028893767930634032
0.7976822443069556 0.030642573078876908 0.4223360533138576 0.0072941522856348
0.8024830468287991 0.03474713876727181 0.3971494167681557 0.00921708632775967
0.8030852481799505 0.03842086454095175 0.37504080770010223 0.011773394896030265
0.7998108784980336 0.036916482328129954 0.2926954302974657 0.009444900629639241
0.7981235723738723 0.0314183525239558 0.5096400086086437 0.05515082455264864
0.8013888425365749 0.033626278561035075 0.45266519403655625 0.039799014239341776
0.7987146658307297 0.04708433965039294 0.5336295189225266 0.06107612643107849
0.7997109826025107 0.03301140423937356 0.5392158629223808 0.022438026449696485
-0.0026169635330458223 0.02721017509403799 0.29974485449435473 0.004203829896589649
0.17375773256606603 0.04342411517743974 0.46033456227285807 0.008016730762369478
0.0010504238784617495 0.03254920659226712 0.46648601765532666 0.006136042450453236
0.006281658728302107 0.029427669499781397 0.35281574062271354 0.01717225519804267
0.002829062740875296 0.031743745494614915 0.40130568568113023 0.012819697151116333
0.014800893487927225 0.02499303393294747 0.32970877976573804 0.015530521329637167
0.7643578852098148 0.029776067028873216 0.550949526084713 0.062281111871725574
0.7954803551919037 0.016981638149364056 0.3096658968285739 -3.902701092347467e-15
0.7594091739826645 0.01892910188959553 0.5436005920623495 0.04881350632973872
0.11093060944271461 0.04675819379906617 0.5232031766272582 0.01288091735772063
0.037402791404104296 0.02143264454830682 0.5523868348162586 
0.7904966813844568 0.03288964860354683 0.34298689637889634 0.002462170523399629
0.152691030669826 0.03203959107452658 0.5491604693216416 0.014133799967314337
0.14086171175752948 0.020933859565582913 0.5551007520116299 0.00901832743892198
0.7780570727425414 0.025636874195829416 0.5014618425666314 0.035860238890136543
0.4665627793340027 0.028074985608536825 0.546089714466302 0.007577846521738507
0.7938724546108433 0.02703613365320469 0.40866541318875765 0.0042595287324286146
0.7767524401549294 0.02595388058764726 0.5275636723047192 0.035019591788646165
0.010744745229294543 0.03445100004487735 0.5481610552655429 0.0698558587399282
0.8004360594699875 0.024921946738430636 0.44810059251845247 0.021816002750651986
0.7803833014492775 0.021772865328259526 0.4654538271174776 0.04190523907095502
-0.006303967874125018 0.04413511186674172 0.37018569017919395 0.005839396790563248
-0.001230412871458881 0.04245182381894234 0.47849268807318956 0.009611365594146055
-0.006103313035465361 0.04388319736039839 0.4543539092774009 0.002974054428188911
0.0012113070674878625 0.04326173215836712 0.43518176544469817 0.0044038179478806975
0.0032183685131632073 0.030185932865513576 0.5136242962348074 0.010656347566669375
-0.00010460145042229859 0.03562155981541944 0.4689214073156434 0.005068908202609943
0.006066962189985549 0.02537762356229082 0.3860242538795734 0.007615728374237957
0.0005199264162823163 0.019162728634464075 0.42644054302871787 0.007177331285024059
0.006128954281502295 0.02843360311044025 0.3131640961995292 0.03140534442135518
0.0026944287832650366 0.027651348448055914 0.5008240639636131 0.0017127586764213057
-0.0006130851250178686 0.044488224482747314 0.5557265471005634 0.0349954222098187
0.2953074655485757 0.03382458786610102 0.5499892906033925 0.021208417622733337
0.6147608079069503 0.02582166638014712 0.5504232743856426 0.009127715174578216
0.34592458839137463 0.03492317054741522 0.5537454362955928 0.02292343620197788
0.28592582076711137 0.0349464229443542 0.550935363617857 0.01389530337660743
0.0969727855067357 0.03839270635388192 0.551820393107732 0.01892079156603333
0.5464725450549892 0.02358944244644289 0.5491081559734305 0.029559507479649878
0.04978574973873255 0.04670364534347111 0.5498860782341479 -3.512116808814416e-14
0.32318345526698466 0.02438739938627524 0.5501099862019257 0.0051937581170914925
0.07879352444089004 0.03909351908809231 0.5564062483306832 0.0028054943489812887
0.2562049160106678 0.027062912475201043 0.5560465888137056 0.003049418866680515
0.12235729490486194 0.03853683384885948 0.551995451983839 0.03236698553384628
0.44029229979253276 0.03920031527108088 0.5541892261255028 0.03855069899682679
0.6339917808646551 0.0315013772310549 0.5551584036237986 0.01758308905280761
0.4529124347070631 0.045346420095677076 0.5479252912612335 0.044854863625072225
0.6880113585694624 0.04528187719393452 0.5484128723758512 9.432357768979143e-05
0.541717577612046 0.043133416484650695 0.5432282702602822 0.03339618160173938
0.5912630946910866 0.041764806688887386 0.549026549066683 0.010941068902112057
0.49826833345331684 0.051287946085841384 0.5540310369081256 0.037548570849503214
0.3247305297031443 0.043250522241003134 0.5441364089882349 0.037077564057088154
0.519443338913877 0.030242745479541547 0.5489658421007394 0.04930294586153023
0.25084267675190547 0.0398844538858644 0.5444786483059936 0.03165934809870809
0.3707491046541908 0.04215789413809483 0.5531576767885052 0.01722304302191463
0.7219346893046498 0.04442118629050782 0.54924358609334 -1.0389043716780195e-14
0.4876079176514441 0.046315807040059886 0.5464071885621337 0.05803427466468884
0.7852946853794986 0.042777369217089876 0.5552780587133935 0.07016543629054585
0.7444936590763199 0.04119808407880065 0.5476408388975892 0.0058164981412641
0.35483564395267725 0.04723038059849597 0.5447473622268756 0.02332518664340642
0.5728163243392782 0.03848395620841362 0.5463889671942146 0.10612834473827078
0.784057707072235 0.029628019398646174 0.5472325118524369 0.06366068582660112
0.6835152796536482 0.045778172683580316 0.48613986737618203 0.011737192841919708
0.6685292011192807 0.05419969278626503 0.5077111005597678 0.0033930764294652226
0.6647219449978781 0.05220452306511325 0.30065496864683955 
0.19483620003719526 0.048135792446496566 0.28511802268190933 0.008575324718966746
0.5336249873290526 0.04694564920202131 0.4155775485580302 0.00949473100354806
0.27728346395383374 0.05484083009805114 0.3586441808443693 0.0007082513479938942
0.5978561464987037 0.05251535928103337 0.4256224796012205 0.006375657909576065
0.6732220975318673 0.050813784066518576 0.3964682030525826 0.00317546641865122
0.5226451938766294 0.04899699125010425 0.43614086279660175 0.006188421985299073
0.33323840150720063 0.04883767595497279 0.38586661280400136 0.004963742839278733
0.5202352205854754 0.0508365506682774 0.355420052531755 0.00877567352495842
0.49643977046420773 0.04749637583585982 0.30488134002476436 0.003437042002660842
0.5293820112107747 0.054425476169853444 0.35874625609535254 0.002895894179949544
0.5210034863548598 0.050273511600391285 0.2964920437841722 0.0033790679674336153
0.5303415599131021 0.04574574045274449 0.4051907249643951 0.0004299229053837811
0.591296631268564 0.04656910673810837 0.4555572865939088 0.012629177284297155
0.3938114694952119 0.04612343378686997 0.31242430649113917 0.004484172786723141
0.4786418858357774 0.04782865573101155 0.3043959423026083 0.002696844101118214
0.6618062221244786 0.04584419053585743 0.3603767287580963 0.006905692924468735
0.4312719034139867 0.05046220465510861 0.3057832062593399 0.00376138640678311
0.24778091603782482 0.04951371839971433 0.32377554626956134 0.008185135364603061
0.3523948726145545 0.0445497906330288 0.3385234620331435 0.01002604660015239
0.22455545430151533 0.046113349532909555 0.28076611875331514 0.011854837150525746
0.6168581610752832 0.048480738340646215 0.489414222047412 0.0013328538737588862
0.20671642852364613 0.050367045937770444 0.28521607749718864 0.006015224076820603
0.19371128568694942 0.04775136758587585 0.2825277844375585 0.006146675341523525
0.6190383114631169 0.04361082107508445 0.3868448713820147 0.00420472379115053
0.5709609691791998 0.044089639414582445 0.4549551589757708 0.007436375546212866
0.4616792783450896 0.049905389428893554 0.4013448132842793 0.012399673235006403
0.5659741677012121 0.04534138132740215 0.3624733181249549 0.008279287858220663
0.6274894106119824 0.04916664540185593 0.3016964460369704 0.00821177080244483
0.6700894409257936 0.05487948689218059 0.44969741359400256 0.002989697815588089
0.6988326342124209 0.04990499954986309 0.4580781611238578 3.8287973649185334e-15
0.43896214675970874 0.04877436486219327 0.4044041374178718 0.002060927627933707
0.24491567084831634 0.0479256755928948 0.35719935508291406 0.010977415505275322
0.6626731766614 0.04815153582946755 0.4578199994399335 0.006959194603486064
0.3349776039700119 0.04562377503437847 0.3245398099203913 0.00298689606886295
0.39650501045223824 0.04832213606121007 0.3004596854942353 0.00590401366887359
0.5953280036516133 0.04480628290003461 0.4623874297518726 0.0075138259199386895
0.43109431578219665 0.049661773005003886 0.43262292525051194 0.011170008639428679
0.3059523369311127 0.046873932048519855 0.3221862623553691 0.0037399143856328325
0.368444705869758 0.046453720778070494 0.2926889975776382 0.0060468378357161085
0.6092357455711052 0.04767607141919624 0.3717651312954036 0.005008288863057045
0.4655146208995338 0.05282267392702647 0.4226377434854759 0.002706014425264835
0.2629157574606317 0.049480138550647895 0.3204198567646771 0.001293569559137873
0.6129487696812074 0.05188426686761494 0.2925744791270205 0.006191920408471814
0.5586181056103815 0.04986141939735897 0.3379364066934723 0.010886494904384628
0.5456045306612558 0.052469469133008914 0.2857700955414992 0.003981473210198963
0.6539338097484534 0.04941364743857248 0.3768543632235524 0.013537592914532178
0.5735538970185937 0.052394475613924435 0.32833701157178774 0.0038479930120926165
0.5351676030189123 0.045142069366545745 0.43839501648132423 0.006975778496206918
0.43075252623508353 0.05106999389092873 0.39907638549616054 0.0016473536907642625
0.4105731120771513 0.05077022321181063 0.37664537530439796 0.003436158739337635
0.3530487355000611 0.0459133433712065 0.3218396165809352 0.004519763643028947
0.6181444753198905 0.04559735571332962 0.43831269807039475 0.00306210318072379
0.6362386556288196 0.05540070326713764 0.2898431511536565 0.005231693556355716
0.23180062043751962 0.044303968036102655 0.29955237338737367 0.0017739876950440573
0.2899767872308954 0.04693807064452315 0.306248673363341 0.0080152773310825
0.588975826159 0.04581159137810247 0.3529322537973025 0.009009348179083776
0.5763168509848258 0.04214031735712396 0.4029526287757008 0.013284851332882795
0.24785452323353 0.04613925892273274 0.3002049092747306 0.0023503828173083367
0.34864031959278863 0.04404414794845409 0.3610422436683013 0.0030066614055226817
0.3863830445122291 0.04236624261422785 0.343963641467241 0.007228764292184787
0.5921775205505686 0.04671660957662244 0.39786524645113425 0.011844858316312445
0.4767876387102258 0.04509641338764143 0.3540716477718086 0.004070993715034086
0.47355846744810276 0.052826766687156954 0.3837742318131941 0.011329643274776112
0.27150092092118716 0.04339454535314711 0.29149185188521676 0.006398994811059659
0.6356202678192827 0.05155629757764766 0.3636450543433147 0.007003907812315278
0.647430594925889 0.04449525500082282 0.47573621870221544 0.008156826060977852
0.5026462941966328 0.047790667096789294 0.3515548962851833 0.00689490779575513
0.4853330677303731 0.046412797834630475 0.4152373621133343 0.010618304620939375
0.5669567281612397 0.05031930884653461 0.3071792052003158 0.004691989075774019
0.6383652736942111 0.05492971245495587 0.33282752731598536 0.0050961676876918145
0.6275298540520479 0.05168074781476389 0.4126886413942554 0.008821114653734318
0.5149118102264125 0.04492219463900285 0.319563778492742 0.0025332337630884017
0.6437623365259103 0.05306964167041997 0.354037153127394 0.006434943105762843
0.4204499157136115 0.049526449626430095 0.339811036195009 0.007431333364065398
0.6133545770141411 0.04896869268396105 0.421434878298031 0.014240197145765292
0.6726645260288399 0.05105170122501768 0.4122832855634907 0.0027227470622320053
0.503213811330452 0.04525210080336344 0.329049631382602 0.0033887927369797275
0.40897891121890656 0.04768522661922714 0.39904655096097463 0.003429588487742573
0.31674456896077063 0.045141148894586106 0.2998269088414292 0.0038550029379812857
0.6516409137639735 0.04758597317740018 0.3994737047859768 0.009129297866588684
0.682909215028622 0.0454604567213021 0.34740059035253856 5.872685505382752e-14
0.6925693241244152 0.05097259798364333 0.5090797439114132 0.0014618383292672383
0.5382508062367845 0.04871897060899367 0.31235314062556735 0.0012412411509892197
0.4473733597603052 0.04671929676680811 0.3029103693566962 0.007357711640154804
0.5716728834781114 0.04653768621396554 0.3513655744427067 0.012963444452730202
0.4933351928315163 0.04557341758959192 0.3219524917103339 0.0030297952995888143
0.6742299915625609 0.04552086746882416 0.3634824901856905 0.009410580780222598
0.4665798875601933 0.04985495266932298 0.39825213766983825 0.011041522629209174
0.39474425072147 0.048011797285137915 0.36249335563892593 0.011899137525931967
0.3384478634836163 0.0471249634035827 0.34710128539952184 0.0047930217103214785
0.11392423061080148 0.04969369270738297 0.280372574066106 2.9989573180883565e-16
0.551669837987695 0.05051448904632388 0.2961669598112784 0.004642723448636353
0.45945477040884936 0.045881056939331546 0.3662842289287221 0.0036791117268832932
0.3710293386733493 0.05263612454706108 0.3651588129986018 0.008346963071424676
0.5932581333976706 0.04484947577234415 0.36037389824033905 0.007254938393896947
0.4983859725716161 0.04240362516760392 0.43199709849558465 0.00649749121677227
0.26901786921101845 0.0454568315037824 0.31015186853255106 0.005824651731380862
0.5936482690840331 0.051605631572847734 0.43854586982304067 0.0064808771313952865
0.4334545158876455 0.046781345720100044 0.37007130494794305 0.0024211631585680077
0.4851608264738988 0.047462825158761 0.36624623984651083 0.006375912546908466
0.4724354526798595 0.048234031517221866 0.3269859027231845 0.0026818655912993817
0.47964270002462855 0.04872425415785571 0.37161758248262844 0.006850210570877179
0.34810997050645187 0.05083216047229658 0.3044960273320175 0.00044756283312024535
0.5050349824736592 0.04819710339598751 0.2955358335791143 0.004916690504543061
0.21510540652885826 0.04916336205690534 0.3058273155825484 0.005591514968726348
0.16139399539539057 0.050831112801528314 0.3147306292401578 0.021052943419057002
0.6170094126620391 0.05080673518901395 0.35501282008575996 0.004579063156769134
0.4701239747733017 0.0458293058708454 0.2875343638433986 0.0032097896633548873
0.5871008338325555 0.04781532337665967 0.309086335595669 0.004131810772995015
0.6474013174894777 0.0469733832339192 0.38704794800367825 0.01016320127302848
0.34955979986345387 0.04691624964760826 0.37762013976172665 0.005158387839152305
0.23458727324757184 0.05464409829148922 0.3387015760442291 0.0012726493047544281
0.5256728925809369 0.04080935269565966 0.45453535145849583 0.005211599236626564
0.6082988152926834 0.04530142159367811 0.46953474258160016 0.004211425666605373
0.2999666888863814 0.0429196214525285 0.3343656430844959 0.0034258513639945894
0.6482399565101004 0.0538241546161292 0.4232242330042203 0.006283835451091586
0.24056713240023633 0.042688568173884126 0.2841838565136088 0.00832402126940113
0.5828414111722864 0.05273299386377322 0.33516372404998096 0.005643030494656053
0.48260280385239307 0.04507423740780023 0.43643449154425257 0.008540423017392789
0.29615463074324194 0.04955060282488112 0.31434414032492447 0.004935783610430339
0.32114261140412365 0.04658638410663116 0.29240482295382075 0.004054868316675021
0.45845779072573173 0.04728949769670521 0.30690755249615376 0.0038580433852157424
0.3158623293546411 0.047767325168431726 0.36415431115456237 0.0059971921196218195
0.6262544722267452 0.049797979922525694 0.33333214983776804 0.0033371738663371974
0.14203443436707247 0.050780713773566986 0.2992769618198053 0.0029503967965702487
0.6005606267284904 0.049759937124427535 0.3361613974452087 0.009626879949008895
0.440915907829269 0.044318616179531846 0.3157015513511633 0.0010572504785968523
0.6180302519393999 0.046661517579951024 0.4592643401535426 0.005301739710332563
0.6058383538815546 0.04675858207091368 0.31276035284173503 0.004671536957205993
0.4323841585632922 0.049313618568911824 0.3461244536715109 0.0031963796358350097
0.3269449175613058 0.0455045378695478 0.3277831773294696 0.004407724536756351
0.4769095606938322 0.049291457169265966 0.33185912482994945 0.0023964156311182395
0.655722317651992 0.046045059630509734 0.44852771295375143 0.004774169244536785
0.44429425333211253 0.04966469225416999 0.35067684050076325 0.00355567924838901
0.36707946148250004 0.04645785631647982 0.344444431647393 0.010263360860508039
0.30252577366463906 0.04828117366019971 0.2860670005061843 0.007749877613121918
0.5786325382947045 0.04928100945077102 0.295620246583619 0.004819580911185084
0.17764982804785162 0.05896109066118857 0.32194030671533425 0.010746445592874226
0.19613164103878636 0.05063205622713892 0.32981372546860777 0.0166846215661801
0.5262706172941922 0.04748900740533709 0.3748351376699719 0.018197409711010144
0.5434858360946209 0.04720244245423275 0.45003476997326197 0.007719968161984812
0.49305203874321474 0.05601544475556274 0.3905336472592701 0.003829924442558175
0.38279264766471627 0.05332871053608155 0.3748030455345126 0.006482992642543618
0.4024448633035535 0.05074851388484513 0.2966114253247009 0.005284228495322606
0.29545164663783874 0.04756662364484908 0.37448988486020046 0.005556804933170926
0.6510469516265552 0.051346599225758516 0.34823503072160483 0.006544188315578847
0.569886586176868 0.05099082868159862 0.38596176894782197 0.0029721416147338513
0.4234708131050761 0.04854218628562139 0.38271647020500715 0.0032704818694268287
0.21729819261808947 0.047636713116945624 0.3403202739988465 0.006787404792267555
0.4187383070353146 0.0505933436917833 0.3313758562340667 0.008020136915537122
0.48683720956130233 0.04786880863844122 0.3370458219244054 0.004044160420110757
0.3888052800140701 0.04135944655445062 0.3321107731133237 0.006658930922316468
0.32563245991384615 0.04645250108658404 0.3600246218585277 0.0021468007046134534
0.5637101812072856 0.042428685087806055 0.43515095810873566 0.009228534887485705
0.4125848093753462 0.047094361564038525 0.287560579395435 0.007347797920000544
0.49686699425347514 0.04622162831355243 0.28697447173623103 0.004590688770139822
0.19349943382094076 0.044843011805192554 0.5004082989405791 0.007405788131408728
0.38468476435140975 0.04899374249743965 0.43725349284301385 0.009168072978488047
0.7079245644797563 0.04820985638738697 0.5387590972050085 0.0008005647896608545
0.30404571246081413 0.042885474223832924 0.5384271021814522 0.030039248619071455
0.13425407663303152 0.05122742106587689 0.36275983955976604 0.0025637201511333188
0.20806071857369327 0.051179960616122296 0.4246943602266972 0.006045435228010421
0.5014982304963591 0.04888179462097508 0.5420454093456004 0.02986963639336856
0.5878973471947938 0.04825155784699473 0.5258395186058809 0.005142136231015124
0.2193625264391403 0.050838415401358486 0.4225786217330826 0.007099646534361633
0.6123167727582552 0.047175604671723124 0.512692051333774 0.003695737053161131
0.26883411172235605 0.04906964733023327 0.458922994394749 0.010640385299937933
0.38777437323872277 0.045479027654971034 0.47999033095371957 0.007874500144775906
0.38830157977219615 0.04860159469800007 0.42195912130904567 0.005119364730040187
0.4372228654518007 0.048337455227471515 0.5414167616194013 0.034408416739114954
0.26593252740459955 0.04720266979732065 0.5022960181176152 0.009990619919411461
0.6067174813888012 0.049546221042560144 0.49381461073904276 0.0008619622028308427
0.11293196671547549 0.044447496825238984 0.5416314515232334 0.035236203250073435
0.41459396973932666 0.04705473958345424 0.53362442389114 0.027409826321076202
0.1563223451806311 0.0433323365981814 0.4792965818178165 0.004976388924730457
0.29658115873367163 0.04905431490026198 0.3991831334412628 0.0022741945609729393
0.571650257013225 0.04769508819383981 0.4798734067395676 0.0029337553973285526
0.16888308816159067 0.04974831450466337 0.35195347375982766 0.01853451417723582
0.5043498418540039 0.04487960180779748 0.5074937112126044 0.008468994496482411
0.31008217173973884 0.04334177684132945 0.533493570434092 0.034270458659737386
0.4882256392233983 0.047876405912634576 0.5281022227608063 0.03941837249901049
0.5476082620256428 0.048027185342106024 0.5350580526785906 0.02950795075959891
0.6605104533143945 0.05514497977729869 0.5227957749582542 0.006370687928380221
0.36897448436714647 0.05254348474713612 0.4965531960114528 0.010667017323279892
0.4599370207816636 0.047491847754355054 0.4569354218758664 0.0070553141727506315
0.4775542627809669 0.05021337901541031 0.48189558970090607 0.01292479293634662
0.3947652531456675 0.04363166948448076 0.5103833650399989 0.006776089241449395
0.5226582149339949 0.04421201776380987 0.5172620978166841 0.02736209857800292
0.5462687078401492 0.04931072400996127 0.482422822940065 0.006351753748959098
0.354431771280156 0.05059372412600893 0.514013359978418 0.005059497869767393
0.33366409209619996 0.04828638475721196 0.4402541959982212 0.009612460543656495
0.223913806973941 0.04486348046198367 0.36621541894993076 0.010909377423904638
0.2314873880983198 0.05126443290402823 0.3894904348226778 0.009469611178177349
0.47241093907994075 0.053096536087105364 0.5152185393701498 0.007586213288888259
0.15137722164037543 0.05309197250092733 0.5007846234356836 0.009762769294032959
0.2789319652174624 0.04633571869295637 0.4165250003808665 0.005781066085173671
0.09050610356408578 0.04975372897755622 0.5049598542358348 
0.25018419846594264 0.04946596966632579 0.46695335492897583 0.00962195296650062
0.14122597657725075 0.0491028134746435 0.4121966417198495 0.007190550200171355
0.24760920444461954 0.05047205468612348 0.5051075545878827 0.006748497478042065
0.08135887635724245 0.05162248893263249 0.5106173264661497 
0.44994758108832117 0.05732176789875189 0.4909964912646639 0.006688489244129221
0.16926218222130698 0.04532863415933741 0.5427313675881789 0.039639531302049676
0.1458026910874921 0.04588987846876108 0.45388908410102796 0.020688578620534175
0.23591605238357183 0.04411162921874237 0.4910537842947599 0.00558370094478052
0.3798995012892389 0.04836721394834887 0.4126843452153526 0.0024847269237222797
0.5824533836498648 0.04893120648598886 0.49755313983338834 0.0015317393756741602
0.4166111838418497 0.05111415982123685 0.4322497448229184 0.006093215409380463
0.46595393521933415 0.04613121407613978 0.5303805912709255 0.04404803917100284
0.35576513064441057 0.05001748628404863 0.40396389480389344 0.012011960543961456
0.11599098751852484 0.05012640543603345 0.37193863746104405 8.424565881045214e-16
0.3851984782555443 0.05112753071212662 0.4480454180598541 0.006732326048127546
0.15337099448653027 0.044871169154620735 0.5382266579398247 0.053613853778925295
0.11787091352150368 0.05621504294629338 0.47562329841444767 0.00020634049222395315
0.5198065851505296 0.046085288354909895 0.5285502527766166 0.03650451245223247
0.1994059843204866 0.05838550281418472 0.3907562287059905 0.002454453667718864
0.5416107109326986 0.05342625283908399 0.5021653198445928 0.001798943889336796
0.33584620965130096 0.04992764782257755 0.5333353806409541 0.03909162280493738
0.22837524355462357 0.052101073373297474 0.518128537861583 0.015675930855909993
0.5813223500901239 0.04102337137870659 0.5428658711613201 0.08902195088450322
0.2527886507333313 0.05170194346437843 0.40920962998433996 0.0026218474173091044
0.2470677319358007 0.05209501915235128 0.43679127826418374 0.0027035168277572425
0.2845898346990255 0.049585832282335776 0.5250743720173134 0.02438095298988892
0.20098118025693817 0.046382376498774976 0.5174960995641384 0.007352745107837662
0.12914069389670077 0.05093573875033703 0.5373061471418098 0.0330578457891997
0.14277505375359958 0.04726658195548671 0.46118354704922343 0.007286829350881433
0.41108305534481054 0.04422243312195365 0.44635882375990044 0.0028382724730143627
0.39266867031268327 0.045629793856624794 0.52061178373825 0.013063360670217032
0.6715217953815612 0.04919363292110028 0.5477124926738278 0.0074200455180697
0.5189784024361269 0.04489778551044773 0.5469258129102057 0.05561826644900148
0.28723746726181076 0.0461365755964566 0.5457307775093998 0.013914540947194808
0.12143834787427683 0.05071247260301772 0.43329874132198964 0.002908926359807708
0.11694403654802354 0.04614967248322565 0.40252862090562 0.00017708195636174722
0.5384442382050175 0.04607668353891688 0.486004421407334 0.008577135315296549
0.6444756769611539 0.04692087770466899 0.5062707584629192 0.011405679409013247
0.1698354398609176 0.054598785703023865 0.4178985329367265 0.0035412254541055837
0.4093456152142323 0.0377907373574354 0.5538308406767075 0.015966186964425817
0.18573504310226432 0.04728315269806737 0.49335618915705304 0.007593833563767033
0.20479673286929015 0.04979870494770651 0.5534149672625754 0.010277440635420942
0.38701067368021363 0.04751301194376321 0.4658842882399349 0.007966311415105764
0.23892847651685445 0.05149386055987236 0.5284356528451647 0.020002129675442442
0.21115917643443033 0.047808797463043326 0.4779936165771448 0.005699558914402683
0.30384000246485837 0.04628121099012654 0.3971630919683113 0.0012513083031411168
0.23207723080722645 0.04760659521324631 0.41740792927573256 0.0021845865779900886
0.14736771867019027 0.04203988112760313 0.5429436481219273 0.049840981529093144
0.3091731312948236 0.051542029885368434 0.48087153371033464 0.010289174444168681
0.2370718935778352 0.04801314211278943 0.35444566538211225 0.013829702928732424
0.27134972217838704 0.04703865813562193 0.4862252703948472 0.007092134511037003
0.290873737551828 0.053442365521240175 0.5031560763795137 0.01430184581674754
