x y z curv
0.6050629873868513 0.5519623199543393 0.182204746897146 0.024071402266644275
0.594998029242509 0.3405885583375136 0.03897111340260044 0.006601631837164135
0.6025230721414156 0.49459871785900744 0.43143359096824757 0.004656404526671643
0.5993669486918461 0.386280094885075 0.21569235749482388 0.00667323843298502
0.6008464167464369 0.37861671749002074 0.4489388749247867 0.007617815982320749
0.5966190640438033 0.24953561149987052 0.17100627506746308 0.007889062425245763
0.5998900647847915 0.4557771672333988 0.13284646880243922 0.004723887681663221
0.5956870856600455 0.5402258291849172 0.3371092657884302 0.019196058657961167
0.6032408498537495 0.19165145872862982 0.026399064159879006 0.004038797182719697
0.5977112312771561 0.515387619232127 0.4776617914318398 0.0028003883294543774
0.6025722681576668 0.26739247390898707 0.28295841391669 0.007640944749158354
0.5941628122054021 0.4554333417748114 0.3366994224884762 0.01142370718162915
0.5969687425226321 0.5171905590605465 0.23957129339313668 0.02869154088234154
0.5945708128318139 0.38505780549067237 0.03496236373685487 0.0019508711802391674
0.5969902764065679 0.5033332489261844 0.6342886883160777 0.009238675303091016
0.5985342873029866 0.4837367985126004 0.09934326378500302 0.006048177709864205
0.6026815517621673 0.2897580907806442 0.03019272220413309 0.007589367867175768
0.6019240036663852 0.435846439846803 0.43605244918677455 0.011466151501656812
0.5988314188720717 0.18706777662270085 0.1367944234583075 0.004369354113448711
0.5955950987336517 0.1837223689233088 0.052943287228854864 0.013745195029436488
0.6037317359851359 0.5205123990130351 0.09735595805832938 0.006358899891064598
0.6049354060246009 0.5387904018591999 0.20294623228477943 0.00895033638348448
0.6031176283239656 0.3931985913272449 0.15722600368138487 0.002366587051448615
0.6036728521330699 0.5018100098883396 0.1598742721668418 0.006622684263445039
0.5983969098572163 0.3648094888382092 0.06754656905709593 0.0019666739012510442
0.596585922246457 0.4969049211377018 0.2844100962434742 0.015597814618753203
0.6038206769498585 0.24443542939145993 0.055385168231814566 0.020226280225859445
0.5993534648908292 0.5127642059149631 0.6125769512161869 0.01381345745543236
0.6027857885279784 0.3388072989722271 0.4179065883573067 0.016329510915061587
0.5972924943929063 0.4258045917890104 0.6078719054730972 0.014913979429394302
0.6007796148929793 0.498295252250493 0.5011515516278978 0.01054419356106524
0.595623274225067 0.5206949795828986 0.5381892070125176 0.016427029762588648
0.6032990592239031 0.13269093165351714 0.10497599247979815 0.0026682508876378227
0.6035582223517705 0.335663276441817 0.15453921189014005 0.02266466494724232
0.5969634341068663 0.3923003533510225 0.511615683202267 0.010324368232857177
0.6021154015607691 0.41299339111901273 0.26136707830759737 0.016872983560098944
0.6005891005673155 0.2821695100951918 0.17194252509341917 0.018627058123157892
0.6021098560015823 0.16648607298909018 0.1615266104105595 0.00864887794399379
0.598499762585842 0.4605949560594463 0.5250225120329768 0.007780853601220567
0.5959083398880534 0.5479926880567225 0.38460183971317774 0.012256277543225646
0.6013340892813828 0.3273795006848476 0.20847544577272845 0.03524829702424181
0.6037796033307071 0.23008394639545354 0.24474412661171896 0.0037391213422495895
0.5964306812053372 0.4419729918537029 0.47600778991144316 0.01265391162909899
0.6024580204203914 0.4289634122829766 0.23120313569784587 0.014956040096766786
0.6007224519678418 0.5518830904057919 0.0737211849491067 0.021734235191217022
0.6029286245348173 0.3362329020642844 0.09572365526537385 0.0006284956391853216
0.6054166231831116 0.3244143258553791 0.43129422350338187 0.009081722624860615
0.5967090296014188 0.3369756431028409 0.30592443731138563 0.016534162708372654
0.5994371028351169 0.40717751833147287 0.1894766792092194 0.006585188831391249
0.5954023432690562 0.1942220759780942 0.061129989610216304 0.011858204851093639
0.5948526799468048 0.5509066873525896 0.0515727936507639 0.06300504835415449
0.5984859618002526 0.1889884057674152 0.013892764817215436 0.00800192510267326
0.6012864731695334 0.18860678419875154 0.11504591288920583 0.003494983764417725
0.6031025535523362 0.44885083405023857 0.5604658557627555 0.014817298876431668
0.5995172506249309 0.4267415654634492 0.4870462797145312 0.01469323150185308
0.5982595897268357 0.42079714256466705 0.3526454466167651 0.003198244126462494
0.5957439659737942 0.2669063425887621 0.11933400479159614 0.011548188038205735
0.5991035143967799 0.5026831220217822 0.34771939607514757 0.012112506462147236
0.5965800427874467 0.2262283943264145 0.15896422620293482 0.005581283515149102
0.5957184608435786 0.5249266951696975 0.2191029320112043 0.010109238247373493
0.606786986673014 0.24725442451339286 0.029113471624213346 0.01506275470420003
0.5994520620640527 0.44634101854661173 0.1530727320716445 0.0116239442507848
0.5943281961439091 0.4725197094532023 0.3958985777440297 0.004550452868132529
0.5987552355256407 0.3697189383518485 0.09734295646312183 0.006727017833432991
0.6033100528052114 0.5027703873887125 0.1474214723800953 0.005514441516406495
0.6040572696236438 0.40434651627931234 0.10528641384795415 0.007476017447394399
0.6018425051385763 0.28474003659059854 0.3759152831699974 0.026772315910098123
0.6036201617084733 0.12259235796129492 0.07301799320295489 0.0015704345720681909
0.6079871074192675 0.4032424704884393 0.3219583128827383 0.006904157986839215
0.5964122738170015 0.3652136534072247 0.04663549125066872 0.004019165396545914
0.5969432318109202 0.24311543692350757 0.13042895871701365 0.008183944830457075
0.592390659513225 0.48531366732372627 0.5347329269376818 0.005226167822637829
0.604561549096154 0.34622209640910334 0.27273187602159527 0.00699202273263771
0.6043566019772784 0.2747345040807838 0.23380206943021928 0.007630041328918336
0.5953452327759371 0.19096926169103873 0.09304745709853432 0.007813195330097797
0.5935022340084803 0.517077619174321 0.6872123866456444 0.0058467525836428036
0.6033966990390941 0.43904169922405284 0.5566774411091586 0.013685010093953629
0.6038463015260245 0.3843766275370747 0.10672650324110773 0.00586953400825539
0.5983345423942952 0.5391464962028533 0.6641468865199782 0.037108149472174605
0.5969974587347436 0.5510924676990693 0.7358463368735368 0.06709342339197147
0.6000595948789611 0.43798950781815216 0.5339200541781538 0.014937986037434037
0.596235529087841 0.4784920201404758 0.5564519707132589 0.013613047019695736
0.5928570435375553 0.5071957449868896 0.7453384128297299 0.0104057219908455
0.5978530032004614 0.5578433646457479 0.6460330079850941 0.03407747670012115
0.6025181130309561 0.2685995175306421 0.21847597640413843 0.006612504632148191
0.5940921674401007 0.46991386384858735 0.6765671592071122 0.008236276876039453
0.5979729242172135 0.4910402845682135 0.31211520705703333 0.007575813332776704
0.6045711649236881 0.34677492288347633 0.44428669877235955 0.005304676383416136
0.5950752148399144 0.3839760971834656 0.4767127791598912 0.008459451416296738
0.5933939448121055 0.23681577483049138 0.2835261432883416 0.0028716268970343426
0.5988057319985945 0.5357306485842528 0.028235023823948102 0.021671222019277358
0.5926145429720102 0.5564541004982009 0.7651746577016136 0.02702049802296143
0.6011040220263159 0.4517031722037849 0.22934394376110556 0.004974759629161769
0.6014732061889755 0.30440895926883477 0.020005755093296426 0.0055714185665439245
0.5956155060055995 0.3149204376225308 0.3880970708105116 0.01005072980448445
0.5970485225744913 0.47776301403114746 0.4128405661171292 0.0034124836894183917
0.5966075261416989 0.39546319824668563 0.4878080960499118 0.010634325473109999
0.6002073367365277 0.4785503275572876 0.3263315111383758 0.007187434275304332
0.6019673188708367 0.15837490400498141 0.022048124487915623 0.0014683503206687405
0.5974478126802143 0.4950380061403105 0.40511664646403156 0.012803180773220993
0.5992417490634968 0.3868979410872442 0.387571848531002 0.011047432217829013
0.5966882878171936 0.3354697459127808 0.2902799659025374 0.008011012896060841
0.6000427566294689 0.47226844089077324 0.5036951260753297 0.006006903222828469
0.6060405809278896 0.4548024440564367 0.1843997135485757 0.001566017059905299
0.6015084897163125 0.2698164358478621 0.03720097944567801 0.006165536641546464
0.5957575110267012 0.5316005767843252 0.02326955956712351 0.02430196294687712
0.601859971790146 0.45601002633963317 0.04586067533607642 0.003680084737726358
0.5968260608989606 0.25442577188621157 0.18727223444738988 0.009556723782902034
0.6023324760189007 0.5047957225505891 0.4755159798487322 0.003611803676729302
0.5928713042956658 0.3553682047887787 0.34473987609731993 0.01509796090007182
0.5974808236822076 0.4020016119533621 0.03807930669000621 0.0013515219701887254
0.5989673096628043 0.3630331596421265 0.3681201651568913 0.00909802038137023
0.6032246223536664 0.5367273921116851 0.35708047599800563 0.008318327329911418
0.6009649392126999 0.5317260235942395 0.6937472580424556 0.008309983833266543
0.605661058753274 0.1275727101928155 0.11993822735377058 0.005040357291486084
0.5996592119826148 0.23949867254144416 0.09728442431463133 0.012688145605246315
0.6040389164014786 0.4658091932269652 0.6374661839616599 0.005496669843285799
0.6032426393869196 0.19601170136861998 0.218926023388237 0.025116823301878994
0.6047407051661238 0.26655916209405306 0.22917199133992971 0.00578878738948902
0.6020127185687391 0.4084309098631366 0.41039686360360567 0.00940279688340051
0.5920834255746713 0.365143875366334 0.28924761038244656 0.006403115234778636
0.5969688585256964 0.3649337214237827 0.04184992949918079 0.0044434346749430914
0.5988955348552677 0.4966428376435864 0.6633936096917591 0.007340021686760305
0.6038584229541727 0.5159313146575728 0.3699210927473157 0.008030120490125567
0.6005400970903441 0.4393195476995019 0.2197613535719089 0.007047264629871122
0.5955697057140803 0.34910831459261754 0.46464245359551165 0.009537646166577691
0.5958835373865875 0.3684663786045587 0.3338998600305873 0.019826114481119896
0.601141278897948 0.5372357717910906 0.3977659919049812 0.017957863893251762
0.6012913047260817 0.4931960320387691 0.4455820849907161 0.004088432785633935
0.6024755984823581 0.3858357945779527 0.0795701725272412 0.0008334568680173086
0.6041918761278794 0.4030386084543226 0.5674797154787264 0.007397912633997834
0.5952374236616562 0.22833276315478082 0.22151929251177524 0.008606050710369099
0.6046425684089949 0.4095464423051604 0.35326182930173194 0.005888549463282438
0.5965535433787998 0.25289447275131643 0.09043091769930063 0.014415302413181712
0.5985961027218946 0.27560217290389816 0.056329844028710184 0.005220766849999889
0.6102616174456754 0.44375182066486873 0.09422836969786727 0.005540162575460248
0.6004844421011661 0.5413487897091519 0.5522103028978241 0.04327639418439468
0.5940484810047532 0.3505570992143835 0.03472738753237345 0.005407960204090904
0.5945606251405001 0.5377501421536566 0.4183943373949331 0.02499497697548018
0.5992370387989886 0.537110867599728 0.6430932212515449 0.04250670232272191
0.6063876259763987 0.41008810334662293 0.3659944166171987 0.0038399357437088767
0.6003862395050132 0.30130324698457034 0.06677270085476256 0.013313565390671333
0.5968582089110385 0.5175478699986267 0.21700505154934926 0.010248206690142158
0.5969685360465864 0.39354011627727176 0.4458421016645706 0.0070808834908444975
0.5987127635545907 0.47939429401266753 0.5802165369642241 0.006983785639787265
0.5948649487053511 0.47280569057678945 0.30802635627641894 0.009062427671209907
0.6023989922704428 0.2595178850495083 0.1487177125374371 0.007472507918574402
0.6008808685101651 0.3193216709256822 0.27258660037149385 0.010578033925456433
0.5917785731732886 0.4962546099675445 0.21362900649658298 0.0029319398160441413
0.602214464386505 0.5290533722476509 0.2582082470168673 0.0165438488514083
0.5942907695850523 0.4544042126771328 0.4679948420930258 0.011087206600444717
0.6040095871698526 0.43770575204039436 0.13229344756884792 0.00678431504986226
0.594504038383102 0.45433520740449246 0.3561469321855357 0.00832147929864044
0.600790356061898 0.4715256580750924 0.22451522688861236 0.003705951833116384
0.59931464424754 0.4941082638235071 0.11400720982664257 0.008144725142629523
0.6042063073264975 0.5178031081877602 0.061795158032192675 0.004155003487433118
0.6003638006809685 0.48273486716868874 0.6556076716510864 0.006458497993777677
0.594022823974403 0.32480191206214704 0.22685400215037713 0.013153433205451601
0.5904098133466825 0.21349918284661815 0.04276762805200893 0.009214325331657355
0.5988519080312446 0.2011621060780459 0.0283492322122662 0.010768132576391223
0.5978373263456932 0.4646559438405891 0.15472985358747982 0.007741881477325501
0.6022492878211672 0.5005622374652362 0.581696271930537 0.00574837201908704
0.5945435257643132 0.32003785365188003 0.36139021905382557 0.008583228246952023
0.5979403235391264 0.4192200812911912 0.3103423327154362 0.01015545296425968
0.5989925819163965 0.47391432452364374 0.4644681856347662 0.004103748194683816
0.5980191718501211 0.38787906935748645 0.42808639611981486 0.006720015093007177
0.599079720336213 0.5425507847813842 0.22746808916188277 0.039021826617779164
0.5958706230642193 0.3650208942670737 0.4557614894438984 0.011477691823889864
0.5960618098809624 0.1990781114602764 0.07615030782269822 0.010088155269997833
0.5969880190931022 0.36730706740118324 0.124806959477588 0.004129800753986112
0.5917129516665696 0.5184100978819861 0.6362416414173532 0.0075895973141862
0.6025725890245784 0.49425706847469253 0.42342610834847594 0.0035624062960311347
0.595173385199602 0.45681861454505146 0.5408556088890858 0.009144179606515056
0.59997875595515 0.356784144117614 0.2581056045735835 0.016375954063060392
0.5994498101808812 0.3845098534150355 0.28036358298189307 0.00958403380016001
0.6029818105777336 0.19133154032786168 0.1790730072974516 0.008705662316605509
0.601338988467979 0.1634208008882969 0.06321002828889585 0.008539472438376647
0.5985040470370693 0.312752747459384 0.18367590532924505 0.02144641679568895
0.5977434099923401 0.28290579282526185 0.11836363918642855 0.009699997922131599
0.6008768978872238 0.5110940130842007 0.18137655742156172 0.01116881463674271
0.6001511459169144 0.4521671990027072 0.6113064323875997 0.014759167051480582
0.6053903790308524 0.16476909548653398 0.13181480477438753 0.006109721756179998
0.6010049786167696 0.2915891961382442 0.318470951395919 0.008392218898003305
0.5973782573393238 0.42421552147799724 0.14839612264617794 0.010426461799167192
0.5971893130333105 0.4003349901625685 0.20300283768480912 0.0074326414983965985
0.5964026485896115 0.5176959136876293 0.7226168552746977 0.012464587575259605
0.6001101466811036 0.27560519554263063 0.3204232158491525 0.009242670895229161
0.5995774474857605 0.2696053473302687 0.34680708447050707 0.005174115876618838
0.5936981126727647 0.128795694665467 0.023509042966462723 0.0033305100722847633
0.5997832934457743 0.37459183418509634 0.4519391159779866 0.0128328738138032
0.601509577211675 0.2110616642233659 0.2548181855209575 0.009696756895628223
0.6024344483380931 0.5065256799616927 0.03955507010868372 0.012070809275235407
0.5936007948539012 0.22375082614053637 0.06591767793333736 0.011397755239227373
0.5973462862208203 0.4838048051360854 0.35867517558910944 0.007848589039564889
0.5966434471491584 0.22159436298094598 0.22679181286122305 0.0222183666833632
0.6053338202152915 0.26806387542049365 0.16874295400441458 0.0056755915159595926
0.5981056070192237 0.47718286043066793 0.23733920101110018 0.007961175295002197
0.6063018462010905 0.42374012393279786 0.43904840611221535 0.0054406392714718855
0.5994205383250187 0.5319070200171411 0.7347743623023111 0.020628421989404993
0.5944547339441225 0.26524339178918743 0.1046270308762772 0.008143613049557054
0.5938246460024055 0.44488392695905965 0.366682321719069 0.010922244258091606
0.5980894213262451 0.4087656125617548 0.2861928305549494 0.028210337089188766
0.6059335409413236 0.1702463103576425 0.07647166299726876 0.002353364172505687
0.6036737246391343 0.25624787907228064 0.06043464510620145 0.01720281456286893
0.5972753232069096 0.3508798064003234 0.4523808783812416 0.006702610765856961
0.5953750691403424 0.5133387920402287 0.12297403584693367 0.010107602617305016
0.6013780168310859 0.25467368743196256 0.31086541139755614 0.004531341629048461
0.6047036254391431 0.4881944378432027 0.5971508575542229 0.0022533138822083327
0.6028291956653855 0.33492768143738116 0.415474151101186 0.008880268933312223
0.5984431914942048 0.2634600933867971 0.30326802176461476 0.011225398221116366
0.6044517610262196 0.4980932208176101 0.2620554081418882 0.01596305595075811
0.5991838507485157 0.28145285026601413 0.308917552443422 0.010973740104781209
0.600560523572097 0.378164266843418 0.2260584111221939 0.005583638590226666
0.603213005677849 0.07401061903485233 0.028671531849457633 0.027211808645668193
0.6032089685790055 0.5237205123104599 0.5777418576702649 0.02037536889739846
0.5988342103489426 0.22755396283394397 0.2552512052229715 0.01645778907283652
0.59993058697062 0.4650793087266528 0.6082141578931803 0.014201501092809798
0.5992516065802622 0.4037015400855082 0.5346538101139964 0.010815243339555018
0.5966450912701124 0.38763732407436924 0.3020288027273906 0.014899302782564459
0.5983527750248796 0.5038423676848093 0.12660773386916205 0.011347548676877673
0.6005638788855945 0.3680279688247275 0.4264711850277191 0.005373262564119922
0.5929518926720478 0.48569346710971917 0.6968813720033986 0.009505385510266619
0.596865883625842 0.21078392204531424 0.11666221758168867 0.0036769579120222566
0.600297071016279 0.5187515455210712 0.5948460053177004 0.015382338422010767
0.5980259237730109 0.4931414227229897 0.13373318696201822 0.005620314672815633
0.59494062674954 0.3815515491781069 0.46028516979618694 0.010311855535258103
0.6011312265581747 0.28950314080556766 0.10807032615317694 0.004542985498697184
0.5959173842752085 0.4538088769535856 0.5155139509132244 0.007439434276065774
0.6099004075630441 0.5328201163412263 0.18093778030037574 0.008748321935491394
0.5987837860524142 0.5046594954018742 0.3998473017789677 0.012465189563551988
0.5973188435503171 0.2842572894979167 0.18074827298828872 0.0203689402690504
0.598825688459765 0.41097102428025345 0.4010353786382547 0.008904780660453205
0.6038207424174479 0.33084591579915007 0.430590109710826 0.012448935092289497
0.5859548683829165 0.5505592678422636 0.26563457873123447 0.07158072367075198
0.5953103803441149 0.5153740771684361 0.6603155161558555 0.009400746109853567
0.5976543981907957 0.20035011720025936 0.16467680751266003 0.00715040139136749
0.5982342365535042 0.5422964691855614 0.05995535649510597 0.02979505206593934
0.5993499145768022 0.16141754022073868 0.15522128523269219 0.007403729498905015
0.5960196093459911 0.32631033903205003 0.3607574240097994 0.014913074072728464
0.5927938742021964 0.46862673147229955 0.37928486698650754 0.01236188271524273
0.602155627735964 0.48234305241088177 0.28108547484899427 0.015409938836959177
0.601231591414164 0.29941215215002737 0.3248266926213514 0.012521338612556259
0.5989254349493205 0.3846529543864531 0.15615890847894123 0.010026498524645742
0.5918510080363304 0.3657815379651518 0.023288340751298327 0.004799567311815147
0.6017300239437027 0.46261699757290997 0.4439178834181586 0.008273299322491243
0.5975745287325531 0.500152372846928 0.570333696127465 0.0070468993309075224
0.599466400069456 0.2873595286520674 0.24961970844594808 0.004116287580540112
0.5991792715668468 0.47407523450606187 0.477768450012574 0.0045759223508693905
0.6006466309478 0.09967043669993632 0.06174964032416624 0.004468841072430562
0.6036609504760714 0.3871080942460305 0.26491394469871543 0.010920783452694717
0.5986881571766479 0.4606459661514112 0.2580073778181974 0.008347912299568315
0.590430785720881 0.3636216415715494 0.017337607431061407 0.005965843775119034
0.5992789470990179 0.3607053928267435 0.19280349091808216 0.009479265901618236
0.6034471558942796 0.4239418374112936 0.328118803458367 0.0073166803981582025
0.6002577288124058 0.5078590365163792 0.6012409935538434 0.01200405017888581
0.5975286440410019 0.41748818812330035 0.12009053895100893 0.0012067455374866036
0.5996906267978455 0.530761177462889 0.39354651443694716 0.020270259663260324
0.5995249230995366 0.44444846960144885 0.19085335424809005 0.005317911187053606
0.6000741202421642 0.4391925997576693 0.04990345152661279 0.000789919212015467
0.6061440012873496 0.46202747150517265 0.06929533154213117 0.011278204071608018
0.6012356052358535 0.2759447907548417 0.18669463736076813 0.014236038991189973
0.6003380175439295 0.5210324500264646 0.3145424199938668 0.0059501265552810625
0.5943537592932653 0.5329457876924079 0.11623993545413999 0.01034992430784882
0.5954112201046233 0.27503245491562495 0.10716115286138166 0.00948738223917376
0.596744696681437 0.22338412175337724 0.01383055901143273 0.017781512004846706
0.5939438585374122 0.32660343332914005 0.0594957937260674 0.0045331861923389215
0.6034651895820782 0.4307527915245161 0.5804730679499743 0.01143080041196516
0.6127778488424928 0.3190183742896036 0.17388939507337203 0.009596529636839081
0.6001897288608091 0.3948281570287762 0.3955137478609076 0.00767852381016155
0.6015774855445906 0.46467170626244236 0.19890756262073075 0.009177410600453753
0.5973893386340792 0.49070763964082537 0.6797286525598221 0.009993537808390091
0.6053951019167706 0.539648443611257 0.579403539177503 0.03335357677129235
0.5990499075043536 0.49838071578249177 0.7163938164761549 0.010651667931722508
0.6010184462776051 0.33691989982762977 0.31972625151118317 0.010323944328785903
0.602209212707244 0.380047933465847 0.3773327118154955 0.01325300305007219
0.6000176161949611 0.48281781890052083 0.2953097961653395 0.014553444210781495
0.597157598342993 0.31017213301191643 0.37472243676769706 0.026530520813218102
0.5944008267632924 0.48372192301010175 0.5142908845348834 0.006420999125214028
0.5977660834557735 0.41763488043567665 0.20573968943390852 0.005014363620647208
0.5988814478459832 0.41303805055923776 0.44033836755538625 0.008852046072631709
0.6010046108253073 0.4717885245795709 0.18481827009564156 0.01418865120587101
0.599646972476078 0.2908880780802442 0.1624148628942034 0.020662587191891513
0.6063685895995305 0.3353950541098019 0.3994280836244287 0.0014605962772587797
0.6053869834481869 0.4176856445553087 0.4677565537067235 0.013446681441796816
0.6009582176466854 0.48559183317293386 0.19469148621493548 0.007266549562835372
0.5979446577086934 0.35993147317801094 0.5114142772797448 0.011096135060484869
0.6006007206981593 0.5121955065482313 0.7059580242354795 0.00854050633641577
0.5944635664002197 0.37595772375198 0.33281752249806745 0.010854808213888964
0.6047141296239513 0.5417161211035527 0.6982219708878561 0.014501322644816479
0.5968685426882646 0.5161838005292637 0.7610784822669708 0.00796531675661648
0.602470920272358 0.5184614838547171 0.5017253686983122 0.007190113061163771
0.5966573702763444 0.5363225672995711 0.49405362489919796 0.01781332589981191
0.5978488846943741 0.2744485578623508 0.0966241819662859 0.01816149990619479
0.597266885957242 0.21197339884373134 0.17373649603431418 0.007955444761300452
0.5964755077034182 0.4835381748497114 0.024228135806355282 0.00246429405854175
0.5988718176024639 0.15200626703234785 0.03756251910810071 0.012509249677883695
0.5990488179280973 0.18192825588531097 0.13468940044832195 0.004748836057047384
0.5938370919024138 0.43373945357362337 0.2944448165183626 0.008378010004991296
0.5995365874326428 0.23495437981355027 0.09002324459556273 0.014454400001211077
0.5984140413606558 0.5064403974675071 0.5603304935628564 0.005200802816602619
0.598203957377049 0.28183591151510945 0.3033360002374458 0.011752797951427182
0.5985653889714221 0.43460169855866587 0.37506559902625486 0.00755966747804529
0.5994338064197752 0.3623018531683861 0.32458472552998413 0.007226393029852737
0.6095831620562192 0.4243260822588929 0.25624024316399735 0.004273943763458372
0.5957209745264298 0.421825343486339 0.38651155973851864 0.010546470942046814
0.6017499120613197 0.39119879718860995 0.1258298142163521 0.008360559589292934
0.599004222543133 0.5350503875842698 0.08079855882693872 0.02747522508386141
0.5938958514918367 0.5513006326865822 0.5563475993001723 0.04557223994996408
0.6012830128422727 0.5505501611814557 0.09489427900811076 0.032978512001124304
0.5958758685986133 0.5097033992097423 0.2215730230320261 0.012454579783484349
0.5950201996464198 0.3648935708894984 0.4602820218308743 0.011010051800713244
0.5974992282401786 0.521016430545967 0.5456731308416816 0.02591799691553068
0.5962994506060595 0.4635652477063059 0.454577036743521 0.0052399175419520555
0.5963779931453014 0.2697335955862055 0.3673594956879139 0.005182457456914306
0.6040654648526671 0.46157262676090083 0.28718108702172945 0.006416834503940382
0.5973013083943315 0.497583365312401 0.32067066740926947 0.0032857712408096264
0.5975216462978058 0.5188545537688629 0.5165685085669813 0.010870104019610218
0.6003576088768456 0.4412908553944346 0.2443018303699609 0.0073606311046156255
0.5960396579431333 0.1364444740967638 0.04030579685602884 0.005426368456210585
0.6018379205716071 0.37570128717757134 0.520496235026941 0.010472216509144223
0.5941294253120313 0.43966785359000243 0.5945420072294079 0.006858546502003404
0.6000917016851968 0.4866806386007072 0.6181905104161582 0.007788152663169005
0.5959958870830964 0.31435805992990046 0.3259968443560113 0.0076765338809450315
0.6012202216717686 0.45976030823366065 0.4141178987971204 0.0023944807528304916
0.5988314896106177 0.4458222465943372 0.4455266580784426 0.011636218742899067
0.5975878067056114 0.23741357467357124 0.20275585549134248 0.007937418325636839
0.5985050196597468 0.19693241825739902 0.1205711493869046 0.008767169604197513
0.5982096751679323 0.3903701012315438 0.5304455576397222 0.010678454819937296
0.5983869916516297 0.40793481191145514 0.4746445846774226 0.01683499721376747
0.5946406088603984 0.5016987119496995 0.6733468998568174 0.0072522802643743695
0.6001967528090354 0.13361502595159966 0.07539554500743996 0.003179524476365854
0.5957253796894579 0.5329210924419021 0.53390789169128 0.023838696953028676
0.6038267800321827 0.17409641895236655 0.18085748398069457 0.006673920839314452
0.6045147191845814 0.4832574385299649 0.03921962259265582 0.00698657447625628
0.6042704595390678 0.30904324672885214 0.11700114528892328 0.007595260902473443
0.5997993094567599 0.38061277160357365 0.4897625108210299 0.00888164001003592
0.6008806234248161 0.4952316856891419 0.1477678488838465 0.0074640307900946225
0.5934878356766924 0.4365798491044994 0.3892668592069855 0.00952962686582632
0.6008849311250436 0.5091310447919385 0.032738897943140347 0.012841095758891054
0.6042678663983391 0.3165480552535953 0.13396275744713665 0.0018473741657024584
0.598042331394876 0.5024196843369546 0.027216722916856964 0.003553865215725324
0.6014436156857597 0.513157437083264 0.3523696933206874 0.011548144023492819
0.5928474147296017 0.5168385406374665 0.632581056281771 0.007611281431094259
0.6052867283900516 0.5004883562667072 0.3672848501716963 0.00602650789499586
0.5999098977141836 0.29064669873735016 0.2586359917481386 0.0054710507064760746
0.6023004414565418 0.3978583475435343 0.2628705090647834 0.023708019230172007
0.5995722401112212 0.5414203777670238 0.5247810873572951 0.018995506292097283
0.6022090023333132 0.5047680253557603 0.5372430750669775 0.005157848412780165
0.6006055522871794 0.5368410511492294 0.2984671434981399 0.02769699274509201
0.5980152993598216 0.4143155959813369 0.4040691406353277 0.012334646883566973
0.5975682778517158 0.48460608261755694 0.637854970627317 0.00887609143493852
0.6010448981312381 0.4696561122939918 0.3438194055754009 0.008133988183552456
0.6027478530712718 0.5220372850145761 0.439064895001508 0.007990626573768065
0.6013973637200792 0.3226070995850144 0.2958860539763683 0.012542657672695953
0.5964053089286899 0.4079473306133128 0.14819325843120207 0.007771575466253753
0.6038387381253465 0.25437481002123397 0.2524486705773208 0.010109670052399152
0.5973162323172186 0.5363907582564005 0.748700825135881 0.04966011732278502
0.6005621379246888 0.48540157830717784 0.07815848402686214 0.005823899002502568
0.5960397173296696 0.43733092537628987 0.16987003262444533 0.007177333193451902
0.5949444449745378 0.31999075631790985 0.07120926562231551 0.006128903770722205
0.6038604957418168 0.2587979539516423 0.07784253615547243 0.014347323214222512
0.5926181545927485 0.5499820316129175 0.10742171956866119 0.03516575979764339
0.6000880419488092 0.5271267510110633 0.46009112483348413 0.002102375272954143
0.6009007768654946 0.49164699276179347 0.6480326582052208 0.007016545711793594
0.5993215926907758 0.5598321684839156 0.461984151334633 0.0012642605923620337
0.6021465356311365 0.5334999020495519 0.7696593772336363 0.018152789652766475
0.6092768962266666 0.348177916568402 0.199159510739108 0.031602622060319024
0.5959760995132218 0.34002942988995727 0.36974415211798456 0.009014561254391942
0.6038460304234018 0.4180661630400377 0.22087164931116535 0.00798320429310116
0.5988003094975972 0.3395681497750576 0.3778903263580636 0.009473296325579911
0.5990308223531551 0.24121369737087045 0.22611137473307005 0.003608758931968166
0.5979130359365646 0.49329593494288826 0.06813688529839318 0.003824988464425541
0.6016541385810508 0.3693536993704644 0.2617271592853266 0.014110424770757695
0.5992680784457731 0.4376976991017757 0.02988465147384323 0.002470650610684078
0.5952562808528917 0.38072700561942036 0.03129833549462807 0.001938657603258651
0.5943423224018103 0.2170118972521544 0.19532970538821762 0.006751143900970089
0.5919635290337816 0.5182407865844488 0.2831466380495811 0.019938110147456733
0.599231460183611 0.38799544501603217 0.0641985293863811 0.0017426403292636287
0.601597811109547 0.46661531338377593 0.09174281801819756 0.004726699978030057
0.5937780958534993 0.45403766860107003 0.47499531891567787 0.013341533056541524
0.5996106638290468 0.4658702119127209 0.11437129657956213 0.005015641236863925
0.6074772502069096 0.3038990702866285 0.30601540187703746 0.005017682680991516
0.6035287440048162 0.250632237396068 0.07248527511458137 0.01672825991928007
0.5971583710422214 0.44372482479848113 0.3271572701641014 0.010720500765784102
0.6087007341461825 0.3501550192086577 0.2384605833077339 0.013464225236110324
0.6020077174042784 0.3614538946533106 0.20359245480459828 0.010423302179408797
0.6029444391547767 0.33155198271394243 0.1251726914335008 0.002037977874379937
0.593108575794483 0.30784021707619724 0.20316490597711734 0.01296399492154662
0.5930831717215416 0.3505805465048114 0.35908006875050746 0.008932745966481704
0.5973848485052673 0.3996651873094418 0.2341893609968693 0.005341877474041687
0.6047441703915467 0.2486490817625756 0.26935489815431 0.009421085591444589
0.6025564901621205 0.227181896318967 0.12719025189328845 0.0032417966493000954
0.6034551346931611 0.41353917451192024 0.07999975247307842 0.002235499585813023
0.5981542690628704 0.27395560456306106 0.26143442643560305 0.0011036873375253795
0.5964413038130911 0.3692383771369158 0.46029347384151675 0.0101658599284607
0.5994571616740019 0.2993051812842812 0.24555848954527773 0.00811891619295509
0.6008554337072386 0.326829920162692 0.3140874753234413 0.013308152653716291
0.6019698073689036 0.36102899960507107 0.1430332415025641 0.005293643100518325
0.6017932838077318 0.5070785547585919 0.34783191070627356 0.0118829333548703
0.5927071853921582 0.4741688823502555 0.5392972003530765 0.011300951434161963
0.5971006859393342 0.4698165076517446 0.019991378188373217 0.0030038313071857076
0.598108315091919 0.5063865342318922 0.6190499314087434 0.014025220689706392
0.5977282885786133 0.4369686820708888 0.333584988422052 0.013190364603532796
0.5978246170280306 0.33326166441823546 0.2329939533089906 0.019463946762735943
0.6004342826651312 0.1952133827660441 0.1507870470268868 0.00511676190069929
0.5991842295494607 0.11746812590063024 0.059925346372251 0.00390451358886815
0.5995654771115425 0.5027121149801805 0.3997750476760422 0.012506528081763203
0.600440000493804 0.31302324184421043 0.05626846664432471 0.005413165666326985
0.6004035313493753 0.5194331501727488 0.1929140860937149 0.009438768076896637
0.5908310227049822 0.4714866928758487 0.36225188687205706 0.009130781448940938
0.5946102053956184 0.44452898800839113 0.48683983699198485 0.010306579385101397
0.6024079378683368 0.2295471485356564 0.17779459589548868 0.009893562620717132
0.5960602355701587 0.23168401830712854 0.07305060946183076 0.012124135136894289
0.6015621465707793 0.332797898914571 0.25223376763794336 0.017003326762821583
0.5616664350663038 0.5716398131770185 0.5043374696876877 0.03445183573164103
0.56598307721696 0.5665154978531235 0.7720017744774086 0.004014439362030832
0.5809181520895025 0.5552718523531822 0.5112799915864946 0.02600947329118695
0.5641672318051537 0.5693490442472595 0.7577044170742715 0.009000155716570646
0.5636049733698417 0.5691571038053351 0.5510243996867911 0.00627296262087221
0.5722387420507591 0.5612307576494173 0.7403330624165946 0.016793091073946796
0.5689912537818135 0.5630253812252113 0.7290975549593621 0.009231928287259822
0.5595503853121387 0.5735302387247434 0.6426377565934056 0.017013687764796084
0.5735336565934077 0.5680252464487616 0.5402132393859982 0.0036550560400982466
0.5729470197023067 0.5633709708828875 0.7818785748549384 0.007026262365668753
0.5591838823943943 0.5753817654728138 0.4974463283206589 0.03953176610844112
0.5640671332224958 0.5824600985777508 0.696866400970248 0.02773771360526771
0.5622785688860333 0.5804222291398137 0.24671438847098326 0.04651813862854838
0.5689614099734127 0.5713712376701892 0.6316526070178234 0.013504235330860983
0.5639293804771023 0.5807392303492794 0.4195222087446393 0.018135396572336565
0.5741085876420663 0.5660877835550806 0.28181782193867605 0.019361417021457356
0.5621997438904425 0.5709148648028214 0.5184195425749545 0.028232839231416656
0.5579257733503361 0.582308354901705 0.16490775012527475 0.009282550614351102
0.5712670527276124 0.5719462263273405 0.3057213704493025 0.016595889566395978
0.5696362457959336 0.5766121179690314 0.19204823772370463 0.004569918098419675
0.5637808416240184 0.5748234888944411 0.3109540645345417 0.029653134409679177
0.5694511266276904 0.5664989188566901 0.36038406666017725 0.0019225398768031034
0.3470694468056971 0.5777357653717133 0.053662494966400597 0.00930528695013772
0.320581988865511 0.5731326500028253 0.05771160593448983 0.0025840699695368593
0.3724874162529247 0.5809068183027372 0.06369543311073152 0.006897551479426388
0.07430805476931719 0.5824959401347531 0.16315751554853905 0.0026421132123212615
0.06487967637567182 0.5682256847071058 0.4707886488983336 0.05271109413236483
0.06669500083577604 0.567799599872314 0.47971834273943514 0.012859913289086974
0.07185234979327522 0.5839895676415778 0.42866506359378787 0.007327235424415996
0.06528932425092769 0.5783365309538196 0.39334352569280967 0.005660152203464377
0.06951652323447431 0.5806456330335463 0.4125878852021562 0.0017246116604158529
0.06525349472358558 0.5672157272757983 0.23923483976657167 0.0013281902306966219
0.06780172437768572 0.5738727395130949 0.2217786219750072 0.047974413178290536
0.1708050718075339 0.5668038544826528 0.650979881898177 0.02191213171629541
0.18047977098012385 0.5609314756469284 0.6562093503250224 0.015480536123556614
0.1907731644726978 0.5704629954469749 0.648496274483845 0.022456488259708092
0.21046191057551 0.5655652256094187 0.6470538549297856 0.01823500287744607
0.2525355368972186 0.575886796510795 0.7122626491197566 0.029384648858238653
0.25349783170205553 0.5798367959082376 0.691704543020968 0.03752059960112694
0.23839609664161818 0.5648416853652867 0.6990742665031204 0.023887166687149294
0.24690673819209225 0.5890640675636531 0.7544641490792823 0.006595309063212834
0.24054998939100924 0.5778291991824176 0.7232709645414461 0.044835938559796895
0.23227581132215325 0.5595141067478563 0.6855409882200556 0.008587942631899992
0.2796523932458325 0.580322256014436 0.7952164999086915 0.0251093866901276
0.37331332074238577 0.5752332333886433 0.796002275592997 0.011099224266403303
0.3013582222750157 0.5769423548968534 0.8052788263793113 0.008856983252283717
0.4594192603184046 0.5767899923939666 0.7988917777737625 0.006831706816246409
0.2921608151113672 0.5840807931588381 0.5847216252760139 0.010123657318778633
0.30845622521282584 0.5891015894888896 0.5641118352394522 0.004464462175989919
0.2929909604717773 0.5943575555771926 0.08771054738150316 0.0022172636441411125
0.35605543903065 0.5869187095502141 0.07427080474355584 0.0016038491596776494
0.4778383259163869 0.5839116022933954 0.10119909542463254 0.00515329601727586
0.4570421033092553 0.5816556319955678 0.11742459792789717 0.005227031895788236
0.532165165716155 0.5841164260142299 0.1439057590131222 0.00884274366124031
0.4499636785940384 0.5740537473625007 0.06873262142752479 0.0033369866975878908
0.26811163513173386 0.5910780244402705 0.07370518564606657 0.008615546688308278
0.42188526381805735 0.5851420170681426 0.0983686704572688 0.004868412756273765
0.17114813829704226 0.5826496292451178 0.06504622284289144 0.00039786743295791387
0.45534026591963705 0.5840056478251835 0.09717954477654588 0.007816222426238004
0.40848543085720596 0.5800932170008222 0.07374106900713684 0.003909927659597093
0.486077230565022 0.5884905788727273 0.12718833659970186 0.0014121095530870331
0.5199326913284513 0.5821052528560976 0.1314842739066819 0.010283102846274534
0.4186821267507497 0.5782258687432322 0.12872878644286415 0.0014931752546316552
0.44034931206566436 0.5784739847696166 0.0884550437078086 0.006880777732581837
0.4010925809885899 0.5784616979434607 0.08103277629182007 0.002850908220297349
0.44724427422530744 0.5819271628549406 0.11430104755635798 0.006820117763679726
0.22778322559483113 0.5886220880576836 0.08287409305839197 0.016583184736028312
0.5003970770559892 0.5817578146932267 0.11992030917656196 0.009695974508842685
0.38393017000048435 0.5806204690981589 0.06786026001031276 0.0071389354644080995
0.504019150093671 0.5830105104217712 0.13360482717836208 0.008109147661298768
0.3519839427690769 0.5832709208725203 0.11337571021175262 0.0030816190311419183
0.4231629682031737 0.5780564518102922 0.08109643060777892 0.005898356403455766
0.40439501914999487 0.5825666040716959 0.11412820372785643 0.008221451307655876
0.46320111731602254 0.5814456667904593 0.07039089892615401 0.0018616420019609771
0.3740808863924935 0.586562467179052 0.10827265902323044 0.003154651967320887
0.34441881482865105 0.5827387563567481 0.08546276038178584 0.0059636898019827895
0.4666660705464872 0.5816537902481328 0.13215073056156978 0.006241518881871062
0.3284387323453959 0.5836737216412534 0.09278874398066865 0.03305019918356165
0.2072454687927271 0.5879232917365995 0.07299451091667283 0.00525394808134116
0.3863232199557913 0.582472848018811 0.09296248231487848 0.0056593507871160655
0.29483026362121234 0.5857236106070632 0.32147608864082494 0.003233015305865033
0.2470571914927405 0.5760971670238028 0.24343057559897402 0.01941737408477382
0.2438683084177623 0.5843015410951193 0.2807635882372633 0.004175038887478746
0.312596762003041 0.5833742118263192 0.3539688155830053 0.0019153840265347113
0.2570039040462162 0.5868872557887023 0.5449168806895797 0.01674450951207233
0.21057532248955507 0.581951605497837 0.3231968568460669 0.016363385081984986
0.12684499209613076 0.590977146988078 0.2280072974886977 0.009240402948835671
0.2526515192104575 0.5852929708509543 0.4951904846938005 0.012713824915230444
0.28807282529606754 0.5821175504508441 0.3594684436747351 0.007369511772078878
0.4618248872370958 0.5859645489241834 0.2539166133510502 0.0038339558887449353
0.4865481628065406 0.5822566403758486 0.23415454105524308 0.014371971051610637
0.3830705103127922 0.5799611863418462 0.18036255686465694 0.00725804883988946
0.5448734521814914 0.5849140853538563 0.1784555102584992 0.01244860326259773
0.25684854771622756 0.587517459145393 0.3978596001750588 0.014058043828598595
0.2548883551993799 0.5908782664528207 0.5904290914209069 0.002193133157544806
0.28951258656218826 0.5846351762904187 0.17156560705543286 0.013335917297369573
0.12852604917112886 0.5803581685011084 0.30910438518521605 0.007765006805155472
0.33750522463860383 0.5850640667172854 0.2730345163756695 0.010722924377321745
0.285025889010624 0.5794166634023757 0.43693587543042 0.003567813761560862
0.3463622125653114 0.576965493135123 0.3417234583580001 0.009084318171087893
0.3641387041715695 0.579800542515849 0.20328273655011217 0.006705026889452232
0.23823924190944168 0.5809463854085012 0.624300372388464 0.0340272704327137
0.2889293107778701 0.5861217453305944 0.5470112093415055 0.006514859688936739
0.2457386482600023 0.5812697547873918 0.15929547886213324 0.004836261444394326
0.40853566169194155 0.5796447159544142 0.2943381091513218 0.010536371885752344
0.3358486569386367 0.5777798412762251 0.34802103860911027 0.00933216470755236
0.31643710633951355 0.5779774384645422 0.3364019388023608 0.0020741504958439734
0.33685393553585913 0.5842486367416956 0.43230717278284814 0.02344552852388406
0.29017490860802875 0.5794893077919147 0.46861474349770815 0.007111956851033871
0.417030146164453 0.581771560511473 0.3030213245872319 0.008463724891796904
0.1191053355974481 0.5796423333205566 0.2383796716410847 0.017696610389658952
0.2642907506615287 0.578892573995678 0.2499381388162152 0.021019706413544784
0.28084371616805903 0.5795270069324331 0.17872128049739605 0.012554100898625456
0.3322797020070992 0.5856318348691368 0.2559934011346005 0.00985773162346395
0.37411322498126776 0.5759239121881188 0.2644793116366536 0.017298869668373046
0.5382852394279418 0.584675403872019 0.15407889323805574 0.008329451136264219
0.2903712997751574 0.5835917369687154 0.33100243318196687 0.004604499014479313
0.26886911495073357 0.5830641101943321 0.5744247048205416 0.010691846204487005
0.5340892349379769 0.5819660456571865 0.16867285167480958 0.003614298601516884
0.24725232500080366 0.5799778812785266 0.525767149812132 0.018451522550410125
0.2377558833108129 0.5863946636701968 0.22180784637254655 0.01159061508193565
0.26438738756292346 0.5835931325748082 0.16930048875547343 0.005747763398009721
0.33422272041302226 0.5813138766639774 0.3289044877287029 0.008505236040442675
0.24908373383804952 0.5867853064029315 0.4193557595902585 0.003049139520846862
0.46425095620492945 0.5877297141632118 0.31024987332234344 0.004852590100732099
0.43541811808857367 0.5814257156706392 0.34473183768117244 0.007099848079407904
0.1394455261547908 0.5874280052431283 0.24571532929896497 0.020865043716481298
0.22850565583628107 0.5949112847586587 0.5185037816291757 0.006356913666560498
0.4657187589411362 0.5807032167423553 0.21712690985081956 0.0019865501841613282
0.2871903730703615 0.5824768868768027 0.30321547669009785 0.003354556386288229
0.24981749666060885 0.5814202563331409 0.45687775154416294 0.003702922507068489
0.2748242475242369 0.5821280019779977 0.468087306196753 0.007718420499668991
0.18266168887672404 0.5849698964647552 0.41072170906318456 0.007906563608798576
0.37088265504671625 0.587743598916053 0.29571167730953724 0.011686969381025274
0.4664447981137857 0.5786656423744361 0.1983110234336666 0.005584198108764414
0.48692904680039817 0.5784946090798818 0.1982689400662314 0.005685232241914925
0.20408023264347036 0.5844876942074764 0.5149101619394452 0.008112281331729494
0.20478763439361272 0.5889672086432979 0.19959780301087332 0.009778314211690578
0.30936450606808785 0.5854093732096138 0.4703404048106101 0.008777413295553888
0.24836148060588337 0.5856661577499319 0.29588075060674834 0.003241545802478062
0.32048933011714364 0.5794291993743629 0.5111068386677954 0.011753098654220879
0.33902734586341843 0.5879612814685754 0.4633027683854308 0.0068479651785534066
0.15828608100792355 0.5876658013815781 0.3230308526386141 0.014176739789567596
0.3054160672054852 0.5839533048191866 0.4375782851733519 0.006606157360978157
0.2576608680665125 0.5831789727631855 0.4412229628641365 0.006290258344088929
0.3873672529439197 0.5825150426129946 0.39569349696740014 0.016868949847962778
0.2294976656719579 0.5869025960439742 0.5806134130088741 0.013851455030019288
0.35088901770816244 0.5893699079115595 0.16696533060847085 0.006732936371345339
0.3351390670501991 0.5858617224512821 0.44755427331129016 0.02683590041653473
0.20997013223776326 0.5817241185427543 0.329624064930823 0.012928086944335868
0.1440725592556578 0.5874708152542838 0.29780244973795794 0.014129099890082417
0.1600259689747734 0.5855592783850296 0.3347052768758191 0.020019773280047486
0.23516102581792736 0.5793568214278046 0.24591293018748508 0.014355337668415324
0.35821523246894904 0.5877271800805677 0.1764894489036906 0.012134087646697777
0.3348023353883556 0.5822685044362983 0.2116322671609558 0.007264023068711038
0.32204973852627244 0.5796887808030905 0.38083746030001553 0.004581399145393558
0.3036881898432952 0.586520725648798 0.3956314466376927 0.0011862906035905714
0.2707638493704938 0.5829171821076815 0.43377797809657964 0.004998982546324203
0.341420634704123 0.5764621524701308 0.3644827863995724 0.011028966404074582
0.3046124775516007 0.5777033223436152 0.1664304691586291 0.01591744683256438
0.2689731560163853 0.5817785855691224 0.20600291879676952 0.004488686403390181
0.2790452018377286 0.5839074715496224 0.5312309852975919 0.003009193846485476
0.2681015062032874 0.5857346035947857 0.3996982102437047 0.01027162224432144
0.08493224173322872 0.5837946394473041 0.17105118182363996 0.004383445573432074
0.41725977158799316 0.5805726446568685 0.31921280389536166 0.009588534772862665
0.25587848195783824 0.5845208077085395 0.3727655640869824 0.01087321830181897
0.3266093786965023 0.5834952544431173 0.31274328621668923 0.007279275266944663
0.4346492598723487 0.5863483087866668 0.29863834686586055 0.0074940911033172615
0.24059620962219777 0.5847303117869127 0.4866260873036812 0.014433486783852588
0.16656030404999642 0.5791959157732266 0.39276507282987566 0.011278258980518398
0.2694691294867957 0.5793940491543617 0.28960722308279924 0.011697756117053065
0.25842058537984564 0.5814609509125129 0.30576400890861727 0.004340902632717219
0.229166602043469 0.5894527141778891 0.4758939081035301 0.005817223725724021
0.24743345754478255 0.5803775627920584 0.18440908672763356 0.0102207957190095
0.2270242330515119 0.579770115929805 0.4161176500132475 0.0054228988006469565
0.28391790836545927 0.5891389429278996 0.15976914189908248 0.005278760939148868
0.36286916256094 0.583615748627766 0.35434600976957764 0.007686412853931115
0.42348053654806295 0.578934625283521 0.3402125338337993 0.010572172705781016
0.2400453804455393 0.5819857752648769 0.39090593749367675 0.011914425551476971
0.21082767730454674 0.5815644080232357 0.2905355223367078 0.0021388924866199716
0.261434863758609 0.5760709456544397 0.25802700277292073 0.01825114131983239
0.21195839541935735 0.5823702833886484 0.2241568080895476 0.008125029973402588
0.21352290792001002 0.5874991348744141 0.44617969479456077 0.011340521074694783
0.3724748299157035 0.5845299395065071 0.4246711686240378 0.01719080959200823
0.3772743186200721 0.5771826315266531 0.25006726585889216 0.020777232898859178
0.40807961894007355 0.5825758117226675 0.19404521819724754 0.004482031758743427
0.37731982136653675 0.5836241750185367 0.38316288287173084 0.0054856178136765705
0.2294165045574162 0.5802847311009747 0.18186570242853312 0.015717029465802532
0.30640089972787043 0.5797588419866905 0.4095432787157189 0.0071803947914987325
0.38431908735031256 0.5768561810838433 0.4132119140838066 0.008550812924407663
0.4430798491842861 0.5852656246186955 0.28484231041909824 0.009754490080280141
0.4317318467262307 0.5803618000565539 0.17155707989417746 0.0043796482433548995
0.2818977851872303 0.5806373708612242 0.5775198866246324 0.010597003730809662
0.4779910912145657 0.5816862819706126 0.17371570168450493 0.016608275289259823
0.22972297006895925 0.5834236301928538 0.3424780881730576 0.010264717553748658
0.20813012354417204 0.5831846099006525 0.4737057438758507 0.006834602627927345
