x y z curv
0.5974528069486033 0.5043184681401973 0.4248695596322839 0.012172096027458267
0.6027434861711957 0.5350977939686901 0.5694309980136865 0.051014892447704685
0.5946970322147818 0.47076395102914337 0.4651714628465489 0.009322070852030212
0.5925312260837751 0.3859899086810508 0.16953778660159055 0.001880476034888591
0.5976634570887529 0.5278293082741502 0.3877830563998322 0.0075913535667817755
0.597557467042083 0.4432134438650146 0.2723345849995933 0.009527129244436263
0.5967642365328266 0.2892637229526806 0.14719002640178905 0.015911365315463763
0.5948648378720327 0.5046310122370892 0.4955820391934207 0.007569514926443549
0.5990842819242833 0.3438508727855898 0.15793001833172027 0.003862468652425652
0.5995470741449369 0.5454316441196025 0.2216187675990903 0.019818352032463647
0.5980698763666551 0.24788343695922582 0.2481773773970065 0.007070681923460533
0.6115987102608765 0.46678219340445964 0.12404154783881191 0.0012358061761327326
0.6051667807882998 0.46868828425472026 0.6555463263564795 0.009894107272481165
0.599724495634135 0.5534895752662903 0.4824946705337876 0.056708611138546604
0.6021575789576974 0.22174046493291305 0.03732811082007623 0.016165142311797102
0.6027264863248333 0.4007308325936061 0.48802985107083474 0.0027641282614813624
0.6064814154965125 0.4464524405505767 0.1046972671432973 0.003266297361229913
0.6005333296969647 0.37462257535348603 0.13725727558775278 0.01082920979539144
0.602042650511421 0.523153711940151 0.588986583821852 0.01139929488482007
0.597288661237589 0.23354857600201442 0.2924775908148675 0.014072111103229035
0.6009661644136499 0.22652141801905679 0.21857666672959555 0.014444538298741852
0.5973912045543294 0.26348885213371176 0.29690794665349646 0.008380513589679773
0.6088629282506591 0.3412935712997943 0.3734434637934039 0.007078305051879306
0.5976994797406807 0.40748739887047825 0.4737804856635208 0.008628476770696914
0.5969073363750711 0.25239332059359715 0.11418259867204214 0.017422416644644948
0.6039515570000511 0.3167769888305611 0.12214914457708537 0.0017912144922120783
0.5961185903414192 0.17668168813365254 0.1574057952941414 0.006125312670515372
0.6029905880145323 0.44882040825307373 0.4924033246834743 0.007936365272933338
0.6046762946494654 0.09339730921341376 0.03739120787149159 0.006548341588989669
0.5962522349187231 0.5010211284135028 0.44177106605779604 0.010316910293290262
0.6050947040735151 0.3302472251629753 0.4145643552824263 0.008613098747273569
0.6024262917776588 0.1889229761971535 0.1838276291842365 0.005868033182279763
0.605081644142948 0.4948964744132536 0.04537239321375584 0.019255809580844902
0.6028941846348225 0.5022567221920788 0.17713919574318265 0.003591264266228517
0.5980291123205493 0.44342131090223186 0.17396375431949804 0.015467323237166288
0.5979754671340882 0.4561220753399507 0.2555321791580537 0.007864901790115768
0.5991206756079535 0.4084324572905077 0.3433824441152536 0.006826871319968524
0.5993396526128094 0.21956697277724813 0.1558040824335493 0.008230952049230205
0.5985330899809732 0.4119376409334079 0.23307835076329328 0.007453270546024468
0.602081037942486 0.5426187432089804 0.25684485333576473 0.009312584856005028
0.6018282786344803 0.2971960737596359 0.38901590347581533 0.008373844872158552
0.6033327601897802 0.4107846169640415 0.13773115762182475 0.011730044843479098
0.6007554699201921 0.48539207021559033 0.21814435324724077 0.0037439478666629316
0.5933085516373737 0.5173915702152116 0.6641805083446947 0.007249815677386545
0.5973755589096481 0.4414551173177218 0.5132809427797094 0.016040925402929493
0.6018550927317966 0.48296093629088155 0.09927258834209857 0.006429278206238477
0.6021381923829724 0.16846698967538137 0.08828189229226134 0.003649003244877408
0.6006541065999796 0.22029410642603864 0.11806066195110584 0.007829010610928127
0.5997772343930331 0.46514226410248694 0.32966784122019155 0.006522498199802447
0.5988885506766486 0.3187309089082275 0.30370300791613314 0.004311866448768477
0.5978949077783503 0.5310650633359899 0.696539853030028 0.017033718495223327
0.5986758323549999 0.5066281398403972 0.4013162524885502 0.008427058497380256
0.597602271132341 0.4169055080369165 0.4966945212919075 0.00889874902255874
0.6066512703751124 0.41516738299855455 0.4060148503979559 0.010590219853791267
0.6019500566779055 0.41586898010112494 0.3637202875111707 0.007720128963849864
0.6019130692469976 0.4860097186421224 0.5400961549728555 0.009073099466692557
0.5974548094653784 0.48511366515351534 0.6327104975556578 0.021390973017317873
0.5980088545428762 0.4988630391409307 0.7140091003201702 0.004989866003693759
0.6012067078519909 0.30013571047017834 0.20290646457175274 0.012872458223783497
0.6014332869527571 0.5478027577927506 0.4181869857251394 0.015446262421764136
0.5946717447824375 0.5329298272570503 0.06452134745098244 0.04990582931926499
0.606618365787012 0.4442085479267758 0.40340081280874046 0.008985695656416118
0.5919682108381276 0.20728697930540949 0.06232131789429694 0.004353545801976171
0.6018591843716736 0.4988105455620736 0.6906472325639937 0.010400560237408811
0.606683997763482 0.4313908738777319 0.3908803503388456 0.009553822446335567
0.5997772029634918 0.19761680640244242 0.17561124897290686 0.007356845633168447
0.598170249999299 0.3917327530273749 0.3550404805175932 0.01150322887989253
0.5944595494878793 0.4182328813644287 0.46163979134166727 0.006771116846548232
0.6050792461141862 0.10545403510430394 0.06163233422920141 0.0077797852704334
0.6003249023712324 0.40281748567496667 0.12986181016243536 0.010570848918488248
0.6005194844850718 0.13614883627532862 0.02633479788834739 0.0066534971778872435
0.5959360379566166 0.39381803142046556 0.24373012729006005 0.0066645017002728724
0.5980591211737992 0.2855159224919368 0.15773691627815456 0.017004049614409388
0.5943382435553135 0.2765489996650643 0.031141750504347525 0.005649728922305375
0.5984354283058345 0.465896389460323 0.5954966954751565 0.0038968256040979037
0.6049738846181164 0.19663654616073073 0.22142719314671527 0.005270441262693039
0.6033934614051094 0.4202984836892473 0.5899624200848514 0.008713439894051479
0.5999343601658507 0.5460225556638844 0.11552934328377208 0.02271234714123643
0.6025320250112249 0.2091827134316215 0.1505215521725663 0.005674608344119586
0.603573947882975 0.4541941837290644 0.5184948165452509 0.01579692104609882
0.5966850960106124 0.5054877455755813 0.6399728626813882 0.010599466552553581
0.5997731466908598 0.5014212719042023 0.6661168738046613 0.010767603338944765
0.5983669226390183 0.1333099979293823 0.05186502200029784 0.00425143283448222
0.5983435210990893 0.38181015737638413 0.5160329341667347 0.004570395173908441
0.5979146878672533 0.5430700605728679 0.685166657124948 0.01376724766137181
0.5976460378474874 0.41827161519114947 0.5705280131644526 0.011654481020355732
0.5975412560626528 0.49741485840416727 0.6075202699212842 0.006772201499616183
0.5997301504174156 0.2903018925909956 0.3827205249717262 0.0022275096403235033
0.596982826656488 0.4085669534042011 0.38236916892919925 0.0036343134696412934
0.5972582125746486 0.31216216417029885 0.3864621224099597 0.015906516728322075
0.5995609839167987 0.44471147096650476 0.3367172330351737 0.0082709165018815
0.5937419661217348 0.5519616999177938 0.14826738537279197 0.0354716247923347
0.5974474124297504 0.4940875606885804 0.39913475271102106 0.009025889334991934
0.6027566159621129 0.3980069643788604 0.0501666247455728 0.010115509993664621
0.5938097780373419 0.5349487922602012 0.4402385909506197 0.027751439335131235
0.6097421475714023 0.5305831274992608 0.5455657457340198 0.03252867651223392
0.5982086536708219 0.30892900070988644 0.30198532983221776 0.004779822514307867
0.6021306369942218 0.19874921324663578 0.20628576525023906 0.006588499564995731
0.595503167622572 0.3142602779966861 0.35667868915196116 0.012630848061529398
0.5969583156029223 0.5361188278358328 0.1913799742081431 0.007873235747517275
0.5961802625123402 0.32889412765762666 0.26631501133369395 0.012919033318768982
0.5945937848343832 0.5565545045803462 0.08846844504766081 0.03000070421531266
0.5962563580552968 0.4734183931532363 0.3854955592316486 0.01446851370383334
0.5950789752099462 0.3847878037892068 0.01575487274103631 0.011326416940116893
0.5952433666141322 0.43310129031036176 0.25785716389553254 0.0033284891750359905
0.5946684729227849 0.5028317246581314 0.14348499055185723 0.0029745640306626684
0.5986819893612235 0.3066492102325413 0.1487199185848163 0.011515143867958409
0.6012646820036007 0.5402396862461359 0.505294423932621 0.010105052754494578
0.6053580229281775 0.4774224973282808 0.5673122928555546 0.012204714946164687
0.5972891572640449 0.4382775903034593 0.46119304389315274 0.018383773539846503
0.10004503695480917 0.5299748890167578 0.7050741585993159 0.011790669241068464
0.5625059698279038 0.5696555284399105 0.6658723484140366 0.031933605614100344
0.5728392597106996 0.570784036651049 0.6179874701893375 0.007328955393398236
0.5810738011022171 0.561485615133452 0.29126446693385255 0.0004179732661332794
0.5626460734653677 0.5753545733272523 0.7273458616122088 0.015015139483734698
0.5643435874856667 0.5678622060117283 0.6002065826518026 0.006342294362820673
0.5581666280534524 0.58046770726655 0.7575635668714686 0.02330585461520572
0.5689552204824653 0.5707206152431169 0.7714960378898159 0.013718628930950535
0.571690387478074 0.5670162879914928 0.7606192827992654 0.012796654787781053
0.5738475368770337 0.5678168590170001 0.171793637018601 0.005353884486789578
0.5680901870124162 0.5800027312842477 0.49849743738703184 0.006861723344627801
0.5621918900260209 0.5882086759258824 0.3141895390543652 0.048006270151800146
0.5582072879853147 0.577058827194142 0.42088935711983055 0.04013654021354593
0.5544789601379061 0.5785952075224958 0.5177807965091517 0.004142999739694466
0.5718834936456912 0.570972491977126 0.3544028573911405 0.015244166795369241
0.5572761198508375 0.5743132502217148 0.3622050482349348 0.019021818888390933
0.570755626550247 0.5691913067014586 0.4619063415799946 0.010438391908568278
0.5563201172511418 0.5780145550098876 0.34446720614866666 0.029794579220807565
0.5543619041778224 0.5818988451628815 0.404368005715725 0.0244670329858441
0.5540434135920116 0.5778912145953669 0.5757759761560943 0.03705348382822416
0.5522671720464497 0.582222772437615 0.6974118642290744 0.01451103662581022
0.5569962647466835 0.5850140486983241 0.5464970242336423 0.015114383002989408
0.5647374323794572 0.574167878153272 0.6905925407852402 0.01504670289779525
0.5690812573804649 0.5770963015724246 0.32777485303634313 0.023936573702545438
0.5646561043039707 0.569255923766037 0.43304339054992713 0.028454240425017357
0.5548521475912663 0.586711657820016 0.6466195454110132 0.02295320021132274
0.46858382419057454 0.567122550423827 0.049450598876927876 0.006791324615489367
0.3434606100483455 0.579477311484577 0.06544317131160111 0.0027820778207071897
0.25593279082519466 0.5836573983532374 0.06941160654005238 0.0020547842166911572
0.2971706162984248 0.5869361316096556 0.07189001105900299 4.675345522116081e-13
0.4175942640418671 0.5780236532926435 0.06725069853854995 0.00956875515139634
0.06100846718232355 0.5777102324661161 0.33616966017988337 0.0010603758688547478
0.06584695803778094 0.5698594478317003 0.5278219471359785 0.01397086020714248
0.0773024988884611 0.5845609754952673 0.38365681834266707 0.022969887781009366
0.0655640166868551 0.5721716842341861 0.38520098265879693 0.028348897050112294
0.0775645882908745 0.577350146944108 0.5412643612720738 0.044069366509246054
0.07026785878913402 0.5807450405150394 0.42199169632124467 0.019611323976384244
0.06268602739843161 0.5796813860677731 0.2833050777783767 0.013720416591865937
0.06960988039052636 0.5833464057332197 0.3685491092889996 0.017108931768017123
0.0678555774747899 0.5834660439469239 0.4518017855482077 0.007102841394998129
0.0600353486198934 0.5682484316687108 0.38253960838185563 0.012185243869672771
0.17873259169920466 0.5643588104196315 0.6474580057306053 0.02754909363138271
0.17708096217572658 0.5769962627169107 0.638046919895658 0.02891807308519555
0.1953518640613284 0.5664265079104168 0.6497848601826104 0.01803377020239103
0.2081678486059115 0.570081536168556 0.6431666597840924 0.02149881775721347
0.21824317888427702 0.5521166720143176 0.6569257115622669 0.006413807426605234
0.24699394435883304 0.5791736613583894 0.7030935602008305 0.02659851927254724
0.3841030955173641 0.5883939079621733 0.8007324308149273 0.01610989712861753
0.2975016404966721 0.5775056206272086 0.7946358276126466 0.012189951153007177
0.42436463095966637 0.5797993748168173 0.8058113207402543 0.004941379852297761
0.3333700365150045 0.5801097145048464 0.5108742115769261 0.0044640347235759045
0.37966868947559085 0.5824588393310026 0.45498033972627244 0.005415580504635356
0.35044060684207173 0.5843184340288752 0.47905622570931095 0.0033807560579771612
0.4157830494907734 0.576587465217944 0.39116603478223694 0.013283217445694587
0.36319539150422353 0.5812796245853741 0.4580214492325088 0.004552497419860737
0.3313226023406967 0.5811574605477386 0.5239656695346796 0.005241829878658752
0.24873751596919294 0.5802338427887562 0.6466098169723091 0.04170777260318671
0.30965177850858955 0.5786677995230952 0.5497924687043748 0.003568817297024597
0.4449450838949823 0.5856662479772218 0.09560587439657198 0.0056584008680791095
0.4322304736492704 0.5855542932169879 0.08460552863226609 0.010755870302808045
0.24093348253679167 0.5783249664970822 0.07035924624320496 0.0009985432677263241
0.4298095855916115 0.5848125456942066 0.1207709177623001 0.006784115774526488
0.475832706043964 0.5758045456725233 0.07987873341096455 0.017257906086487647
0.42320703388373704 0.5828116986250658 0.10100206084686894 0.009727389566901019
0.3756388300058637 0.5863799077098086 0.09616208741287106 0.007578797256193871
0.4398989526102005 0.5862615999115837 0.08990287337851342 0.010134091179199235
0.40761221975658407 0.5741640504653178 0.06622153719449063 0.006916567986956256
0.30203220876548964 0.584204488743703 0.09512770448132368 0.020855203131405566
0.4055603287904609 0.5843448076374083 0.1020447529663719 0.011637644577830949
0.4052280440860815 0.5780930981695771 0.0738552339538405 0.012439815960816336
0.49727423619657074 0.5794335986926734 0.14083447151798867 0.010765967829282646
0.34846906160313396 0.5819029696561991 0.094829330761316 0.008575197856488933
0.43512917050357874 0.5845421633261132 0.07343005733651568 0.006624953996495836
0.4514651986007122 0.5810149357255485 0.07436573807492448 0.01026330708163737
0.3621591442475542 0.5860590655028779 0.07428378049382094 0.011065799848668218
0.31707915789656077 0.576584379672976 0.08816941412353149 0.011986821031655702
0.20473048508260594 0.5816073656231119 0.06574613643476458 0.0023472338291068724
0.31537168743635186 0.5782793713634269 0.07883338416772029 0.017292710816941524
0.3848890390985479 0.5828973867292713 0.11496824987528534 0.006700921808267374
0.22123810373637007 0.5802721878256506 0.0681473552649854 0.004552820181066107
0.4597511564866648 0.5809688791777221 0.10503468820632969 0.012372913368461249
0.5040021258656503 0.5832196352432633 0.11519231454223185 0.00037330806453127544
0.3817708831860242 0.5824187061562994 0.11118953407933999 0.011551577150354524
0.4746672011736525 0.5852525300807945 0.13710763803556245 0.007398918731777501
0.33568421346556004 0.5760513927303965 0.1076022320626038 0.007437023829459061
0.45121185237379513 0.5778542311709574 0.1299026922663648 0.0047710588298925105
0.3486055501106479 0.5857838762822845 0.08239745594228239 0.003912117658824414
0.299710310953615 0.5815052209909636 0.17982036639281443 0.023782555603025196
0.16088743627222116 0.5805380929030106 0.2768622100812753 0.0053464437881910075
0.20031359854783612 0.5904957731929246 0.2871578413137929 0.005410006599525196
0.25478650678484493 0.5856006135499515 0.5806719965516797 0.011517484925267255
0.15149071646858084 0.5795121944767937 0.3147159520942134 0.007578503934766012
0.17796379992239694 0.5854332826642693 0.3014783950902727 0.009074709665998961
0.2349380071029463 0.5796769893468897 0.199967330464416 0.007614804874062372
0.33870680647120943 0.5806198000960923 0.16022065053039822 0.006078302569259431
0.2987947515795352 0.5782654232737576 0.47599444614883507 0.008387881034229988
0.45855363397126503 0.586832993173584 0.2895301247221234 0.011335193717624273
0.4036642189756393 0.5795650546549316 0.3557874637177727 0.012691921078960682
0.16516682587339448 0.5896230826359767 0.3419836644743668 0.007150271919255212
0.370282888186895 0.5850137983866773 0.3077365525829952 0.008425434075210389
0.37638044391271186 0.5808180016420771 0.21462262780083768 0.00324983307929726
0.4906076912777077 0.5813333330526814 0.22319312513880984 0.011251960312990281
0.34115324692499116 0.5869614090363519 0.34504338096005177 0.004578196498187866
0.33820213205370475 0.5811943924584966 0.4461990904991512 0.007212106556339914
0.32772624670387035 0.5797569010668273 0.2451781987496675 0.01171094124281746
0.21747744931552979 0.5802398916750158 0.25233302549609493 0.008597730478522442
0.11222617173497307 0.5891809695215708 0.2274595384995043 0.007491156140092192
0.15491380046226744 0.5814156740856296 0.1784473728817823 0.012723452911732238
0.23461911982208655 0.5821110003192433 0.6261772608013646 0.011657110887179606
0.32477543073598486 0.579324701501998 0.412889642188187 0.005127894960237151
0.24285468715455596 0.5799145868531308 0.4690386814360903 0.006587803267394573
0.2717152977458758 0.5768922406729056 0.29564936760187865 0.004437310284132359
0.28439408023060725 0.5881234146800626 0.38949297362344676 0.011837858331746184
0.30575193717373556 0.5913741025676068 0.2145256766420803 0.012034299843052619
0.4283504266475097 0.5846983156616581 0.26923056072183404 0.007268378548685474
0.3144821138588424 0.5908461135695064 0.2181756920689274 0.02013563130362203
0.3727833695624954 0.5795662216560137 0.2724063833440735 0.0073928078386154665
0.32843090930563756 0.5785827280863073 0.41406377882560635 0.004873839744811113
0.2419653690160513 0.5791786746593115 0.5150961908838491 0.012410125825546719
0.33581079333581015 0.5790375842350046 0.4273488873825237 0.008964914971016284
0.39217746487990857 0.5855529646394196 0.3011943574361118 0.014516506848754235
0.5041374733710972 0.5787458100843198 0.16200027400835978 0.013479157635583374
0.24239937306966938 0.5786382982815522 0.4835153659820606 0.00698330408977066
0.30176728593608326 0.5787522908275758 0.24322868508066986 0.01866991964732208
0.186291005430718 0.5824569107998563 0.21516394204903785 0.009456909931834397
0.30821267258117824 0.5800919424125508 0.3846000455800314 0.004239717031535832
0.49008441220899585 0.5866005424021823 0.16817060189925037 0.00559728000607379
0.17379172128655587 0.588510745567338 0.22079637140891434 0.003978210549201843
0.1884511187190588 0.5842407304923667 0.3914167779946045 0.021758108493256566
0.16474594415151037 0.5817785024347075 0.2976180751944096 0.008130422389142716
0.34513004165402134 0.5855022441971173 0.2622941131805623 0.0069961845350310975
0.35948297301245297 0.5791338979653203 0.1944997519749421 0.00744663655629269
0.27616017198840326 0.5911625649407594 0.37255205771541766 0.00573771745439906
0.48859501792155313 0.5810749699137525 0.2487197788536192 0.015249915589090442
0.2231993666873319 0.5804033818982132 0.5957388873314261 0.015617855392064306
0.2593600314630391 0.5816253354296214 0.2680089348172443 0.008089310268983898
0.29472183257409007 0.5780415954724106 0.4932563371163055 0.003708302228903613
0.144023983490818 0.5761525495617038 0.20654268309913842 0.013068009702418166
0.3313739097300476 0.5811703401167138 0.18235067837487487 0.0023006294423517843
0.35604323777939706 0.5870274923861611 0.2991697394557208 0.007306383143972709
0.4497094819840578 0.578145937667652 0.25029470611926313 0.016033985116424697
0.25740115094115834 0.5877067416722545 0.18803123475504915 0.010323101251439017
0.27681268651304486 0.5814291937609137 0.473379812098801 0.007711262003653458
0.20538989418374715 0.5841568754533047 0.4678905447638929 0.00427212586749223
0.2758159734557472 0.5779712973869875 0.20367471573886275 0.02777656474285653
0.17363856790081988 0.5794743083530456 0.41537587710457496 0.00913190690404751
0.27346675070180293 0.5907335358271765 0.17074325924612016 0.00901715289294115
0.48006869775972794 0.5874199121327435 0.2318519976281726 0.01065631563608827
0.3169271577059578 0.5851538322048428 0.44367503860841084 0.0030642352816116426
0.20704993726335463 0.5931291310601426 0.40502919857255604 0.005776824062530737
0.3447129441560432 0.5817653300603163 0.33096110033892495 0.01354314517955147
0.18471767625536975 0.5839946464614528 0.3686612072493971 0.005739183998916042
0.18156247303734724 0.5828997090770965 0.19223674436405355 0.00789245762321469
0.15251292455408275 0.5794652199619451 0.24652906237844868 0.008034282233253628
0.39773177317577435 0.5768351674578016 0.3978855040475892 0.013669881424174827
0.21036513215074434 0.5857802712275262 0.30331329926604694 0.008895149547162608
0.32391834992778556 0.5774588558355586 0.31237625039810557 0.009789121060407299
0.25772994308458225 0.580693460451195 0.21515469085168348 0.011203313539196404
0.21484544220668741 0.5846413866042002 0.5585044439625758 0.013877275155870391
0.4755656706215374 0.5788759207472313 0.2599968932883364 0.008883923937743751
0.2983409160939018 0.5794681641698705 0.5442680717098666 0.013404329971337678
0.37621648591427426 0.5857080410497328 0.3833304585168683 0.015574061699616556
0.13501294056179913 0.580980247409435 0.34039053447567313 0.009933500681364732
0.5484611892733677 0.5828232531078326 0.17958711797025786 0.01269663510658053
0.301515667194217 0.5821545746437452 0.1672252392520376 0.015207669894753592
0.42095153608259517 0.5819798104930969 0.32785342560824304 0.013265104925266221
0.38317321928102155 0.5882305725325603 0.3381960518527301 0.008276359402063496
0.38305564576351164 0.5757436426970293 0.40775103058658635 0.009948179078820313
0.38291505231584094 0.5831361028260952 0.23905753183721976 0.00693897684681591
0.2271385862728282 0.5757082890395602 0.33954444939582523 0.010910142238082574
0.3841300807627102 0.5807783807996423 0.28489557312651514 0.00623151020110072
0.405803158848273 0.5778993665505413 0.3676669048434115 0.006996578508303576
0.15593229763835395 0.5793741053414959 0.26888377692587245 0.0033185435410614484
0.2538992768104277 0.581932030089104 0.6128945938431171 0.005219700095203739
0.09303797250782131 0.5763694862806473 0.1792608997118531 0.007962362400026766
0.2915708265568706 0.5786071851898144 0.22197286913564124 0.01890062582452178
0.36050230119998655 0.5780050186477944 0.42128013828305777 0.007817413718122026
0.211339308672721 0.5841934279293379 0.31380415073403645 0.010510984969114352
0.3804898717291712 0.5859711652101365 0.36705177793736216 0.01744461919152854
0.2468447171809817 0.5812176369805144 0.2897929826437488 0.002792670465180472
0.2961725606393736 0.5810286912359325 0.42307938090785496 0.005641854869533025
0.3019525701001079 0.5829645031647137 0.2624842451797848 0.0047474075389946965
0.3610891961354197 0.5835094760497672 0.24738970550289985 0.006506831776963307
0.23574526353757547 0.5856237731013421 0.417464511301597 0.012881334279108167
0.19509495003824345 0.5805422608780362 0.1563770646980524 0.005427121122764587
0.5077344683435504 0.5789982820082021 0.1932091987411342 0.013052310153076641
0.1680914215981081 0.5850829506199103 0.39824691390147904 0.008184181213366002
0.21530631610509965 0.5803123612566419 0.521461283117029 0.013424482231294207
0.13887455253503922 0.5833363398777036 0.31294753622617844 0.009425039917622583
0.10090977770909856 0.5827003602270611 0.205666559897517 0.008558520734271845
0.24309898432702334 0.5755417904671906 0.4348126179018752 0.004348919231097746
0.5060119672326149 0.5770450167984312 0.1774083837601833 0.011702731180179156
0.4556049663160825 0.5824638190070818 0.16826211740995375 0.004232289972234743
0.3986876188652891 0.5811016438825775 0.19132573840013548 0.010080633670356482
0.15267169677140563 0.5814344622409372 0.2849241123603712 0.006082639034729129
0.123833452948343 0.5821291955333651 0.26920302974974236 0.004026650769159835
0.2595922693007746 0.5855603477027193 0.46613234073510995 0.006159879006803139
0.2294579287995324 0.5884214618485337 0.22890823306829858 0.008362232797365303
0.19669201423037116 0.5821954891173322 0.4392820523449445 0.01621681110445809
0.30200335863454303 0.5801511309144693 0.5331466463293196 0.002230760678048199
0.4256738118592792 0.5776445191171695 0.3733463280710639 0.005499133375227465
0.2346993688474496 0.5834367843863671 0.39897718991316033 0.013134789437055388
0.33061192313501114 0.5850980500892601 0.30138524665111477 0.00727579771194755
0.2803520340929551 0.5751609413914692 0.2148777704274763 0.019475888303156594
0.28792707215425933 0.5793490495800688 0.2871801835302876 0.002938500763500018
0.27029028294549956 0.5811540503523948 0.4950168903285254 0.005618169809551955
0.35770979630762334 0.5804807244106625 0.2569158691995234 0.007670053310052271
0.15806727414697622 0.5861894284571295 0.17341057634558635 0.009484100320979703
0.17930564716415803 0.5817324768561349 0.15361959620711874 0.004790160368428555
0.3295442825553296 0.5820768905549537 0.49131750154377235 0.0036156488231387867
0.33085073547433935 0.57895972755021 0.37657936892049826 0.0054021925481465925
0.46220377243939575 0.5843585826734674 0.2289118113655543 0.00561077599612135
0.18772952979264043 0.5835984303845014 0.23530930725027993 0.006858266421772585
0.23725902035315746 0.5831473072704454 0.38493578876707263 0.012412879000506631
0.21783932191817396 0.5801107152010884 0.4218889480900981 0.016631472788070437
0.3543976257353285 0.5804211320481434 0.18611613368882146 0.01016856268061977
0.11779388933901447 0.586135411895852 0.2522612997168242 0.003906256684506787
0.2242797534205451 0.5838592367845308 0.530957848557294 0.018327238637031572
0.24770580543112228 0.5821646751434413 0.2827135866809656 0.004416889293264446
0.2301098450347691 0.5820103713494671 0.1703396180289712 0.006202449180071447
0.400391946534022 0.5809178110393398 0.19825559760559844 0.009866232803633086
0.4646397572937301 0.5887547597492012 0.20601131519597962 0.004027049284429708
0.4322408719773885 0.5784752604916416 0.2357430816889891 0.010001070072908248
0.49666315290676105 0.5823879926516411 0.24000511591174478 0.010391981565404265
0.4230763899231275 0.5883302119785059 0.20713594426387233 0.008177275753691713
0.3129696295973041 0.5788042190773718 0.3632590408654208 0.018776599730872656
0.27029146598179493 0.5845266557977338 0.40736087176759667 0.010652022535488031
0.5045166119224437 0.5777709205034034 0.21272764978705505 0.008399524186020428
0.22953150137290193 0.5810437558450342 0.43679897320163935 0.005653735464422919
0.28766862731923787 0.5801752126726362 0.3264733783325701 0.005259767630099241
0.24170319029580403 0.5821623190621182 0.5964517874286915 0.01379013001055412
0.232719773711191 0.5789576655911842 0.3253573927177456 0.011893755005678852
0.2615940186041534 0.59308513283107 0.5445175882002435 0.004747807467255337
0.22527808131240473 0.5800962417655727 0.4700469642624386 0.006538248027456751
0.15623287409345107 0.5796626031056374 0.40368403001696046 0.007582705921032374
0.21541744420913803 0.5820840114124065 0.2600176827637427 0.01556904456718574
0.2703859151752995 0.5848926506099901 0.5645046240187759 0.007328127889258379
0.3278085863267915 0.5768353202567201 0.46078462108480206 0.0054387584067374616
0.22199571371447757 0.5838040799022168 0.23107429225038817 0.008533678024451197
0.30194325047133785 0.574457845475047 0.33757254548509125 0.0020947886539388985
0.3658933121203913 0.5784488550677241 0.3470222575048562 0.011865512442470545
0.42930485725170026 0.5793316400614951 0.3515309358539475 0.01058860103708168
0.2907324390803211 0.5797847719971561 0.3014585522965445 0.007532870582058722
0.2918367251638523 0.5815002864935651 0.5221078286069993 0.010285868360939653
0.3894838042308795 0.5820562236750075 0.2057789364569627 0.009335464294270596
0.11735513451183899 0.5841088537214972 0.1745751456721002 0.015342312127337476
0.30742240285361194 0.5802783791022789 0.3565380942144779 0.018709984074676268
0.4027304683658202 0.5801497708564199 0.23459981236384783 0.010909827975487585
0.3683576275386097 0.5781955562625543 0.2536896509722912 0.007883104206954593
0.2329151711144469 0.5913461261789386 0.568952159525035 0.007730115732759275
0.32105531312030594 0.5835845349190507 0.23654240414350383 0.020090516563682877
0.36929561443534903 0.5792012621323154 0.329275311661989 0.008226834748723632
0.2566316028961668 0.5849733439414847 0.4819354336276402 0.006324884816415721
0.2188153376263362 0.5862282818765022 0.49726577518689 0.0052027189525273194
0.2522617864681417 0.5806952413674675 0.4977356749797052 0.011758975251137137
0.13893186584794864 0.5844692786029393 0.273999887979333 0.005611926812958605
0.22942049962453542 0.5855820460840546 0.5068226236026055 0.008998009952527353
0.35219228161467503 0.5773757429378701 0.20856041947600576 0.0012240679533253634
0.3657905779205519 0.584214324959719 0.3869010283307589 0.01744860089079247
0.41792176501432643 0.5830739424948006 0.18291412930361142 0.007212042789534751
0.12405272459954261 0.5855759406204384 0.1801589067778677 0.015396185846220562
0.1284408997897193 0.5793176945896841 0.2786146003303113 0.003887462352770836
0.2670732437694205 0.5766031330871959 0.2378072046850592 0.006160642758390179
0.1415266062202778 0.5832267116228687 0.29768249341678626 0.005789348627227857
0.2913636396178112 0.578787129002794 0.3426086025982054 0.012895006909079338
0.2500018334664528 0.5798618568127817 0.4550871273465296 0.0083428167773411
0.21157500843370647 0.584653608134671 0.20273505813229445 0.007892009548537153
0.2590710965732411 0.5792671510728327 0.3044225303060784 0.004962542003935267
0.5167822203757142 0.582026890769714 0.215201956750433 0.004705630966105234
0.2580974496207672 0.5775341774856431 0.28151412973529316 0.005229660117863199
0.2512305677107731 0.5801688212326871 0.40534815461757984 0.005921999848858865
0.28351751351952675 0.5834710833648157 0.2626413764744759 0.004589068059799522
0.14593965636353678 0.5793755654233718 0.34479581699876166 0.008418998823329086
0.22118415613801717 0.5795372285222399 0.35897075401180506 0.010535783804066425
0.26220904094738784 0.5792586284146714 0.5887754464668884 0.008835088839308372
0.348081772732927 0.5843429621169371 0.3957832772869379 0.007736069666913395
0.1770256395993145 0.5857230610449004 0.17983501610320915 0.006278747499377058
0.28751123112718846 0.5790534731338183 0.5382107018168254 0.006622547850208837
0.2292188000841755 0.5845941253559714 0.372263687033644 0.008060655299754646
0.13832693866581336 0.5832325992309079 0.224419303075374 0.018105094983639183
0.2702120770731556 0.5845719462092603 0.3340353414459957 0.01072565243953115
0.3178795217416534 0.575909854352264 0.32421037435208383 0.009618245249843643
0.1985099466694489 0.5830218734177428 0.487766433738668 0.009461156118511052
0.27580636734262076 0.5819467715187204 0.46290041984199937 0.008148633141394754
0.263452503197248 0.5779131761934667 0.2479983963990986 0.006819005641525935
0.26745471830575357 0.5827334914138418 0.4390636211024377 0.007787099978360462
0.21615317549362764 0.5805937933119795 0.5290484070773417 0.016390263050664225
0.1167234545644862 0.5859948932244683 0.21265517379791038 0.011806195773590268
0.13380852992255482 0.5788609373436882 0.1839079461260989 0.011077720014197115
0.2288939680360822 0.582332284885801 0.27372151799336636 0.010519552964443282
0.3569461058631813 0.5824000068536178 0.1670210556831512 0.010611690974476052
0.24486551155390812 0.5799482541721941 0.5099560804814679 0.009451016894425108
0.3959229672665398 0.586947670190376 0.1692343421389591 0.008890910970465174
0.27958039884838437 0.5795161366197935 0.4476285752150763 0.011412474560024432
0.19923122018180953 0.5800501840718418 0.36725219598511144 0.011498545822891814
0.2853441164011977 0.5811407211134725 0.20472317044964697 0.03119309627693905
0.380001658813944 0.5884173330023499 0.39340682159008666 0.007947008738023517
0.24179507814695378 0.5801650408094116 0.3307180353970063 0.013658017842686734
0.24585437258999074 0.5800489899405531 0.303082192338088 0.0065493812732747
0.4284941948829591 0.5871347078486523 0.2140532601792755 0.005655603666215332
0.1792694571601173 0.5875863627038098 0.39416956806355463 0.015816969698044886
0.27015996890695815 0.5828448930952267 0.5785006439954783 0.006737354019936505
0.2556929638667002 0.5803401459062195 0.45558708415083843 0.009656556065509867
0.17686625719780458 0.5849809637948552 0.2783549752794208 0.009701573643257362
0.3452433831762223 0.5831734034875737 0.3595122181912128 0.006446263094614233
0.30802987263972015 0.5822701927633158 0.48233293106853364 0.005633636595530519
0.1891849234301788 0.5798254211704852 0.40567484487608435 0.018487230238166938
0.3216379259106821 0.5766335055580458 0.34280309220853983 0.009843088780999201
0.16051433724238762 0.5806836696887069 0.23865296643155165 0.009516961377228324
0.31168532792471604 0.5781872459124425 0.5001092227931592 0.004296759857419691
0.2931783750025863 0.5813799818832048 0.3791031493611135 0.011840395821242454
0.1470937861115433 0.5785889394067502 0.23218213869077242 0.016055026946425098
0.20541989948019282 0.5776399065389759 0.5178260091134004 0.006670894959463813
0.26411228823751115 0.5811944387213701 0.392037621382091 0.011351873721448247
0.3747848780893261 0.5894996040904396 0.1732847678700403 0.004463596857582941
0.21077052600356677 0.5776326242942493 0.177126098290981 0.0039006055318602266
0.26171113787739303 0.5780696802751113 0.3414725060355556 0.011429566867548608
0.23469160782659404 0.5859725104909648 0.2677811650324805 0.010875681133642427
0.09749781697779705 0.5811992574206 0.19737321750636228 0.01030004155298619
0.19535874171552528 0.5918786663757208 0.31793324257915206 0.015145075625095565
0.10224126621451439 0.5778409050243244 0.18333410749476994 0.010632358800185858
0.2000100709169435 0.5804944347041802 0.19644655295030666 0.007437082665126989
0.2330917955943044 0.5806159746178093 0.44917412899176623 0.00888204316729947
0.14380761507011586 0.5800283964069106 0.156805811910395 0.009577377276958685
0.37473988863481317 0.578698181202653 0.44029277839198305 0.007138365904302417
0.3323666701937904 0.5797431039103429 0.42782238533088046 0.009160710059602825
0.19677901976485737 0.5826192829974238 0.2555821298321955 0.010114613839436092
0.2193009473626966 0.5763136544503789 0.34330243972719277 0.01505950239833119
0.3600397729153786 0.582562767313475 0.45040637457791616 0.0037135330141782686
0.3238347656343325 0.5801111819870014 0.5127837853729498 0.0049617700490211265
0.46578812392981767 0.57871188824044 0.2496181656574282 0.01337880841048363
0.20711768407947437 0.5827819759289681 0.216883008107346 0.012050964309596842
0.33233808488345484 0.5813897808289712 0.21119281066999465 0.007239898790459188
0.40796273234708136 0.5855117230195904 0.2944378012338809 0.011423592611208278
0.3325137858946713 0.5804272765900377 0.2729618870089798 0.0032502107743248815
0.39947799033268305 0.5869529362980997 0.27961278275620627 0.008264058195068438
0.2761636000798949 0.5842114802238849 0.502522171007322 0.0030604949984473074
0.25194354742744124 0.5777185003492694 0.327642528435756 0.008968917372314136
0.48356562040450995 0.585709455620855 0.18729127787916683 0.00659992745201532
0.2886339912797232 0.5817893061992322 0.1774042505137426 0.022827566949753783
0.3360037030313161 0.5780848648311934 0.45371757856982897 0.008626967521352467
0.15215558473529395 0.5853351858257678 0.36778497464087495 0.014042867677863348
0.42769792660113937 0.59300654697564 0.29423476471506765 0.00273861652093578
0.3015596091079474 0.5837927648500004 0.27659320925494885 0.005430787702560899
0.37882846723382063 0.5852604464019018 0.3464765459304676 0.0130382966168194
0.21105846147323076 0.5781712838883107 0.24210713452334082 0.003593270483598189
0.2144032115982465 0.5827344178131031 0.44690858967341546 0.0061288308601315355
0.2188890788664865 0.5802159244852775 0.5714540141416072 0.020235614031388086
0.3119915085828076 0.5814951424106298 0.38349281621203224 0.012826848172855274
0.28633122048449466 0.581433235334615 0.5255480616263055 0.009264822654573384
0.19167607523530047 0.5868464830646458 0.3565398392124461 0.007563927412891322
0.32061734476771964 0.5837333904430971 0.179670801265593 0.009761434654170396
0.26275045007244224 0.5860330057964114 0.38131588264629507 0.011002224550079131
0.2164968288178442 0.5802095461742168 0.16500129300424232 0.005721707630839209
0.4539362705639376 0.5857560582784238 0.2759539290688174 0.001509748216677562
0.2389564736728456 0.5852009750702296 0.36351941312703884 0.007584277535296047
0.2949791049481628 0.5765978306522545 0.45839369474564007 0.006572807584256267
0.40500694677320026 0.5868866491483663 0.2548295483358278 0.005782739754955579
0.16427293591818243 0.5793693668043898 0.19673157245348702 0.012372422445665724
0.10298102249681242 0.5832307056223951 0.24035915166751198 0.009097078829920426
0.23607148841898762 0.585847854971659 0.2428949761011706 0.011188646800202815
0.3099181225069893 0.5810993805554749 0.2711584672827914 0.005031727041697677
0.2388531487297478 0.5822967635968355 0.3133278860522229 0.009476673456354
0.3097792447201957 0.5795219397021705 0.5200013011721936 0.003232567617594968
0.30282713308048076 0.5805749347925615 0.302205392608795 0.005927680237730637
0.46073021813728426 0.5770801672243482 0.5165613868457978 0.0214605370152121
0.36885578285095505 0.5833402535824752 0.511118234757219 0.00789954045605351
0.34331682338782776 0.5814744764673263 0.5604061315249868 0.0071012680544821835
0.4918622850118249 0.5785058130038607 0.7235152749807237 0.020048267659828846
0.4405102587023448 0.5863478630755861 0.34746957654020183 0.004141885304551237
0.3109909737530735 0.5796101191557413 0.6381454218478922 0.014366536548622041
0.5057038121781402 0.5785290504863806 0.3573106719898017 0.0060735532189421185
0.49558049591414366 0.5808025180520676 0.5134048075164285 0.01598774119238211
0.4094719007819961 0.58725114939827 0.7033870370157412 0.016321904215695675
0.4781739400821075 0.579272070114488 0.6405969741767739 0.013331275989782196
0.46289495561509025 0.5841880117298202 0.7191595467698869 0.01608622581358557
0.41404421045493667 0.5853155836648836 0.4587265364843434 0.010810650785710623
0.4277340293776327 0.5762716081144584 0.39830119953914783 0.01124558432833458
0.42719827547243033 0.5828728588021481 0.6879425618246124 0.01790843207930103
0.46005316241145067 0.5920160378725713 0.6148889560055454 0.006147278440707649
0.5413603359646332 0.5859281317567631 0.6420856788245968 0.023612872795975896
0.5139759553983643 0.5793447640600164 0.348248426878045 0.006106414488416929
0.4989033179155103 0.5768867839204163 0.6575995731030374 0.008257887763015346
0.5227159473247923 0.5777055304239765 0.5225600121585892 0.006246139940969522
0.5559672513344397 0.5833486100810165 0.2072413607081631 0.021807036933920988
0.41761469350157 0.5854306103447859 0.4294574134010054 0.002801183342211356
0.4742463801596159 0.5800868892951557 0.6425153215596593 0.0151997314430536
0.32853871103667726 0.5762436741125878 0.6106675866518855 0.013666463748543944
0.5378319287109644 0.5777746259283132 0.3842580486860011 0.005713667517002682
0.4316730955953947 0.5824878895486842 0.62951698821659 0.010288791678983042
0.4531637460709489 0.5888738484885703 0.6026010329108863 0.010730722990138459
0.29614828714320096 0.5834367506982232 0.6168648564403642 0.011917599449124787
0.49208090224399353 0.5838528537439109 0.7379465547290412 0.012251579327647965
0.39187470779497247 0.5840852633776694 0.6256828342378571 0.005288410463741401
0.3308658751771478 0.5839099707249756 0.5907509684124916 0.013243021420190073
0.3230133754164814 0.576297046168621 0.6229781261832251 0.011446480511202088
0.5414448852668975 0.5811259399436598 0.5586349503430273 0.015321404299700803
0.4169926491311592 0.5835716487089785 0.5538941350544092 0.007156228267498027
0.43232547265463794 0.5830885123008657 0.6539349949227388 0.008747463167319757
0.5416161527929362 0.5778463476602249 0.6737130103999159 0.028458685389763285
0.39772109578989245 0.5794790490264725 0.5647529102688085 0.007922370268303428
0.5325792332040891 0.5779860483312681 0.5703121838479278 0.014996645611761113
0.48445544993154943 0.5829280900918338 0.45136232234840523 0.013930430005115678
0.4282236275541189 0.5859656802055104 0.4669192833257138 0.009270456149711661
0.558747636434829 0.5792468094864321 0.6969561820202773 0.016223421694617175
0.4411615822328539 0.5811265448246121 0.7258450943592577 0.01319888021013136
0.5593115877753239 0.5810205708256474 0.6206174574340193 0.021919799109541987
0.4781597393226921 0.5834899974726823 0.6249459107299316 0.007557119898448049
0.48314290743049254 0.5847801020337008 0.35130244451803877 0.006025090940660972
0.5131785117636233 0.5794731221985133 0.3546970446279702 0.006493486752554977
0.4752922044750392 0.5855124117299856 0.48134362220922056 0.01178029648604989
0.3117065274883495 0.5811794086780651 0.6064319502643567 0.012324553700328153
0.4722610722062816 0.5804270980494984 0.5207862310551081 0.02746650698455494
0.37153151283318986 0.5865660122359965 0.5461299620998628 0.009186622057413161
0.4697672432280459 0.5840171342333633 0.7080360698419025 0.013233389672527133
0.5118606358494683 0.5887522962911573 0.7449576604064265 0.011968548051193625
0.462689938852737 0.5836071815677879 0.4781660144554219 0.015735083679851786
0.43404074983624336 0.5836659989121055 0.36152674565489035 0.005951281012455461
0.5396085668019486 0.5793251726010203 0.4603032006572638 0.019491476894546916
0.5443900369280881 0.5810810357925515 0.4187537449698807 0.018350396247423732
0.5463524433796374 0.5775376353488814 0.6859169123417418 0.015675724153013198
0.5616111155353138 0.5779460465422337 0.5586406307694375 0.03355526822607574
0.5407242913331524 0.585743079167173 0.6213973970950504 0.03515565674206286
0.4623060320608223 0.5792867788790275 0.3151164826117802 0.008245043625433731
0.4003058612433384 0.5867277531821985 0.6110763238071039 0.0026391719840903206
0.5584126318095075 0.58415908146703 0.7110418920128497 0.0070708095933337415
0.45926677513102826 0.5905207557928907 0.4303346018910996 0.028735872096553827
0.5180806078959489 0.5798798639042664 0.2996313786328764 0.02165377708057567
0.4986577921041878 0.5825743014812536 0.6339043123517475 0.0032582287487189577
0.5273122797884063 0.5796981073150583 0.29573999503800713 0.02447148644957477
0.4426286550386319 0.5779002743035214 0.32760693975727156 0.01427487841976148
0.3030968364641718 0.5830601276978342 0.655231506990323 0.007020584301944749
0.5355826855437493 0.5862242344779699 0.5955264582937901 0.017463454049461744
0.35878706855859066 0.5766364945046613 0.5281923554412238 0.006465945268360471
0.47083469147236273 0.5868399065221102 0.5018664675921044 0.012226272024423975
0.5504663216209823 0.5850212300485502 0.42924230804138497 0.02241229631166114
0.5460356268372374 0.5895040698024615 0.21380669988266435 0.0020734709618234998
0.4905524802181716 0.5812983975250452 0.5333583632797307 0.01854989469793323
0.3875321558559416 0.580205715822568 0.6701646431216387 0.012312671081599235
0.430667217453781 0.5750202988408555 0.38992953722966733 0.0054253121977729255
0.38347079968181697 0.5812392125654152 0.5701875079412243 0.009954351080482664
0.49516677661921626 0.5841892362472311 0.4671774820840515 0.0022955102497399563
0.541886891677515 0.5839348689736147 0.4466438209765053 0.0161903277636499
0.3061893925831605 0.579067942711761 0.5681424205138167 0.004910025530670678
0.49227722086983805 0.5798363541535304 0.6535560421884278 0.00833345125502371
0.41803255683460133 0.583425294363089 0.47313354424435505 0.016358939257573618
0.5449899113989253 0.5838624184667305 0.5117951475272388 0.006334197233193488
0.43290265548908 0.5785515560088431 0.4883565870349187 0.00861942919207044
0.43265469481941665 0.5831144712317572 0.5721038375353523 0.009339728660016009
0.5134709989383891 0.5773985471560984 0.5968185983483494 0.01666982203374323
0.3477454057863031 0.5878565913064544 0.628391466067653 0.00589563189915763
0.5189509195534799 0.5845096268559952 0.4958576745303759 0.00630930760143302
0.45080698740452346 0.5895565174961309 0.44432544259572926 0.007936877476423881
0.4774891117276963 0.5854490117879544 0.5100354434159479 0.02091365941781043
0.37982414886286137 0.5778384486787554 0.595471904654965 0.006890974751231586
0.4555344895020354 0.5799840153488197 0.5378818248344974 0.022849110446319685
0.5141014859422064 0.5767494778060022 0.4273571930706438 0.007164508083722672
0.4760947074446918 0.5874482751865955 0.6780130542199253 0.011176695842369792
0.3330594707432895 0.5775111326368068 0.6758998296779042 0.008618518438173224
0.3619525779930257 0.5803849804178938 0.5178185070884809 0.00810801666237597
0.5347614293923225 0.5833973080864883 0.2334452901318412 0.00920097783568291
0.34602356329257256 0.5849776716955423 0.5567929570025786 0.00699336438646808
0.4718970802927446 0.5795833477276963 0.5693555358694957 0.00789950743036949
0.4982500539369386 0.5883361878334848 0.4874641158730203 0.0033064039790772328
0.5246467450044215 0.5777856257431211 0.436831538899488 0.008355908554674342
0.44503684381021696 0.5874768161877953 0.6993724436015315 0.014800254523062923
0.3566309909925676 0.57905817948854 0.6558511338492657 0.010483854891157177
0.5373759531569047 0.584157707858062 0.7203654676759418 0.017355716914521813
0.34948708067813433 0.5862414485836782 0.6419507983084685 0.007927715863445301
0.3494185440661589 0.581568464203514 0.6004607365398991 0.012878066699606653
0.5637273648281038 0.5875646901820507 0.28643863898774974 0.08895604810025469
0.5125903706798426 0.5817979695159885 0.5195553926920065 0.006612233566052671
0.5043725115595564 0.5918171399964935 0.2887374049444278 0.0042252122552186525
0.46431788131130336 0.5849195796750939 0.6717098172436649 0.010834758961069009
0.37068762447928827 0.5814061054491321 0.6324987577991505 0.012716474598199535
0.3620868493921042 0.5865957166155147 0.5074410948873588 0.0060890992881602905
0.5439507160464991 0.5801424625061513 0.7442618531004566 0.013760915911377812
0.5575655367502366 0.5789626943682715 0.4814693184780029 0.009155372583788358
0.3115905455462951 0.580662428200889 0.5908942547334539 0.012988219409072053
0.5391000388244607 0.5812220188801175 0.5241280030970319 0.008534786037916634
0.49067820061702877 0.5852550904721104 0.33447274151279577 0.004281048250981417
0.39835434541920217 0.5862314949339643 0.4895766887451752 0.006045818432112099
0.44454123393375833 0.5785346394152471 0.37786184049722027 0.005800993772789453
0.43803086405189584 0.5821268124398935 0.4227875523877302 0.015263843231946798
0.5605981893831429 0.5804080294520529 0.5015968091256123 0.0054997551798763485
0.3909750275561514 0.5824299632231061 0.5072072012388874 0.007403336123120757
0.2858328356079705 0.5811455342600426 0.6545768825641372 0.007677234684087432
0.51902910645619 0.5921381516906019 0.7058743382935005 0.008760128795753976
0.47063077263856934 0.5835597936621172 0.3910149757097823 0.028089659611917457
0.509838797817321 0.5824234627584158 0.4486564286035835 0.005187704187772777
0.5551042548162904 0.5774875676021497 0.3811989939131698 0.00719342144297558
0.4310000033138549 0.5803530007380714 0.5869179198232897 0.007036895764111032
0.43016714264402506 0.5871757336495963 0.47233382536026647 0.007687909147601262
0.4929226623909781 0.5765164977050804 0.693800740992031 0.021333282067202784
0.5269749485100106 0.5822668508515848 0.4524473602663734 0.009125777917375863
0.5295751518588282 0.5786963262585444 0.7393170773271363 0.01480579391726586
0.4692731570991084 0.5811859793214412 0.32583510120225145 0.008996939780326764
0.3373728891320198 0.5804059983201166 0.6027079870713071 0.02288987141239355
0.5237952752075872 0.5790987797765748 0.41592185154919237 0.008856685775184036
0.5169812456213757 0.5849479764001172 0.22992624127709238 0.01172191844429961
0.38896037102953657 0.5802488499957928 0.476063802380521 0.004759284603546874
