x y z curv
0.18348585512313445 0.016381193640992758 0.17798452465797032 0.005163463326300736
0.23441604819134843 0.023242562388912407 0.17458010039930877 0.006174453573124525
0.4870441028041356 0.014780293770965982 0.2239092972901817 0.0024522325917145284
0.43579712637514023 0.02182727528057522 0.16632941766647363 0.006850001922424852
0.3049098027040443 0.017916228668214355 0.2030874792478451 0.007879361611043117
0.29219456098666896 0.0222091725393467 0.20790089050241112 0.006748739833607005
0.4145458520584135 0.02130418406039802 0.2242190238870421 0.002324601200436789
0.39933331090208024 0.02067023270771948 0.16538432160367306 0.006119974501182589
0.5696752568208001 0.016575974014650573 0.1211363364180053 0.005581155979028003
0.6005215584896636 0.018057911824062595 0.11154428034160291 0.006127775872250886
0.05408481924686892 0.022653111567974317 0.14546998963954955 0.003483746615034299
0.3135881404600093 0.01766371861227707 0.14724168395452736 0.00425501209015204
0.04238926310247847 0.022483762092330307 0.17734042312979664 0.022115524131296648
0.30544920049994145 0.02371553783236719 0.10949722116323048 0.00794003474972338
0.09490624634771884 0.016809877864455203 0.12244187801057484 0.006855484129882745
0.21007224902127133 0.020404770893988813 0.1518231253108919 0.006516052180048655
0.28327886033028754 0.02241351969328066 0.12140231064671944 0.013288052090023868
0.10060482018617277 0.021127856551725308 0.17798237532614603 0.009164096681547655
0.4535621978799722 0.022148241687773136 0.11230187611784742 5.093243227908711e-05
0.07058328277897738 0.019425854985593766 0.1846193710304347 0.003843210467356951
0.44531074639955803 0.021119454519206313 0.11475252123998224 0.0010160079622457522
0.06945502249399818 0.02263077265584297 0.11037858563089757 0.007820570328753832
0.20620275482338166 0.017579801533454058 0.16738400100824058 0.006332307021398122
0.4657224183287944 0.015569484405447831 0.12550846355101047 0.007132253084117024
0.2790033542451851 0.01953945180710924 0.15162498529086516 0.013861065404107595
0.3943370473145168 0.020218901107781906 0.14306425910608955 0.006767220030530442
0.11361293216264234 0.022944022026051416 0.18890260051936258 0.007848969242531461
0.49330025598604826 0.016238138101388203 0.11172623598268701 0.05095389299253478
0.23437779068488673 0.02118882242130828 0.1586998364365677 0.007292476187215567
0.1781266034373772 0.018207682211440993 0.16331561424045454 0.005888108189131754
0.04200168434341493 0.02114307916745778 0.10740521361537096 0.03172195408749396
0.03480974717311571 0.0171595668998194 0.129214317328091 0.021039945674757168
0.6697317722549273 0.021184577631516918 0.21950203926813075 0.015653472569331927
0.6807927855564638 0.018334080220657974 0.22832938804161593 0.0024586953561869297
0.6889584598314522 0.24136655095167664 0.13285868180657512 0.012467362594932245
0.6917711772579322 0.27396980542757576 0.17816762460427862 
0.6945822484735664 0.2317588838755299 0.12587673524796328 0.010301331425680894
0.6869438402466116 0.2143596258633409 0.1401857914697838 0.009524772211360845
0.6846118815280354 0.24928325534670798 0.1479251478294717 0.00781692340972046
0.6883286926909966 0.10834714255229937 0.15016764010123848 0.003656054114776828
0.6914420965401289 0.03354244383557058 0.15897990429433276 0.054597846524236916
0.6896173434710602 0.08661440007208789 0.16794413389248505 0.0020506142801503878
0.6869954000516072 0.09438323703435919 0.10881844037009683 0.009342304123520329
0.6930297930107923 0.04452413552088628 0.1773567605984684 0.020971488367515678
0.6907008759672119 0.08615257944505587 0.11889721859867058 0.006365369344558748
0.6905839192740603 0.14870635762839918 0.12532374506169666 0.004635215558946194
0.6891975415143023 0.043840453881249346 0.14254727205590123 0.049017616020597385
0.6864604058315459 0.17216557155277312 0.11876646785856973 0.004055946812621132
0.6890610485213978 0.08295508485081249 0.1458240278602632 0.0021082085885638225
0.6882582138845031 0.20390713591369597 0.168531929477779 0.00805065742058497
0.6927434318161511 0.14215378451985525 0.17412086450724407 0.006347298187321802
0.6931780951169285 0.39789782429210263 0.14042878448533386 0.07119259987267446
0.689025753852431 0.4124130419166433 0.12902873980015986 0.12331487121970232
0.6961406287312675 0.42023577389818134 0.17686028373998283 1.5690194800551275e-14
0.26000310182958264 0.021276668579872003 0.28252830749371993 0.018855969331473377
0.5095136956322683 0.021612348722540337 0.29010715617607385 0.0018045486628904248
0.183732879733408 0.4708542335729493 0.29068758309442383 0.024289981509385647
0.10271284841509103 0.44095593612588685 0.2932750470825878 0.06706668397481899
0.09513697519469304 0.4953221244516673 0.28807864024685587 0.006406121284989413
0.12454263033689555 0.4786217273741489 0.2853864893996617 0.00506978354930599
0.1980969878281429 0.440400533250568 0.2885945180734087 0.06909797283573477
0.05163728321444867 0.42464385146752354 0.2932656394734989 0.0016251541218768302
0.187892275515031 0.42928535463545314 0.2870037489166005 0.08499953778919496
0.3115329087571274 0.42389338208224464 0.2988060156374419 0.0017566078107051064
0.10395313896638295 0.4187934815981983 0.278732580931118 0.15483274568478647
0.5822219442632622 0.4288696256914069 0.2859502322214447 0.07040169757234124
0.2733954082774864 0.42145011672009475 0.2901423752952566 0.017909851322209687
0.09455020732824777 0.42247053490261555 0.29327672633898505 0.057755251308770975
0.4539852270460954 0.4374396009438194 0.29003196404823955 0.07330978972857388
0.49730827839538616 0.4325141297746508 0.2880431077950545 0.11553184966771189
0.4372637752286434 0.4456131962839177 0.29220403189716215 0.12159534021234765
0.46870191160574337 0.44201424197671824 0.2886924343502803 0.04136639071219102
0.4695476839344547 0.4926958280904494 0.28443665224977727 0.012233022862757684
0.7330301932191725 0.49942863926989106 0.2847575748051339 0.05449347423104667
0.5436596956667991 0.46491031491486784 0.290730059059686 0.002789312281905347
0.4010437222338159 0.5041377093734918 0.2885990459478177 0.014729202644713496
0.6275110264474445 0.44702797465128025 0.2870381016204314 0.013013017260728546
0.6223941737029 0.49503552014968666 0.28243817909042074 0.01196800438888212
0.5880120911044691 0.5038578853604976 0.2829564906233749 0.03237281697128621
0.622715883555863 0.4845241347103442 0.2887285078292456 0.01593662975870321
0.4940550778174148 0.46854754338983756 0.2865320728307584 0.0035965435253133182
0.4074891411919181 0.476473734572191 0.28941292930044293 0.030965871886682227
0.29122238913126064 0.49867269101076206 0.2766664435177188 0.08963475658047816
0.26109524043374394 0.5000356531924436 0.28805845815669656 0.04734008060701643
0.33609616424793043 0.5056172267642004 0.29209847759543317 0.006169311959737395
0.37710692869879303 0.5077266274463269 0.28026448872963 0.009734812599225916
0.3392186062711652 0.4998002589488714 0.2820590827909832 0.025821185621020048
0.08430619603100814 0.49078870262151975 0.2895955036800477 0.00698091998578511
0.11832269711545286 0.4986527546736681 0.28231133639628814 0.003513699835842155
0.0653099422206577 0.5054134580749098 0.2954692299196099 1.160149368338492e-05
0.2667978073276564 0.4836218206275418 0.29413187525586415 0.04410009938185699
-0.00049714815299333 0.2472165930764287 0.2912925504455467 0.004497420702048023
-0.005200615871620079 0.3674691200542409 0.2836315036607948 
0.01503698956170049 0.43852724899402046 0.29456337942999256 0.004819441450776236
0.00966027963251826 0.2672503760286405 0.29399885531533293 0.0060761510406537765
0.019818902181322116 0.4157305418658036 0.2954992074562527 0.002607539868823497
0.02595172673920429 0.30463266656241056 0.2936697214532272 2.0328537133716103e-14
0.022044330728714607 0.15711835379229702 0.2913156737317547 0.03163660339499858
0.01948974277623768 0.179203968754477 0.295675748415201 0.005177530852956105
0.01809724848353395 0.11472151115970403 0.2923331420205378 
-0.003747370204054059 0.042801492659985514 0.2891577479544307 6.14430416190524e-14
0.01873165082200734 0.27879153892838743 0.2902910081084542 0.02548456702022727
0.026262762708556472 0.2393602852769606 0.28093911435172064 0.03910964403515754
0.06310067203185447 -0.0014835883173837756 0.2887502166931466 0.1021885918987549
0.439316217743061 0.001083425875966711 0.27963857220383537 0.032935443597081386
0.2937373947539911 0.0009451482180950379 0.2869479952331983 0.03136620952463134
0.33530895428810487 0.0027122592426484507 0.27892336752477664 0.034601769123684845
0.23028225052771484 0.005986244008315654 0.2866614117905032 0.0037506792045659708
0.3245619852237682 0.001603598243300983 0.2874468155539936 0.038571874416042755
0.03890716953128315 0.0019759056067290576 0.28673347888755335 0.09620345775625468
0.1643505906744584 -0.006967772051239244 0.28718078846917433 0.043478106876705905
0.2327198553484036 -0.0032579909656153747 0.28376786890113326 0.008842808436474645
0.31003537822106597 -0.002038895333533597 0.2915142393299129 0.029444319104352707
0.10116185805368982 0.005969881383518274 0.28606348077741073 0.03505985460275364
0.4402428521059724 0.001156566955941962 0.2887116876018953 0.030060712111856437
0.40134019636120455 0.005663138565953782 0.2871505964971276 0.038290143283922946
0.09513054875897338 0.008404727137931722 0.2811293786285165 0.11058836409173749
0.14503753947552428 0.016154718644655192 0.2954698180904595 0.023099668202396857
0.5784964458366249 -0.0020253704791393483 0.2878687489608075 0.030613624729717327
0.5957335471368732 -0.0016210445747569158 0.2766806782611688 0.04018360488033899
0.12781429488099288 -0.010562174313934875 0.27726039737305214 0.008749888556138175
0.6914081339076523 -0.003366801870987683 0.28795062653794384 0.0019908621401189823
0.36585436173292574 0.0021552548631879375 0.2952502298168637 0.013934269730169719
0.3032411274715803 0.0037605657010106068 0.27545820468484833 0.02960779004945354
0.11792958274245297 0.031308548856031584 0.2876527966233501 0.05147881592585497
0.16926657849197482 0.023284948093907215 0.28920047071246757 0.048666877718686885
0.12333813836701625 0.01756242667913319 0.28710354110503 0.051911696797886826
0.7367587881729741 0.283162513363283 0.28827652347575283 0.022628193563531716
0.7485205277101914 0.3464020600805258 0.29273194158174404 0.015282712068379452
0.7241256966153684 0.23017303048379348 0.29060617930245697 0.011780497462548459
0.7287620945627483 0.19000500849718496 0.29307685508085995 0.01948136875260896
0.7544314133725682 0.19386685829249617 0.2794076399197339 0.009981739198487109
0.7333536515678292 0.37421587244803284 0.2860232404147403 0.018532938395889757
0.7399962776595633 0.4067854025704823 0.2837332232784315 0.019214504201646977
0.7124629591541886 0.3477053878780501 0.29076118163732684 0.0002951495861781866
0.7509617182366055 0.12094587084478876 0.2909151525969795 0.011580930032771343
0.751677002454117 0.1950845844593323 0.2890655705305714 0.013623960537331503
0.7392108873959581 0.3843953017572253 0.2871859816299808 0.019010679065868136
0.7575776138964714 0.2832639612485664 0.2887286046010074 0.026266839695245014
0.7492820282821089 0.2514456280583788 0.28390133242582577 0.017213231810816482
0.7544733560244468 0.1583037799494014 0.2873584975690897 0.02455447520507346
0.7238925661973935 0.41016660412930916 0.2961843087603276 0.0009239738199011607
0.7246611989009207 0.35622782573545375 0.28800199911276536 0.023290355995641727
0.7037669384936084 0.4007283192791861 0.2914180997348171 0.013574759143901093
0.7472091980583219 0.1699043649117036 0.2943368958423439 0.015336200934620096
0.7620721943847338 0.10578471464583025 0.28432908066722096 0.019699211316580038
0.7519332518171121 0.13505879580795238 0.29020259130185405 0.022853693679348426
0.753841829879589 0.04050312903003076 0.2846620580261299 0.01621762168227847
0.7565021802553326 0.13634439697752251 0.28628523342350587 0.03285570289229986
0.7585323090609254 0.3436575468885866 0.29092856721356447 0.019087970675622762
0.7028921477031517 0.39127604611660166 0.29117393404520275 0.003341815878791287
0.7467306661193938 0.374671793051793 0.2865195119850698 0.023567352128018797
0.7613504808553763 0.08753188005171215 0.28310599279493764 0.00495003584191554
0.7366167435560251 0.312724281720511 0.28867789287632917 0.023829112634925237
0.7513647137010935 0.022711004988126636 0.29205849269252615 0.017744915323182044
0.7250981111627598 0.11080226284455355 0.2899825808835755 0.0019674626659033113
0.7082326671867227 0.3171810465474177 0.2891271930456872 0.0010067960672764384
0.7034528983551566 0.30455341944418834 0.2852081521849491 0.002166220547686088
0.7220928671237646 0.1377434230195293 0.2904494425401166 0.014899841977695037
0.688446411268957 0.11836280509686274 0.2877551529109742 0.0009269438813810797
0.6989558168740799 0.2595080956911812 0.2959184348076716 4.449519678226755e-14
0.702530268278665 0.14566210574887511 0.29204996493319796 0.00012207823484234362
0.75227360080223 0.4942316614887818 0.2763024938362302 0.020518645710239505
0.7189062885276523 0.44422967782845946 0.2895725182006167 0.003471454819262647
0.6879847620483391 0.4269489502397146 0.2939695664308012 0.004078256228401449
0.6999801260743936 0.42100092857739113 0.29177931750021063 0.009951944449758401
0.7125614654006537 0.46434436244311106 0.29086280476061765 0.005751002683964434
0.0005186029469642628 0.15452092968596898 0.2908662680772504 0.0225627439644237
-0.005693425572293833 0.22987441143193116 0.2846662912393622 3.880348602180239e-14
0.004185592728420625 -0.002289171475329198 0.28518574880581843 0.0005748258032298643
0.35618858307094553 -0.005000575979752111 0.28581005149944533 0.039081028814684886
0.17715609432310717 0.001142841501766712 0.29536272921894985 0.04143389057898181
0.5646479198452565 -0.0015724476331404223 0.26968902446641196 0.04495828367733703
0.7190197549174434 0.005376139800773576 0.2884256800365611 0.004277673334710147
0.7086666211097427 -0.007073286506834908 0.2855858246840567 0.006358679297711532
0.46936168565051817 0.001989247236488784 0.28247632111627885 0.16436878086622705
0.6626637284750818 0.0031214277373429913 0.2855190743846981 0.004015018726639432
0.0038026754823300554 0.5044709433436747 0.29253908772893356 -5.324007691531428e-15
0.20391562182128875 0.5037223321829333 0.28530234644475033 0.03862899341838634
0.026358688605355087 0.5066272586267654 0.2849600305735182 5.326391877556094e-14
0.20312038209217648 0.4946549863584931 0.27430219019184077 0.00796561715690989
0.5292294099455919 0.4981819911461503 0.287060721167321 0.000768117817230432
0.48512884786270727 0.5064417386779491 0.2824578120846879 0.008358457679601772
0.6694482322567089 0.49504994616048786 0.29127822034376605 0.02425386843111245
0.7143043600880878 0.5002498070236744 0.27614944027920824 0.014599573944697117
0.7264010955190718 0.5030260517627378 0.2794159928400885 0.013090395017340162
0.7542256017006902 0.49364371813178626 0.28653544150022847 0.05080507177644052
0.762737718493737 0.38812943161322905 0.2821399750572046 0.024175100656696848
0.7566220200906032 0.37509587269647693 0.285995095404521 0.023423660741730204
0.7634731159764004 0.022470797945361044 0.28226123059715685 0.04759763981980072
0.7561809110816317 0.00659438818160152 0.2805847170647961 0.03300871899084139
0.45923909029635107 0.03309477021381826 0.2872864650879719 0.03065166309775971
0.7349324052819823 0.0018770090979695745 0.27818011955950067 0.005071953303997989
0.6361903370588022 0.013529647683054855 0.2867524461341835 0.004774958976408312
0.4598585320531649 -0.006154844436464142 0.2773324790162074 0.003400261281756611
0.4066476087162194 0.002959278654487389 0.27328268636512265 0.010237387195331397
0.2841290258454895 0.018994946364047985 0.28532017572650364 0.0329163638244587
0.6824664234742414 0.0027455721293930973 0.2894306769757543 0.001920033066043357
0.5257018743771031 0.009586746025497663 0.2872394323468412 0.008186195630902142
0.5377075585649802 0.022885412169021586 0.28469085419165585 0.01393815696344862
0.2446408346501212 0.02318904618942916 0.28491237454883667 0.013110897432535915
0.3943968914925967 0.031151042457094623 0.2923526546415851 0.07950011803691419
0.6228044135283447 0.01565146295087669 0.28229464532194304 0.06106930729729209
0.553942032553546 0.0008283933985435699 0.27338825504774567 0.044555709342725396
0.7134520613551492 0.015591667144199371 0.2942585653341039 0.016146500309239486
0.3465976763136793 0.03873013594270904 0.0896941105378398 0.0020659640726907224
0.1857283144165417 0.028664807612413613 0.09133953336261098 0.0020995606435953956
0.510876599473458 0.42224589281910296 0.08184796989649207 7.465830109131226e-14
0.02329388454457792 0.4178366892939258 0.10402929016501457 0.013508392190131129
0.2985097353423641 0.02293687284976645 0.1084123683161819 0.012837863148883268
0.663058556223224 0.03313254097990151 0.08793264272318362 0.02386894542562874
0.2524392261510608 0.023631959983530328 0.10416387019636308 0.009286262348100791
0.34174841504805586 0.02534135910280893 0.10157050257265679 0.015135562353164754
0.5438259324318278 0.021230114700357676 0.1014392558670748 0.023736444267071975
0.5635798662924725 0.020548608807751816 0.10417379450443617 0.013399247367479395
0.37245491443433987 0.02506287176609323 0.09957148283256854 0.013792477234030901
0.04929798210943226 0.01780880768077786 0.10373869403532103 0.0324717897104663
0.4248200914959725 0.02770569988209052 0.1018974413572205 0.005744045723127486
0.355920870170035 0.021851426175969624 0.11828078990687232 0.02248160701414404
0.318782153819677 0.02012373609884178 0.10999961347938049 0.011730809226451982
0.41224379653542137 0.02640894219899563 0.10318141822011445 0.012165345911515921
0.1804054955526757 0.01768965526241752 0.11800253682803391 0.020465588509862423
0.3460668101227442 0.017389608906762985 0.13846136534159878 0.012520337432937725
0.2745518737206049 0.019152748039918926 0.11361626219564219 0.010847270832099777
0.37767374705640155 0.011399438750076556 0.11411418291572381 0.004177018081691189
0.1997399643846429 0.014383940859232574 0.12626640527310518 0.016722732174481607
0.19898077400818115 0.015789485793259152 0.16933494550381203 0.00486422094543974
0.1693756013686617 0.014452611408947394 0.12125402687531993 0.015744927431730702
0.06789063924838953 0.01930833712994205 0.13222103219452105 0.004687941039620056
0.14697010824182624 0.022469038946213944 0.16101936719380736 0.005339202092212789
0.15600483623275777 0.01624627726953878 0.11929105911958593 0.018445679158294426
0.13881303893342473 0.022437721061526958 0.16878203854228654 0.005639986013327892
0.07983459752911269 0.018294019617105542 0.19421878800079048 0.006113996097359974
0.48663586228302586 0.017031786977840836 0.10948845698899633 0.04881917285895203
0.07230734615902677 0.021630671086421638 0.14717961059703497 0.003934739378396395
0.16584496869244125 0.02272646267851676 0.1730832030360948 0.0028303013596757695
0.32471405674142284 0.019719222051725018 0.12972798197956115 0.00832574848646361
0.032893132258964695 0.021553556138134176 0.15574557830009836 0.03205467733739867
0.02862119462201094 0.020644186623489883 0.18200394571788278 0.022457048107618224
0.5785799590296352 0.017847016021260327 0.10424138511468314 0.009733372309550006
0.35366893190031135 0.014653121228786184 0.14959564569395525 0.005173474382582399
0.17606323045993852 0.016168496479690438 0.14076343864644833 0.006419256661977419
0.6254156781960657 0.022579168351818474 0.0997623084197792 0.004702346426207947
0.26462757878694537 0.010127700047402571 0.1530485695969073 0.0024776518975657175
0.41352304655482214 0.019129523740439427 0.13273070453217273 0.005646510040753612
0.08087705742334352 0.022993569853596012 0.16849564986244336 0.005096852512865825
0.12217861965895817 0.02385825010335849 0.1885455408366499 0.01123946650473507
0.4966753776785143 0.020468673633492026 0.12068750379100446 0.0415599521223784
0.05589073222312153 0.020781529879129446 0.1669107506528263 0.011646243941491743
0.09795912682181156 0.014907138800943149 0.16198228075613497 0.006988574029376112
0.13021944235591776 0.015139383421689134 0.11411207403981026 0.003246894204535977
0.13211711923354577 0.011906181331690472 0.15236875705921646 0.0038996423894263155
0.2948509942505123 0.023560956406863575 0.13954727458871005 0.008356345523724105
0.1707014944727892 0.021306957068295492 0.1525210685033956 0.008000343656610065
0.1130328584263615 0.019887692567483167 0.13184883581392776 0.007267902666827141
0.5110213283655461 0.008226204560819128 0.11732312129924499 0.02829277639191775
0.28250020923154506 0.018899014234401344 0.11200535985466228 0.00607509435861254
0.44115455785634583 0.016045692710536068 0.13844114155298082 0.004817984125796855
0.08749742102636793 0.01806184724806476 0.1275768851457683 0.005997856238147964
0.14411096242993562 0.02642703115539794 0.19302766717406547 0.0038470400605054205
0.24604176496713412 0.01688620303916462 0.1875308069912295 0.01583085697367958
0.606433560546771 0.017520965593167116 0.15489613645742673 0.012112894308864716
0.2988559050095754 0.013618547963498833 0.18831741168631086 0.002959449972373719
0.5975894518182198 0.016519387332619102 0.15380140351718183 0.011253569797788868
0.3250030172451127 0.022574332780278178 0.1678238226095921 0.009973545352894651
0.6508025316307471 0.022885899272968732 0.11166610194833583 0.022548756597788017
0.5117960386156053 0.022329478911502658 0.1433182000565392 0.018565282972915403
0.25172764351319465 0.017830325412783468 0.18885085927185916 0.014053630834953628
0.6509471612962545 0.021612701144994462 0.15351907454959351 0.007577850337339604
0.5599697644575866 0.016608896803657056 0.1834801441549087 0.007050259587582613
0.5008742816260364 0.024542467915008342 0.14165318134231092 0.016058722712940045
0.6293374010979845 0.024346389091452883 0.15126490429587278 0.007045778331261047
0.34102603345502536 0.022857736144248693 0.1928464955372271 0.006619278454473424
0.5624664166886361 0.014415759824243961 0.1737849205597424 0.006667462171036071
0.0640681381343613 0.020528530036076666 0.1938838480157358 0.0017274782086406947
0.5020875478503206 0.019295786488524126 0.18169363957030105 0.013378657255564336
0.41548431149846166 0.016018827063854327 0.17626714993626147 0.004006281646372105
0.660451938583415 0.018622284843736143 0.1524728040481746 0.046060363175112695
0.6291249083852875 0.023869941189847445 0.14502970148517702 0.007062250672861263
0.560341932541961 0.013562942357702909 0.15229457527310383 0.007381613737722497
0.6214071847675652 0.019452541537685768 0.13431765878656005 0.006091967876446807
0.6616416621234484 0.0196038803855754 0.18071797042968915 0.0206544535334369
0.20495065343623228 0.021470354539651876 0.18314998617307812 0.006636804720036399
0.3997757805697536 0.022255089652666045 0.18871137159484055 0.006969588008728245
0.3651136640414002 0.017540129018485198 0.17714032449263753 0.004068025313043784
0.4853774559216642 0.02175996507202762 0.14887966156253277 0.008904346467740909
0.4785219943201966 0.01607587394462187 0.17221679144239602 0.0030095106287556413
0.314571918309358 0.021165873910474062 0.19664149141659848 0.007402465807961143
0.5956807787766902 0.020142549073673462 0.18838819036522966 0.009588616089173257
0.3461850320764876 0.020464917893716295 0.18432732237790495 0.006591797668721047
0.5321023650814111 0.019179277690359275 0.13046789278592807 0.02134302688528066
0.6480066954508187 0.018781942770054894 0.12939215492280365 0.0032664948569295087
0.4445657694602799 0.02041249544596122 0.157792910181832 0.008645177973045143
0.46176184477395593 0.02308141816018183 0.1649352125147596 0.008434126978486335
0.39011236575852803 0.024204399714456256 0.18459900199850854 0.003838304803066094
0.32729323180248576 0.02113321674452147 0.21239646081067726 0.0077333214272184755
0.3535879008401118 0.021678193852621274 0.19735274727591343 0.005646632496114229
0.27146943819380887 0.019726040421482086 0.21686511776897444 0.004202863310432876
0.3896672430500448 0.0232573155819204 0.20828602322552145 0.0025689695942961864
0.4394585296545389 0.020073321269317934 0.2039012573050638 0.005486309739342563
0.6187534248195059 0.014035531929050273 0.1870589369137589 0.008144333124090986
0.3916838059027095 0.01660401182278666 0.23100918981864652 0.006331109495817224
0.1985015375919096 0.01984924016805265 0.18885019534583797 0.009090876577859106
0.18076097809081157 0.019639897358911827 0.2003556848469479 0.011692834180816876
0.5735529331849603 0.034820641094647956 0.25554450011280266 0.0030956643002123634
0.42233172460560864 0.018565687879683587 0.2058281691251499 0.007170679573695711
0.6125128287698289 0.0233860904567022 0.2172783869260672 0.012476681786678661
0.20234725160551761 0.019460467081375363 0.21145698151984257 0.006436996044723256
0.2754818623066135 0.021166488692567584 0.20594403983556014 0.004512444263820952
0.18750028516626502 0.021417198448681493 0.20599676124879363 0.008337915551716162
0.5988666118236817 0.024106199035509552 0.21345279758473643 0.0075851927403804325
0.5401040079113397 0.02020410344300887 0.22412650128463552 0.0007861529566186918
0.6357273847987894 0.021360399107941415 0.21021504639699834 0.006113901717571039
0.2495530544001635 0.020796449679321868 0.20611750994739728 0.006320874844317331
0.09111992351741471 0.016551990909806556 0.2016135084324397 0.001463802748166334
0.5001800194678572 0.020611210688911773 0.19533702930286717 0.01002190370388267
0.6638381313963102 0.02151118284008524 0.24269866927888262 -9.894989712011892e-15
0.3562606347925832 0.02227302443424418 0.20498496329332286 0.006834999259227912
0.5848430191590906 0.01762715191965219 0.21016038233638204 0.0023122286873236727
0.4663246613510591 0.016281900561139734 0.20325339189459704 0.006376113963569821
0.24308414309002507 0.02192547526506152 0.20935021555420597 0.004990627036548356
0.5059901184409109 0.011685711679929515 0.22856493834387867 -5.087567767869332e-16
0.4132853417685052 0.021767405544221012 0.2006801848415104 0.007897410642725448
0.4657837598491919 0.016760181338250982 0.2181819156356321 0.003375395229073746
0.42654749928690405 0.0187876600167734 0.2187980656628119 0.0031030411082249507
0.616204696146979 0.023534266896964775 0.21943290239617808 0.013089919309357356
0.11512284937114695 0.03410868199026462 0.2767982008311716 0.0320351318173717
0.068728315380808 0.016837823266729175 0.22052262208351273 0.0013057292365238997
0.10019151814830742 0.018596642884749232 0.20320078212006681 0.0023670698949960246
0.08087310800152064 0.015449527650146394 0.2370940533896383 0.0032620164449465045
0.4630387102869729 0.00774229274751892 0.24697534524534184 0.009194420241054078
0.11538104283610803 0.019627000796065563 0.2204102897896042 0.0033470724154812366
0.11774006881633262 0.021074962472504663 0.2170074180463715 0.001966007582897414
0.17460555993062074 0.03225832385134456 0.28538587086526046 0.02775127012400143
0.17401704101313648 0.017625445665510945 0.23144784745116592 0.0051392668313999445
0.040088000607260685 0.016759825164791894 0.22061251709315158 0.00837177758932932
0.22837731298590236 0.015626162640525104 0.23741751403261885 0.0030055020428511495
0.047464407965863 0.019963113359888596 0.20544708623546515 0.0077932431748340995
0.06382094727198616 0.012976823072093257 0.2589682358632486 0.06655387503463082
0.025539217799918832 0.028146713914460553 0.09808403191752195 0.015547442167064439
0.027672150019329256 0.022131169231768204 0.2002657880379594 0.015909207540971092
0.020610658772605372 0.025835970812000973 0.29288133501593694 0.014947939319388207
0.0349935127615599 0.4302446364224366 0.16463270378124586 0.009782128328671574
0.0349156243537485 0.4345701136068352 0.18031442949035958 0.0009782510214428081
0.025183012322990878 0.42162744893720416 0.1074446093830494 0.007957185650205895
0.03792924947521021 0.43396039298911643 0.12716823544447015 0.011876474000001256
0.03240160359146652 0.42760692130512695 0.09565794746981242 0.025831603684024075
0.39211221157969217 0.4240406038260373 0.09647210143626152 0.01344370701340839
0.04488600755445906 0.4285314516892282 0.09570527050723504 0.023228353828113946
0.07857552596594904 0.4221725249906008 0.09319772588219281 0.0029891317174895924
0.6107606943493001 0.4232250213757002 0.09162162299205835 0.0035782433761854106
0.10550837650362055 0.4260281523845662 0.09528053262037711 0.008124927535834187
0.6535322066650531 0.43136428109980696 0.1051842726457076 0.006396231296783041
0.6653512721752205 0.4322935420589991 0.10869149373646984 0.07031460183372029
0.18749986112397282 0.4270368417139897 0.08756152356068746 8.169678268421099e-05
0.2048743897668766 0.4304253558074043 0.0985144536201986 0.00943500648673672
0.18612385578398968 0.43058499205008594 0.10403988566690546 0.0003147022571423571
0.4323050692014063 0.4287659526579041 0.09692204470684578 0.005722361061543578
0.37409544913132853 0.42497701608772376 0.09302701520189567 0.008927226839676792
0.4054761870335103 0.4259590179735173 0.10207314402981979 0.013464870982406351
0.682300491661489 0.427670483529026 0.11440527292345368 0.10547234216599417
0.6923369774723366 0.43049848924642664 0.12639753204400717 0.09330712126569263
0.6977878480535888 0.43223104543173085 0.14767958053777097 0.07066147523351127
0.6870188174953193 0.16211907258082156 0.09339945296296498 0.012434265160151248
0.6883943984396186 0.1843018435417354 0.09847577561459334 0.0013011752041563395
0.6825124588786885 0.09572377785002041 0.09911255508425149 0.002482937874628895
0.6882331950494261 0.13381975899691878 0.10886246477896695 0.007582189852698792
0.6913024171627195 0.20767550083420144 0.10726620044632693 0.006629043646724422
0.6874991811685132 0.16106786950449606 0.13671886614006148 0.0036862582149142196
0.6917620164684494 0.15953676391355806 0.15903588357513274 0.006327304315084181
0.6918697267878304 0.17653664256128168 0.17122376041818388 0.0065406643163259375
0.6882719070014092 0.18820918341010634 0.13438389579169557 0.007327704714421096
0.6883031664552561 0.24703409152918163 0.12136012671996163 0.009904389669993022
0.6941885352053664 0.13384247139700728 0.13556738294220533 0.0020974518320357833
0.6932251993709763 0.3914776595817949 0.11601207289921743 0.0005143214662408004
0.6954940037179846 0.1935040632921387 0.15948557428201804 0.0027212176200611562
0.6883739846053453 0.18943374795119974 0.12712488739795874 0.008880910000311798
0.6885417223917345 0.1143994819767011 0.11983027856456935 0.013104424694847945
0.688941047968598 0.09445201421100478 0.11762284711453425 0.005143553121193859
0.6925432967921652 0.2728209704004986 0.11584851052750347 0.0037063802417680223
0.6847250816625368 0.16252517457345503 0.1069561315077954 0.010518946310434901
0.6923842885099306 0.23281156377170475 0.16335168073567788 0.016240122283398866
0.6940938610395564 0.2138306408906712 0.12465690827085918 0.00526892299675956
0.6946014596774862 0.23495576292706097 0.19447236037626298 
0.6883626408719965 0.059446452532494067 0.11346862805165996 0.012852166291035545
0.6886971066120096 0.2266146251127101 0.1670129720165359 0.010220705520006724
0.6918362750672991 0.06605121947644042 0.18078055219136588 0.004320373390141495
0.6878888792146601 0.05434424747948973 0.15626044254837235 0.009011053644636773
0.6882152361955794 0.10096683088649422 0.14709561007299085 0.0035112941954865613
0.6876596335961311 0.11768171160654346 0.15322200447073725 0.003589090732944305
0.6882151232809027 0.05741478413651098 0.14198334531910303 0.010973412467091317
0.693533851120276 0.14796079471356025 0.17896999991273355 0.001496139923453303
0.69499268922631 0.03754228826103966 0.12340861228243889 0.047431827917181174
0.6868492049847832 0.07321396236041619 0.16461580347044094 0.0008691970280544763
0.689272152200769 0.13118032902704185 0.1567169445171288 0.006282474886323199
0.6870647368239322 0.07051400348937238 0.1312922233358216 0.004879426599593344
0.683530565442114 0.42895843221993324 0.09881681246302906 0.07348013113326843
0.6798412125095509 0.058608510359479796 0.08981379136670321 0.012559511672871393
0.6849249942847773 0.037280792873966115 0.10203106922532769 0.07841041819300645
0.6780029943542186 0.018335922099721392 0.11435721312340673 0.05889434360186013
0.034861210283849725 0.02250402323162326 0.1135173062342741 0.030781333239530778
0.035360394674951175 0.015652820196641985 0.23503708398169176 0.00739406868122733
0.01913917680232026 0.029180783162149625 0.2034835438321705 0.017077483467378335
0.0368879938044036 0.2953937594222081 0.2776359431447007 
0.015750521781715928 0.03787086581054937 0.1258064883647119 0.007481551376402344
0.01978224263734928 0.034234875861784454 0.17731391444302969 0.03125398968661294
0.45505584117642994 0.4258721770275164 0.2724704735486107 0.06341425383164802
0.6304633563010896 0.4219588769921178 0.28156836595775847 0.0953696908086193
0.1356504801996027 0.4178525288894602 0.2767404345551 0.09810622265728978
0.13901834288073428 0.42150282892313284 0.25567338443364324 0.031183134694807345
0.18185158762316217 0.4203335745636905 0.24747333781767805 0.009627016211739866
0.39360056604245525 0.4201803308556381 0.2493764587427406 0.005691687835170453
0.19989832667531107 0.42140839382718714 0.24692725402030227 0.001863004983984055
0.42488789177870795 0.41325637064188775 0.25694087439731655 0.007628551935183596
0.49845685748445473 0.41745835684411037 0.2735567236205914 0.07300160790716376
0.6229894874212808 0.43143100888932256 0.28578230683509304 0.09235806555399294
0.37107223685190505 0.4224937774058612 0.25812688376390874 0.006924374407948461
0.21408883304212772 0.425036726315478 0.2630328869814516 0.032712207633160094
0.1496872848445292 0.4184620232289638 0.2666104277349816 0.03502370606167343
0.21543820559040994 0.4270297569694052 0.28080113756005004 0.06399547582016125
0.10639476780647725 0.419393138484136 0.2725011069689996 0.15400180803662572
0.1607109764732734 0.41698501797819426 0.2605953150862128 0.020384340618492463
0.4957309723146693 0.41872675593807074 0.27650647624007324 0.0898328541240742
0.282507268215349 0.41416339806349967 0.2698875045254695 0.038052843865256626
0.23861220809838599 0.4104195626271079 0.23296375320683133 
0.4846289926611381 0.42234466485409067 0.2730948929892685 0.06867178715348884
0.2355299727628103 0.429410778270904 0.28196860724278466 0.031223762268098997
0.4291834362962347 0.41906754651595934 0.26679770656575047 0.039191440600521904
0.3084327633360454 0.43003605637181497 0.16421202695126863 0.002349306970496724
0.18673562379084108 0.4318215528910301 0.12886769895753458 0.004447951550936059
0.27349460515913754 0.4308783841558788 0.1589144934864095 0.002383863882955525
0.20284619497537662 0.43525308190620127 0.13965906184491184 0.006412583747236427
0.5162261457062767 0.4371294750159368 0.18496795693990345 
0.34762145462066124 0.43126584326454803 0.1637485399228293 0.006141276295021592
0.5977584383674458 0.4163427975005529 0.2438374997283108 -6.162262234776972e-14
0.42102631576406924 0.4272714899581397 0.14779300079810664 0.0062037757085403695
0.29399682147519995 0.42973153540685044 0.13551911079182866 0.008974498414213914
0.25653925977978065 0.4290087266354895 0.16071683197865214 0.004450572091933239
0.3232206295354222 0.42717263287426066 0.1645758619625565 0.0023513293116586937
0.37660593450836327 0.43203247123671323 0.17116412654548743 0.002124878343488331
0.25858209882417427 0.4279316409488484 0.1483879062257817 0.01432459976390927
0.22488436935088355 0.4270732505617722 0.13128819528965655 0.006285482614043064
0.2297309038760966 0.43353686488769416 0.15923931114002016 0.0012734394721410558
0.08963982556029301 0.43161908284445494 0.11574031987005348 0.007942760463587654
0.061901372418803904 0.4272213228069567 0.14430228965257783 0.0031767570679900044
0.16039832382556468 0.4381292771550249 0.179780032146353 2.907458779444616e-14
0.040388061129597475 0.4307943019242824 0.11027636877936292 0.019788517967522193
0.07186802452931296 0.43237330704077837 0.17006084593621135 0.0029913565906074186
0.08471687370728281 0.43272863772757636 0.1654517448547038 0.0032497071085171234
0.06613567042821014 0.4304402331507957 0.13161171155095616 0.0036273017464862464
0.28661013558246645 0.43025376636549334 0.17044770826930014 0.0018693532956881693
0.11616696787885511 0.4354052350713103 0.15533638607007638 0.003229544594714253
0.02442978452457183 0.42834543280813697 0.14529867846468122 0.01565301946012603
0.19681182750673423 0.44175779814614624 0.1720558707761778 0.0018307298287473445
0.6569341181858528 0.4318900246877713 0.12737975550615854 0.02124128704686015
0.31098688462785096 0.43411184414055687 0.10888819001236927 0.0027375983049826237
0.3326296424577433 0.43097007053691966 0.11138720228175322 0.003559969176840128
0.2650971909698538 0.44107918135508983 0.11260105406359115 0.0032039576483723574
0.5539765760805825 0.432820042236309 0.16794869887458772 0.0024131100832091293
0.3876149377336036 0.4285252425803612 0.13682726045844587 0.005661164390905207
0.3986289852063344 0.42530484605532765 0.12476502983512655 0.006722791072119088
0.474462207201763 0.4320656244531581 0.14126606763804103 0.008022878699517526
0.4101765560956053 0.4244479005051022 0.1405917222302447 0.0034551118510927964
0.6392199559329482 0.42975204100687303 0.1467498395418079 0.005942846001604708
0.12780396421987372 0.43003861887766026 0.09833764901418539 0.0035410358242004398
0.654730205263085 0.4320904203559846 0.11558393189271964 0.003314476978457898
0.6644062272395531 0.4297866468865525 0.1496791275890156 0.03525754229974485
0.6721340613866168 0.43040336944609014 0.16350302449793228 0.0182889685578093
0.6169145943744015 0.43038008837942254 0.1266730731550189 0.0075497261497401704
0.3411637892143244 0.42713823590238437 0.12294923746214131 0.002299406215705747
0.46336842344652146 0.43303201602748764 0.13848607479960778 0.010720626791509492
0.4480530780637232 0.4308925565927911 0.13790141441552692 0.011443812099317515
0.6680990897731898 0.4308613207587443 0.1014680976456982 0.06924796783775711
0.6063560294616185 0.4347151162850498 0.1414840299671728 0.00437614919148679
0.2877665365155399 0.43184989979896515 0.11064843566186085 0.011497613851177639
0.6448018546648621 0.4275236183797586 0.1565014274419287 0.005553077104167679
0.4744202178262905 0.42885892942684517 0.1270988307451443 0.007688819787796996
0.36377636062062235 0.43019744736176535 0.10770191647450365 0.00899207071149992
0.4690138139249469 0.43088727617633565 0.10028425405434564 0.00432378527989295
0.5697033572559708 0.42932052575456914 0.15359779736069235 0.00245013632798876
0.16762977016359165 0.42809332101966596 0.10134462125427879 0.002855982276577504
0.3816978062033242 0.4334942623410013 0.1117053684287386 0.004156187767653513
0.5011836267433589 0.4383388839017082 0.13928999622844115 0.0017732226923002862
0.5793328951765474 0.4340968999717119 0.14113450610154807 0.00412407440601853
0.5402677588499551 0.43179564242243546 0.1497367962208713 0.00017219455932358774
0.49555257821313325 0.4333391190690912 0.16375531747131356 -1.011044138956671e-14
0.2358747326327608 0.4358531822625456 0.11004610382679723 0.006455105874711974
0.671826464824545 0.2835635538434866 0.27594111302818664 
0.6757488006251872 0.019674377440602242 0.17291401164146267 0.04585509387108194
0.6866217496403068 0.026483841623944415 0.21567857778706395 0.01753283993219511
0.6808305264944872 0.021461150706961363 0.13017702045683208 0.07245215687432431
0.6908597692312607 0.03504987152028317 0.11032980275322209 0.07336819034525954
0.6860737156979028 0.019880335094795643 0.16248284330237 0.0689796503904224
0.6195242991948332 0.029274323870882413 0.28754747616290294 0.0650993217419792
0.12933894456774742 0.4194792000400167 0.28663183910685747 0.08320821677338504
0.6809954065727372 0.3796237151181074 0.2859324525517472 
0.6835572650052306 0.31615710994190227 0.2847069307000015 -9.009999307224001e-15
0.7456297024342179 0.22485672141321 0.29284506760806733 0.01153770417868981
0.7206356986538426 0.24124589022923085 0.28930617980492773 0.013644844087165278
0.758353735982386 0.41581146688313647 0.2743635442001457 0.004536348682590605
0.7470274904613432 0.24711864774604475 0.2909565223537876 0.009514124269313853
0.7590702402557234 0.2773648904834663 0.2845079683276695 0.046178871340409655
0.752109895535924 0.22795257626927587 0.2853676425137385 0.017188767331495484
0.7401248419230978 0.1870004276937577 0.2919299449657762 0.017829263271784773
0.7624055423884348 0.36076477137193574 0.27602884914237613 0.02356281116814758
0.7580366219893658 0.457607520043623 0.2866374284021088 0.046737014612814966
0.7555846705662023 0.06177314710570073 0.2802404486124738 0.01669813721793861
0.7564408705022381 0.2879686049798876 0.27492108845682306 0.007103739428083081
0.7523113902400621 0.22582699939223358 0.28225377230411813 0.02032709468832975
0.7545973836218383 0.03591886654635705 0.2886929881843668 0.01566622874047709
0.7578183482757817 0.018715939824798477 0.28327289818507617 0.04607417193634371
0.7662020943063266 0.3333539242427623 0.27793392209495427 0.0454066301877094
0.7697740841846409 0.43226760978800827 0.2849516680337687 0.0027861038022688306
0.7574678007390994 0.2672225548713998 0.2868557272751332 0.026434681042474702
0.7559714024012835 0.20626507494211757 0.2871112487445696 0.020848295351164912
0.712055529296669 0.12762391065807904 0.28989963962107246 0.0007943237125431001
0.7506521255565182 0.07318614998783457 0.2903716368745292 0.011599172034137184
0.7567029086011099 0.16052179950672954 0.28290713618961333 0.014744659491305386
0.7487116305969235 0.45405693712819245 0.286940031033403 0.019724123043533718
0.7596799674974275 0.3788393736892031 0.2853124252982292 0.016331624164961065
0.7527506337500033 0.14117680530393323 0.2784726378700652 0.0157008191654089
0.7571518102651025 0.31892781647384955 0.2902577976821809 0.025509253594941883
0.759870414713661 0.2898119185483856 0.2826534652985546 0.032938681057001616
0.7591191532639526 0.01585801745664307 0.2797357707952393 0.052818728402317834
0.5410039822615327 0.48133347803291615 0.28903507497659214 0.0008108410546246246
0.5937836788323775 0.4640375147861162 0.2883585065932131 0.009403401652035516
0.6062210516333033 0.4982727534780959 0.27684550283175524 0.013364744811893323
0.4122335184887483 0.5029990638166882 0.2782437068129033 0.009740339746793636
0.6972920206119987 0.4964055931489508 0.2852750238954702 0.01666214288417669
0.5951052880741604 0.4893581864214267 0.2865212861766454 0.01427085490750751
0.43372983931386266 0.5000647947476187 0.28471862842174933 0.020324351986346714
0.5102302853125926 0.49734136417763886 0.2847723794901432 0.0005550717131102512
0.563392630704394 0.5131652684471868 0.2931355660511606 0.003933543958681026
0.5251600326152853 0.4895786946454034 0.2870496994993051 0.0049145650261332025
0.45452991724960967 0.49228715846700516 0.27521895294210863 0.002082840319845633
0.5433951433842483 0.5111287966976147 0.2887865185958931 0.00040252475398025645
0.6484301858310356 0.49278981859084026 0.29164732670758453 0.020135674523623078
0.5181969629621955 0.5050215666695035 0.28701945663492995 0.00010856715669344215
0.6579539735446226 0.4666531649511747 0.29089133421788244 0.009726367630168218
0.6380461599612278 0.4998036837195141 0.27910342051497733 0.00634537016265173
0.6614447886660283 0.4948221868837044 0.28432290001792515 0.025669861007247424
0.42804226697327075 0.4970276802755573 0.2887396034072929 0.016426054327250417
0.5396147153056292 0.4932248081739098 0.2887635388518765 0.0007973655833278391
0.5970746207027656 0.500351603471825 0.277380776645334 0.025850905161253872
0.6657181082114914 0.4450905046091414 0.2940607998948989 0.000463276569107897
0.6206927716582813 0.4410048170476471 0.28841599576295224 0.02486912351019004
0.6828483835756052 0.49704582244119333 0.2785610373957739 0.0004094066762729249
0.48869048312819535 0.462953323524157 0.2867341732222209 0.008430668566674397
0.5879796614829667 0.4565091612710663 0.28958988423124266 0.01732789293485395
0.488239609743734 0.45171013727265164 0.2903046742376647 0.037911099393041055
0.38598848855268825 0.5032943701675444 0.28670304038142663 0.014289243896336687
0.5682662957879945 0.4363898456909206 0.2849584310752025 0.026855576859377037
0.4555531241591331 0.47209525304972866 0.28533010329204683 0.008292478358894474
0.5074906634857064 0.45692768121197447 0.29447305030205356 0.0030929990865831676
0.561993627160212 0.44574314091114386 0.28895500724705747 0.012616915750145818
0.45992098176088225 0.48643807005004486 0.2836786681847534 0.011637754443344906
0.4205093906402927 0.48560030018683537 0.28827996014098856 0.016217517338762092
0.4563436378919491 0.4558261999542559 0.28870342903554436 0.03828924121039136
0.5357141793075085 0.4236666917723967 0.28045194771378 0.052000402677282995
0.17162540334178827 0.4133929743698452 0.2840978189526263 0.040767055957420154
0.13736129167352654 0.43247908389036677 0.2931233182175147 0.07649205881738103
0.46182612389685856 0.42631701054180693 0.2876651671667256 0.040295691257111965
0.2424731893999642 0.42151538852647663 0.27226627297963096 0.03922659216519755
0.4280671671031561 0.42919514614385423 0.2933772618405071 0.06381357331139557
0.22732298784497942 0.4428016067503903 0.28777287468570234 0.04141814375176537
0.25433975666215036 0.4368660403345116 0.2862352161946215 0.025901986843145715
0.1365891683138134 0.48345817261504986 0.2870994401304002 0.011388319239870257
0.10690594110975907 0.45643282031442306 0.2872659872497801 0.0557488546781061
0.040660906066982756 0.45945787738192734 0.2933165966857199 0.0022976026096116625
0.14496616389244638 0.45430506982411434 0.2879466760064717 0.03179057871359349
0.2040463204008951 0.462399654483528 0.2870048030428037 0.027120612216989613
0.06926183867373771 0.44240112076271315 0.29420732825059276 0.00011173112109993575
0.017748381453346267 0.4875565719171341 0.2898293195953216 0.02409188263506475
0.11190240494286371 0.43703803411325204 0.2939879287915223 0.06605975516399637
0.04372413614958146 0.4730185498636921 0.29450221713099245 0.006067165777343143
0.1789339146084019 0.45017233004706236 0.2903936640409528 0.0366666648290949
0.11611012575221909 0.49031573513601295 0.2833921581089599 0.0045713307684781745
0.23392855850001873 0.48481564194292454 0.29010810704650775 0.0164348760151099
0.280492660344942 0.5039445498398661 0.2881747897382651 0.022467507454606753
0.13931756879343302 0.50844598186941 0.28001637269141544 0.00791684903664706
0.27092732820135956 0.4860202156832871 0.2956468892344569 0.04609509445824426
0.2427343129760809 0.4960859549168053 0.2900351196659128 0.02555422744091233
0.16855934583841992 0.48990065246896314 0.29280353512924573 0.01947702988528608
0.1635970339261347 0.507042806783249 0.2802939370014403 -2.2896153398880938e-14
0.2681403257976336 0.4991026608087704 0.2708493315061985 0.024194560469037674
0.34921160950639824 0.4904425632211217 0.2907481241472775 0.037576018873980085
0.3014974617803636 0.49156777158387244 0.28486260923016765 0.03778622196213767
0.20286589650079764 0.494336036208135 0.28970442040108646 0.03776548132211327
0.3256533596101753 0.47926188062818503 0.2909265801228956 0.037813349797170666
0.07996871296266266 0.5063150951144006 0.28510562859035327 0.00037459898381292655
0.03813963544645481 0.42041017531318053 0.2923593719261425 0.0005555852718737632
0.011257486588108781 0.4558512590115819 0.29410536124941955 0.005394550955950514
0.0009316132634615487 0.35245238607306706 0.2904798167768193 
-0.0027740031736335404 0.3015016138550542 0.2915542376604162 -1.1634723059314808e-14
-0.003136317149160423 0.4768606017064263 0.28099366026774986 -4.0646115128549985e-14
-0.0046038349180956 0.16167707950412946 0.28600101441581227 0.028359031572200703
-0.0010702776833989682 0.18627189802278404 0.28798713292272726 0.021007105419413172
-0.0009106422533582902 0.43729885704222743 0.2895024418803498 6.401141224730237e-15
0.0028173930989261525 0.11217099072159484 0.28690611084507206 
0.009080470303432606 0.03255561895018977 0.2899076115756671 0.02989565454268274
0.700778200070432 0.1831367416642401 0.29604878340515245 0.003688390234912823
0.7307572489734127 0.3251025550673769 0.2918555462784173 0.018587483316736566
0.7501391577435138 0.4688338846107377 0.27726577364076843 0.04382272323312411
