x y z curv
0.5074903826491212 0.020312600347742352 0.12331868719907527 0.011054565291748508
0.729006376688844 0.021946555434999432 0.18733913334474492 0.006397221104458494
0.544972278183488 0.02121260627239963 0.15179993510771758 0.005759707360402395
0.7329175609498317 0.018481061050191122 0.12608100512576592 0.005617119670639888
0.7369855076677823 0.02115470303773448 0.19038102318180564 0.006671872406424766
0.7748966243089952 0.021755855030090816 0.21274272319742665 0.006998035325962804
0.7174999065048988 0.01615350330974559 0.17926889529354686 0.0022822959158927455
0.610037369802156 0.024803279689428664 0.16697053611315918 0.010066174845506565
0.7181810078275929 0.01443704907613261 0.14064734646780272 0.0026935353258134725
0.731603723426089 0.021792221914180055 0.18178735085023667 0.007537235951866398
0.6998870389558766 0.019224462850490967 0.2092507550406284 0.00409505153148874
0.5626064128360286 0.017888780218125816 0.14070039706678106 0.01686764024342874
0.5008027958069807 0.02316560256527706 0.11091490661159062 0.010235615260162938
0.4629653686120858 0.016947771360622116 0.11948926806873454 0.006722422520262066
0.6858031417025721 0.01764050198372162 0.15566588745046647 0.004387906145627229
0.6830584177086029 0.016955735249756996 0.17678289252966145 0.0020864354765649357
0.6317308557399871 0.02221599585515272 0.11885678883269193 0.00281954714030731
0.6495218694582714 0.01701637412097201 0.14185091936108093 0.001976912808238991
0.7196528334585941 0.018369946555056825 0.15717413193365035 0.0039499611519746665
0.611934054993103 0.016346028556140146 0.14273245376937052 0.012354185398819403
0.7572264134608949 0.025087860777510584 0.20757281003928493 0.00602294395119613
0.615882673609394 0.021901607839242557 0.20053467125463173 0.004055224247846811
0.6693055001666287 0.019525286834180977 0.20801073415725077 0.012993159494071878
0.5225258050254192 0.018612314249829252 0.12584013998411572 0.010177924377205801
0.5191157962054094 0.021140884383271014 0.13363807282336582 0.008506260750819198
0.5128776720007726 0.020378341981113508 0.1554542733083654 0.004178387603987885
0.7282384669875673 0.02208107408220151 0.22696096001573335 0.010291626692314886
0.6739256795650506 0.018063126625010018 0.1541763181318441 0.003268736730174985
0.6917813896565476 0.01953159022264278 0.2300227581290268 0.016678158683621512
0.7631180424636602 0.01948931813395538 0.22801279468668315 0.007669960588968378
0.7621968231556855 0.013611744867554381 0.173080361915273 0.006335494628150838
0.519661763846782 0.021920203336051197 0.15676097023719177 0.004374136103934998
0.4749545660455891 0.019405305014500517 0.13259119004056122 0.006862844104451706
0.5369223468621214 0.01686420579273171 0.19256928830523026 0.005618285719979804
0.6420390283890796 0.013661265281373375 0.23070732532588045 0.015240704188535415
0.5509674457796432 0.0188423818917699 0.20172944692903766 0.0033921107460931593
0.4743425112808795 0.023974918314405052 0.1466493148375232 0.005537293976444433
0.5672130117583839 0.02482041622732875 0.20173103647857676 0.003658852789936013
0.42783422870820453 0.024424471250222235 0.2004040625326969 0.012283194334201374
0.5581913304749788 0.023400811781875773 0.18635979484603726 0.004248620107551298
0.626501366234728 0.03494126283846236 0.26831990436612907 0.12937883917619833
0.5449061936051959 0.01636742703902963 0.21636075072743763 0.003487315420144374
0.6423816633005537 0.02893736589423125 0.24083946230342582 0.013209644394876898
0.47479051802997063 0.02022825583577994 0.1719778234022204 0.005229904680783431
0.49968866220966585 0.016849140075582213 0.17020154131452617 0.002344864957546142
0.6274630396742162 0.018419258914383077 0.23346105434991524 0.02438921258717133
0.4387884953753514 0.020788033354170038 0.16017542526196268 0.008973283346527961
0.5651957880151286 0.020997367806204575 0.2266619159907185 0.021635027299643117
0.6195018300970428 0.029344072287571094 0.28082477165477 0.02262454560778123
0.47684926941047273 0.021747566736687405 0.16367889262670274 0.005069557694086081
0.43559249430623537 0.020765815612301737 0.1245169098608949 0.011987321361893552
0.5228746501834356 0.02163205825910325 0.17369698414705437 0.005473349821712659
0.6473780746833125 0.013475002255095719 0.2166039725997385 0.019558412546547367
0.5567394873369432 0.019357019969251425 0.23745356370861478 0.024104954882462084
0.5462345999656926 0.022146791319666806 0.18439152365114198 0.0049361031018062326
0.6469781863799434 0.031150465839261125 0.27438899814334977 0.08706489034619151
0.42596055940880956 0.019318400414022826 0.22383620101556614 0.012554465903910433
0.7803688920268652 0.41260381041232175 0.09182215076176782 0.03306820281534371
0.7910779749841426 0.215781548326009 0.09462074231417425 0.004204230565005054
0.7871124262082569 0.24322287861676362 0.09355841527043049 0.004443646459391141
0.7955926141593821 0.10069202952443128 0.09565028423371723 0.008548452164356306
0.7920717006126142 0.34716318676297026 0.09399149492465723 0.0013405673461628052
0.7906939939008001 0.26202404000758567 0.09974025322311296 0.007657411361937143
0.7912457109281583 0.2709463902042694 0.0967359582750261 0.008608302322756169
0.5880100322525103 0.027152023461965595 0.08994018688465615 0.01230722072052856
0.5717754891391578 0.022707470122061063 0.11097954391395036 0.012326983057855328
0.7551373246002585 0.02019547356278057 0.0999663021989281 0.0038054022243429746
0.715467275985532 0.025356895452765264 0.10021188119494953 0.0018737251211879214
0.67540868718037 0.02238933288333781 0.09302375615810846 0.011166333448680637
0.426402554513483 0.025075302570430856 0.09801261730834998 0.003073659377980877
0.6602460179165777 0.023424397055014062 0.09355943353405963 0.018369088368435153
0.650974392566892 0.021152426510690638 0.10267268243799278 0.01126188492578441
0.5020419525726596 0.027054440437988155 0.09562338016320414 0.00405797624494366
0.6971440226367848 0.42418577343784464 0.2712753558598589 0.042229703244970856
0.6476060438111662 0.428179590948476 0.2799602295694802 0.029170506572771805
0.6036320777611593 0.4287314092254441 0.2778770765055979 0.02211099832662443
0.5578031187519783 0.4223994774989158 0.2776152046859939 0.048511974455268794
0.4190227300078257 0.018122210210153922 0.2828661006874286 0.01330168031772867
0.8181443002932706 0.4862724925319791 0.2945848235229264 0.018725488941852136
0.8026263584554382 0.5012548878490813 0.2791406933027484 0.03629696357413036
0.7693143961386084 0.4812416020656364 0.2843980100454919 0.0038760855467760316
0.6516012191360303 0.4990291117032059 0.2926228746354435 0.026059376466816404
0.6446584676637466 0.4997861678774248 0.2721578527584336 0.03326004164878038
0.5420428974511283 0.4872803428821121 0.2856995574224997 0.012374173211038555
0.46814760734432453 0.5001543376427734 0.2838728026876527 0.017253080606989733
0.5494270944821327 0.5067541166245463 0.2793535719963404 0.007442361108340014
0.7428530208641211 0.5065662707588666 0.28183182605793955 0.026329783037495866
0.5838708905943341 0.46930218507870874 0.2859990983333876 0.014518799045169596
0.7442084646432156 0.5040657631994621 0.27554513805860903 0.027585945810358104
0.718212764408491 0.4963594433520038 0.26838506681283986 0.005445034937892772
0.8506901503887541 0.5073540850106181 0.28133416223864616 0.06424406545378934
0.48663904992609974 0.487325512551874 0.28973049019102487 0.008463717500608543
0.5487429005541532 0.4861613607410602 0.28723690906346033 0.006781087623330433
0.7930216156915838 0.49727044256554154 0.2810216279775715 0.01573102753273795
0.5730384988609943 0.5003141993582075 0.27586285577317915 0.01014111328662208
0.49630536900341354 0.49989347136906875 0.2793159329516222 0.0154289402240817
0.5239915676060458 0.4972439091390878 0.2853190092582696 0.010423210251404816
0.5269370699718189 0.49820420715026487 0.28032116898524395 0.004082715601126253
0.7625442495511185 0.4675904559332773 0.2865936406106939 0.000681294979164081
0.7781627297947354 0.5024464751243944 0.28230350549466726 0.007621043559633314
0.8336093610107965 0.5011054112292522 0.27165114527901607 0.05084366011263294
0.8635862526831962 0.49103168477320536 0.27099788517699075 0.025486133163099407
0.8726408606786634 0.36864204631111264 0.2847989281125064 0.017170149503606378
0.869862086272751 0.07412243359360723 0.27986183837164275 0.040296730525037114
0.8655426385221501 0.34547015304603707 0.28135941391242325 0.007624951621312015
0.8684747339931208 0.05907271176398097 0.27999310540479816 0.04381543403833859
0.8642114006418541 0.10448149549363388 0.28683925603417465 0.06554181363503984
0.6029670813108531 0.5164350795350108 0.28496070198527673 1.1247719062226063e-13
0.43883304058445927 0.5035914767842875 0.27589948097759065 9.53154004006038e-05
0.33869566196207035 0.5003867777302992 0.28338835745905194 0.020202020053986528
0.08012693016853527 0.5025537428269647 0.28698971946050356 0.03890469321320992
0.27860353255364556 0.5038822911756959 0.28578964258866263 0.019333965090973425
0.1287044847073052 0.49537362507363336 0.2817008678173949 0.017424773701756335
0.12695819135143122 0.503322034868539 0.27395883450833747 0.01083351647072194
0.004167146176564252 0.49966581092202184 0.2785892104732551 0.04264597655162531
-0.0045752800707586656 0.4716324875350634 0.27717194186963734 0.008269144282793598
-0.010094063109863003 0.20176501289770316 0.2831126373472583 0.002207345217222352
0.846767921820369 -0.0029469951452852404 0.2787021181503748 0.03749806490018936
0.7806640700917229 -0.0040276683102791954 0.2824367916292148 0.008079725751731054
0.16568723519269427 0.0007532470473657117 0.2799478827354922 0.051661422064360626
0.2671050203583226 0.0010976951260943334 0.2844873282900306 0.0015680894958358957
0.3208540774267554 -0.007201455153427785 0.2901675501269899 0.05665713490896167
0.6906398394158647 0.4439504742770355 0.2873991881581913 0.026381512597625237
0.6016056465512114 0.44555841927593065 0.2883587749890217 0.01840138020329675
0.5581655147448443 0.4710527430143251 0.2907067208256309 0.007456979670296369
0.6704963270045067 0.4505986074526811 0.2954321492718624 0.03218945030773308
0.5964559210475696 0.4470706933337737 0.28841171826837597 0.022234597986296224
0.5203575971497145 0.457453931016055 0.285001775494937 0.007938307282050971
0.11020956092263585 0.5001338754507068 0.2751522025343447 0.020760368996354847
0.27029899616996794 0.49913047410053896 0.2771811814145425 0.03509669222026787
0.22624896421679352 0.5016979824913861 0.2774832745580556 0.010549803055800675
0.1486931856039943 0.5022745810883139 0.2822519628223211 0.011386204597866966
0.22883036224054118 0.48439615677516873 0.28183676525135176 0.01409349623144671
0.18805781077932268 0.49452374517223785 0.2854792162819035 0.0015227408434550134
0.34541697491015 0.4977354518906387 0.2766762268659576 0.0070150381166674495
0.18093192692966653 0.5020834647468247 0.28184920327882723 0.0035456752231647483
0.2738451451260875 0.5022378855523766 0.2841499895841056 0.025978355166563702
0.3701114732405925 0.48196029391298334 0.29046077372196677 0.012322857797357636
0.39039636561861085 0.5042133276149628 0.28429078086320053 2.3893185757274978e-14
0.252142718836202 0.4861344211206371 0.2865687460325431 0.015864451273591894
0.33504875859109146 0.4724081267862002 0.288638552833353 0.015033835648406406
0.09640899829689009 0.4675999218788191 0.2876532736385188 0.02121096854058083
0.031403207543081575 0.47464168475739726 0.2859010144545193 0.01694428648789989
0.2336494752788457 0.46103988637721793 0.2872603993539373 0.015301895702988953
0.16619378596052992 0.44994142967878925 0.2867784786411336 0.06945663821598505
0.2680440401153132 0.47164151845749014 0.2897930873598116 0.015126240749629689
0.05388152787748814 0.45587086252241216 0.29128299761440735 0.009454234599958353
0.15436449391291676 0.48682821827941847 0.28779916867643607 0.011213405532815678
0.12542554964732805 0.47831355851563945 0.2888991745950096 0.01635301787407305
0.27172252913306105 0.43698210448269165 0.29618206887811227 0.0321224332624904
0.20218534754713544 0.44257028145147603 0.29304710362338915 0.06148625899347703
0.2327295489683149 0.42925078444110165 0.28317386276409 0.1183777317951206
0.18434960068507802 0.4265800520118344 0.28072009426713396 0.07151009933413008
0.2917964489664559 0.42753643498112814 0.27837201489779617 0.003106100561748406
0.3182588853160167 0.435104720198608 0.2869874037581652 0.03899247499484184
0.005042146074520035 0.4393253547430061 0.29110127852502865 0.0022394717078206
-0.002378881199211573 0.4429763150543769 0.28529166295793756 -1.3627619073406242e-16
0.002527433422480057 0.07779274319898179 0.29649897192828556 3.099691768317519e-14
-0.009186045297926543 0.10567658661083629 0.28815113054192687 
0.009666254245668629 0.4133070352183306 0.28930227383865287 0.00031086312350549265
0.0056237611922326375 0.3645635439740177 0.2865392090429596 
-0.0036933923875354167 0.40028407601671684 0.28399319510734466 3.6929539358684896e-15
0.013509180511338328 0.18306712253860605 0.28248163571811735 0.0016787665120985118
0.002866033728279022 0.016907548044050025 0.28103243305562386 0.004048481994652867
0.8552188291811218 0.468750064377067 0.28425643554615493 0.02648194669010289
0.8352989190665615 0.23064737988736844 0.2835506954349664 0.015353819286871172
0.8693607471652431 0.14782034598920138 0.28398800949877734 0.05617736986847136
0.8606882123458106 0.3917609810274857 0.2861382877650731 0.01263768523869215
0.8661151803242192 0.21804486009918372 0.2735905069943467 0.00408726568299884
0.8368063173201706 0.4384841522311505 0.28593145671102627 0.00985846712122903
0.8512982607400176 0.4069500059091488 0.28071028101233386 0.013976394966195122
0.8665077816882027 0.07803522140041592 0.2859292296801671 0.06486569214319549
0.8423715122425414 0.4450053044919754 0.2856285280998538 0.010176751262385741
0.8671273580156363 0.16416737645012477 0.27058203863493135 0.03983022442680288
0.8665908235148992 0.25548983033622413 0.27875222842390684 0.009095638874397564
0.8622103488014505 0.4059018942836283 0.2757588652421727 0.012764906273162823
0.8626842186109637 0.1281700861020511 0.2722788405404809 3.640956539591196e-05
0.8647631297752046 0.38591865010438514 0.2756136732117737 0.01147096573877415
0.8535695941099981 0.4465985247475088 0.2821835394590248 0.012261205222168062
0.8568150756323473 0.09001369023135722 0.27035806638055476 0.025007693689838083
0.83246631882406 0.295042565281065 0.29684895230126523 0.010789325848701684
0.8395190703530832 0.36819146384353063 0.28414625789035813 0.008286240262502166
0.8192384749365605 0.4427583203487066 0.2881896700560855 0.0014859934726287455
0.8087323307762512 0.4378210836149112 0.28647827151772093 0.0009938697322198235
0.8654068020095771 0.2261222205486311 0.28309484485901315 0.020014625634787928
0.8121868585729992 0.4171387721181927 0.2861274841535413 0.0018484823990152655
0.8170811124615152 0.4117474769551085 0.2858571024581478 0.004942782410565137
0.8517837649302996 0.4186433993408646 0.27929947647010217 0.0186131257164386
0.8610158180346745 0.443432185228993 0.2708936113627559 0.001604571735255521
0.8258167141318935 0.23765389126178996 0.28508374322753743 0.006560576297514801
0.8191896868999997 0.3903410779131612 0.2873714471051317 0.0013484916917482076
0.7885345643249778 0.158767689700588 0.27989663668467935 0.013154564664473971
0.820060515510602 0.21252827620977477 0.2860388183427904 0.0010075518538113577
0.8323857320801675 0.0865509381857372 0.29201697829174333 0.08069523554277325
0.8136614836919309 0.22301688173702958 0.2836996788839987 0.004523574091800927
0.7978383648461201 0.26127887867518157 0.28932163598921024 0.006693099148897827
0.5871021226344576 0.4330970141802926 0.27941908340322363 0.04411825155916233
0.5948014557185318 0.43762700891434664 0.28241585889987175 0.021702002120210635
0.48941928033989374 0.4170748424347369 0.285279454657051 0.08485224221068054
0.10629196173730228 0.013557783826451324 0.16485495972970363 0.009110477303291304
0.09118188356565751 0.019754279338243322 0.20917240605636434 0.004975129933938442
0.15322484071905754 0.017065667756209518 0.24167140058244865 0.023482058704042543
0.17381866947278207 0.015461573136495032 0.2083605818831912 0.004413061702322707
0.18457066970469654 0.028801337055430358 0.260934351682667 0.1715328284604318
0.03911654921088029 0.018392775967103057 0.1404029110060866 0.0032004125062578916
0.03519636483739308 0.019573707807727343 0.18255814832825581 0.004796617699597253
0.04736087732570491 0.02355125371113362 0.20167078338195715 0.004986509077464446
0.2283571985645748 0.02157860478810833 0.21659676989012097 0.005221701371504892
0.05305499966999732 0.02061327072971429 0.15872944454059817 0.015880864463475773
0.1282938987469354 0.03554453964692612 0.24111391501843776 0.018564958590223345
0.18627872535181342 0.021027011029274675 0.20746799114781755 0.015218403479082796
0.06879267766446734 0.021942400080835943 0.20407585841902656 0.017229845155943706
0.16466679109451432 0.01956104127534797 0.23690687566130827 0.02553987665032666
0.05830596833054619 0.011760205780702807 0.23920917333319902 
0.11618387994088805 0.026584926184491847 0.2741628083110524 0.10482088768326678
0.13862258028970165 0.02432352840355704 0.18167345810743032 0.007497205246352638
0.072644624320318 0.018634016704783218 0.16859045570373582 0.004658941018008471
0.12492748375094244 0.021688773291510335 0.27863522679014985 0.0710162384750388
0.03976330605327282 0.025787270055874452 0.2030779153938164 0.005317160324179039
0.23549391253307034 0.014294489689977426 0.11957770591610234 0.014069451076806048
0.24004350729906732 0.024797640563430177 0.2082925048390726 0.0031251307503046936
0.27144632684038095 0.020154850281755274 0.1552942246855649 0.006761970337364423
0.21588426653553644 0.020454812237905455 0.11072313262298344 0.013493086006808278
0.26161807609056703 0.021767849295112208 0.15117335156245523 0.005833121491988451
0.18510358747025102 0.0171816852111639 0.1780549462852916 0.010588467333083185
0.353512955442521 0.012175484712816619 0.1469850986685444 0.0055915877216645374
0.3648679592259148 0.01600387050689929 0.1202274328022731 0.01944018193305711
0.1943947008079203 0.026692902582620824 0.10851378086747042 0.009643113880818772
0.3880791539004265 0.022163837714204465 0.14371239695633975 0.021016964226083533
0.09095780244675493 0.01471557506447694 0.13683047089515438 0.007894982065133883
0.2980286597713994 0.015545034156743753 0.21426193383358896 0.0060327874611116675
0.24523447276331614 0.01780948058579379 0.14960051297658133 0.008894168430471892
0.30594627634412536 0.01691294555589229 0.22015658692147344 0.007874854167452646
0.28446126623631507 0.020289559216655748 0.17002613440373876 0.006031300262255995
0.2932740210681933 0.018608559360358448 0.1213810425300998 0.015658404932140577
0.35110090605231703 0.016864429120594944 0.16182849527907245 0.014172946086536537
0.3373920150511242 0.017929087246575163 0.16440537600456928 0.004552905896573919
0.19100488076395453 0.020133646309830302 0.1435446954825362 0.0023157653379664222
0.3445108695766822 0.015502637186591015 0.11934493423350814 0.006348235181170654
0.27936777128007 0.021413686415885747 0.2040280990964622 0.0011683648136408054
0.17940765394954897 0.017947118296989667 0.13961161974210778 0.006295761613561697
0.29359725027805966 0.013853863843042236 0.16604873909577975 0.0023524275600336855
0.256794438163778 0.02095057382118709 0.15907119719541216 0.008435628393989309
0.23947728553802286 0.020335677615747397 0.17754727408149287 0.006610718102381477
0.1559360957158104 0.01969959619363509 0.16271788208902507 0.010364766415822076
0.37240071927230883 0.017062562188223232 0.1663653291019536 0.011489155017555618
0.37176595570230164 0.021581591833528452 0.1926313895571163 0.012823577214472574
0.2527285610691405 0.01639803126419309 0.12878596116653937 0.024204891629612223
0.15584778238847763 0.015156130469116793 0.11878836899124892 0.0022068839260032643
0.11460686091334091 0.017824487726636744 0.14838649407489163 0.014609471963007107
0.19019051765031042 0.0162293583447231 0.17251396566460395 0.010159834245761248
0.38392261421332147 0.019028558397575803 0.13453097081946785 0.021318286440378757
0.39630862254839183 0.019560596110333534 0.18787816041657232 0.007385734115481474
0.3927792035318089 0.015448490426311945 0.12888302447952624 0.022395570821301437
0.39010317547158013 0.012622693595775227 0.22268354900092519 0.00392944060186912
0.3952376832964493 0.4296752076856814 0.1677195825993599 0.001037806995932361
0.29123146729310445 0.418874418115879 0.26646847489282127 0.011602900095718648
0.27961963736961537 0.42012838486502235 0.26598774953928017 0.01079867494317433
0.27413122454964245 0.42871992053240054 0.28345069306553716 0.02771032859296362
0.11537448358786481 0.4169475654399109 0.26690197128180027 0.052616735322058246
0.043062011943941256 0.4275071255106922 0.13360869609616108 0.007185626465980696
0.058636814143464104 0.4328795138913588 0.14115339084787085 0.005615152343152636
0.06882942437609021 0.4376986474933974 0.14532632045820315 0.003906981387303612
0.1073632705648853 0.41387581657059425 0.22655036675488757 
0.08147197298695041 0.4359944915366462 0.17371447843801124 0.019773118595523453
0.25863012011085784 0.43187625376113814 0.16050371875380215 0.005821918082476304
0.13624764759464697 0.43150858763448335 0.15080539914049054 0.002273506228798994
0.32238685457473787 0.4388269515782623 0.12775157788776564 0.014175475637291608
0.1330549848975066 0.42840054333276967 0.11696024642301245 0.004006368127935607
0.09166839837105238 0.42938218040324916 0.145277237522848 0.0032393347745960717
0.14937127466549327 0.42897660463980564 0.12140255159571323 0.001668619219521067
0.3361857784496279 0.4298549258909373 0.10978933350435323 0.00552600302450781
0.1216191607380423 0.4279597383699485 0.10207348858578473 0.005965473762698135
0.1159476480861238 0.42938097851709744 0.11808076642612586 0.005159497246427817
0.35125040203193825 0.4294906465019059 0.09698357456923128 0.0006424270429528505
0.12791466353013617 0.42737043894993515 0.1209985219134739 0.0031249198412482237
0.10442699543347882 0.4333157694406465 0.11627900513705923 0.010391834142088767
0.1280214964576274 0.43627417456635326 0.16191412464622038 
0.36743644160579053 0.43286689129122247 0.13121814981452803 0.0026394999473299137
0.3419353070966953 0.4338669474592609 0.1580320204089171 0.0036516376513104983
0.36477890012150027 0.4295499128390307 0.149303060852624 0.0015513628906352783
0.29581379453261214 0.43871243571504565 0.17179005055665467 0.013994774166757665
0.3821865959026089 0.4284811213711594 0.12554358231128174 0.0030692536577003296
0.37345608752030796 0.4316738744469361 0.14727014886768502 0.003034123253505547
0.30564149609766206 0.43157906384013317 0.14787884506698898 0.015502517771345134
0.31190250733234487 0.4300002721501846 0.15623872679445638 0.018416463795784044
0.32204779494409325 0.42010324972579477 0.2693840515871919 0.005886886321321538
0.31421989090153724 0.42103664000762236 0.2661186078745565 0.004831521734959124
0.02430978779329275 0.4273308635301525 0.14788228383764818 0.004095693610006701
0.038366871878563004 0.4253707889050856 0.12490264283521446 0.016877352496827692
0.03120698296358642 0.43038743178322264 0.09409855446471382 0.051654834199031927
0.021148855888887232 0.41584188955706414 0.10954938716442782 0.07153432841447026
0.022071217156192903 0.03174110489648811 0.14340174296410052 0.019694980449112644
0.021987470945608954 0.22343594463624566 0.28680669539087034 0.012190369220691813
0.024141125708938872 0.12910404979149187 0.2830371199624537 -2.925173243204009e-14
0.017084152553835517 0.029184672201383825 0.20319228753391524 0.0007785881935824338
0.018335288154622355 0.027557894705907388 0.10366661908934982 0.0038240513633291543
0.02356586179992178 0.029406210808957806 0.14799522078506755 0.017901410045126184
0.13402210983165788 0.022075023379658807 0.107776321736179 0.0015317736662317461
0.3755039157815283 0.020322227426392378 0.1062861492311467 0.018314825288715773
0.07655431087623635 0.02424541555379877 0.10392618403011943 0.0055333557874867444
0.12184026163872816 0.01970737988552928 0.10234947468871765 0.0009160667389223835
0.07495774203719428 0.025333312300568407 0.09753183458370099 0.009438782985527626
0.10195322214827429 0.025518045210165714 0.09541479554390067 0.0019100746882881093
0.2978192932498662 0.033494146203233356 0.09357390500131169 0.00886022384228768
0.2676701799711329 0.03142523923544959 0.08901018389137556 0.007732160953182439
0.4009497980212166 0.02738467158965694 0.10635050486625189 0.007921920822476548
0.3875281247278442 0.4280544350279379 0.09323879831877714 0.000561136925442198
0.06513231450479297 0.42553560257958367 0.10724118166244008 0.010663914248812852
0.08119601249058908 0.4309448520664457 0.11398005297934902 0.010426628212469076
0.0514790068569558 0.42112717682112005 0.08275041070261493 0.003212551401973746
0.11933084405332434 0.42337796973029274 0.08739657771683916 0.009258812129912317
0.09374222087200898 0.42054370148601095 0.08488234165217612 0.008367923677995817
0.014975158384433983 0.39596760692392824 0.1016268784780866 0.056399477658953666
0.03734415390417199 0.030319388307094502 0.09360736258302166 0.019119790291365627
0.3901072550498833 0.4304091855817223 0.13457383594098452 0.004734480316378783
0.3104225643226886 0.032173834482698935 0.09650179787784406 0.014938141809774617
0.32545344669288756 0.03855158417516767 0.09073769251532109 0.009303644033123793
0.30486510025851304 0.4264973366503339 0.09711775183759776 0.00021739618949891942
0.08723082180312729 0.42973658417479843 0.09471875413439239 0.003283978369227817
0.27785228013413465 0.42825967525477326 0.10603852368854043 0.019614838342320886
0.3461143083492147 0.4347715871797243 0.13227937775739357 0.004979692356930591
0.2779258562135447 0.4308592547029938 0.1428828387747256 0.01617473351354808
0.3650693563592016 0.42954545188115273 0.1042107879255472 0.002461370009427603
0.1088619359491757 0.43214285090205906 0.12408549078534896 0.005464776329892297
0.29273828905507626 0.43990689913192765 0.1392592425343977 0.014543673395804516
0.27413309093429994 0.4344531737286264 0.12765331188464382 0.01636888540970156
0.09858151765249956 0.4310988082512794 0.1092703422162713 0.01052520665320024
0.28432333339261256 0.4302839383737133 0.11250785292826196 0.017763096115735073
0.05213293743865369 0.4271840843104668 0.11462746698815467 0.01598901961636131
0.27142262656067856 0.41605626162630616 0.24083087201397949 0.0002857704647208079
0.3181633119347327 0.4313702788704344 0.17634566114776165 0.006491211040399086
0.2845391783288899 0.41671532367886055 0.23207114752210484 1.7631615904582335e-15
0.3202223191187985 0.4133042382207298 0.2544318421005215 0.006225697116535365
0.24713990801502952 0.42046279698314515 0.2527782199731303 0.008527647199385703
0.16304473524563318 0.41944274183151414 0.2459299408859477 0.004732978183429788
0.133697926708323 0.4210782398824077 0.2411543761421674 0.001771030946094883
0.14823828654737592 0.4162948509747082 0.23368113028983797 0.0021330047293692716
0.03473819877278827 0.4293217925520052 0.1498401702263925 0.006064003130754352
0.058508863495013025 0.43276285739621906 0.16749961403959682 0.00752058251383216
0.12082410846549398 0.419574833833674 0.2541972566666648 0.032947051590972075
0.17202876468786 0.42046060056328605 0.25158032836260474 0.0034133957995233608
0.17378341237178407 0.42499262361222884 0.2733921059770022 0.059781039164846
0.3008869364970198 0.42580628516900393 0.2750662853078176 0.0290389365746954
0.09304220886932382 0.42089237214963887 0.2760980281206511 0.07287481939717222
0.14511171538673395 0.42377693510734277 0.2735491504686991 0.04755145601499984
0.20070249829394318 0.4236412236283286 0.2608237653035019 0.017880368998429354
0.12487228668062829 0.4218305778590241 0.2779857081263526 0.05067652928213044
0.25113735501367596 0.42183085339091697 0.28294425892562297 0.05061152817332976
0.16094342748520257 0.42224039916855144 0.26029036152691093 0.04609058790160442
0.16544829867984812 0.4233655842030141 0.2676807682147996 0.06216378244442822
0.21301917538630183 0.4174607627423832 0.27541056085965715 0.018042085073029544
0.1615767404935606 0.42181384126735405 0.28566364330636396 0.0493605682295947
0.2868112458421277 0.423912124308479 0.27751814241847483 0.0038762574619693926
0.1117817709717992 0.4162910570616338 0.28689980165725637 0.022898793353226032
0.1659833853377827 0.42878795932728914 0.2892904663701515 0.05932411562435632
0.08170142000156594 0.43289389219451657 0.28545236844520083 0.01512757927562152
0.31724632013982984 0.42069932232080115 0.2673356636477289 0.005308482506819853
0.32870199193965366 0.4272962251124367 0.2829470931020768 0.03425535874362578
0.3867794450656284 0.32138195783233764 0.28075856215411077 0.02650814569996946
0.3907900182319119 0.17006950647190688 0.2797123727646914 0.10658169384111395
0.3988136463903274 0.18272736311521942 0.28128222367585193 0.1086544802519518
0.38655644262252375 0.2079708856709956 0.27767558713936785 0.042974885099946916
0.38904994861331815 0.10606830474899667 0.28377802270422775 0.044980010140293965
0.3998101551203486 0.027544219175220118 0.14637922655958993 0.01123916985341969
0.3879782855571122 0.023672207734143573 0.16151269103454202 0.009834761277979852
0.1877016641404318 0.0291646514656013 0.27748864345185553 0.11191997452668846
0.1458121744091688 0.027854602620252276 0.27850151503319165 0.13015586380695887
0.2933623498878239 0.030592006869361997 0.2868622164788424 0.0025575756352682064
0.23200562314210446 0.025115576908736188 0.2829111529429568 0.0024372278705768456
0.31981701542643964 0.03126353923758955 0.2825703420906033 0.0741907809290776
0.05308835648909169 0.016145722849397925 0.11126952730039533 0.0029082911790942333
0.2895382673278027 0.015094533815586009 0.22544336499656764 0.00182268185209703
0.21287502374617837 0.02269391911598193 0.1338783492758172 0.0065177919336407665
0.2640361900822811 0.016213558746358325 0.123919993584272 0.018064353897557114
0.25514905901688684 0.018318746283715756 0.10907456115224858 0.005778056725444047
0.31458459844637515 0.019841605024951955 0.12365197830196747 0.0339088378653116
0.22386766600216038 0.015260305247106953 0.16972819811697168 0.0056291344217452065
0.23133636348390496 0.02285208016583217 0.19633796063588738 0.007102067390273372
0.2775507177680349 0.017821766768987286 0.1531684100802038 0.006866118852075639
0.2689483558119771 0.021544007573458757 0.1838288102327278 0.004424134823899303
0.3131089973299209 0.01350987477837778 0.20118504226798756 0.0016414281556216635
0.19475095607898565 0.022701929233361395 0.1292490888750711 0.011091612829187468
0.1555288000096424 0.021435219963043702 0.14330392231035752 0.00386624108643039
0.0764928387784917 0.022631673478910378 0.11543779528451137 0.0036110363337462474
0.32069547691715417 0.01971320545252779 0.14227131951397515 0.005143315825747625
0.2620425315025597 0.02317638251160308 0.16925161221940077 0.009328359520624864
0.261518596014592 0.021579300148838756 0.19833473513912456 0.004371010817214566
0.37289081280459996 0.014554824593955299 0.2173452362417369 0.010630374263422128
0.17532815670064755 0.02076456910973959 0.10544357648806357 0.0013128580026917488
0.2988644202675227 0.018132827451221058 0.10961458252124985 0.007294890255121509
0.3460695331372558 0.02717457011274864 0.099515049052976 0.0023539788996143154
0.35052837109199514 0.023733618714231082 0.19496389139736575 0.006749979613429526
0.24440007373736647 0.02556696078597319 0.19768504589566638 0.006222889535981916
0.30992968146711813 0.02015326872768425 0.143036515136511 0.0038713353775487827
0.1980907422824405 0.01678895275765528 0.16871405503443043 0.014358646648869608
0.24884781392748542 0.02248272994512232 0.17714736158871713 0.0054529949567292315
0.3615471516082274 0.016538542837011765 0.19412963868373698 0.008940326237853765
0.3508462527078103 0.02106783652473633 0.22384787120898156 0.008706150315207946
0.3346972198863368 0.01682877201811718 0.23741523748757956 -3.7799254634334225e-16
0.12976850217505156 0.014308278755059231 0.15198792934212724 0.005197010429951375
0.09703589606866352 0.019534325542356103 0.12569339198767587 0.007739516670611277
0.19999942501094475 0.03404132788393103 0.25508843374325824 0.008249469008438842
0.18793869230268592 0.03299372123266288 0.24162872147308076 0.012786114644936153
0.08331021950371195 0.023129982909764153 0.1913284241107896 0.0022630411448385213
0.2146654156740215 0.02329508441063175 0.21872486128374488 0.014722055375325803
0.10457693565910287 0.017266206159096038 0.24001815340866178 0.023197368391012777
0.2694515954061247 0.021496764381914245 0.2251537795577491 0.0024330650311146073
0.10219633906818561 0.018507170205057016 0.18180242525520163 0.01443342298902038
0.2513063381941644 0.023774840462194725 0.2231253912020638 0.004068891024070785
0.13160348617220513 0.03101531931473527 0.2597673274829895 0.11248626903132126
0.055433841410532654 0.02088266802396416 0.18457298194626603 0.005455109373492247
0.10126216615686591 0.028505673290952972 0.2676820289843343 0.1004859983719144
0.19564597004443995 0.018673187132491484 0.18620284545381277 0.007797316476425457
0.11005353882301962 0.019939293412097464 0.1972557533913479 0.023316134171595428
0.04600622334711092 0.020882953043597618 0.1696101611692001 0.010870693771004048
0.09146297661502834 0.011393595265473387 0.14421086250988704 0.006569756584677991
0.21401242601624604 0.0263003373375704 0.1993463823740063 0.003363224806500867
0.15917150763533325 0.03190177152766224 0.26788631908494687 0.08357824096382933
0.1427364093641696 0.030786274935772358 0.24626795349170472 0.03522182382682355
0.14278243150780598 0.024511361108497366 0.19157886723087383 0.011826064340765023
0.2780649583739952 0.02325083165982631 0.28516600112041646 0.0027388427819495078
0.14678912218868242 0.023119265789936658 0.21479704413669784 0.0462243293066491
0.05872052742126118 0.0224428487730908 0.18683429251832118 0.004669473998376508
0.10249198143735345 0.013287736428813672 0.17145599726903857 0.007449770247521561
0.08026291889914644 0.03128802567855407 0.2709589540431792 0.03417781351653848
0.11700074103791365 0.016433604863763232 0.2187978854817203 0.02816218687554926
0.07867854802243102 0.026761068254572064 0.27676653196009876 0.030864923526635692
0.12325402283739166 0.015305518468874638 0.20745489109775425 0.02246745770625091
0.19753224154124943 0.01946234036086668 0.2322691601684924 0.015118511810604932
0.037232242965418307 0.02388091837961245 0.15688272315234533 0.015578392622366955
0.03267535743129528 0.02708872934607508 0.19858159470513448 0.004706672902529849
0.03260604484970096 0.022972418726205614 0.132399653309931 0.00944490203943476
0.024721960155406567 0.022426431344570022 0.17813399909884872 0.007783456054216565
0.020692169641809574 0.3082802653655158 0.29016201660522734 0.00240896902785167
0.028367398514887975 0.2936476108265824 0.2838667406105027 0.004163154595631346
0.030047920455244237 0.09118522237955458 0.28401388852681486 -6.682137496019617e-15
0.036364905214166104 0.15529493728687757 0.28633332147982954 1.8473932612004246e-14
0.03666892721503548 0.2796916621371809 0.2768460248430419 0.001088832355152152
0.022902496986778098 0.030979216880375124 0.13797585444121294 0.008366032170616535
0.03297090200891407 0.2564014999203453 0.2761325289689137 0.003681669542833673
0.03678264334853455 0.4251086085959565 0.10859498781090117 0.06899907151510026
0.029518695952690712 0.4323543994267554 0.15778987348574242 0.0031318369649633348
0.02592456381877884 0.424361692401646 0.11528949443812561 0.054663236878782065
0.15022121195238444 0.019301067430440307 0.10437362346907289 0.009910165739164067
0.3275340151122223 0.027699007086442146 0.10294164170172482 0.008709315702368377
0.15114872356675157 0.02022408345265916 0.1028213931082036 0.0055036683010021474
0.1968447277127596 0.02863182141867302 0.09312399513719767 0.013609082506384713
0.36043952218737946 0.03210693291404595 0.0917920675143755 0.0034373355456635913
0.23610992595520905 0.029845222955343382 0.0979286016815637 0.005081466185575247
0.0395232307310222 0.023442147350649766 0.10271094338562921 0.019449672370753495
0.22393197527043235 0.42053246078646456 0.23232565252286708 0.0019377252458665656
0.4036097133814562 0.025056819052092248 0.286867321795255 0.01813532138108566
0.40802694107938725 0.15351415679853536 0.2851567489639063 0.055624179752254754
0.4179805424336047 0.208936119545871 0.27976758621842146 0.06464400230142699
0.39441267122881823 0.05474292446305978 0.28459922474961324 0.0053809785831521835
0.401314811649847 0.124489878676052 0.2899622190923077 0.05664983924723233
0.4168731125798899 0.38034397413444077 0.29514280615159055 
0.4188793654757856 0.30917054701591346 0.2807359563220029 0.07828141529171552
0.4133811232138802 0.12427400409414113 0.2899632800068513 0.04073023212880858
0.392653023769849 0.2647130924857963 0.2834992916348655 0.04136232061771705
0.4025878217800738 0.0938506968376154 0.2858695288626795 0.04426102339084051
0.40694389862591174 0.2858909622891258 0.28798759321907397 0.06038907159573911
0.8631241841581254 0.004272515870298189 0.27947143651183054 0.010898446816880868
0.8216842324226916 -0.006570672548557007 0.2775688001869047 0.012270887176876424
0.8304134386882056 0.0011968319391986474 0.2900308617373224 0.0138335215966295
0.6407710077998434 0.004345139748624436 0.2801844073812173 0.028559142880194736
0.7486334184904788 0.011045197301125863 0.28539741743985186 0.0377704027100596
0.6237685752097987 0.00613577496387162 0.2885409146130015 0.023759040874480438
0.5683954646922721 0.015472919625227625 0.284653916417913 0.04083744045990897
0.7642459326708266 -0.005595407367461513 0.27518395054431893 0.03408860147827512
0.4687520286516795 -0.0024396769316266938 0.2795806039763213 0.0022175536086109938
0.7450081101869128 -0.0003000194792683779 0.27812970954894495 0.03819299538075056
0.5447487333326996 0.0003674449331043852 0.2904993870979246 0.03369721221504194
0.4550145471706453 -0.0009376533350357215 0.2781253020715651 0.0062789222188758985
0.6595217389905189 -0.001719988511436114 0.27931259022350047 0.04896976167167272
0.555237012300829 0.005089023443489031 0.27417157477886117 0.04768341423354843
0.4297031891683662 0.007620430284139376 0.2812260338032516 0.015268089353703721
0.5263625083669056 -0.003843022702471879 0.2872102094575227 0.04143377168878883
0.6393591762137799 0.003233510188990237 0.2831886901285355 0.0337757462678042
0.44881966455496297 0.023284575567744617 0.28462918432843687 0.0038484725915597265
0.5824846436657661 0.00813477703789009 0.2760593129130215 0.09101555111261574
0.4450104278789751 0.009894640184287238 0.28023589199755555 0.005518153266612455
0.1437948968450953 -0.001959550736924492 0.2907028856780679 0.041842635582712354
0.12384565905363999 0.0006898404696635991 0.2709683771354274 0.03360201284722757
0.406383011960072 -0.004468910612305513 0.28471760506274785 0.00961133861805216
0.08081441290472695 -0.008196140892205793 0.28465292455962915 0.006384887688637417
0.38157856839338256 0.002732959102171777 0.28119146744683726 0.01685935219136226
0.3753853706221963 0.003678614358992009 0.28710214399219325 0.013346942779786366
0.3890113362412354 0.006916076078184882 0.28612468464197083 0.01166685459998808
0.2298131588870741 0.007197597862844034 0.28437036899265467 0.011033684501511843
0.19679425232216186 -0.0007977925860035416 0.27176254513411774 0.08794936911276026
0.10584963307291938 0.010390670745231341 0.284301192841574 0.026962436806067067
0.3488173494858246 0.020668708873691884 0.2887365359212152 0.03129875176044264
0.09544726572024606 0.0013714772112158095 0.2803205637405739 0.029020210882490596
0.06772031929014945 0.0005486052031279867 0.2806428711103716 0.018553530427893566
0.2643300625718742 0.01381381617876881 0.28651639431645026 0.0014724104531653169
0.11744620633674213 0.0041836457033069445 0.28523657640369493 0.04423156056301294
0.23979360308001496 -0.00923020965422524 0.28428751583103745 0.0029771696647099585
0.33596174359365166 0.0037530746760957674 0.28428801608280463 0.06377643204613821
0.32228639470166964 -0.0035901862568080214 0.2690771113782569 0.15213064277170596
0.13038062480354273 0.01321405705414599 0.2835116070504448 0.04514158884946256
0.21724268004687666 0.013137605172089615 0.28495769595739584 0.018072336496322772
0.1887741691171782 0.022073612169214718 0.28649332021933327 0.08024923650799828
0.0729022171056341 0.0073030834187671045 0.28290040215037915 0.024831890582701216
0.037946832281291774 0.010150837708124463 0.2839560886027207 0.007179186741439273
0.19010165211240668 0.02518184562001678 0.28267666436216415 0.08495043509630955
0.003954747975528372 0.0014997496066054918 0.27357409788609244 0.0033572449399589237
0.8124835968816629 0.4467932958430971 0.2883962093901706 0.0008726571056065233
0.008802169851199516 0.18883039933391021 0.28201832773594715 0.0021810443931712894
-0.006486956688640316 0.2836286966670406 0.2863052627201948 -1.0068114806278952e-13
0.016755486910875417 0.1366204594657449 0.2831526755731781 
0.010030518605351405 0.06795138158710362 0.29142691836025975 
-0.00013710272887658122 0.028027726578519176 0.28797760624590035 0.002796670575363128
0.0015975607057509313 0.21649588393363497 0.28412401326326847 0.0013590442450242784
0.010935724377462125 0.28820228854158114 0.28562659065211404 0.004013960035074187
0.01329419234417398 0.2183088870023503 0.287722653809475 0.0005106580864683393
0.007333826398686097 0.39260059290398264 0.29007686573874186 5.786967604054364e-15
0.026089201186277312 0.32940628032673175 0.2877715892111798 
0.1329856137732985 0.4322052284403775 0.2910026417555441 0.05726911181560082
0.04965951798966475 0.4298716483852761 0.29160393461727147 0.0002173866023419388
0.08594085342219909 0.45200034777183357 0.2887511312124682 0.00789942663536003
0.15215546224790638 0.47531868578050424 0.28824171812837374 0.008301861342800759
0.024480449190111907 0.47361577409779376 0.28527187117423225 0.015297186179014289
0.18412526033069157 0.4358719892075504 0.29063550652973497 0.0898622971169784
0.1188233336490361 0.43764158366931655 0.28821249063116783 0.07701616732260132
0.1175984740425929 0.4711285064829056 0.2935551007742776 0.0182633170239121
0.17548947326581893 0.4487597840478255 0.28788015968527386 0.07935445712623143
0.046496813310545185 0.4560155180625959 0.2925920545320648 0.006511073477808444
0.056144468414151855 0.4281884397678567 0.2861175801752516 0.008705033863326366
0.2634618252925222 0.45408524038256637 0.29360172480885993 0.013987318004884506
0.20318565918425793 0.48028502304938864 0.2890966320533264 0.0015199709860970708
0.23549448325721772 0.47506943604338814 0.28496534729417516 0.013343892961094693
0.3162681399438672 0.4571459265431958 0.2896870294115627 0.007535107383793068
0.06580573779251069 0.4968198546051779 0.29326153254499665 0.015102106388154898
0.11180799774426756 0.49327258466059226 0.28763657835047546 0.02457002225960602
0.06874376524027863 0.5057015588847078 0.2835815412290854 0.010095346024315098
0.1933347015607424 0.48326886235276223 0.28761273233615703 0.00581037716454385
0.016570067646331517 0.4982306095755221 0.28676486235509524 0.014237627982364595
0.04347403623660386 0.4946596799588782 0.2766576947992118 0.01073630424070338
0.24732264089078704 0.48833003258929597 0.2872198026210485 0.014718850082488872
0.2981140315350823 0.47872616155411774 0.2890599819629484 0.01202064132586272
0.31098312408886547 0.49679359081536306 0.27759575839516754 0.005660505187080709
0.027324540131886222 0.5003659482906796 0.2812059425026338 0.028509076487072748
0.16242266551533616 0.5043771429665489 0.2839115247113141 0.005776075091623534
0.20935452884712252 0.49421733484489244 0.28210038315063546 0.00666395524903198
0.17385977051351548 0.4876999312989578 0.28895395348851755 0.005075089299121005
0.26440625447853827 0.49603371116733785 0.2738769955024066 0.011730700012835391
0.31825332043086735 0.5006268104203638 0.2850830965240564 0.01068714945689997
0.05568663743957688 0.4999460898226977 0.28463561222090195 0.03225268264583068
0.2874911183693417 0.4790476295843036 0.2871485971650474 0.018791566693600572
0.36549204954973447 0.4965689976282651 0.28759886243894506 0.010378004252980319
0.8146228432244994 0.503224839987058 0.2863046869171356 0.025959568899397323
0.41782027689359436 0.5031873282330458 0.28781583181040493 0.0070487484191083015
0.7646314768427617 0.498289008461122 0.2816657814517386 0.00598883076686434
0.6600342223826737 0.4945201116859308 0.2784654145927049 0.04013109888854883
0.7129926236668235 0.5037788248782588 0.2837671922497187 0.03760559377848217
0.5751871982423107 0.5013673606342957 0.2808133753697596 0.014718143870785329
0.6263012279904654 0.48958526680808534 0.2896995041732234 0.048100945749859216
0.6918334950272536 0.49342395930385174 0.28476018266192676 0.05735606520292185
0.49835519772949743 0.5085788970835368 0.277013604792072 0.005342246836347472
0.5631058140667464 0.4997412611599229 0.2832715634790196 0.0057707635599389875
0.45766619145773574 0.4989178990050421 0.27494053549095526 0.017046337496508777
0.4538073357175403 0.5003644842748457 0.28405840454218234 0.03530182503913405
0.6842858403482188 0.4998637467484115 0.2842654071109339 0.045020548576878094
0.520126974960437 0.4867038400647139 0.2864537656365829 0.011196614906411948
0.7565933099213661 0.4782269986094026 0.2860689473034627 0.004210833049139738
0.6307649608224303 0.47233303785114117 0.28645592125550845 0.02656584960823182
0.7135690526891467 0.4797533950317626 0.2840381113456885 0.032020148285873046
0.6032536745257033 0.47402882709687943 0.28805606400317224 0.005839056448035685
0.500421673266674 0.45619033276444304 0.28766760259483043 0.005012020444962227
0.46134568325928166 0.4635381161112637 0.2874223817796996 0.013984217932845811
0.5804164824411845 0.4754256411961089 0.28371703166210377 0.01018480111295345
0.5559121272867575 0.44658217154699387 0.2884598973946224 0.023528649675031755
0.6858724351390001 0.48421988642025626 0.28863789293241104 0.0192387602923802
0.5161824929015199 0.4710212008043366 0.2859180079403734 0.008726914406085893
0.6772543287023765 0.4240342370062777 0.2794512127170287 0.037222670978962924
0.6415472005579248 0.43864655191993634 0.28538831804326836 0.02795723304259913
0.7854604159336108 0.48447515720398837 0.2830392205777793 0.010357419541425864
0.6754344092599293 0.4397548821033074 0.2891742390628186 0.019067741147194953
0.7953524979142175 0.454880008709218 0.28833810487387634 0.007513860061826619
0.690713689521374 0.4295730792490586 0.28571067544285583 0.06312089357338828
0.7436207683375324 0.4253535377327179 0.28567096288813426 0.05309462114508783
0.5359766235725844 0.44539337293277304 0.28543502787241126 0.018237244862848136
0.7221652092485062 0.4515797498248665 0.28770444348793334 0.01685148741784023
0.6093532230540071 0.44113907263730323 0.2848290677747215 0.029615361968037195
0.7768414030308909 0.48512219338145773 0.2831985184593947 0.0036559361249905806
0.632480008159955 0.4442876775575315 0.2845265286105604 0.044166799216079154
0.7266690045575466 0.4655579431484786 0.2860822579150245 0.015825559988188104
0.5137114294959548 0.43746193077010875 0.2872544283334888 0.08240644241451718
0.7689473927885966 0.4489002698784441 0.2889516457434891 0.0023318919195917174
0.6165376932189335 0.4344888287676447 0.2810878828597865 0.01910989438469265
0.5798868376449651 0.44107178861668783 0.2854384842006399 0.023487999693173868
0.8576060650042979 0.48735403807347816 0.28666524410210287 0.042398562905437184
0.8717947599410658 0.45958200316334924 0.2779544649645547 0.03505730748568751
0.8623073760629726 0.1729037445197848 0.2788866507656489 0.05694895831033525
0.8616652081864834 0.1939017468589475 0.2829839564200942 0.025657650264781784
0.8574124823621192 0.2710819505310731 0.2884401507111058 0.016320571977397866
0.868184912301453 0.47875593150333234 0.28356474727560305 0.030183130720047146
0.8567228773410709 0.16501097497150197 0.29033172892429165 0.04226229598062052
0.8633528466903837 0.25706766194304476 0.28559531231479335 0.009190408868206563
0.867005539526364 0.41895088458898855 0.27876506192014855 0.015652194302722352
