x y z curv
0.18039534700778664 0.02276741545516343 0.1547330312027731 0.03956517997399681
0.04430842980396133 0.01755819728664264 0.15735582239025253 0.007129079303567987
0.029326607156876558 0.4167065558181479 0.14430026306121108 2.8082877547775993e-14
0.14085475695169933 0.41997072854149586 0.2804149382681624 0.019389421537530593
0.1167026057340948 0.4280539553625495 0.28991921093860024 0.0060068150095217
0.06370060716463698 0.4278734960509056 0.28230771183985176 0.0015839325755901547
0.15891217379711048 0.4206042753773975 0.28321267897454017 0.013337448734633486
0.12776555443877016 0.41903971263053824 0.2796893561439855 0.022249758669923694
0.12185701561092818 0.03264463975696596 0.286424691987274 0.057619189879395814
0.027458692227752268 0.28150334666621984 0.2878213629960369 0.02016848921604757
0.19194990980058257 0.018781608125640458 0.23164741921680623 0.0027862822952010985
0.19168000767608737 0.02474429224028767 0.20467987610713698 0.015820439198454623
0.20142521901690927 0.027080706159473313 0.1701323862111249 0.018354310641489475
0.2114269563574355 0.019331809272535624 0.2352341166199311 0.002341796242890371
0.17602873053224866 0.012665121718897247 0.17620396399640204 0.0036182736647888667
0.14807167723569428 0.019000043216822353 0.16316127453199447 0.016270048539975067
0.17597211943643862 0.018190975001366398 0.16435869337141687 0.03113388591455814
0.18585996667371923 0.024460659019178845 0.19113451725537906 0.01454327942751882
0.15867746484368028 0.020723430573344234 0.2022576876151989 0.008858931166889048
0.14129811115874405 0.01956813211775453 0.18372958216087779 0.012967216638458281
0.10100300898773859 0.015268937037263374 0.19490522922020842 0.001846494674119457
0.14451870877143416 0.017430403223473744 0.2272216094127125 0.003721742285695707
0.07107495954539186 0.01858068957457201 0.22680106267116382 0.0011451036075292161
0.051054503830643756 0.021883768078940703 0.20386753634080212 0.009459078355370697
0.1070983909418725 0.020550625496017126 0.16118130624981994 0.005115887341417142
0.09612258157681887 0.01971974444333882 0.17420732589737434 0.006459355520798344
0.04693797365667481 0.018182971817804133 0.23566266327647697 0.023843254002092834
0.08969113436668098 0.030740566495696287 0.2887485613058547 0.05342945260020574
0.017146512893571084 0.02496981716340794 0.16329062799015628 0.005062271879092402
0.0271155099616477 0.025160240013794313 0.22483868248943417 0.02301436599631079
0.039266291334839824 0.017540009845779376 0.22155982974461846 0.014731435379167523
0.12345397845497864 0.02695306060823984 0.15253793546023478 0.012395456056245823
0.1728115043208079 0.021195243178388674 0.15832525032212486 0.03151672795222394
0.1400182039312713 0.022655565616838135 0.1568370390170598 0.02080909702391615
0.08813688140521936 0.019831396148334544 0.15732360210970134 0.0031064416214896936
0.06605406306968045 0.0194290953208101 0.16046182467643044 0.003193363460898064
0.03602223245161616 0.16609155212515647 0.27975264477795586 0.0009583176119398252
0.025380915156050697 0.029498373552831154 0.20875904478086607 0.010398668392136847
0.15495867481144876 0.03634215005445615 0.14014470019846612 0.0007707055994061608
0.1984899761036452 0.4300352698896336 0.14401528074464404 
0.17139401730532097 0.4348805479138893 0.15437981978397416 
0.046529959001876835 0.4319479664253483 0.13894471180355475 -3.288757376918798e-14
0.02936899136263275 0.4227345760917353 0.15748273456311496 1.1031714012678711e-13
0.0016550378155927906 0.08938646325170552 0.2869993722716472 0.00023174693744433533
0.00037916133618024134 0.11952419159901494 0.2857356658009996 0.0009574585036786823
0.013802831335522289 0.155280944898562 0.291170918186138 0.035784481118624
0.019765512374601817 0.14787172673339852 0.2941461323169293 0.030314488603595004
0.005085066664921897 0.1988555824209234 0.28872091054644117 -2.4748116600254985e-14
0.015151234663803631 0.36965504310682634 0.29812280437047767 
-0.0011967983215292659 0.22277793421388367 0.2906998257372803 0.00806307264399106
0.0016590851333783423 0.474582724505075 0.2864882495645088 0.05733958382665657
0.028645396331867613 0.5045128178247686 0.2804865790677852 0.020532426339286425
0.0884254633915755 0.4930012966794975 0.2876965907894842 0.037484609652091556
0.057285938635260825 0.4964127558858045 0.2867491235696009 0.01202162277311531
0.13186902317949434 0.4928100805068561 0.2967978699161946 0.06645784525939849
0.1306859090444402 0.5020187606239216 0.2848905132034697 0.03709392323902988
0.14780432759502743 0.483455876718368 0.2943324706084847 0.04432073595129985
0.12660710782708615 0.4238655277938937 0.2861922036503782 0.025953996567384504
0.20135528107358083 0.5049664282352749 0.28114377353127573 0.011918255703727681
0.22828668942151364 0.49006756151325864 0.2905913303073935 0.014236153515175343
0.2188003049352987 0.4937971270912423 0.28870335476917675 0.014772481516533835
0.22876105583033782 0.4942957404825516 0.27726967112778517 0.0034686267119145814
0.2582776301328599 0.4735177707872758 0.2909481745691725 0.024605574522456194
0.2619441665801398 0.49719042770909133 0.28787824399463696 0.021540000216214775
0.2555808595810303 0.4981820651075394 0.28676745129985093 0.019614028983268385
0.27819655696011486 0.49500228319676376 0.28043540856805865 0.004284703325104427
0.28854436102657205 0.4884059041351652 0.29210118561715137 0.008522781186615811
0.31167525771234095 0.5022288830474616 0.2879624307420089 0.004304803052509616
0.29045267333085045 0.4953156038529172 0.2854063105730531 0.010136708117649348
0.32523821702308986 0.4876205370611795 0.2887369741173469 0.012338843531288342
0.4025581477318718 0.483127273552441 0.28960211670258873 0.004740153091839327
0.4463676150770775 0.440028237290805 0.29815693499798057 0.03591213437362866
0.46519980329175936 0.5029956860159308 0.27728855527387475 0.005967313247053979
0.5096143304466026 0.4864204037552175 0.284204236632004 0.006702308566214138
0.5072542703873539 0.4813802539624142 0.28677213804143614 0.006896682493382484
0.44666617153457955 0.47981756017618377 0.29084342292519305 0.0225083937336923
0.49062619829222937 0.49776394621169895 0.284008400349136 0.010408461202696962
0.5594859995573813 0.5001959377170829 0.2791600852365295 0.0035019061202970323
0.48082304375096185 0.5082042493691435 0.28116584026098773 0.006998437581546585
0.44080711259893157 0.5085930894708877 0.2885823965823522 0.02108157425116149
0.5087686786316131 0.49906843981332294 0.2756634360147827 0.0011670709708411797
0.35983090106572135 0.49477760160358464 0.2825168848498508 0.011219632598619226
0.5903337159262776 0.4554628859535925 0.293025928292965 0.006974617742773063
0.6477770182785694 0.4412867813019438 0.28936005131249765 0.011696774004414094
0.5817482813566778 0.4765735211165451 0.2922157080685321 0.008362908413108472
0.610849053379259 0.4633850553578194 0.28789062767927076 0.013211397422189627
0.5358643856569805 0.47524588540600554 0.2877144870189907 0.014636488079554848
0.5443154013981869 0.485845611459647 0.2869375707576606 0.008295051508972423
0.6294642986680006 0.5046044538301944 0.2938790226573546 0.007897999030616932
0.6144891129022657 0.4977913800293864 0.27484215165284315 0.046529821617882855
0.7424394491207993 0.498131471775105 0.2857589689976715 0.020321503004330485
0.6039696227531376 0.5015252206348206 0.2777742864465788 0.06410735040596999
0.6685225235730045 0.5046378968529257 0.2802585867665029 0.010590274592542956
0.6553795788589198 0.502017512575219 0.28391663604184275 0.04040883203199011
0.7071622460746136 0.4982672390632305 0.2808908503705487 0.02411249283345341
0.6104786604224361 0.49819217367779817 0.28092801732308503 0.04852941602576037
0.6963249960631687 0.4968201116750605 0.28026250528462815 0.022203557642325896
0.7035197532130936 0.40176664001865386 0.2896449109144856 0.0009975337911070955
0.700335993206976 0.38670253044688235 0.29134731999933516 0.0011200868040499418
0.7158266720514279 0.4252370338090501 0.2885326027515618 0.012486633313700278
0.7143951053238405 0.4161343535762119 0.28782624583438804 0.0027656398868673563
0.7496547912814329 0.4408942284281201 0.29368008008451424 0.010679685394688332
0.7507169438392933 0.4336217354867618 0.2882609418384114 0.03524856821878249
0.7480068494902562 0.4258926368218138 0.2796800470657686 0.02750038075055762
0.7497652341939994 0.4305517372292547 0.28339431354753086 0.034281233490510786
0.7581456818781528 0.49855387823619324 0.2853729569706969 0.004376836411630156
0.7538655311338783 0.47445414674873676 0.2837952506546309 0.0058750677604130636
0.7412861282474604 0.36158409347233306 0.2959876460390408 0.03239820195801029
0.75930126328702 0.3554792635231647 0.27799257851443493 0.0016155556885921016
0.7180221069865301 0.24809162050659747 0.2963584324418013 0.02183807487017093
0.735784384676632 0.31551471331125064 0.29022992385508406 0.010137803163748503
0.735955369470315 0.23167856305514534 0.2865821377612018 0.011675013942615569
0.7510828053791003 0.23728380944422958 0.283720102010319 0.013379317122020997
0.7468894351109322 0.28156578104139984 0.29120073310951433 0.01848207208220292
0.7502582681601494 0.2448165267384289 0.28645224252140417 0.008871443139982465
0.7552196431033377 0.28589755629989194 0.2830032139833533 0.016542933660101483
0.6782401537832337 0.18497132261233876 0.2850420647097717 0.0021866406610273554
0.6973951774891812 0.007269811303931032 0.27432887159382924 0.003838720908251797
0.7497716718342873 0.06494541032856233 0.2844650435491464 0.031150590785361802
0.7022722751578951 0.16399929833410293 0.28822939758675165 0.0018273599930396516
0.7293106073393963 0.1308294442177688 0.29039063177759694 0.013394429162443707
0.706024311627038 0.13596514666789541 0.29486349200318845 0.0026325951291977477
0.7081817402495001 0.10296004125127414 0.28719201127137994 0.008106251876044144
0.7341299003788346 0.1631632336562465 0.2905960566583312 0.017805241602127504
0.7503302814809719 0.09796617637536773 0.2875807259946323 0.005021022697180407
0.7616748730401764 0.12492318347435714 0.28391579474034484 0.0199743248159401
0.7575368063016731 0.04194366238663692 0.28025252070752266 0.019368245264406135
0.7559985413121494 0.17970734880707168 0.2897435137506533 0.01680713875300929
0.7545490061548652 0.15856355056871363 0.27910448250617914 0.00932529873011989
0.7571115642595665 0.16159871010748225 0.2833686011610931 0.029249599238909636
0.7407962780667271 0.22034956712924578 0.2857430868531353 0.009084041988107375
0.751973692057037 0.20304426074897058 0.29114378004444164 0.002210499869109852
0.5499170908030201 0.0003222496680300698 0.2838414615698696 0.03710108165658604
0.676315555866707 0.00479771569449772 0.28084174130372386 0.027912005671101425
0.6914742301997577 0.005506365107556897 0.2854591869422012 0.021030438379832025
0.644746243779088 -0.006351772878177522 0.28228168271602233 0.0554659555964437
0.6351366287799345 0.011104079581216068 0.29635751420873946 0.03416178319737724
0.30160508527292557 0.027234948840306104 0.29129286752504496 0.015274563440131141
0.44833270296488165 0.006277254939039103 0.2863512445998546 0.0209315676355846
0.5067109384062967 0.01337097985443256 0.28384925836335323 0.034223248605319743
0.48195802527391074 0.010194264470260301 0.2899103357559093 0.03956771581993573
0.3452791752749958 0.012026169342565354 0.2850719351970569 0.00757301373155001
0.33258206102791477 0.0035779092354694423 0.2841107930021982 0.004712469719327689
0.46304855325583105 0.008005781785357406 0.28944726547018856 0.058378623867384356
0.49072995161742733 0.006330444751096406 0.2800663927948264 0.03157123622322815
0.4552516787344628 0.0013822240057688616 0.2837146973526217 0.034291343232530976
0.30007597062544566 0.003955904370913776 0.2935310235196143 0.0032386013709422533
0.24306937318296845 0.010402335632860497 0.28332177066348685 0.07163673546006513
0.3933644476295363 0.00010109434351874053 0.2821046749535448 0.0424521744538255
0.3305404299454882 0.0067613464695152215 0.2852425310585363 0.004683570768526625
0.3087067033709284 0.0021817847791508827 0.28729383287916016 0.010374651244072811
0.43392863608656157 0.008155630629445843 0.2950090706870466 0.0324498643399869
0.32248008275432793 0.006560929616788109 0.2846864347182382 0.006123622736302984
0.10694563078234433 -0.0004940779533880336 0.2861570286765555 0.045825594173350706
0.18096829132766273 0.005305439387908666 0.28217790648563384 0.10660356775212894
0.07567946869923865 0.0027258662551275688 0.2794715534557298 0.06392006987091424
0.03322748352998699 -0.0010215140803474425 0.2824907669511584 0.020299382339711413
0.05415348667048807 0.004066624378692366 0.2862489164603403 0.014601712039447061
0.08904550545933447 -0.002645183750499302 0.27755962525331457 0.03974511639948015
0.13062656244767928 0.020259326909467103 0.29422638085055347 0.015522006177508124
0.0017647727139333564 0.0033091288805976657 0.2847460237268935 0.03072436167027555
0.2260123973772813 0.3541545481552364 0.2923568482716012 0.0006864563846386327
0.5897776622345224 0.41861840900963576 0.2872087343636961 0.1031987126625628
0.21530995990184001 0.23483865319424324 0.29506244363688894 0.041551749023849636
0.20202671293873298 0.08453564368640866 0.28860486480901315 0.0020870811585329808
0.22173254057725772 0.2281665888831121 0.2854526257770512 0.050392707567461614
0.21613157765010596 0.2976497669579694 0.29160897364204325 0.05263343520555675
0.23176163913591039 0.2509985988397225 0.2883675125543376 0.0837720922854496
0.15016746089553973 0.4376988915812685 0.2928335098794274 0.01028329576258795
0.05036134693620619 0.4303430261200017 0.29010921123935 6.08457994830833e-07
0.5490634654769629 0.4340677695929525 0.29209920075795076 0.08082055235368625
0.4841015885505227 0.4333423614780639 0.29244219503839175 0.042783457772413366
0.5047357551716721 0.43140485614953306 0.2915770392221158 0.04185761046026372
0.6332811131067949 0.425557676089391 0.28862076084962973 0.025215977982370612
0.01094658700242258 0.48836581916685595 0.29164627253329595 0.016127992675258888
0.7015061269014813 0.3493889874243797 0.28788792962301324 0.0011860694898060244
0.6979124058361054 0.4116788117559229 0.28916894953123956 0.0009864825433682923
0.037754340943095356 0.018392403455834365 0.285427349654051 0.013531783473860689
-0.005447210605702493 0.023413123233098517 0.28074840364357906 0.019945054939849112
0.026240709241106885 0.04111352783854334 0.2908516839097042 2.2226743735995455e-14
-0.002961001361261867 0.04362964852989101 0.28068749308375224 
0.0075553876346901635 0.09023851123759291 0.29114046653754755 4.080166845123545e-09
-0.0021874021020511607 0.10571237568839861 0.2847930409221442 0.0006498178377347031
0.0222005154616972 0.21470403769488638 0.28653009923074313 0.002800945827090123
-0.005412700576797459 0.24781899618512906 0.2807434508249128 0.007061234489569205
0.0013460343134369434 0.18581155609926175 0.28598986056874776 0.004984425724503917
0.013051534878409259 0.2944594377203398 0.2942771228609161 -1.1227993904120472e-13
-2.8959314160386892e-05 0.3454819523286693 0.29473099929341534 
0.0009703711058070474 0.4233760564897945 0.28484308921284857 1.6207298149288766e-14
0.011931604837899524 0.46908189723313165 0.2918562468108243 0.05594161869595017
0.015295412753514653 0.4560290026191435 0.29443213055536416 0.004093033844118808
0.0015984684046631832 0.4626210998643566 0.2863767324819104 0.03504926814259131
0.0069415454120040476 0.48790676442516134 0.2878024332931513 0.03422633750622079
0.050239688847388296 0.4839685243432697 0.294133862454102 0.00974661222835685
0.03283924095492572 0.47074148021290424 0.291593837780081 0.011611670695165248
0.050640245331695394 0.5060343600402496 0.28029860902598663 0.0031438194169126988
0.07497626881949658 0.48571859157094877 0.2904822051431282 0.03329861972439834
0.05885945196525056 0.4461176061925127 0.29904427244553683 0.004648777806264403
0.05741076955090639 0.4833477163581965 0.29660754187943134 0.005909157836589443
0.1010858936698371 0.4570786702939475 0.2899457282020398 0.007218645310726178
0.11197232934803417 0.5016602815492827 0.29621366604070726 0.0060365460053608605
0.09225645858654 0.4582521656135595 0.2898022552875834 0.018341826013683647
0.1298338026707057 0.45514421056878973 0.2901767280537914 0.007934197044269623
0.10026733042356824 0.4882342516613091 0.297648729917513 0.031890092626799656
0.15782232705456284 0.44909795165454697 0.2892286642177202 0.011518331534380118
0.15281603012398162 0.4895453753377356 0.2844152243017816 0.02372504102524266
0.14704279304887688 0.501144780658364 0.2729559339046667 0.023439210830096934
0.18051480664255212 0.45744457042974934 0.28718717883583494 0.0024354449519232687
0.11174663240450765 0.49716839892338505 0.27935853170915487 0.03106044499068151
0.17763015990649253 0.4897010145141246 0.28854664561810595 0.0394324393085941
0.21685785027208992 0.4518355703057946 0.2943278583471697 0.00010684246031189378
0.19919422375315157 0.4886585054599588 0.2893359620879315 0.027230776664148696
0.18324526725137014 0.49592231927208474 0.28875227486014965 0.028208211995565387
0.26788793422069246 0.4417825631920514 0.29052427978815276 
0.2378903785680415 0.4390767436952623 0.2936866715819949 
0.2542371232470365 0.4856484165399256 0.28888762736275525 0.02090082169529041
0.26387760779894776 0.48327337212959615 0.29096618833127846 0.024891793617223736
0.3289332914768396 0.41988938884697613 0.2874437071073327 0.0010685751633839548
0.38514328905520323 0.48456173244810186 0.28905870797223854 0.03353703043775779
0.3431794089794457 0.4927790765065054 0.2810794360084675 0.020159404068175926
0.3651591483062403 0.49330416811425426 0.2875957996356869 0.010223886656088919
0.44073232581116883 0.482352837863924 0.29017897574841245 0.020218921372185523
0.4262779577644944 0.4951708028321814 0.28793956947927163 0.0034900705172482283
0.4177832058651561 0.4730546650036709 0.2888253107027037 0.005403620755538718
0.3900213700152711 0.4995050342964873 0.2812685093566685 0.003398604861668038
0.4204975287983326 0.4293183569005715 0.2874580894838838 0.022299005285081455
0.43712761876849476 0.42916642883189904 0.2917605330705868 0.03454565623055156
0.4671129387233422 0.43786532473892925 0.29352009625802206 0.032760291080469704
0.45867656862993295 0.48105095881369214 0.2938807121438313 0.010681054561858111
0.432522026661072 0.4694871717811337 0.2891082285388123 0.002065727056571643
0.5007383756698974 0.45384555269483906 0.29675019263110614 0.034967616591781506
0.4831080160476804 0.48553480980760244 0.28511533395434485 0.0072395157269319
0.5393513282137684 0.42713326072727364 0.28739223407771314 0.09703425797932656
0.5235144334225854 0.4261928255085109 0.28113671477138935 0.07512490597630675
0.5496395210532118 0.49975282655076314 0.2873612478958127 0.008048710945070738
0.5285687067333709 0.4881841072605264 0.28680360345656863 0.01075901674514833
0.52414673635156 0.4967654153799523 0.282725763004036 0.013536090496628374
0.5755464697145581 0.5021490521761451 0.288876671881167 0.007332951175228169
0.5297369717076652 0.4640667738830704 0.29044849032772924 0.016822791820579507
0.5381016645935267 0.4409702244031701 0.2897484789460803 0.09277367877142972
0.5752983752557174 0.4552559725941125 0.2932314282774409 0.014943445215788212
0.5517608245166391 0.46533948328322405 0.29294687029583766 0.0057372672455929235
0.5951228184886326 0.42749103601337246 0.29351513799939116 0.005508426504665033
0.624541641848536 0.4594122480507449 0.28881332275338495 0.002368575949444984
0.7273475951400699 0.49680259512942676 0.28890139616234733 0.022109904506791327
0.6818482649720684 0.5037821662561944 0.27374348181697694 0.005182956120337907
0.7062010109998529 0.4815117750987124 0.2904376198343569 0.021928989716795914
0.652355660216194 0.47491490793809826 0.29097368116565686 0.01976416792300746
0.7180359296898939 0.4994572871672698 0.2929540959576511 0.012462559571283177
0.6370785074667551 0.47759960381318256 0.28998785083971973 0.030074042956728417
0.6292557271532374 0.5007241022978278 0.2795945909836173 0.04045155370925116
0.6857885853131878 0.4902066618995005 0.29052005604002074 0.01787053275206322
0.7073930851522894 0.4664405505431701 0.29226663925375296 0.019080705876591494
0.6784615721134889 0.4530270631424746 0.2942616313444347 0.000832153746946317
0.6560554785355619 0.43844883232283066 0.2880695253067901 0.014705128420686013
0.7633086116479013 0.3997393639833831 0.2925469831978392 0.00333252283654724
0.7535631581695038 0.37889143549991455 0.28061613161543303 0.038577633080903284
0.7280303210956715 0.4551476193976489 0.29520011678614927 0.014474904721811717
0.7229092660891809 0.46180330096696903 0.29305888250549383 0.009666323415467817
0.7345254428092749 0.4857431399401554 0.28682139619050556 0.017788559869625173
0.7212386147548434 0.35607629431365967 0.2907114221715639 0.0006419594256037961
0.710541186342433 0.3423434180292173 0.2881433312899073 0.0015826150906567999
0.7462619914631189 0.35537709784919447 0.2939023325706046 0.03184726792365076
0.7555877698016618 0.32165858828546073 0.2859684078188436 0.024066034369530222
0.7174519340175829 0.3137536091621114 0.2901572742966909 0.0014182006246931515
0.7239978721257194 0.26512294784982693 0.30117557536862494 0.005220154773646109
0.6835047404714226 0.2501586248643664 0.29068778016806834 0.0027211537489998903
0.6819442551607615 0.30601743565492256 0.28807720053324315 0.0021426232315324327
0.6935704007343365 0.3145551742201661 0.2878558155424516 0.0004169624423341739
0.753624265024947 0.29027037320371285 0.29287931259292943 0.011325877718059967
0.7589890578998758 0.3058323847628602 0.28938295997114677 0.02071051959962777
0.7501061890853931 0.23792263918837553 0.28210422369261845 0.011605207416330567
0.7479500921991248 0.26620698146811544 0.2852507230304944 0.008207347140491804
0.7283686555223069 0.2013991573085521 0.2970193432249121 0.004687941881026162
0.7624453880615606 0.17450208753384044 0.287836638801644 0.028470353673314328
0.7517128998415354 0.1337947892025671 0.2903960983298683 0.011536388918468034
0.7491508996685989 0.14770995498049352 0.2911732416487098 0.02105444422242475
0.6958875868063702 0.15919768326359002 0.2889533194647065 0.0019238022885801598
0.6955524287577383 0.1346211606976746 0.2906916463433638 0.00609393843243626
0.7511917782910343 0.0829835045796942 0.2855002166377697 0.07229390072864922
0.7313345097738589 0.07331887785803083 0.2944980639965241 0.07628610369818861
0.7307256201222994 0.003345926817319097 0.29481051183994683 0.02798717385157026
0.7262965483996625 -0.0031306484577341047 0.28273198546526124 0.055821525180429335
0.713136824697369 0.005992250990056273 0.2900315459785379 0.017501887627828606
0.6515707094761025 0.02013817470079738 0.29473552717260565 0.04568921526804886
0.6612467902466819 0.002610963242031802 0.28152928629185014 0.020271632618817523
0.5807723245788591 0.015697893781769966 0.29269403090134766 0.017674819823731158
0.6118693755197806 0.016366230370424926 0.28645251599363863 0.04703864915957815
0.5851877684297735 0.002322848986094911 0.2899623197510571 0.022256888492221263
0.41756069284659014 0.002537528765428198 0.2741814487026733 0.022342091102027107
0.5074233824673773 0.007354810331030581 0.2768479870587906 0.04323208870005437
0.5397717116863843 0.0019716634597237324 0.28240090942887974 0.09284289570477393
0.516369550141196 0.006204639989112398 0.28089126166817885 0.03459213612198035
0.5450548817813486 0.00535248888563204 0.2915735542262693 0.03650676035648987
0.46934852745274686 0.00232104865200865 0.2793522897615991 0.03003878252269313
0.5688763155772023 -0.000233667608554697 0.2876419633564208 0.01727228054369295
0.516048434568889 0.019774418512072497 0.2917272930603148 0.06319439440075611
0.47643909980881716 0.01574017614498889 0.28854665396944645 0.038703261157608075
0.2908157945649411 0.002348517528664111 0.2875482126316916 0.015661035355449313
0.2739320607657694 0.0018231596629147185 0.2838815480458319 0.012099993656428873
0.37934508141699036 0.0010833391638726444 0.27788419560805316 0.019096569809024588
0.3530142621038419 -0.0008973711810155419 0.2775948460922956 0.00894984082937498
0.2479513129933092 0.023207990264240804 0.2936899446333276 0.00024520513772869257
0.40585756596444234 0.003961680641231808 0.2886643138675267 0.050489112928621745
0.36269713351035293 0.009205340593045903 0.2812177844068141 0.00909989466454271
0.378067853482797 0.019005554732829198 0.2902243365356067 0.011229697800859808
0.41576283646831397 0.012148939282078774 0.2908472072676939 0.03595169497861853
0.4443750674783632 0.017555036804650648 0.28849780594665686 0.030985133636551022
0.3122079860030638 0.023774299042718345 0.2903466926544168 0.008400864288323276
0.09116389615922904 0.00768345814377864 0.29303285336692503 0.03328823594525745
0.08882373080484897 0.018591431219078598 0.29170922827186474 0.032221651326837616
0.07347729768865359 0.020336827032179206 0.28609504535030106 0.038029051201484115
0.13281729429308625 0.005502045383795875 0.2791147370497813 0.01649964222541485
0.17811058000423516 0.02162327956746105 0.28922544659919075 0.0717009020494097
0.1905797858253029 0.004566322358238232 0.286543752771683 0.11005327528595922
0.1516360555878909 -0.0037725394918027024 0.2866989421724502 0.006744122907376542
0.20183124008235118 0.024977255257458225 0.29173503240686927 0.004486628190970954
0.2180206849133452 0.013970366020222943 0.2846024919584961 0.015415537561744899
0.22172190083528143 0.003071936922740413 0.28401595392590623 0.007031435194863298
0.2024679215716829 0.0056293162935207725 0.2837287304477387 0.12470782428686021
0.21555303951590105 0.008587118324900295 0.2840640371312304 0.005119375807277495
0.22751463700858127 0.020281440425783642 0.15049055393358746 0.017046277011248202
0.25091185297019775 0.020505606119067037 0.10399535713002254 0.05756037757001998
0.46082104567938675 0.021174747738543852 0.10731334663446034 0.007873811836685046
0.6830357409752723 0.11703742335529546 0.09091376463138116 -3.1302482051961985e-13
0.5327118392961726 0.42529069188687035 0.0841236534158534 0.0003468936402286461
0.5020523806177708 0.4296913505073822 0.09302345729946267 0.007906159681583907
0.6010262007399122 0.4294244842455779 0.1033274265943955 0.01547295981280459
0.6871611912301666 0.4138331421226138 0.13684353086876816 0.05616842835032107
0.6828909161600413 0.41205001642811306 0.15814742813818827 0.0425845425328487
0.6880836075267366 0.4030849494696864 0.13092286030585157 0.02844135862107082
0.6837105781290941 0.1702737434335132 0.16559233952500346 0.0010075034226010614
0.6850572835384461 0.1764475781865363 0.15948952091776608 0.0035234940360106453
0.6874714536025534 0.18846528430451592 0.14784298999812068 0.00542800891849248
0.6910498510168286 0.09482115690203824 0.13884280460409748 0.0055780914618220176
0.6835994083696821 0.15309194409475385 0.14781262133390294 0.005910284230893727
0.6813173878009176 0.21872965951531514 0.16207157692015428 0.007328844171001193
0.6859666579686399 0.15729072878406186 0.12387265595503322 0.019307411885598123
0.6830144999080273 0.23535155164043697 0.15330479190246946 0.0062868633960927334
0.6891575195862489 0.23828188536803357 0.1382521608252224 0.008189976848358286
0.6827971279429442 0.2092574312356066 0.13986984773782102 0.01598147527308737
0.685323976186686 0.2515113493463949 0.10790061545180589 0.004091053913205899
0.6887338181479651 0.10581140939740033 0.1305683623435497 0.012629068560713509
0.6818966989239001 0.2233143775902174 0.29273298794569846 1.5544359332809918e-14
0.6796955417207642 0.3665014933509084 0.288783974504463 1.6003675710147292e-07
0.6840706927857397 0.07374761481128307 0.1483371228820507 0.004445102569373288
0.6860265191342395 0.05152019264810866 0.1781032754110527 0.05569358139465625
0.6838614479495498 0.044044321770921144 0.1592885801882447 0.050598802022121955
0.6872974820732349 0.11643120441159083 0.1555036550687961 0.008051497162090323
0.6894767966494897 0.21863701000357794 0.18567306066158934 0.0034478092566287005
0.6717732440787194 0.2199763130199089 0.2870411696230944 3.580831354311002e-14
0.6806011912143817 0.32326390005727296 0.288654304127857 0.00021973019173723363
0.6826580192597264 0.1672190885390631 0.28767597207368184 0.0030307810279461083
0.6659627850922641 0.12221522872354271 0.28055645722919376 
0.6823325356299353 0.1852141311215448 0.10721397918356115 0.005442924064048422
0.682815757350589 0.022180671827433978 0.1978036829161608 0.0579747635804035
0.6850645797551058 0.028282528803890088 0.16180784878453391 0.0768422543692703
0.6777991917018448 0.2184111944924833 0.10375457599705329 0.031621856100149955
0.6831548603565057 0.3929311042377213 0.09886023575500258 0.03291707565724939
0.5091752943475718 0.023767158746525525 0.10322664219867027 0.00432687523058281
0.2919086671747793 0.019658358480206157 0.10371736592588542 0.001815416536705087
0.3226588020498247 0.02001951661744902 0.10098310196237875 0.0036877513552867652
0.6092717946774238 0.024201170560235435 0.09843148064598581 0.008106080288350683
0.6681673982550639 0.021486576335568476 0.10511033622556001 0.037143405332380953
0.451634730688407 0.434471788124949 0.13934588213488983 0.004263740700960487
0.4205163153020839 0.4312609555596346 0.17491594490739396 0.0030048900389492766
0.36827508538981746 0.42850917202025723 0.14868202861471677 0.001947950441619335
0.5314875920511298 0.4279646747337266 0.12439220455225412 0.009639857679544443
0.4436289222643132 0.4304368192242575 0.1585236666480569 0.004136544580935012
0.38026405253437623 0.42520962240642923 0.1252717426955188 0.006972824198799483
0.500214318339821 0.431527868625265 0.13371974653402902 0.0026791540874046343
0.34096116540806637 0.42936413516260874 0.10745434071414663 0.012296935936551838
0.5211672900027645 0.4257051750495435 0.11829672411345046 0.009987816015200652
0.4113142652322698 0.4304729158079884 0.09570634072980252 0.010111295743265218
0.40101416131874373 0.4325556301023356 0.11264644199352179 0.00396938746433514
0.2920253945396941 0.4314717973210952 0.11871965749797332 0.006666209992106314
0.48942058656533166 0.42833755521341793 0.15105758576140133 0.0022373007093325543
0.43116582747506776 0.432784713145731 0.13935088565320358 0.002839039692736372
0.37462415357380746 0.42394262215786266 0.11448472725862766 0.00921248344388934
0.27345146843923324 0.43266510130990593 0.13299596916688905 0.007804794714104409
0.33476616417956334 0.4342590732156548 0.16844710707165766 0.0005939958290165848
0.4006101766282673 0.42774015196793036 0.15391290015130502 0.001872826972890815
0.6567281273572837 0.43607341628737956 0.10901992860575373 0.04900579825673418
0.6047545241561557 0.42804056071812674 0.11698867799973323 0.009166302935091207
0.3403844510551803 0.4274797398496099 0.14053045923694102 0.0037362371336616147
0.3134037462780287 0.43244403080196175 0.1703611437425457 0.002713676681764086
0.28172312963013146 0.4335612150625905 0.1861882011055346 0.0005167960919157059
0.45604010548170854 0.43154258917827104 0.16422756451725187 0.0013055487617621155
0.5416928006702937 0.4277533072626599 0.14696985383772324 0.008449862025593185
0.28623502816744634 0.4330104122296995 0.15812826694949372 0.002860029659891807
0.43599411433098384 0.4234310463907776 0.2854119303799018 0.014796819391162456
0.450502018848743 0.41993489497550934 0.2830242615727332 0.012364942976015961
0.5531803234751803 0.41271794956156704 0.2376205118320131 0.007362645335967291
0.48814194299043223 0.42096480485262505 0.2561949639337015 0.009449946652652171
0.6133789098897928 0.43553553030257475 0.15324304939590602 0.0014377593100170472
0.5682697836199887 0.4297521503931159 0.16052405443753515 0.00722668956244301
0.3996436718270605 0.41970696481732445 0.2799826757888335 0.013090896667860698
0.4119585750284997 0.4168884510870096 0.2605387322132565 0.018688159420415705
0.3893070970806705 0.42166154668289574 0.26167616388042686 0.007104039768337073
0.3392598443530184 0.4158206760946518 0.259023983346715 0.0025395104088544586
0.6129575700380551 0.42858310952653267 0.12829036227566634 0.007191987280217741
0.6804467517057543 0.426954375537173 0.14301185574483902 0.05019068126043394
0.6319735165965897 0.4153048699224776 0.2760721031391215 0.008623373219300413
0.6043773839200463 0.43131840465455107 0.1392694348723571 0.0067268316161143765
0.5299209291395877 0.41732932573670783 0.2418521724912174 0.0033986172278707154
0.5173441625903787 0.42721827521720535 0.2878162114317923 0.06710003341223271
0.4647696334002785 0.4243958568252616 0.26342995242742734 0.012545581469138815
0.5673235753040078 0.4357730629973984 0.18389201860995782 1.2009074049075414e-14
0.3553271100430421 0.4172297265176512 0.2713618732185885 0.0012951572383860146
0.4059682499436478 0.414451083000712 0.2652249524487953 0.00857245739501501
0.5688793969990741 0.415660294371566 0.2627817346821087 0.005123437304069528
0.5058270726900554 0.42546834514214954 0.2703011816395043 0.035879364011664756
0.5231004237873129 0.4239594475253255 0.2661649432872903 0.014110581717497737
0.46996172060828073 0.02377289768825154 0.2098774942262622 0.014269446539284747
0.26727957998569085 0.02023049109884096 0.18615566107047235 0.002696342000407894
0.30057374940213033 0.01861587214725929 0.14926193146754652 0.003056701803789323
0.29568216177626844 0.019167307488666636 0.23686079609216468 0.0011122570457829926
0.27730382238534573 0.01889362709431651 0.1760693570568407 0.0037333229392299675
0.2587390436674405 0.02208493924272325 0.13988890891037892 0.012862741502300544
0.4046527033008641 0.012356294511945224 0.2238647678117079 0.003521552167084062
0.47268817189941914 0.022774691378586814 0.21542917308913379 0.016552868618366464
0.334874493086058 0.022486404697050547 0.22021556973460185 0.011000087985514566
0.5082182187012615 0.017545675707934 0.24452140019817492 0.007937953342206374
0.36787764878406476 0.01801594781357435 0.22616386988274453 0.01509433756445832
0.5116348395589774 0.014386398339519222 0.22768832540848716 0.0011142474596119948
0.28627019250346947 0.020446226363357748 0.19031613730564484 0.0043448497862998
0.42345554401640345 0.02177272300119948 0.221777026709378 0.010037620188262373
0.24632129181697876 0.021340804881514706 0.16871216122296304 0.002988538121138095
0.6261988022999353 0.025603715795635428 0.279692305252518 0.020187916574101232
0.4786806382732045 0.013041671230712659 0.25535511154285606 0.021225242196705015
0.45608812767600193 0.026284095632771287 0.2195971925352257 0.008006570711712306
0.34786253410188817 0.020006640478901366 0.17064204887926596 0.004104532768507433
0.36043830060705095 0.009829222473489463 0.2148858719499014 0.006429900057261681
0.25187059786659793 0.013106731138504607 0.12411622286257491 0.02371977652056767
0.5845595153568091 0.03207764412339667 0.28067111059178035 0.015470671916656135
0.5609058005886292 0.027582756725451022 0.277929514492479 0.01889319768797063
0.27594238550025757 0.020923642139477894 0.15547911542575266 0.0026530893856026787
0.4142320398947282 0.022378757274507975 0.1886770088158899 0.008500797160367312
0.5907920260083463 0.022927101601992923 0.11746348078308333 0.0055379805760956535
0.36857443570850623 0.01928601743272306 0.14223426884143422 0.0074775639571779086
0.4629479321892258 0.021595009775727838 0.11994867191914287 0.004687619711727153
0.573364072366128 0.020830521625773438 0.1892114767074839 0.0071448167348467945
0.5208354020619208 0.023103316667698614 0.11714962699123196 0.010740362681814117
0.2844157572145743 0.02126460356020605 0.1302722015010782 0.014780696422673087
0.4059438322018336 0.012283831089859979 0.1712561542151419 0.0019488676617937762
0.3665101255027243 0.022349507320260198 0.1599621487152454 0.004224610453804325
0.6625206995834806 0.025381682235737488 0.17287779421676258 0.08592545371995211
0.4346933205637918 0.01891746474502016 0.11815165000577368 0.007630426232015989
0.6219934196080611 0.013197736931406502 0.23252994918978073 0.001565004956304237
0.6277799241908547 0.018801600785270153 0.15800563650272895 0.008907817468001095
0.4266477362326283 0.017667069957575762 0.13283934656179114 0.007135771661482717
0.3449875601872452 0.019344384867062962 0.1306964376049897 0.003968804983681913
0.5404801825409199 0.01483877031237752 0.13459694419936755 0.0029636099180715557
0.5269593236631549 0.02022423534089217 0.11431614143711129 0.010102777192732249
0.48107912733075703 0.023792864545472248 0.10926202780360182 0.005576899516335446
0.3447440158525099 0.021886622076549837 0.11092321858261221 0.0053187944354616944
0.6539900768053966 0.016007374443950638 0.22708139781642178 0.00022224709776330024
0.61850381655211 0.014299498016074606 0.1769733214970867 0.003875335825681619
0.5683999048243318 0.01616778085262081 0.22991449114773874 0.0033524878741699785
0.6044329844728186 0.020025967336284506 0.20699954662687559 0.00802135850635219
0.4621242204665461 0.01928106058399867 0.1528383525511473 0.002462187524771915
0.45936050009940094 0.021890869113708192 0.12803694213131642 0.003767757249485077
0.5097649376847232 0.021686392841758953 0.1384194857137313 0.006437417695256707
0.43219156053948654 0.018903062224025675 0.16575209913062994 0.009588718276725586
0.5892830570345653 0.020697830762107527 0.14647382435006168 0.004354103152784643
0.6056325136142031 0.020595158673806506 0.16417677901795516 0.004905575442009943
0.4280729936725764 0.01984332218166442 0.17260135592313985 0.00925199635238535
0.6522228179001042 0.020180912396540386 0.1264142834589174 0.01585213218816043
0.6107985619561742 0.019646487743832743 0.12944727209889859 0.0046358097241339016
0.4154324987184763 0.01292877454505389 0.1437508464939243 0.007303084821025371
0.48392030905308886 0.022214951098476498 0.15555143727333995 0.0018853035582351884
0.5089110638770202 0.020665326333198807 0.19511350989738596 0.0033086654058964685
0.4524148561089652 0.01582522941131138 0.17263283751245073 0.002002629524048526
0.5966935647099839 0.018001453462196542 0.18478767567294146 0.006184043956261156
0.6029415026812801 0.018972074431777404 0.19221858706895853 0.009065132074280701
0.5539569050525434 0.01504569025346205 0.1440839044501616 0.01599007658790719
0.39279568841148993 0.019956099741225215 0.1276482042601444 0.01129201887837934
0.6374220630052146 0.01956350657744101 0.1401915624927605 0.010633818410544744
0.6055930472176325 0.02100071991158653 0.10486878514292758 0.002310237925784637
0.5578977749305314 0.017572321739021114 0.19788621650388702 0.030210900371147598
0.22426957490411054 0.01969023764695093 0.21591569379458408 0.003604992183363444
0.23679539428799765 0.2123342083441887 0.23621903347393125 0.002148733027398836
0.2329993694239295 0.24487157349223584 0.27228155769709994 0.07432782725065108
0.2372472734033759 0.2730636897084405 0.25566130939954473 0.003927513650185795
0.2335874202489418 0.1980769426829025 0.24292601633047634 0.008724307051880624
0.2320602016403774 0.19234971042000928 0.2720978078564078 0.0772371055362714
0.23646577182947254 0.2080353251817739 0.27454903121686547 0.01290024637168867
0.23366732715198152 0.1011162251971503 0.2813110230861734 0.07313865951715513
0.23368672197541326 0.1781652225520159 0.2587523349037062 0.018094259965187865
0.23408758156111398 0.2162259082609134 0.2778089826823581 0.02637534640379207
0.2238270484603231 0.17411066895700486 0.2851468227889452 0.0887782461610576
0.2261193592133431 0.3263642381963087 0.2842873250286656 0.016858913811931626
0.40888377047887475 0.027754563498462517 0.28480105806877515 0.03985934155164023
0.5516508045591553 0.029630163294828225 0.2764366369317717 0.04568872082780921
0.6153388772870368 0.018759981171497377 0.2860553149442913 0.03903122726473401
0.6771606587858261 0.2794745087924314 0.29981861489380274 
0.5662622270265432 0.4245306164315308 0.2868781726627397 0.07711148890695739
0.48967679649373314 0.4285281724330319 0.2900520896345283 0.045380192695376007
0.5969127244479678 0.025098995194746843 0.2897750430645793 0.021412386318710792
0.48548942648782123 0.4268423718190011 0.28420876044352983 0.04667158392452773
0.5577550432262405 0.4259215089935548 0.29315468989009374 0.06203042653341278
0.22608240543923494 0.43205564114701717 0.14712154476525427 0.0018143175403497603
0.2296169400721356 0.1696141933530824 0.27632892163602685 0.07737776786885776
0.2392712639881867 0.2862340695669554 0.28748075694418446 0.023647080386713384
0.2253496240479771 0.10540269781554565 0.28730704316577116 0.07282766565361516
0.22538921707638546 0.3136187525395228 0.2862684126412744 0.0605065549610314
0.2151683858090954 0.3257747823153588 0.29178191028300454 0.027449284329146395
0.2032029836694584 0.2606502423502464 0.2861690478417221 0.02034216074415058
0.20917977088198544 0.12077960414054385 0.2935663885259658 0.00238388789003443
0.20399061636607838 0.173373389536757 0.2895989971657 0.1021414789750211
0.22050835614585354 0.06371448801760728 0.2867641553472596 0.0014695596304651567
0.22817669521855272 0.08000687242436134 0.28631060908144973 0.005530293862506793
0.22243850674777937 0.18846576314643756 0.2837724960660751 0.0465276475391791
0.22268707869926274 0.3968858218284595 0.28944478855569566 
0.23588912805499804 0.36214928064242147 0.2832207710187493 0.005606451820714904
0.216114184381428 0.35749977205805233 0.2950217366838895 0.0018839203348178068
0.6827027971523825 0.3589712688541209 0.2869324697289636 0.0013657433524587187
0.06431397375333599 0.4938581980369009 0.2859852385395974 0.00994220836784742
0.33521337980343935 0.5018360508667784 0.2787290787863696 0.03055639490929186
0.4146986978887711 0.5083476268674322 0.2854631692934848 0.006364728137643267
0.5848179478168838 0.491235182224921 0.28694418731101967 0.011920001350104896
0.6571846697593622 0.502391911380606 0.27867886636741446 0.02994031896954882
0.7491637731931237 0.4952183336837123 0.288321571311157 0.003183895361478316
0.7536819144568963 0.017684702501847414 0.281490850942677 0.02423481378769473
0.7550198745699105 0.21468228120749616 0.28448110446452624 0.008817459830793713
0.7558992019230262 0.32812457171946063 0.288183095950247 0.019110575655670058
0.7538239905129157 0.408473815709216 0.280976483548347 0.006810796998174565
0.7567137186230277 0.46276978997433427 0.2846962286808295 0.015010326831883284
0.7467915153528604 -0.011769996918036547 0.2816795262079581 0.06233232254204065
0.6981304116377508 0.000452952354727313 0.2848786331379551 0.014520085074398843
0.6112250656832758 -0.007050044083548807 0.2842699195907202 0.03510194050380526
0.2647747444506213 0.0015447046964029828 0.28268442719229825 0.0006360781050545964
0.31842131263851847 -0.009992394157043796 0.28262914546462553 0.006787242283442369
0.35205873388248465 0.00930670300331017 0.2830656025965173 0.008125738387129612
0.11644285941682202 0.006174349080246433 0.28439638500292574 0.04235835371760565
0.01620960681268865 -0.0008501327584291337 0.281741947963187 0.01218593697015518
0.012667576805632297 -0.0070961499908880855 0.2920245248074929 0.00637271516610453
-0.001213447054394499 0.41696579779608883 0.28298728681980834 
-0.0026758095117650348 0.2779144616688781 0.28863633283553786 0.02100988928434776
-0.006665054630626454 0.29379758064625167 0.2804709412844324 -1.5669483393954677e-14
-0.000907730887110459 0.15245784032900953 0.2855545731885481 0.03983168484274302
0.0024876862006644016 0.49502409123728286 0.27258393323061336 0.035859088663578745
0.6653326114640158 0.19957363616219317 0.08617305444454731 0.006443674571833668
0.2247947046815218 0.03013694899223355 0.11779103230208199 0.003928993356988245
0.5960625423705855 0.42465812585345164 0.08892204345199134 0.005872905811783793
0.6595099051777523 0.42191730380047454 0.0951265259017248 0.0970356746958621
0.5190453196010647 0.4292243669406058 0.09937237499072324 0.010858581244912091
0.3747564358431933 0.4240117018175524 0.10633279923551453 0.008957083053923278
0.6353011478943893 0.4337077044915778 0.10249940768181631 0.017274299549308467
0.5480630226904757 0.43293558979764635 0.10100533080892289 0.008562199026778693
0.4236374242455128 0.42938378991406945 0.10273887941193416 0.00691671381566044
0.32197567829840784 0.4265020040429631 0.10248181535361775 0.003247769282714153
0.42493631621305716 0.4277095006672901 0.0960148632759901 0.003951276015921336
0.6821024875071182 0.43197354951103684 0.10410231183231487 0.014733232734107924
0.6800621704785312 0.41597924064857184 0.10755273792803728 0.06070885281195332
0.6734074512547366 0.17459178559181 0.09766850619756182 0.004938755245679502
0.6790204678510663 0.035955190172297875 0.09754966691000681 0.06500164659189671
0.6780206202464019 0.20566878960059465 0.09833365313366273 0.0015609370691273016
0.6772960735932633 0.22870824292160033 0.10741694514905661 0.025238024109666187
0.6794761091088446 0.16163118180853353 0.10339405841493603 0.002697413152913993
0.5302713348635155 0.025016183539297528 0.09922345146548488 0.005312153610128648
0.4384353489773468 0.02256545311367425 0.10105806933219513 0.001361187743794966
0.6188405040149937 0.02567954339451171 0.105128671924789 0.006196123134640731
0.3759440500596422 0.015935116518565582 0.10075457519016418 0.008929049501375875
0.2659016807525883 0.028693006982479063 0.0967259729254564 0.01789992311364752
0.5454528799257471 0.02585895912273177 0.10213391284530607 0.001769840451412902
0.633658600723319 0.02575640916240335 0.10453986258015231 0.00652907104248572
0.3590651586426316 0.020235141998993636 0.1041377209526225 0.006922803401062534
0.44694156407438984 0.01700213611970417 0.10197940631590907 0.0016802043160507854
0.23160981305568093 0.021589900290377644 0.18097223806298632 0.005627724836039035
0.23417726162903904 0.021983245076309138 0.1833747627943167 0.005293691346909098
0.23540545845493466 0.022916133774560848 0.20677387829899319 0.0043196873968593015
0.23938314023170038 0.02152241976307751 0.21187580869785688 0.004838861649212334
0.24381030377285748 0.14058907341398755 0.27519365667573015 0.0033672436842996207
0.2356467585708957 0.11141306061279307 0.28327041473352976 0.04395417713734428
0.22630371278150777 0.19735363825117752 0.28127934852862696 0.08437125902090886
0.22785305862705374 0.05255866942089132 0.28605021064802016 0.010140277941437984
0.23077117978279343 0.1747245445026922 0.2673133657690179 0.11440627602579226
0.22549143067931313 0.13709088282858597 0.2929781587378057 0.003058609717615725
0.23826551477670332 0.11932758948740495 0.2593950599417749 0.022310593306650195
0.2373420874385988 0.12929890123659615 0.24708119197607573 
0.2327683486979541 0.22893061993501818 0.256365858914645 0.017759756398785614
0.23341736913184757 0.1686249851156306 0.2592162127363954 0.014228474883675589
0.23878023434961224 0.17748038237630934 0.23354425229074469 0.0020527495573528487
0.2319734224675308 0.24095304334998027 0.277852226055674 0.07242859488080285
0.24171479434500726 0.29495799657394656 0.26671943997156544 0.0437772007827622
0.23514017811735627 0.2683741034459438 0.2816331034261862 0.09060412836399603
0.23480745798630684 0.3308317217319804 0.2776026594384427 0.014645261672684418
0.2382954400842322 0.311880373640729 0.2636759512169094 0.05269133824159975
0.6803315277149615 0.4331393333043865 0.17173163783891263 0.037210185676103166
0.6679968074737012 0.43207948644955985 0.1522805863114782 0.09774311645657315
0.6734988608181217 0.120474703827129 0.28260798041135166 0.00026157293171068474
0.6848748102124618 0.056597173964991164 0.14243378320353406 0.00698913335925298
0.6852140118094665 0.07705293351968524 0.1770663473402284 0.0012896590251419838
0.6915032070221404 0.26094912967140765 0.1925190531211811 
0.6886354041218794 0.1914709993388569 0.17961487967963288 0.012025080758936487
0.6849676128730101 0.12534123650541168 0.13986134975049166 0.004453577909525755
0.6869102359187605 0.056272483362914884 0.11732101404733657 0.022089592687210554
0.6844143477141639 0.06981932869823008 0.15720774443821867 0.005854480071362191
0.6913084891842686 0.05858701992065786 0.10561114854513343 0.010262115045279793
0.6838430952133167 0.07881310064386023 0.17169145499854624 0.0059838108920687695
0.6843635961810935 0.13975549852960414 0.16382943992635762 0.000901790611978683
0.6906212437627147 0.2384164396484788 0.18704332993671013 0.00234326376428379
0.6836596656585858 0.40464697780336656 0.1473769036782017 0.04620690688402524
0.6942185679451339 0.12533916503608786 0.12264526684352495 0.005485350383757282
