x y z curv
0.32616638308846324 0.33351955224198077 0.2760424640813222 0.011857573249052537
0.3299883519363457 0.3580241144701938 0.26320699916411644 0.08513228747068423
0.3309348642957385 0.3255067858400343 0.2629382462248224 0.10888638241279917
0.35404218064446413 0.3645677271043361 0.258821441705362 0.09722194458649389
0.3549914979837241 0.33757297987324864 0.27542843154001506 0.10089952750589064
0.35276081438753454 0.35101105501177027 0.27029106291899857 0.09496439098715365
0.35199762316221256 0.3718363779679906 0.28791533226446464 0.14807892750826232
0.35535990260022854 0.31476757025279395 0.2864088605243682 0.0823491262844655
0.35694696357222605 0.3085331720227674 0.2622910344457528 0.12613289143403994
0.33813142106953936 0.30001074201735395 0.27283309398509503 0.06541152793583702
0.3436143187204493 0.30232652428173956 0.28034767923579323 0.10133157565622446
0.3652708096893968 0.2823738919086699 0.2431684164766082 0.06126315841667798
0.35341430307524635 0.2775438899716916 0.2682453064180534 0.07449711738563324
0.332270740190903 0.299605414431994 0.24421113694947824 0.06685844430301119
0.350656788998165 0.2868115848541825 0.24870714360030005 0.14471575669328865
0.35136643061438744 0.3023698166259264 0.27978003347927544 0.13234621636635727
0.44254582134077336 0.45707994608389996 0.023632553752548892 
0.4340658155023181 0.47361661395402255 0.061670141503746875 0.004135416372417745
0.09863777329082349 0.46324569460408926 0.16119551682513603 0.043885690690584046
0.27952119167156336 0.4742393646005011 0.11432187273062237 0.007145160017835471
0.2787793401439534 0.47681120586846454 0.07718966227110316 0.0014400316904435778
0.32974578177473624 0.4815338352135397 0.08482838024431699 
0.1416139558581803 0.47249850062742443 0.1498635093516303 0.046087833394464504
0.3763012539733849 0.4717471642536539 0.08664499035009686 0.0041879147838211825
0.3070681990846066 0.47210081835146195 0.08854912707115668 0.004037435039426967
0.2538227473697617 0.46974460460372547 0.09994820615714071 0.015534531728330685
0.2064986869530372 0.4717945030175291 0.11806242742899233 0.007004248111281697
0.2108573648049808 0.47476953117686105 0.13087491945340418 0.014040168804648692
0.34168468199117497 0.47526012021413744 0.08808225185010954 0.01521264587560701
0.5021920382834474 0.4844372200195958 0.1421973704682412 0.04955939702894284
0.35745666509726337 0.47155601644510403 0.12471645705627775 0.01398632219554381
0.3451923097360369 0.46325476701284973 0.14917970150196214 0.01998749111004275
0.23623376042372288 0.4815949586491462 0.13708166369942368 0.006143460338868868
0.3886722837554754 0.4761941421258426 0.12315066680678392 0.017496509398299078
0.5238167193499654 0.4744502886142648 0.15435832545910155 0.04567183204957944
0.40591380278061556 0.4760852972747331 0.12545724760810006 0.025918881902753304
0.2729659014995841 0.47338925328217724 0.16078804253969656 0.028512804687239608
0.38365647888877613 0.4728444346217274 0.1513110500343315 0.03969104568652305
0.36714292483808664 0.46544462323825336 0.14570466961757778 0.02713330832324409
0.23863106839378706 0.47514669815104266 0.15553778854581637 0.04799736511928977
0.15572639264271212 0.47160879413516926 0.16274356427522865 0.01712497527950704
0.3388197146663954 0.4741016479265521 0.12390175946848506 0.01790920392878006
0.3096350560980197 0.46895055352612636 0.15545818319229504 0.025915740281504188
0.44647908441166434 0.4762590182503686 0.09096758573369235 0.0015583514522472491
0.28871028475007254 0.47562153798487555 0.13902109370292146 0.051080127886471184
0.31192984463903145 0.4782506699105857 0.1283392908216233 0.009992771846750665
0.46894737720961926 0.4782938878948167 0.142468818751528 0.0056076279882648575
0.26355794015394163 0.47881925688868554 0.14014036363902566 0.0436197646267403
0.216147639496366 0.4690782421555662 0.15490127953271546 0.07096937148276736
0.16748344607627166 0.47653424482664253 0.1400973391596574 0.010196975085274392
0.362470036343515 0.478562116333428 0.11792749403199589 0.010827206798922018
0.43816265165966156 0.4750935044261939 0.10588231443601395 0.0014835501506958793
0.458704341890925 0.4717308593744533 0.15036073649363774 0.017913475698825995
0.1866935185850884 0.46927412393754003 0.15118137724420241 0.06728780543326206
0.5107005953977216 0.46765420737187724 0.1564375938470915 0.02255947717937477
0.1946625575963139 0.46915109499039703 0.1393873266808068 0.00990785786756917
0.4193330811814393 0.47780402521082577 0.15118585097461215 0.03125900134876816
0.4145420377809416 0.47241938516017534 0.07295138063459973 -4.1084141915949703e-14
0.44542819217185214 0.4668381662526428 0.15834700967514695 0.014714345487643438
0.39821182500998303 0.476865409617982 0.09073065512952408 0.00018512161424829993
0.2904892583549486 0.47353868361718543 0.16081797748693955 0.031951660391080244
0.3892325986845396 0.4737399591225706 0.1337494421669188 0.029648380506727245
0.32403714736618217 0.4678865940260642 0.14068562754479344 0.019722364536021598
0.3880977242853242 0.47462031225071777 0.155094180921401 0.05561526765738963
0.21472895295090294 0.4657468927106795 0.1587931550417989 0.050746105183964926
0.3681201744533886 0.47294165859134024 0.09495883431330235 0.009551747965760034
0.48503470574107105 0.466720560314645 0.15654201769683232 0.01312856114973341
0.12212760575808368 0.47155725927047165 0.16350532585455885 0.03620845831341426
0.292397280071733 0.4744093364188757 0.12261962294461141 0.00893271230807592
0.4495815137877278 0.47735506851697407 0.14297330591069377 0.07689125318245794
0.19002679743364104 0.4709754514841053 0.10133902280308384 0.011372671816756028
0.22040982747233398 0.48169669680572025 0.08404291359772371 0.00024555664270296975
0.13137652725247503 0.4711272585682734 0.11272069853258315 0.006943678411489355
0.10612396497466782 0.46704826281569767 0.15565047765415457 0.05589080350168753
0.16009532884693506 0.4789578810289987 0.11856937447106511 0.0026230822737170656
0.09526262845322059 0.47237044049720134 0.09552400126643457 0.05394268934701296
0.11836011443086375 0.4736836748848069 0.10484211503285096 0.04286410686316671
0.1397554627167046 0.47049281009111327 0.12316717165906359 0.004785947174351831
0.1459819508478737 0.47304217257597136 0.10390074575487722 0.0054801860022024446
0.17973981590370963 0.4739546001870003 0.11937336224408712 0.011811151631495063
0.12171360287404295 0.47053431426510933 0.11733983483119616 0.029044475409156646
0.10295230993267439 0.4700043511143657 0.13957436078772031 0.05065575678328552
0.1757920335786163 0.4736607592809581 0.08977684331940149 0.0049581324036551
0.0972583098936314 0.47423920238893535 0.12855629241004538 0.045066822351149505
0.24739933204585055 0.47059745636162914 0.08205375433472388 0.029652352417347292
0.18450658047140592 0.4746651285845418 0.06618962578967107 0.0026265470743808183
0.24551679379421634 0.46919564422673726 0.05177976160897595 0.0043410541206805415
0.10973839727527081 0.47064315510388827 0.06324182345538105 0.06153788484715183
0.12918573461549704 0.4754301952027092 0.08366092611743758 0.002089746764273008
0.1667170074471204 0.4721056962796546 0.0563664794056492 0.003275378971311058
0.15748355158827237 0.47520471837667133 0.06599184299007661 0.0030049066345616557
0.12042607157485707 0.468218723087945 0.0348594931905461 0.001707411664154793
0.14684305169168274 0.47444318719691914 0.07307154561967076 0.0028887925779369703
0.1497164078796755 0.4736767203135728 0.05043951142245407 0.004300337991526627
0.1392612740474282 0.47034704228493396 0.047194547796821064 0.004560523882947227
0.14037433218568895 0.47435072227794695 0.027321471615053973 0.007315126451129667
0.1870785546120996 0.47484655992792424 0.036706326314435 0.00498924817862053
0.19991623154038365 0.4785339393739551 0.032071217772349 0.0061274931833993915
0.21928032189924268 0.47543910989889837 0.03732054041204517 0.0038176564310718974
0.23773477861183767 0.4691069971941722 0.040111955723732884 0.00010770496126863752
0.5536163250286402 0.47446561823389444 0.15275379421432206 0.0006889075188129005
0.575751769468124 0.46980097923632425 0.1504572705555079 0.0833516906060677
0.5948457009296304 0.46907315207696226 0.16459096876625223 0.026158976992349925
0.47646852783752547 0.47372860707603276 0.08536801347498295 0.0033649766121995298
0.5461521004807866 0.4779570802573409 0.10414438369580858 0.008227386350547615
0.5693457451064552 0.47607039205583757 0.11483133523337735 0.01819217647739567
0.5763068441375511 0.4830999227977425 0.09281041680048645 0.006997320150471598
0.495724542958032 0.4753658236466265 0.10531343054565662 0.003204404654956695
0.463723385008504 0.4724908723020029 0.086682561889267 0.0014350544228254247
0.5942718548176451 0.4749012779470755 0.13730044426944532 0.03448924823124164
0.4837845395868408 0.47269581884021655 0.10080396221173463 0.0018656886444485747
0.48757987089307286 0.4736163659958361 0.09740818950807913 0.0012107914735507749
0.546667815789605 0.4752452543994775 0.12847753580946253 0.0010161294421291804
0.5765317803711864 0.47379386321914824 0.12627485357764642 0.04869868927354802
0.531137775561754 0.4717482986286073 0.0843099458222819 0.0015607192951313932
0.5541302394289992 0.47737679326603194 0.0804975093678842 0.00779323421822867
0.5136916056725581 0.47362483292923957 0.07644886199478074 0.0023616418733419906
0.4662282140377241 0.47544143435825575 0.06175940321348454 0.006776644054795881
0.5356822427275738 0.4767069578944045 0.033822602890190095 0.0012734697087467652
0.5563628515815057 0.472595081218579 0.05584129622780684 0.004220863072292139
0.5886003004576329 0.4744820638847854 0.041065180198449784 0.0531300892986506
0.567490240021582 0.4730354109302894 0.05362330332362085 0.02534852736983638
0.5382283256598822 0.47391299133362275 0.05157430931578104 0.004506575963417211
0.47852069164783606 0.4778452689203695 0.04251491688075889 0.009936403924206664
0.6066799122585669 0.47242357631090676 0.07846167429456766 0.01332995713057429
0.49414563741783235 0.4775502153742043 0.05347990286246852 0.0031282078587628022
0.45177790254712713 0.46784475879832 0.029783935330355144 0.013457392790292238
0.46437385083291993 0.473837393864386 0.03349939360887693 0.013241572013676633
0.4894509708728342 0.4730491836492395 0.07121128300296163 0.001995045220850272
0.5410777352260625 0.47327046994363736 0.022933603035740845 0.007250993679237376
0.1575043692143665 0.4750347739803482 0.03573161690096637 0.00505341880355121
0.1704236807288737 0.47116925552124433 0.02714654385146242 0.001936211451331723
0.23749265642099 0.47400238211523676 0.01757068651440339 1.818253785582022e-13
0.09262743403198573 0.15009885252015104 0.0247729900223641 -9.89040798885754e-16
0.09255330649087506 0.2937989611644866 0.02977989912151608 -4.376436171093231e-15
0.5916834393004639 0.08761319964779979 0.023282639135508893 0.01648648146795645
0.5922129470511854 0.2139403735569676 0.02930844304581185 0.0008626564861005
0.5860346749874088 0.3678163246522841 0.023310722875181253 0.00012000557278349358
0.5912900117012975 0.34837785420824924 0.029068308679907277 4.582656459062715e-14
0.5825067500074927 0.4746056866774448 0.02426471642018013 -3.577388620342303e-14
0.48334963605227166 0.4752466475759298 0.027160617268923232 0.00829069095355202
0.512352538594667 0.4707986221453993 0.025354248813760607 0.0016409483295660673
0.12355232343632654 0.12173477047464559 0.15447205828370708 0.08509058778860056
0.12170724255167893 0.18763360792337241 0.16168047249713638 0.03576800467309203
0.12480402575636666 0.16975252138077895 0.15753030551075012 0.08806548960396728
0.126681261784156 0.09549872638504384 0.15136582885216235 0.039162770764001625
0.33026244920658393 0.02112639416371918 0.16170059630834852 
0.41166845805331104 0.03069138110355763 0.16096210902519154 
0.4550433305449701 0.028773690294750003 0.15815015627159532 0.0001105951314620662
0.5641882445503736 0.11672741476451909 0.15306361229500792 0.01978515809271374
0.1151985764487579 0.1010777483865143 0.16203526957696618 0.09095301194855457
0.11689634131395385 0.05785342261101334 0.16233944639004436 0.062114174164851
0.12094556627931383 0.30244283158440505 0.17218250328693913 0.007719005807910312
0.14687765204466377 0.032946177993630116 0.1619263037373907 0.003947140752971158
0.28831791228954046 0.029198009616839528 0.15884138861460012 0.012788553145095595
0.26592033962357453 0.036767493969315654 0.15800048519361062 0.005075608924764452
0.2525460530377678 0.025964590517311013 0.16741264559632257 0.007832817831739574
0.23436550642272994 0.014383429767523614 0.16841322894023125 0.009043982304381281
0.5110819977719954 0.0295521075911643 0.16049977126464776 
0.5634590256137976 0.15077375626192482 0.15946769379793754 0.05805715063534419
0.5671053895813615 0.2416843176117263 0.1602154376047538 0.006410502435088656
0.5675715584231064 0.2010300959517041 0.16445336967408083 0.024465519228092997
0.5757347993822097 0.2138380238478366 0.16216337269887066 0.01629354852252696
0.5708775977081553 0.17669505435229677 0.16913388266230947 0.06069979903613004
0.5710133864162225 0.11470989739273489 0.16007612850443606 0.048812998205367275
0.39369699421358967 0.3294628113057281 0.1689831848823366 
0.22732445315187852 0.4444629515911817 0.16515310782017545 0.008350283886233385
0.13018327585482733 0.42920183133272277 0.17053840728012803 0.0011263070436505246
0.21823761139804498 0.41222446593407003 0.1688127233268834 0.00018889862336410565
0.1246971283933668 0.46241222175413527 0.1648363095743157 0.048254594828574394
0.1501975186463378 0.4117319998202229 0.17150904284086047 0.004001946693016356
0.2513583799405415 0.41440802508361263 0.17086233131693948 
0.204536126851553 0.42702786388072594 0.16720084157802884 0.001593929951340468
0.14902979115535525 0.37890449243777574 0.17461079386478398 -4.2479412041409714e-15
0.17390452885461996 0.4394582957991367 0.16400993296535768 0.00991101318945113
0.15333190321713783 0.4429348962943032 0.17107350033511035 0.01665243975577272
0.19240586209905147 0.4313238193302928 0.16766167831015982 0.000539583151025247
0.10974838181496346 0.46119700812391257 0.16588578681735264 0.06550044390586675
0.1915765052875655 0.38638485672379796 0.17469552025018878 
0.18180313468257447 0.40584368791750813 0.17078756586419158 0.0007941575639961715
0.2202202595615447 0.4637595805427494 0.16509429918954752 0.060676837963063245
0.408727007372063 0.44723566618204136 0.1633385232021353 0.00647036076555351
0.4807485514021755 0.4628603713116501 0.15930554318206525 0.013671774831225848
0.3941450426145449 0.46251535378553876 0.15994451875774182 0.06783037958234116
0.17516170756139363 0.46631674487655134 0.15715817605280222 0.07272306445718997
0.30122499303497563 0.46473901886549857 0.16120441221523857 0.03957032377308297
0.3235279155109219 0.4655658173763764 0.1607765483079094 0.02947213176020834
0.45547903514781546 0.4607775518326756 0.16381202755069668 0.020175267981762602
0.3417313037687899 0.4594073509140964 0.1600992607481324 0.02967341151861496
0.2343600394855711 0.46828958507394214 0.16358135020226172 0.04082122490820798
0.3275469769133909 0.4600313203014168 0.1645513249797791 0.04302527795443975
0.2917035174170761 0.45423392860541123 0.16726784471693057 0.036769617294083734
0.27714773537655274 0.46615773362596097 0.16453497734946335 0.05975297858947512
0.2588115185969394 0.47771804039895843 0.15854386306481802 0.03402768942584619
0.3654782875715416 0.4613573665843881 0.17364196704262932 0.025050346835180433
0.4994998675458729 0.4551556113180779 0.1609205356989519 0.014177752424094567
0.2694853859065902 0.4530936513749771 0.16502469955005591 0.02605253642585044
0.3207541329432369 0.44811732649379904 0.16853875111710886 0.023725892364027536
0.5415714009410812 0.47226716798573726 0.16643707450612866 0.008182566242128235
0.41593394085107227 0.4599286340203034 0.15907697684640376 0.05469097225071331
0.3946344542747349 0.4498413967021721 0.16544840869920033 0.051652492336713075
0.48496000670693923 0.45336958749190825 0.16452745667372912 0.01623327609955967
0.11746906085407813 0.3688826358825944 0.1705865558847639 0.03453572193127844
0.10503736014999446 0.3853563475197196 0.17172649838216458 0.04748913206673863
0.16776358557060708 0.35408736136927016 0.17534178483750792 
0.47336788701629023 0.36801939990575766 0.16764484946001093 0.04330659673994747
0.3838540832098467 0.33431010450144777 0.17123117720220574 
0.5092899179184436 0.359017378529724 0.17622492073212626 
0.11923063754644021 0.3381865002714196 0.16765143722677794 0.0022972415725957722
0.11309718231469197 0.2913977520008434 0.1657981945893201 0.009685734968551117
0.10493297057829286 0.31457989001918074 0.1620119776105139 0.031484247549371194
0.10316973389048376 0.2522623074936136 0.1617003640070664 0.03178829755727445
0.10668556761482821 0.3406433370696315 0.16550186148388643 0.010348614651712516
0.11125705678470728 0.23799272384255402 0.1586157155922754 0.0035302844427971226
0.10272857121450348 0.22640521891737608 0.15626466294283597 0.031100335782218647
0.10376186803801873 0.15715423526908 0.1642526910011092 0.08300381856367485
0.1125554559801337 0.11459161560096977 0.16201065269736872 0.0731158850960557
0.10614599228896573 0.0819665313230576 0.16675731118253526 0.08333089620624737
0.09677950510133092 0.07704847459514631 0.1579512937090492 0.09986056332390425
0.1048427516120842 0.042227394556564955 0.166660226828173 0.03446886680075648
0.0977463636003275 0.0629951203259151 0.16497711484121355 0.05634245687775239
0.10447576010838276 0.10721964941964633 0.16536792049594398 0.12951064942539084
0.1635169129101712 0.012694298015315108 0.16667229718626747 0.0018958939133456524
0.1134521912053867 0.020757231326735143 0.16660307394702895 0.04750862411091705
0.17945952493114806 0.01940757288421743 0.16438035915555144 0.0077191546253212225
0.19237625019029725 0.0013727499021133852 0.16720744156543724 0.00718744894589881
0.3613377637208761 0.004733875701495914 0.16812815633607744 
0.2949246280782203 0.0007542388618440379 0.16181484978320143 4.118372407341244e-14
0.4757118214319627 0.02180177172177325 0.1612999004681794 0.060899783407069724
0.44708705478673993 0.013024574056620233 0.1653138127943028 0.008632449968903128
0.5095224844461483 0.004930710877026588 0.17080849967821435 -3.671858207874155e-15
0.5671345150112292 0.012976708420689355 0.16807225940398518 0.04177824317139211
0.5911826227772559 0.0240201973115352 0.1628954334983418 0.08205081929759139
0.5894672974468025 0.07153536998979577 0.1662030042124421 0.027142208295800465
0.5890267619836972 0.04866001704171176 0.16526162616978693 0.0035273192763587923
0.5731883062886118 0.10161057850342693 0.16768262167135628 0.0683381426712275
0.5836065344157935 0.08936660155242371 0.16339129120832285 0.068857482714765
0.5786711703840806 0.12153026379151959 0.16200617074060328 0.05193864582601512
0.585354980022877 0.29767208623325164 0.16067777804379546 0.054654570129963644
0.5864802411316552 0.24593432816475863 0.15950712482848753 0.05951729062638439
0.5805517526043099 0.3383866872027299 0.17311515066845642 0.011437472041744737
0.5858702041109967 0.3252190999236345 0.1662360567046863 0.03503079886894682
0.5776700171568921 0.19331892107017126 0.1654969358284385 0.03480511966456711
0.5696970470243489 0.3015869203278001 0.16346810468792758 0.011073405304202946
0.5797480583830626 0.44281473360584944 0.16512075212363658 0.06458493280489742
0.5793256303597547 0.41114596125803593 0.1803773355880809 0.005248646182243756
0.5841753124061333 0.3808993224936128 0.16534352282975012 0.041230161460277005
0.4478343050305639 0.4446805235111908 0.16304086360840367 0.017023057402596596
0.46305375490164224 0.4256684149091482 0.16742355961508695 0.00020481625501115103
0.5023743950647551 0.4359896963312903 0.16630566257289695 0.0006881291470315999
0.4161314221437355 0.42971039342396805 0.16771247765003028 0.003922354842591232
0.5674100515671904 0.3809297483449999 0.1694833623666234 0.004137586958808347
0.4815462774872686 0.3876472974679153 0.1649767656476087 
0.43808009884766164 0.4255252319379573 0.16378870370210155 0.001936069271825126
0.5712058784764001 0.466909488485354 0.16877088930123216 0.06713313730190662
0.5387786262147197 0.4250739456985194 0.17512512105966113 
0.4575371965629672 0.36617760950435596 0.1717990371357743 4.4952317391740676e-14
0.40199568671700237 0.37197089864295746 0.17546473791571304 
0.12590994032171196 -0.000999906276454121 0.16130836445587504 0.051391831686674216
0.1850859971250086 -0.002634981954623159 0.1640038414808172 0.011254835087278762
0.16289757782099148 -0.0053633818949810836 0.15818196055961423 0.0031075710917788423
0.21767118285865625 0.015862418480417095 0.16676585135302807 0.0008176368493886931
0.09870356406322257 0.005051587763494651 0.1629270703195352 0.010353198184979673
0.2696318877284708 -0.00016240749919653122 0.16221956260686124 0.0052510345003641
0.09956099080843883 -0.002430982466304802 0.13971067732960654 0.08838233750970997
0.37973266071175105 -0.00573846364413599 0.15912183917481829 
0.49146143122770936 -0.00933984380305869 0.14283188392761398 -4.759063403516715e-15
0.4650052799648647 -0.004789668954299707 0.1569789209492395 0.01711651230525766
0.5764992408930484 -0.004122636150579601 0.04663274258159814 0.01500231374638708
0.5852890286268876 -0.002363051405833809 0.04761518209413468 0.040025515616171084
0.5795357461693715 -0.0021411347282312043 0.08753483760496346 0.0404244399021851
0.5759790183164997 -0.007363154193480168 0.11716531989744293 0.0039671469269457705
0.590914397727351 0.0015394840671957264 0.12992496707943935 0.04903888502408177
0.5551508593899444 -0.009074171903956825 0.1412872759937717 0.007614370296484384
0.11018504870323263 -0.0006712909663406604 0.07506394366151106 0.00015593342493103456
0.09013839519445742 0.0044494687595276 0.11611809421342206 0.013558893191883728
0.08669123610637365 0.012961628680680522 0.14777446379555784 0.058383055018822023
0.0961022509736976 0.003596791395344322 0.09166200798795163 0.0452568596674504
0.08817601320565033 0.177913252185055 0.15049901457351084 0.13448607117881298
0.09788389769717543 0.26766882677731135 0.15602808692872927 0.025723875779678895
0.09172490425494602 0.12268010725062647 0.1607111963734597 0.05473470930084296
0.08847662275798121 0.032451973461461364 0.15884287680081627 0.04553320369980223
0.08644683503172762 0.20499738775325746 0.15603908622082865 0.09869059654593032
0.09030536170817169 0.292836912342101 0.15720455298849348 0.01284733997536254
0.09028900881659023 0.36644756147365426 0.16046155523531255 0.017165965105024786
0.09125915973129495 0.4618162265767841 0.14631264470316735 0.054835037180181234
0.10597002508621038 0.4387185461691982 0.16698743784038367 0.03572070537229092
0.09197096908029817 0.4096967748003665 0.16278003181264109 0.007222356511859539
0.0870972504957902 0.18577799800188 0.1611311217973583 0.06870197383623869
0.10127021572586543 0.09368829981946013 0.1701154577124432 0.07516639228427958
0.09300100016811892 0.23017328377144006 0.09030081281451861 0.0073564792049486405
0.09025553984750448 0.1379647315238763 0.10314408408037573 0.004256397713457188
0.09209417698126723 0.22510647920606128 0.08891501208720355 0.00401817937058227
0.08940928633201256 0.20562809195517293 0.09862672459926881 0.00043855611981241
0.09168246956644874 0.14488925959033572 0.08224866356260947 0.004216530660186126
0.08965221405002871 0.1640823324695537 0.08106400526090078 0.002961869035605632
0.08170639982573805 0.2028589582134814 0.06622007167705328 0.01066871013512649
0.08728251149404734 0.1794597891142043 0.06786006188476833 0.0022071921813955325
0.09202091213495309 0.06666097872834519 0.11945444022423542 0.005289045165232141
0.09341850095166196 0.043082316092915414 0.11985040927381416 0.00677948946659088
0.08594326512761745 0.05612361620293905 0.10195468263607299 0.004290244667315726
0.0880427523347158 0.07837712088722597 0.10664661722329036 0.01020914540684744
0.09255505750612258 0.12692753993582895 0.11054164653309904 0.0025355005544832276
0.08363675414216187 0.09618685498539474 0.1377907372969701 0.009498202856602439
0.09258240902027993 0.03343589792364754 0.16122526910394222 0.04695859673624427
0.09489046142727847 0.15713477222436772 0.1423024542528757 0.11664250830786767
0.08914660013318088 0.05543017310357543 0.13922964927429599 0.04101939741393768
0.09110605129597021 0.11949294966927436 0.14671187155402987 0.08073131462630784
0.08532814766336114 0.08395576262729432 0.0825317697744184 0.00014369802463588675
0.08351275955968893 0.06418951519364777 0.08201764304527037 0.005103576616902573
0.09002157406938263 0.1255325714073649 0.07441578241792242 0.002359136395645172
0.08929082274364306 0.10693301987703353 0.09201726911193607 0.001208901771994807
0.09498491778729881 0.010130374029981036 0.06754518018784164 0.018984277543664774
0.09412929481530405 0.013127997029626474 0.08427645995883458 0.047309503451379055
0.09475213583439866 0.0223943548171019 0.11257398174420485 0.012822553890720947
0.09305206913208278 0.02126317069965397 0.08684895918718583 0.02749992369463539
0.09133760662631084 0.044403922000056835 0.10986008482069717 0.006806460573942504
0.09513794433298237 0.15487303293333127 0.14056630917127194 0.11654664338188324
0.08575222104654369 0.19315450124632141 0.12225798150051448 0.0014629076324127982
0.08953874114381356 0.2009875145908101 0.12056533573526594 0.0023887299791470933
0.08717812897410131 0.15232628348015662 0.11258259640797622 0.0017929534861816
0.09119484640872388 0.15018828287569402 0.12133721608786634 0.007166977947961972
0.09311509481807988 0.08632394465320184 0.02931114780626819 
0.09223418023616518 0.08811080910635712 0.041076910816987215 
0.09260917531700988 0.11093696735765922 0.038517763417677625 7.57199528160386e-05
0.09155441764812719 0.1608054494390834 0.040128683694741 0.001568337650111165
0.09437803107481565 0.1391558144600284 0.053664001807475506 0.0005371192965046354
0.08454193344548828 0.17667331839379222 0.033205637530063246 0.0001399121864778281
0.08898321900557699 0.2119656344471082 0.03314600593515299 0.003500324799712323
0.09202417630336568 0.011318263440700924 0.0327383329097835 1.515493074374043e-15
0.08942129461555345 0.04266191649821055 0.04493822606969064 
0.09273704165921688 0.2677985474792874 0.041089258198443376 7.462798971041109e-06
0.09201181161895766 0.31020599823867645 0.038626963323200036 0.0001761247675299117
0.09045578170451529 0.2486043038738081 0.04413629558424629 0.00836881023872883
0.081620195268331 0.21911643137461703 0.05279191002588901 0.009892730286501353
0.09038160627999962 0.29896124008671787 0.05852386249508206 0.0007839750062795298
0.08957064513391168 0.3237434312977097 0.057487706653626354 0.001114769254317232
0.09060975942349106 0.3378892561491676 0.043759621149217054 0.007603482172005189
0.09250962672899447 0.4321383884006568 0.04020105217836488 0.0010524339641365833
0.09595393662108516 0.35262178343246275 0.02723773730103882 7.052945715769363e-15
0.08942423498051234 0.3944308315649208 0.042506196881516536 0.007179545197906149
0.08939229881126758 0.39102120016315 0.025611498742381823 -3.7695970653729044e-16
0.08426435447951398 0.3671108958563219 0.04910585280159087 0.004129002683635518
0.09482738634276743 0.4716245109759682 0.03148539530382476 7.543393167283443e-14
0.08999133415200826 0.35201038139693985 0.08466605149440101 0.0013868072772555652
0.09118028044464929 0.2968228779274539 0.07731022616268851 0.0006834532084227174
0.08808601199507571 0.3365096930590965 0.06407657508681638 0.002954684639574144
0.08917327744219022 0.2824382525790489 0.0725020427963389 0.0007753090124268952
0.0892577607312315 0.31623253754571345 0.09404253681999569 0.002214377534974837
0.0887549431813185 0.40992640254978646 0.08873004278206226 0.004314808015422217
0.08880256580228882 0.4207508955264405 0.0815305470965439 0.006877679765446944
0.09309422601911414 0.39536589417140705 0.07786739524091095 0.00014706568728009095
0.09056944845830532 0.44262914577677565 0.07354678679779825 0.026268172635058092
0.08684985532849436 0.46116119967777663 0.06359151809909684 0.03443666365247821
0.08767385354541223 0.41725774523376186 0.05687235603445759 0.003920434649251141
0.08920823525533417 0.24662583355739834 0.07496575693189002 0.008606420469760406
0.0900239332245039 0.2836906863987822 0.08680939954919718 0.0009213228644386304
0.08932414170149383 0.2608843521841885 0.08860073126906642 0.001922697506221082
0.08688162265449755 0.31139608746212943 0.1017782899317978 0.002091875684702254
0.08866435213404598 0.25951704857837105 0.08451864938002582 0.0017241928755907957
0.08171789538742381 0.3290455272335683 0.11995157115386218 0.012694034717285637
0.08407624257259591 0.303085908710818 0.13015848126479526 0.029629890959459185
0.08494899309308065 0.3356694223650385 0.12326084144686249 0.009992187126254297
0.08488453503865935 0.4434558966608865 0.1312433837165437 0.020200106284968038
0.0902876387579696 0.3962597028608523 0.11615995985175176 0.005646032861812674
0.08934110708690292 0.45305815830989593 0.10597292643787212 0.06522337742914877
0.08873732836308919 0.46419603237412566 0.14285237406341933 0.04459920122419181
0.08602299553928618 0.43741039796210246 0.10593730140340366 0.006400780731899722
0.09070540837690347 0.3963544865054836 0.14990630922217776 0.020081286965338934
0.08887251923667662 0.4002880614868127 0.13059351775614692 0.006164132165296339
0.08637004161348194 0.3710152609446804 0.13558778786283715 0.005064768336736106
0.08700225656051652 0.39389100681859035 0.13990785640488113 0.01850114148935017
0.0912971323106303 0.42985983874512446 0.14134096169435909 0.012330703354229335
0.0920936989776022 0.3833911632760978 0.15247642331456504 0.05919283270240074
0.0911808342007952 0.41204077700705805 0.13628952254645862 0.004371853900729769
0.09143337602254882 0.3747633847715071 0.117200390168357 0.004311985954642203
0.08964942577689299 0.36287195964615676 0.14825477273650675 0.04663937371848349
0.09132935400222074 0.3165618267877456 0.14946724175796525 0.03786716526190125
0.09320449072411038 0.3114202799484515 0.15226603821637077 0.03913726774606435
0.09908875048942227 0.23580076205992997 0.1520181996770603 0.045485436893351716
0.08666470349529397 0.3326715539031534 0.15061877791248537 0.033404909488678136
0.08416939902665015 0.2690438441533713 0.13790356666719772 0.0034801006015268776
0.08867923062545628 0.24388219385453036 0.12587704695599347 0.03057358635072401
0.09035644670311488 0.21973469928893988 0.1461074350086424 0.02928992902581561
0.09255143993037031 0.004400441500117893 0.0395167311882249 6.854485365743683e-16
0.5903975955028726 0.004956656372413749 0.16026616358810256 0.07060433734478562
0.43210802588108016 -0.0019540432094778673 0.16568285999306748 0.013952204372623955
0.25705935220036685 0.009377788807591167 0.16930277730121726 0.005505879851974017
0.5667699730024618 0.006278154306401254 0.16960185855837945 0.029176222789150545
0.5897848955470558 0.002411026734351948 0.06769325721413072 0.026868496526529857
0.5913265501308361 0.00509118622104235 0.07972554130582084 0.030138727461201054
0.5924441883526708 0.0001783963556736337 0.03785148154454333 0.013266828897098331
0.5889770684446094 0.19549541591788558 0.16144489182897107 0.047144373020916466
0.5951703390561927 0.12588965630751325 0.1580113810682833 0.09948613155650149
0.5993419095400856 0.1593062840128927 0.1634786619883336 0.0539333770529454
0.5932294285290035 0.18995053321055946 0.15205672049864152 0.050372877662749116
0.5968387955726024 0.01577453832186512 0.15985600326866373 0.07257848056034938
0.5914410788889602 0.08446694402674304 0.16113676061752336 0.03308941119840094
0.5913884082424818 0.20682022763394503 0.16153753944057683 0.016688543791545437
0.5943492080813265 0.3408254079887734 0.15853670772326686 0.01034102545190803
0.5874312448426406 0.268786493568362 0.17115964016083973 0.04646280356340311
0.5834970352365099 0.35521143005281636 0.16428649678507182 0.023311860329280554
0.5913691372380186 0.11128392418629442 0.16267582291787663 0.09830353783285138
0.6031657879541189 0.14438488654676412 0.07765095670153783 0.0017156582979656694
0.6024216906957924 0.18452912048356807 0.08247233469936634 0.003012791453986642
0.6008443103898965 0.1600944751561 0.09986885707162077 0.00608134110284332
0.5968008403405578 0.17007961918307796 0.10123806237706132 0.011819680459970946
0.6038973784440128 0.21093639940356337 0.09909796975335776 -1.1814754966793768e-13
0.5972827600515535 0.15410959756402748 0.11084427496072509 0.0014020394257770726
0.6001907934226188 0.23532216931807465 0.1109160602462578 0.0045378231502293505
0.5960340737623683 0.054677617434414016 0.14129899733866433 0.0054978059199870455
0.6003660931613294 0.00998010275433057 0.11633439950991638 0.015235325843893031
0.6019530331845863 0.02707882220996314 0.1379061732275127 0.013379206081604911
0.6001998003023093 0.008535079221222253 0.15179469023895137 0.05383578014123142
0.5959718023453776 0.14199585864935732 0.1350769827023938 0.02864887641164271
0.5932124935425642 0.06257308177035423 0.1482699212700034 0.008988671059511719
0.5939610381509869 0.1429840288386012 0.1535580996223148 0.12929255459546685
0.6001466483767807 0.11423290293304908 0.14853425999142258 0.08517146705493191
0.5959851927932732 0.09188921457425285 0.14632950156555696 0.04550741487647663
0.5967590983332971 0.11736684876843595 0.12569291410348474 0.0035017228915979783
0.59934916807662 0.10479241750038948 0.12424210330055507 0.0051561779311195995
0.6003770568963427 0.09890060512241972 0.09316767412712207 0.0016350204988764207
0.6002498665546383 0.053234653252895066 0.11652822069235227 0.0096305817320926
0.5982071103343136 0.10274333241900208 0.11821717728682911 0.002577471091258543
0.5966128891321418 0.07231657469070847 0.11981798923190959 0.0017346316405617225
0.5959404491476713 0.14451175716364056 0.13914958939957353 0.12002582246596694
0.5939500923877699 0.17221758946061838 0.14173335071863918 0.053755906231367834
0.5926349904680288 0.2632099793949532 0.09244907609320671 0.0019448965140128806
0.5951183271930812 0.2624030521243768 0.113881333157183 0.0037940597652954267
0.594273290067353 0.2797764037274422 0.11392849771357497 0.002853053449092358
0.594136023341569 0.2997304674277481 0.10325946931502794 0.0034221498725773925
0.6025495633446063 0.258235921064336 0.15142104770756962 0.04066410502256347
0.5982050192444057 0.2529534231375329 0.15886958073045263 0.06799781597041335
0.5976677096817176 0.2983381864519569 0.15869638615032447 0.04098117092570196
0.6060368289778297 0.20527433808550435 0.14365066936998386 0.02354361330813438
0.6010158229987055 0.2768564266572007 0.14684674809353898 0.03385691718268376
0.6019911041904933 0.24942319924742187 0.1517229387842979 0.07284450273393524
0.5992897353722333 0.21698585315310878 0.14739207990504125 0.026728436483639043
0.6052764027667344 0.22963999628195975 0.13376058945400296 0.026251138697151934
0.60000042011542 0.23615207484922268 0.1456006261761762 0.10394485127629878
0.6001800610919336 0.2962687021312172 0.13977660993665494 0.08320448976188706
0.5980103900349438 0.31321675815321004 0.143405165647033 0.04194784915858955
0.5976038637508773 0.2626787276564856 0.13628370387731029 0.03622929716916314
0.5986810208410226 0.3065853614028606 0.14243513484539527 0.08064539973101442
0.6048522024544906 0.323009208046191 0.10334209084513894 
0.5960493940390477 0.27384339904494776 0.07683701461603061 0.0027928242655153005
0.5984243645284819 0.44902626830742515 0.12764280020608443 0.041839367783724365
0.5957192251419117 0.4579885604579607 0.14007204983218757 0.0733401269309145
0.6061691717019966 0.4191626594239937 0.1273986661503186 
0.6005548372177174 0.4241586972735568 0.14362144762071685 0.02952889380816633
0.5945258159707499 0.466172549154295 0.1035215538868672 0.06769004051204237
0.5990045604669098 0.4210560195396151 0.0757209528689734 0.0008391213572340255
0.6012630318418948 0.3961344653712486 0.08330421206648779 -8.333431091421663e-15
0.5987158288489853 0.3720765895385823 0.11435890563187057 -6.851594000806209e-14
0.6028478573054986 0.36506574888373955 0.13429048856732267 0.049184845760553146
0.5970464359226351 0.44173957661064295 0.15996680239638164 0.0818561384189642
0.586701562189321 0.400026597247277 0.1582717424006043 0.027938949891713322
0.5967696984380465 0.37661010563964187 0.14659254324050744 0.05698703736315924
0.6016987794153461 0.3630847996130735 0.15420955547153908 0.005737302027513703
0.5974876002069222 0.32170555637032894 0.07037688434252426 0.012036979485727173
0.5988623512860187 0.28549727205002046 0.06276511373283737 0.002004505365629376
0.5980063650439156 0.29737141947301826 0.05803822033136588 0.002356514403968547
0.599235615177595 0.34916603975006905 0.07113997332662499 -3.651593174645368e-14
0.5986421351420602 0.40231977777020933 0.031186751161882163 3.31580691576642e-14
0.5963116833170075 0.3645009347391237 0.03843208194837761 0.005330516769959711
0.5980199253922263 0.3917409066514102 0.035354444291016876 0.009021900903794445
0.6009959879689409 0.37355221283503914 0.06001725967653315 0.00020681501812478683
0.5958554658324885 0.4474087153485726 0.02962892033766807 0.0009726794882496544
0.6004326262701979 0.44649936028141857 0.0796743863003932 0.015473114153005372
0.59993142450482 0.4560997332858337 0.0625720117269861 0.1047465271445592
0.597941725428 0.4362927530869492 0.06290259432990584 8.868385057321061e-05
0.6013234751691713 0.24671982225459935 0.0731026650901768 0.004808578976554543
0.6041783881099124 0.3041705565480353 0.044019756469869685 0.0053482886734035895
0.5979322350887293 0.27128239117410363 0.050516497931378385 0.006628835916543287
0.5986223420330651 0.26467921228931357 0.05893063531919044 0.007127005324947841
0.5985745979550549 0.23733544566331335 0.06804854397681541 0.009596178259293984
0.5957702614809861 0.2180001794666455 0.0439584538265631 0.003279094607339326
0.5977657826827383 0.2533707170811367 0.029087023673446337 0.0019915935438162653
0.6027414716420688 0.2870656683368372 0.037846121258526405 0.007062959896626213
0.5989737326378284 0.12423777007291904 0.044256335277341144 0.0028770360295996195
0.5990283758541537 0.1323824409539385 0.07074813631843405 0.005374964276585326
0.5988026705662801 0.14200247079172398 0.0533389609383847 0.0028391516877149885
0.5959304570438959 0.10721874664307779 0.040365490832014406 0.004345018950755029
0.5955326058004607 0.09270874713723624 0.032656745770039734 0.01044044659398648
0.5978753982521638 0.15873930266057093 0.06984586248612187 0.007218606578810103
0.5976319767962732 0.18157999817530082 0.042907772431791794 0.00250992952351202
0.5936594092998215 0.03078622654390642 0.08348380225721029 0.017868235463460096
0.5988693689521124 0.07596068730038098 0.091843578177065 0.0032238004172613793
0.5932075469835983 0.024391500333147614 0.09131367338404336 0.022169469958758858
0.5986837093297953 0.0453445494683368 0.07706216840840939 0.0075457185790465805
0.5991150143852116 0.051311597255977615 0.09354739368881318 0.006790218703189509
0.5983470820271388 0.07322240183768447 0.03505162970795525 0.010984463867210836
0.5981292278325915 0.04991138021466674 0.05898689138203932 0.013124072505336579
0.5960816145208475 0.039522118212993174 0.054004850633344384 0.015668380631692368
0.5959825469964928 0.09506796536500976 0.0604407475931429 0.003155307730297639
0.5937675206904338 0.06538505684449437 0.062449945911831416 0.009087476399888952
0.5892954096448442 0.02595938656262023 0.028063328632582107 0.030104146442330025
0.595064841717007 0.01436037439679756 0.057788932288612954 0.014894572447360659
0.6012616730241881 0.05032467643484992 0.04216593664909335 0.008172297616284066
0.5929557411566777 0.028211524238581975 0.04391926652665594 0.019168229388528964
0.5958836128290019 0.18539742312849686 0.023493610271426813 0.0009415956315061402
0.5893613732842088 0.06443321185884675 0.02544534076021606 0.015364310316129956
0.5923757789839468 0.16937016370136215 0.03118284341278062 0.0028986507064693635
0.5963267957017729 0.3160407496140009 0.02010923107631847 -1.1844706607687537e-13
0.5938480898460634 0.15282163673956028 0.03831888282388007 0.003123092284404004
0.26438831468412954 0.333083766427982 0.16501645135827028 
0.4762460978634471 0.3362077868316661 0.1590480649673791 
0.32160589768574616 0.3903386253174231 0.29474548972634207 0.13685176252071965
0.3225182835358748 0.38722598140164405 0.21771464950409675 -2.4132089919506135e-14
0.32791806078196895 0.4085208613995879 0.2636514819129905 0.20551656159512133
0.34210307839581494 0.42792383183489174 0.31560810578387344 0.060150607793831044
0.34933401145702575 0.43027675812153654 0.204096862889812 -1.252299052311648e-13
0.3644607715734734 0.41543174704321023 0.2879477807831049 0.08642359597054533
0.36077822571498047 0.40843505746157177 0.2952327538797323 0.24134057480192683
0.3580120087841444 0.3861254546020049 0.2533986081061238 0.1996501572440542
0.32787424028590717 0.38735805091498654 0.23676657022885875 0.18234164393160018
0.3224413189263711 0.39539040011819837 0.3024932369554256 0.14373052041473455
0.32435795251121713 0.39890265484220355 0.28769861481671016 0.20693578192140888
0.31887064580822627 0.40506958668108023 0.2394168051414873 0.0515827928152991
0.3264285839322476 0.4007410156596419 0.2672302480433974 0.21284437781821341
0.3216535931259603 0.41814129300149505 0.21291264926649694 0.04460729966555781
0.3306369022318378 0.4190435576739834 0.25380221013231663 0.1144989382887709
0.32735172193878365 0.4218255549951228 0.30670646974829596 0.12027218644934277
0.32438112462429813 0.4057400226549947 0.32044262155544445 0.11506307149741851
0.324336912674186 0.4079054238275955 0.2907196434660231 0.15886591479631734
0.33245717945626085 0.4244934407760549 0.2721235940891822 0.09612767803299622
0.33780024566823186 0.4221221964580288 0.28801952852851553 0.17111293181383092
0.342624787647989 0.431661499070844 0.25548672578636683 0.0735218563824347
0.34893028058864356 0.4270569141274548 0.23720119251307573 0.08076439332186744
0.35483534766908537 0.42082007710369473 0.28693449446373626 0.16676074029915258
0.36173508161057316 0.4182066296370185 0.22316873960940745 0.049331388063073155
0.3679705853108439 0.41261195199664896 0.25973174231518764 0.08972906525889103
0.3635080943152084 0.42189062980075237 0.27091208714113374 0.09176927914840335
0.3610013759589767 0.4106160851821587 0.32136110209740987 0.13025379405847898
0.3676592539021474 0.4069397525018722 0.23680975923691497 0.07656120494672748
0.362463282066376 0.39786681192787576 0.2686421086100414 0.19314532179822141
0.3708345960996223 0.3941339143037022 0.22481426856904757 0.015801509490069456
0.35964353168263563 0.3890107577130285 0.24369937439765202 0.13629900307098297
0.3573833857314842 0.39068818735223754 0.3020415926680955 0.1924814661003419
0.35860332944485923 0.4092690092596722 0.33605014478164075 0.20238332301353212
0.3623377787857812 0.39834812550778503 0.3358302386834588 0.08360778990440361
0.3194813284165063 0.3888233180077936 0.32469299955431785 0.030012385280092806
0.3277637547047039 0.41837302325381676 0.3226176387345346 0.11136892864469221
0.32465101733072477 0.4177185883054014 0.33147247428178966 0.09246327522536443
0.35050583983224703 0.42483591501477214 0.3365288988987679 0.05880060909675836
0.35587194687890394 0.35094196791500065 0.3404428219910901 0.011947495651806
0.3355660833813848 0.35822988354895163 0.3438815283661134 0.030914363439111144
0.3493902585313474 0.33887725319400186 0.3308143585998114 0.05742048820794996
0.35700648760880743 0.37415022165762934 0.331643501044666 0.06580295675907576
0.3487310256184452 0.3953103029435078 0.3452038296744319 0.056195484164341857
0.3369079354890611 0.39376538489883733 0.33712051553487915 0.10687763574552835
0.3337406939052766 0.3309634702468852 0.3326111133160776 1.7870672137580548e-05
0.33347585043112604 0.3496543784255931 0.33749568782694306 0.05476300612195542
