x y z curv
1.011200346302715 0.48843604830060683 174.4514966184391 0.056323630328383806
0.786710318476956 0.49231591363040994 174.4014945873467 0.00588613162870814
0.15750526734878492 0.4899843003482634 174.41630563568177 0.011689826193472011
0.12224028371891146 0.48915466626811155 174.45147885633685 0.08069417190528799
0.6016357632099669 0.492347928819327 174.3451492017876 0.005980199070816744
0.5645252668629269 0.4999330543581527 174.3678614168715 0.00048824231577648206
0.9179270694779403 0.49454466826926435 174.4040273192108 0.0052372965977764115
0.17986366986169106 0.4889494102300777 174.42513368219676 0.0030256987240753035
0.34870805687649803 0.4938743989195033 174.38638319605377 0.0023155499244120613
0.3216204492114315 0.4915831751093308 174.4402525020779 0.015609468949821258
0.8743756087932874 0.4984064531331463 174.45237850026612 0.05194527305116117
0.7392020165841389 0.49647540862962936 174.43036292621866 0.042616452443149065
0.5903409374908137 0.4970208025008694 174.41300005997 0.005572545353668088
0.4963318755404008 0.4973521605676714 174.33218931429863 0.010010222447024087
0.36879446738252275 0.48891098393117033 174.43258606627225 0.009198391774908063
0.2715954211138531 0.4945480721383893 174.43465724995718 0.015677702266833415
0.898406849941559 0.4998541004529178 174.42010818173213 0.01345364883152991
0.5523613676449776 0.4982242776930509 174.41640673341658 0.004481246560943417
0.6879227178438626 0.4969206235856656 174.39025602284468 0.003494839936331673
0.1639540956697152 0.4892699287103378 174.44606990838508 0.0273966562157145
0.8977866134644228 0.49104219969284757 174.4574771701936 0.02502279693039172
0.5708261067334084 0.50200898150244 174.4154478056878 0.004055878650807397
0.6544349738635736 0.4947786008926794 174.39866482912933 0.003350589252084256
0.18909715193767512 0.4986694026179423 174.3974908949855 0.006351716812024465
0.22008452292310549 0.49176503530078547 174.44656011761782 0.07873015029647877
0.32176222258471915 0.49091038559266037 174.45300039763222 0.022366858862931188
1.0441250365394883 0.49635361486647445 174.4559556192963 0.05179228769961265
0.8504221148729647 0.49519377322041025 174.41420911087812 0.014507655732113595
1.0541849053898433 0.4977408200321106 174.45280285232477 0.04734198881822165
0.4185694432517938 0.4897445586467764 174.43005273436103 0.011184914021080367
0.18587240194990998 0.4904892494602366 174.4299362635137 0.009318933031559352
0.30878654192433 0.4877195679979348 174.46123562388826 0.016075146408320896
0.43717670753809074 0.5022465415827125 174.31938760941662 0.01886684261932188
0.24822016153692986 0.4908115799083558 174.3746332609402 0.006807326614151366
0.3147018207482805 0.49192169381856915 174.4044649669513 0.00426318692516935
0.8390151154537467 0.49499668999181595 174.45146597391889 0.06719610248250867
0.7097698254638948 0.5026034892629324 174.45545789339945 0.06895564630157026
0.9537886799963003 0.4906868086824225 174.44628770928503 0.0435130831002397
0.47290046012473896 0.4962783092399118 174.448625994714 0.023742195335792873
0.6731070900650737 0.492967073088573 174.38070346234997 0.003310385768803825
0.3868101841047435 0.49567258206259146 174.31943693100996 0.004055920478230304
0.5696757556150933 0.4933306226285578 174.43216591972322 0.01251080395192669
0.35931891064695165 0.4902668685566705 174.36499701598004 0.017481129621515542
0.39953112670714236 0.4910678680440518 174.42828857627526 0.01581947386632226
0.26041235111455846 0.4925596841457673 174.45102944050782 0.029153976888112984
0.7928574436822787 0.49410586995766503 174.43514221106113 0.0503285568260289
0.45326169418229784 0.4950502394253662 174.33992374080984 0.0075281340504895575
0.7180223701484392 0.4931986855381029 174.41673097883114 0.008001991054984744
0.4988868285465546 0.4944128418118344 174.38098741487894 0.010376187379633835
0.9165793124942602 0.493089545411091 174.44527972894485 0.007067589905960103
0.35493856698418924 0.501455175999938 174.3472369039259 0.0019969549741519583
0.5935118534142807 0.4939801834375877 174.37220273122864 0.005209825503360416
0.48945644738587196 0.4910948341685673 174.35346516085494 0.005166048062713785
0.2944284115076983 0.496195998699927 174.43684874953374 0.014102798190430406
0.8057855881090068 0.4962254534164958 174.41298626855448 0.00983033284632586
0.8134260791884353 0.5016403457198904 174.43483063204712 0.011025769764261856
0.39637087945581784 0.4912085046383876 174.4523582965237 0.016766851677063304
0.2920865398670463 0.4985838835959769 174.44200712978343 0.014515166748854336
0.16449813574354302 0.49140042646738497 174.413009103147 0.015046853723075588
0.6532648203911627 0.495388186545821 174.4311031018273 0.03811438991901461
0.6387600304489257 0.4946850626699948 174.44656366877857 0.03117351284459415
0.4409502811696058 0.5026367516460344 174.38776388605586 0.01502196862377144
0.10010180544127245 0.488250188782301 174.46433672333475 0.06290447589593544
0.4628643136693061 0.49496822889303277 174.44592252613552 0.02902780850507399
0.07686284653852377 0.49435140706564296 174.45339386752408 0.024966341426136244
0.20265902952097192 0.4972913234231926 174.43463320482843 0.028074621159664633
0.8565624431041348 0.48922311795707907 174.42547215586072 0.003754948579781282
0.27183303920081303 0.4900114169120629 174.3577558002383 0.00600660353228034
0.2414795875104867 0.4919766968684738 174.45972849025517 0.027085425549669306
0.934081427217156 0.4932413740196613 174.40774364816278 0.012321169234929137
0.5470009448602358 0.49073668580943525 174.34142427288458 0.01112497698237769
0.27635364735030876 0.4888896899628492 174.45061271110774 0.037066700608695276
0.3060753408275278 0.4954053057575796 174.41292917729996 0.007451747403441646
0.40999982823061726 0.49313335682912995 174.37445556545285 0.002827153039109151
0.2608412631793826 0.4908407653680364 174.36756577585473 0.008459884790369637
0.6057958562561442 0.49554734916406784 174.4447476296 0.017324139455970018
0.3219940043580342 0.4907188733567708 174.36020785655242 0.01009625926669729
0.7144902360120121 0.4987602756701979 174.38855381805232 0.0007049520178996862
0.4696686150021225 0.49671729079055743 174.3238975409862 0.014553635897998
0.2598125625933089 0.49668778274349495 174.401812797805 0.0036557036674150028
0.9497495216165812 0.4945404248697971 174.43929162868423 0.04033169359512716
0.3474247804275703 0.4939782215576643 174.31290472579403 0.019632546576701847
0.8635257157926711 0.49590780296945364 174.40665411018747 0.013560694853651745
1.1112989753599531 0.48904009945076554 174.46024377912144 0.05887470176997587
0.6696896925263344 0.49468623437302256 174.43883391298283 0.08841060886039491
0.22191363346197676 0.4917501328069552 174.37491996157956 0.003835591418245332
0.5832560973173584 0.4971671120494922 174.3844950722311 0.0041330699138811666
0.21172772251445002 0.4969832889810476 174.41735008871117 0.011035894265970705
0.42093806902011954 0.5013333578824137 174.36374721850862 0.01117460285292632
0.41402495529394057 0.48536149420776387 174.44370347632224 0.007879923481250658
0.369161223831477 0.49074194486907796 174.42123790630941 0.011606564553497987
0.611369984085769 0.4948157252748039 174.4244289431324 0.003047224088523525
0.5467713288689211 0.48982772428274246 174.44257703294258 0.02341739288459941
0.6957523453907021 0.5096790065837554 174.45070022762815 0.036652972758261126
0.46535007559683805 0.49063397816195 174.4291112728463 0.011349631045516924
0.22528148300535436 0.49062478505574536 174.40715735415162 0.007963150944233796
0.37407556181122903 0.4905566080226434 174.3438497977227 0.013610890532125528
0.5350907445202191 0.495766422529744 174.38523043406212 0.0014473513110570596
0.39300141231310526 0.4886816920842251 174.33628333788124 0.004921076840844111
0.36390497139764627 0.49176846276435554 174.41224309116689 0.0076411457900539635
0.9913105798728253 0.49431234749278236 174.4302911865628 0.014278343207137386
0.30392492135624116 0.4963479081788987 174.3349748421292 0.00655075450212451
0.8933020193468988 0.5030517836590419 174.4256469869204 0.01657054950898878
0.6643608517982963 0.4909099540908658 174.4087566630229 0.00467309219220921
0.636336062600046 0.49433786941314556 174.3909412978928 0.0017388121439321693
0.525075157112203 0.4939901143986143 174.4173909823212 0.013117166988871509
1.021178473182998 0.4885281294777027 174.42519923038523 0.006992908681966417
0.340794750836226 0.4959188025687136 174.32537130721607 0.014317807693645311
0.14958692194119297 0.48987538610641074 174.42412443817275 0.00856550622400903
0.8456243689510236 0.5004701708763426 174.46249784789453 0.017871119532964223
0.3823224792420181 0.49793645514999363 174.43150253754752 0.003858158844136177
0.5627519743833577 0.4896899767045665 174.44995413741816 0.04199712216988247
0.6449984823736832 0.49579348505392845 174.41369150912539 0.0026627630331531975
0.7364311526187663 0.492536773673926 174.40938072925712 0.01597102941454403
0.6935362618291039 0.497392679983113 174.3881094891187 0.004642789542140367
0.7604573081375691 0.48662892003133534 174.43181895836096 0.03332407469939266
0.9753765820244958 0.4892586524421832 174.44187902472675 0.04895805844186691
0.37053278956519653 0.4917719085762736 174.30624883027846 0.004907636968262057
0.36189005900986304 0.4888821443810852 174.4461668586002 0.029880389149654192
0.27775294791495936 0.4908953357746179 174.40976669247482 0.006753997022179022
0.7141431873837785 0.49025498722425875 174.46464568197217 0.05580819285307453
0.14313973579948347 0.49981593360290394 174.4055281168184 0.006856176513036388
0.5823366611546055 0.4989028167122222 174.40216675774994 0.006475669065010516
0.43810078268271485 0.4933030932900173 174.40501615850158 0.022524445332529803
0.6722928646175383 0.4931547873565197 174.4063921621782 0.00381458241819633
0.2454985241763325 0.4892070617196917 174.39219623109804 0.004249750590194252
0.6723481342616053 0.49316194109612316 174.3661659595928 0.0019071207936502603
1.0071126894066276 0.4881569617868868 174.4589252485931 0.0640013094462625
0.6252742134094503 0.49260820574934927 174.40784181752738 0.0017449174420725159
0.32174346264616266 0.4948335201210501 174.38088394871411 0.005678713611182911
0.9991877477318258 0.4922193070950849 174.43219529769385 0.012879389448278532
0.2385474073494313 0.49360859057107104 174.35036252016857 0.005304544185068469
0.05431625149675418 0.4935314571222793 174.40339008223603 0.005448621379808033
0.15286107250555267 0.49263796806893856 174.37239215074501 0.007351499458382663
0.016554661792206982 0.49209557616640764 174.41642441500383 0.07504228157065515
0.11581941646227957 0.490092176400302 174.37893842812142 0.008578829269237129
0.06183972903426036 0.4946083646818719 174.40945925730566 0.011634318908848936
0.15618331472666364 0.4947243110180743 174.387181793513 0.01294683705423915
0.10125324067398717 0.4876945202359432 174.39400562789044 0.005975698895392422
0.29214386356408567 0.4939763796846073 174.32993681556155 0.020452562805894088
0.021711114447509047 0.489752056202955 174.3992654546038 0.0541300151969392
0.31149627446973055 0.48907685622182 174.31950705777749 0.0028109244197274575
0.21642826605453958 0.4971487945962863 174.354417786083 0.008672050731732639
0.029060550294638676 0.4895199202342386 174.4121929567406 0.05491560699714696
0.2650475340148324 0.4978256902573338 174.3296659167182 0.006954387059894249
0.09413301920331127 0.4909685764988606 174.37513517274277 0.00523040596606408
0.05312963928729037 0.4913656155251615 174.41307345782946 0.003509753137468543
0.17744412133451393 0.49387962786043665 174.33696572952857 0.009946695678683976
0.03970870260243299 0.49093988815884354 174.42171626917465 0.019546041920464927
0.1613255982074193 0.49136180881497094 174.34719512870947 0.005636749178485087
0.17804664509736978 0.4888943620645391 174.36233478833117 0.009451183355395375
0.07982248957079857 0.4934939695752353 174.39041575239486 0.006534900108313566
0.1254139796206584 0.4911227245724308 174.3811898968104 0.008628358006453339
0.10018864011727496 0.48952312663581593 174.40575962371486 0.006978556626651215
0.19843444788135134 0.4931564643891182 174.34353380353934 0.010406219227464016
0.24775265556721174 0.49224241589179785 174.33480243769415 0.008574914120536263
0.03242196135544885 0.4865805334020033 174.3786176583212 0.06631824949945535
0.16297727216135247 0.48963567210508285 174.3739905277338 0.008063928973714161
0.03318072192327701 0.48974299694619566 174.39461615883894 0.07271700577108822
0.22001096330450043 0.49318897333631817 174.36359258130872 0.005613159124987662
0.2302891049657757 0.48969176374598034 174.33545724665527 0.01041007510005667
0.0191993965772575 0.494091761828609 174.4388547258258 0.09864442327051783
0.08470592840183085 0.4931696805273296 174.36477889844085 0.002979729831781358
0.05851214043330512 0.49210163386277267 174.39038007147775 0.009645172254454175
0.1952710471879466 0.4903344597049024 174.35839969676414 0.002319385428976638
0.1338203049785249 0.491998502236421 174.35739148502603 0.0035885478951077333
0.06977694138754792 0.4984302399429309 174.40419418849 0.007543770045325329
0.11450585969873417 0.49138564608395763 174.3481044421412 0.004220209192994676
0.14560474414774607 0.4883945009617932 174.3532727321087 0.00419500856470141
0.10140438639056389 0.49339180762403984 174.36613278178086 0.0025907085977674403
0.061474750186532694 0.49907003403388256 174.35907227058547 0.0027375795077275614
0.22012672872079617 0.4913796025337345 174.32532951098256 0.011952740960587278
0.08444152552353483 0.49366730876089426 174.3496117188893 0.01013257474836566
0.29186108194717975 0.4965442183824582 174.31980735372537 0.020665169076858562
0.2436272341499358 0.4923813523948901 174.3163316479197 0.020829059184935002
0.08764648497073027 0.49553886706662015 174.33949933507722 0.009720730188810684
0.17223693373270366 0.49628805118282776 174.32610458669598 0.013062827115143935
0.04723818719476698 0.4928739496404292 174.34451683330158 0.04724717028908637
0.14329316396316694 0.488053359252828 174.33200149907083 0.008101006879598709
0.15407694443901396 0.49261863361067737 174.32556927866037 0.012237996252192473
0.22720310369128974 0.49484012136039424 174.3096749324303 0.018888002950022388
0.12249390759812337 0.4913359350004993 174.33168316178106 0.0058127365975117855
0.19848694856220808 0.5013163396660076 174.31941248379627 0.005763735698273502
0.10233102062526314 0.49489140183964464 174.32128880765472 0.013675014653442877
0.1286324762284101 0.497679409280488 174.31595650959505 0.005078676466539173
0.15500274144159845 0.4897620734144653 174.30493410046026 0.01236868261113476
0.13760970507748668 0.49568747168916816 174.3090552426238 0.01177781068264859
0.16716674108682336 0.49080612060421636 174.30789603985045 0.023267105051873974
0.11350206805876793 0.4903917436179552 174.33527470822676 0.011604346393817067
0.07958143778177762 0.4872569328786573 174.3176807306784 0.017649134013057195
0.24899687476941432 0.4939860432559237 174.31449782023466 0.019309672854150566
1.056295102385381 0.49269655395230927 174.3078811767924 1.7317431118395788e-09
1.1388334915242473 0.4899847890199389 174.31571848332672 0.006308584098995642
0.7013023220710166 0.49241239448585794 174.30077397872927 0.022846129471819642
1.0991640903285842 0.4934968343167499 174.30608825534702 0.009668310376377475
0.7961972124168712 0.4921006237347275 174.30360345456384 0.0013498437957046062
0.8209927232963778 0.4921232499091884 174.30070540915563 0.002099899084890242
0.6143557365346569 0.49209811144749827 174.30882384091876 0.00785916385274091
0.784335759652151 0.4925475698012694 174.3048784623554 0.002268887221277086
1.0002027751214322 0.4983270047043841 174.3132561402111 0.004275747551975546
1.193858430957452 0.48837779374175555 174.33538138026023 0.030955545772567455
0.9077967593891704 0.4973938395076042 174.31590446820712 0.00929398929018253
0.8702116539539858 0.506642242115448 174.32959658678803 0.007301873222793749
1.1500862346188447 0.49057392129055677 174.3438276579567 0.003014149371586988
0.6285890519221089 0.4900668618757587 174.317542148686 0.005752599919787472
0.7426544520989767 0.49684351780561153 174.31302600360468 0.014484804017207717
0.9418177113295736 0.4877113179031241 174.32083414722314 0.013649937509633161
0.6708548733664136 0.49205124107412934 174.3149152019092 0.013145788603820725
0.8287489260121063 0.4909634647709287 174.31048179942633 0.0005430259903079921
1.162148532285446 0.49588531949114456 174.32024804633113 0.0010490747245265899
0.8063585425513629 0.49345699563852874 174.31471950416048 0.0029494039431086035
0.9504734885771831 0.4899869888538747 174.3217894807596 0.008615454763165688
1.122648063590484 0.49221616197471635 174.31705522792288 0.007004552989185458
1.0590271168661898 0.49591862595786385 174.32304738000792 0.0022978118284347837
1.1030687388422837 0.49728377723317685 174.32403289089746 0.017255691795436068
1.0716253328972347 0.49199372551832515 174.32439082049464 0.007336678851202907
1.0096324144175666 0.4942161704024743 174.30812799073092 -1.7222843934253965e-10
0.6452199009445394 0.4968138256724549 174.31207568219642 0.0024198719613100837
0.7200416717259378 0.49382393952536946 174.31022428533936 0.016603103042334817
1.15074673514282 0.4917480357808852 174.32258942374148 0.006923330575882037
0.12066899693918574 0.4983643939947006 174.3033946082145 0.009143841646191045
0.974392824906501 0.05121556161648706 174.43040730690547 0.005135241720950583
0.9766707862124165 0.036608556423133154 174.4461954124061 0.01862933121530789
1.0061559323034786 0.048027947079844945 174.44143420313694 0.00881297866201559
0.9939364119984677 0.054775465620985814 174.4377743286671 0.006263617229337199
0.9957595191447263 0.04105377309734371 174.44286481761455 0.02007347756615517
0.9726027232646426 0.02846096059459594 174.45911500406424 0.02190204679796699
1.0052048878985522 0.026185286298280496 174.45719743261975 0.012643682045083988
1.01914761848232 0.053690939322068205 174.44065970463484 0.004761047580726941
1.0308057895283513 0.06156789699575485 174.42533123913196 0.0034626077327887875
1.011434145200196 0.07474263065157474 174.40897717810583 0.004844895430370663
1.0537771356891616 0.04508279064763944 174.44330270666106 0.009509790205043262
1.0581283609798893 0.05421549410556531 174.4238123185777 0.012970514507338828
1.0343988759535958 0.054920019078879466 174.4310698605451 0.00804416029778008
1.0638553161005042 0.06219000714573567 174.4163825811555 0.01348210103007371
1.0879694132473285 0.051526451884600366 174.43028473465557 0.013923228518081789
1.0928714433168054 0.07257151849836825 174.42075388429092 0.00024114304908893065
1.2179225007186203 0.23667120669947922 174.4455914995988 0.14659824331761823
1.2144457474659138 0.2577963389751299 174.43868179911547 0.09639947336892753
1.2262723487395226 0.26694588150129606 174.4503679419184 0.11031994798189879
0.8805566558205342 0.1734699114842512 174.34695950252822 
0.852457091282931 0.16294763625720748 174.34231494165326 
0.8001198303442264 0.15458186161012186 174.3474744594655 
0.7773996780836584 0.19029716419459086 174.3456933416436 0.016187873391751484
0.7875722551081102 0.18683835367485152 174.34353691880597 0.00011317931922898879
0.7691736101842148 0.20329088696482964 174.34604149864288 0.01219369985206473
0.757286391186944 0.19055160316209896 174.3548666109316 0.0036656512316617876
0.7462917869591752 0.19448242699184604 174.36860224980353 0.02595020226611863
0.7388685030228004 0.21225269614561934 174.37206326482652 0.009684378527104876
0.7451097141079721 0.2338430509766948 174.3691317605495 0.008937921645818225
0.7499594179330259 0.22887387198067444 174.3582233093002 0.004451934282853774
0.7350603836554894 0.21436470953406717 174.3849256162272 0.008663451173185985
0.7293418643230005 0.23812380690622534 174.4041056022909 0.0072767024280910595
0.7364548968335526 0.2507686416041933 174.3969315924327 0.0066545706177676064
0.7349456345821294 0.2402665880477005 174.38475110982375 0.010804932974276428
0.7592498460932989 0.24913525056201247 174.35415048251008 -1.02084077749673e-09
0.793824968380411 0.23322588179982714 174.34470111774542 
0.8301067514966038 0.20267619355690972 174.33833814101132 
0.7219311392445098 0.3016344868272957 174.46752521168557 0.014252256434273216
0.7353114602540108 0.287096198354056 174.42430666158796 0.001087799064347671
0.732770410547013 0.2816759764190003 174.44109528047522 0.016673575266054133
0.7183693035118042 0.2626852973659625 174.45672217176258 0.016008896367976415
0.7398487136574452 0.2711072872320426 174.4070147076542 0.0023669975807443667
0.7328256796514022 0.2567927689225373 174.4160903942746 0.0034864028725491124
0.7289108900827252 0.25586930069764796 174.4389350782074 0.02847364713873816
0.7263971915251614 0.23606646047908345 174.4449960162844 0.030005180171308092
0.7237674103681611 0.25001678692752055 174.44960944725926 0.02305414555132152
0.7325068328097638 0.22612562578052467 174.4424843595915 0.02207144974747618
0.7331473316709886 0.21644431837105843 174.4425005830188 0.013776764313727676
0.7244901536353396 0.2274802583145951 174.46221299353041 0.006491769021174276
0.7402810899287714 0.2691210089524478 174.3999769900899 0.003638304577804953
0.7301236180653657 0.20573269152123255 174.42121439381452 0.006587654758028501
0.7345389002938361 0.1909515199692072 174.43278951810882 0.018042731829591496
0.7345357645980662 0.2060652899684081 174.45082483583832 0.028476549338445192
0.7377873860792931 0.206879110154059 174.40379015180466 0.0029895844782035887
0.7371247028741825 0.18276577613005557 174.42373424858275 0.005516882098261982
0.7399026404904935 0.18970694699365986 174.39437580574844 0.003064169376889965
0.7298210504518264 0.17927202569829326 174.44660447818953 0.05264391709097312
0.7149357596961373 0.1807260376426708 174.46339265761372 0.029912201061015345
0.7321953742627774 0.15308211378253977 174.41308807285748 2.1192074948624167e-05
0.7421334114304938 0.13951288658765312 174.3940551405068 0.0019282007294470695
0.7467235176858558 0.17112952958642821 174.37843368705342 0.0038797840472837276
0.7465143875790662 0.15053596898399224 174.37599886887628 3.51653085427807e-10
0.7465732221465562 0.10721620112361317 174.3995212560184 2.8462703823918107e-10
0.7420425053519764 0.10521961890298696 174.41045692540382 4.449527054986759e-10
0.784734789665486 0.019984607124595526 174.46637939413313 0.011784797064274785
0.7916256105076783 0.034916042747717466 174.4592346007398 0.004252546559826206
0.8075102492126714 0.041477202897594 174.4432682284071 0.01743555369990302
0.8264263190981641 0.03988864217386933 174.4513168231581 0.01637891140743854
0.8138750903281669 0.054613745013570816 174.42869601516233 2.3372281656906297e-08
0.8210046031255096 0.019843835593311668 174.4642019732608 0.009852521636814139
0.8425735192194002 0.04656213140589336 174.45018693492662 0.01016554187246347
0.8595726427294142 0.03721059467247188 174.45074919238584 0.03385939982229459
0.853237523907154 0.02535131188716346 174.4684478946628 0.02284080717798046
0.8702840572347593 0.033334117906030115 174.46114576522768 0.01696059572560538
0.8783225710918016 0.05337806832859492 174.43903435264286 0.0067295796033421075
0.8568318038998315 0.054524863144299815 174.421664780777 0.012421143898771124
0.8952099294670478 0.03934980388502702 174.44688070708364 0.04541826785487819
0.8935306963175698 0.031115685891915688 174.45521539514138 0.05338808780273639
0.8975845814974681 0.05740569603171651 174.42312313049914 0.010624543335374863
0.8907228762254262 0.06393191360548506 174.41443355532053 0.007123008131548569
0.9037746827756254 0.05546728099775051 174.42320977916214 0.007340907098947879
0.9411747347651908 0.05115289892873216 174.43666875300528 0.0033581491536758324
0.9269789617441313 0.0637838455312113 174.419882875556 0.0014199522185040381
0.9193777268509282 0.05779623751488942 174.4228752671945 0.0012505797043742594
0.920558735907199 0.05254929283948506 174.43292606980847 0.0014839364097464444
0.9423472258971493 0.0445750026994659 174.4437155591111 0.009620612983346993
0.9149726472601435 0.040932995192008215 174.44751825963817 0.03570714628759194
0.9531702429525539 0.03229818465707962 174.45979980545476 0.0059183970312577105
1.0073456172748319 0.022918820973539013 174.46021723151293 0.011723087934507794
1.0390077486000058 0.02834755171934639 174.45887245416773 0.026876475780548498
1.021834411865989 0.027036583824600738 174.4554590893538 0.030423732322681203
1.0619947169587372 0.025733086712600283 174.45588550679688 0.05862925805500835
1.0462731347054546 0.028311234942478468 174.45483040405315 0.03137266489838391
1.0718869950767373 0.03838578159258801 174.44710741532484 0.012501844316682458
1.0917710379800076 0.0350637950672299 174.45840922182714 0.013321561656303448
1.0719458030986082 0.025631393225630256 174.45726202546123 0.04227262614156458
1.109166601132373 0.04182791305444267 174.45045133865844 0.0657083174752606
1.1066973676675547 0.025619497732449686 174.46044524639112 0.06502003541808546
1.1104103872691997 0.05965587542260883 174.42139974461043 0.023484265125395268
1.1332330557226544 0.04944778312015679 174.43583909854766 0.033196274181159405
1.1170528862677174 0.04792497433604023 174.4348071782124 0.0164141267534977
1.1504747762356131 0.05963875377725297 174.4399903650827 0.025592784780476153
1.1241772443161726 0.03919318331737212 174.4539249705873 0.07950570216480951
1.1452719624256198 0.04136417506062622 174.4494668708999 0.06522776423931947
1.1250756639980437 0.01926026702862911 174.46450114316818 0.10520255813996475
1.150423584291766 0.0796489063157498 174.43340110848558 1.3883607331805243e-08
1.170570753820527 0.05884845479033886 174.45356516226767 0.003254499516621375
1.20411217945821 0.12377667025987509 174.43725916976445 -6.487718064322602e-08
1.219372088710392 0.12292514408308487 174.4510512011981 0.08991076470085159
1.214803811756824 0.1322564507214776 174.4437931571311 0.0642674060377826
1.2075122191969387 0.13625781937473677 174.43588701455172 0.010306654509622318
1.2194237607594727 0.16899513875019928 174.45437211331148 0.04036757495431159
1.2107682854132036 0.1694220753294542 174.44016610382283 0.030156817094868123
1.2313403389279594 0.1530490061769697 174.45500955661535 0.08900043117164311
1.243881244836218 0.13972460438468476 174.45747184661894 0.12097289062364452
1.2475030537201917 0.10872832972394098 174.4717798064964 0.04237439213251309
1.2246701437318994 0.0880843916113322 174.4567881446424 0.23740037608447728
1.2013662012682578 0.08050762770677357 174.45176469146188 0.01922745075355562
1.2266782145275237 0.051385665687239616 174.45947021162198 0.1249856832932385
1.202299079454988 0.05485956616254153 174.4608229629224 0.03316056672904135
1.1929326739051496 0.06530955203302471 174.45184468760812 0.023424014237045408
1.1844641421622872 0.026570823381413474 174.46743799543668 0.03809852921435126
1.1732525674992755 0.03596752880488744 174.4648234956675 0.03297720535123481
1.2197636641225829 0.19161457213258531 174.44691370841983 0.15451626259946702
1.2220810693370865 0.18662252316870098 174.4528702621988 0.06688726186493488
1.2466094672415962 0.18161592558815362 174.46750250090372 0.06984262734778153
1.2215923424674082 0.23062618048869077 174.4563935509106 0.1508401602475974
1.2355866038047378 0.21219285124315426 174.46348419451408 0.16150744697006494
1.2348540708295446 0.2517343440915618 174.46899472246744 0.11000506020078503
1.242450819481539 0.29706178430796804 174.47257707074965 0.0003828210436635648
1.1404213763746338 0.36169697267963385 174.46486347049577 0.00420081574390221
1.1402466760929304 0.3483506844450776 174.45751684381352 3.357711394596709e-08
1.0523821632985655 0.3595455425713225 174.46236425518492 5.2240729082235635e-09
0.9831858629389837 0.3548816034295072 174.45452099384656 0.01770283236761545
0.9674710250541771 0.36752574239160213 174.46575144614462 0.0037603856858173363
0.9449977039773136 0.3569619632150112 174.45548844022022 0.009731350041613074
0.9206159550720484 0.35378490050701894 174.45315482135396 -1.6139316611521683e-09
0.8123886315955594 0.3547319706088659 174.44886710750654 0.021437844653021124
0.79966494391408 0.3596269665449137 174.45911255119762 -4.2894417875864197e-10
0.8468623978920392 0.36178516743517664 174.45518999854286 0.01648221479012306
0.9092287647438431 0.36047903622892874 174.45730566125363 0.0004928656622606113
1.1057502061248052 0.3546074649537956 174.45889040657272 0.002202741767386768
0.9194739409607681 0.018186990537701366 174.4588677263808 0.03639408937601122
0.9088732723487949 0.10169469571026146 174.3660540689354 
0.9000127930756969 0.127605745535445 174.35139613135772 
0.7614453834158353 0.011535137340051528 174.46660846370148 4.915557915318496e-06
0.7277458112509508 0.10714295146663556 174.45292652019188 0.056683681497556274
0.7338567258694432 0.11264642062446872 174.4368338792792 0.014498964310576496
0.7242593938649862 0.12347006210291692 174.4636254239973 0.029523794666502578
0.7312345880731189 0.13150834575557302 174.44249780483094 0.04776828333300765
0.7160915825327387 0.13485623402935434 174.46260415651275 0.04789775768614022
0.7331091792625662 0.15747717425527055 174.43615272628938 0.01160676720469249
0.730108936353964 0.17212428602789695 174.448353939026 0.03750678412154531
0.7272766866290833 0.165920384645748 174.45736233364588 0.025587946196367423
0.023967155439886076 0.1261363417388211 174.35407288488437 1.2795932572378907e-09
0.005590635679192334 0.11896591381387264 174.38274168700244 0.003727399275397726
0.007469277287090921 0.13611713715399898 174.3903451048326 0.003205803173860051
0.011072316031938537 0.10190828608142379 174.38690254649632 0.013016043412344603
-0.013138510014183043 0.12513015136608815 174.4338821274529 0.008313457827601243
0.006379822010737479 0.09607047043032947 174.42442469916287 0.004839174838059686
-0.00020891940524949987 0.10648771306529661 174.43938997966623 0.058324690358138656
0.008379399744732171 0.09587563127960329 174.41110407311228 0.001830009323725973
-0.0011934681202661604 0.09696062450547636 174.4533796599468 0.05016107183046809
0.01664829487629526 0.07860429135541026 174.40523866359936 0.005352587156349283
0.013776974676732463 0.08255683470266804 174.43018134674486 0.02698741221303955
0.032197375013753284 0.05859416898051037 174.40781216499738 0.012569213491621573
0.01635222261608838 0.06400713127139934 174.4292442786099 0.02236361316038019
0.07151347025802961 0.0491776035443655 174.36315687950528 
0.07900324467347407 0.01411421955820746 174.43298297850302 0.05490839784436524
0.07403352722055229 0.017739291542117886 174.45657161596583 0.043527814692388
0.05632203909403831 0.023004062663218992 174.44004979721353 0.022805810418229877
0.03364409884237709 0.03581326118887815 174.45846593413535 0.025775668380072534
0.03933780307245789 0.02891361505625842 174.43380355162992 0.04648580103023274
0.03351385962416245 0.047797069191058285 174.4184678867194 0.013352881703340482
0.01433672765671107 0.05065696840355955 174.44881692931074 0.016514968127447138
0.00862211219149913 0.08248833723244742 174.45937107814825 0.0277016823905785
0.05008549790997592 0.06580114928630612 174.3673660492482 
0.03145633572658693 0.07208115716624387 174.3851159691314 0.00026819404214316057
0.04186855442883708 0.1409696774591123 174.3349145090221 
0.004322891109039931 0.3346383966723665 174.42759431680918 0.013516387879480642
-0.001285293542372984 0.35628209663701815 174.4188720415613 0.003359242384377027
-0.004385321736748675 0.3770500579327597 174.42027561205927 0.008358738426020033
0.009398896872848755 0.3166200623156884 174.4134032435771 0.010679641792832659
0.006786213450617081 0.33084278123838085 174.3851307060235 0.010955265266451823
0.011815920774666073 0.40858061490398695 174.40114867234672 0.011568765905105402
0.010440457026262277 0.3422207504351693 174.38021492173516 0.016729463674457847
0.013443420845315754 0.39169705205512884 174.38854701933002 0.0011499133065032184
0.013793768742994452 0.3110020131810789 174.39624102369686 0.0058135331311665265
0.011733638584540155 0.29040102809302615 174.37382223615654 
0.006336371585446586 0.411232662276422 174.4230104650484 0.012259900301263192
0.003502110341423067 0.4436276293614901 174.41878454522933 0.007440873590860315
0.003936428001582195 0.42926362544319724 174.40530905817596 0.0028368067187554166
0.0022636109556192097 0.27390365518379556 174.40921216374437 0.014949003175458293
-0.0030590858149019823 0.28667717930092523 174.42630714103177 0.004156979725749771
0.0020093653219017344 0.29887070369180063 174.42608781070896 0.01010116232077195
0.003277499342985937 0.2644283697511213 174.4220167383157 0.01276498172399809
0.008044444239057372 0.25658192691781634 174.3968382351325 0.01597665563235813
0.0049777003676181476 0.2589152024704549 174.40232770970795 0.009998192675292466
0.021177811188194073 0.2576372638722409 174.35253706607733 -3.150760246127112e-09
0.017548988694627725 0.43479472263642843 174.37902393670012 0.006729035329509035
0.01963552249937663 0.42022381825767086 174.38005357158872 0.006294465118367751
0.019799443324776893 0.30640028597156754 174.35409689063684 0.00041725694426985634
0.012617136918608064 0.33200471747286103 174.37341981523008 0.022621671444647933
0.023521298088892632 0.33263474542521265 174.35370745153864 0.0007672942804834809
0.012778515816171999 0.3788526039377636 174.38438583152364 0.003298721390130734
0.02185508356708681 0.43353553109060083 174.36750273094424 0.007055148103728012
0.021923551122297893 0.3785783856808417 174.3586961126129 0.007621041464171599
0.022488902527912108 0.4204277622534734 174.37416211485422 0.003931667745794194
0.02020595636168973 0.3448719853904619 174.3667637802061 0.0013298666478710238
0.029030857491149243 0.2660307679404519 174.3396892664203 -6.663118462522678e-09
0.03908212640851459 0.3208221332395887 174.33183908135663 1.1403585560836283e-08
0.0322199798288815 0.40218609015540435 174.3465421939093 0.007465916982859174
0.04037552329267491 0.4352541313622523 174.33827789618218 0.004569638157886161
0.03823260898092366 0.2873833428029583 174.3300235216707 0.00065838608149859
0.042847493400184455 0.22095917307856294 174.3275294040734 -2.0498864218749037e-09
0.034194809661909534 0.2557490141905944 174.33648949595363 0.0006400168868404697
0.03891403005888534 0.2205959263202401 174.33372669911475 -4.610281095033086e-10
0.040491849550859556 0.189422980656376 174.33733598060712 0.0010049600990162052
0.030318012022420925 0.15596483726190175 174.33994098531028 0.0015140095695568407
0.02287912465020909 0.18690265453229302 174.35923645511465 0.014178391510318236
0.0211094389043881 0.18900949787413057 174.3683126391823 0.016865096240474865
0.023361451751746594 0.1699570954406228 174.3621580035383 0.01197065407695119
0.009781118196177711 0.20403567878391857 174.40556249921386 0.005364449672163445
0.014720058126316046 0.23089487258320643 174.38098207954684 0.0012445579379346324
0.014526296266505399 0.21215192832126503 174.3809395727006 0.002851141905878802
0.016226845168688324 0.21604410295297483 174.3700214046246 0.0029423938092257448
0.0167282163750142 0.18884998909659587 174.39166435797304 0.002133983313233177
0.005676776472714487 0.19682518654930137 174.41565219073456 0.11452732672129655
0.005464980238003797 0.2169161102048984 174.40690249428175 0.004419518654641416
0.003834883924446436 0.16951465498953655 174.415092665356 0.021293335484653893
-0.0016349182811181938 0.15395661640876476 174.40716828571357 0.01243304257205926
-0.004852670684584285 0.24529036138888125 174.41781552342823 0.0035679030841410187
0.001333591606074983 0.2175769679406551 174.44914949685634 0.1792889335318259
-0.002105208241632869 0.22681721634542926 174.44032686626073 0.14246514794130452
-0.0005900636188899667 0.2644333899170021 174.4431178900413 0.07853519802902915
0.0013028415100260738 0.2953504523688883 174.44014684960956 0.08376419750962871
0.0003196345701143897 0.26228463573962635 174.46065558172833 0.11844313745758257
0.0021262130066635613 0.26664640417427016 174.4609269695776 0.12203720195229001
0.0016722313284249155 0.23221843153676697 174.4505093369606 0.18375640216185515
-0.0015198299643000889 0.18294534961950226 174.4391109200326 0.09599415780621275
0.0010627290417677443 0.17016061419958553 174.44922338436007 0.1042241919285726
-0.004904783971085219 0.19711069375900148 174.45412520732364 0.06779316260753909
0.003138304986325626 0.14824691461097908 174.41904911881318 0.16518816647613016
0.0008797497726198752 0.13614324142523423 174.40807204483184 0.034876368214371255
0.007391156069947727 0.15201055252625964 174.4381714790811 0.12193790652741429
0.005400222022984624 0.1625212506810124 174.43761438063956 0.11458800530519582
0.0019527680324187813 0.120715715511863 174.45628445271223 0.08191937590139689
0.00216987211010081 0.13420704891958765 174.45189026081636 0.14076668985021284
0.004374746167166661 0.3414553531584802 174.44364544723905 0.02141705044333412
0.00016263797801469775 0.3282993369008515 174.45324826629502 0.04467502898012889
-0.005915985948321145 0.37071390097524104 174.4319584898553 0.03996184499125155
-0.0096182327759252 0.3849835862779448 174.4575606670706 0.07714561016758038
0.0010278810837612892 0.41982484796070224 174.45902876431532 0.14389203908517048
0.00019606150675423426 0.3075568693686512 174.45053980825062 0.0554795147390156
0.002075866090788547 0.4626639197723386 174.45737422801656 0.07556146316986719
-0.00031154000916338773 0.4937372622044541 174.43605704895606 0.04121176461544911
0.003084752703544338 0.3422361912344371 174.42994947662842 0.006674572180864926
0.0008767651584761684 0.4417754088109493 174.4531393980818 0.08980908293554622
0.001077327674428025 0.4287898141503968 174.44329164616482 0.08854998835288364
0.0028649072497971195 0.4554561511390207 174.428526201977 0.02821291035943709
0.005976374226168842 0.4786750466211454 174.43846814762813 0.11721752016619262
0.003572969902034458 0.4728881398272746 174.42508419838776 0.0565280604076945
0.0073609572999439425 0.46650666663765455 174.41289878529668 0.037903130249241745
0.0026857782377953843 0.4451858684448838 174.422326207126 0.006251555323438112
0.010246260097933849 0.47674342744658343 174.40283983650428 0.06726393912615855
0.014729977466563064 0.46644561294815295 174.39857413136755 0.023295149785688477
0.022000821096613367 0.47549782138736624 174.37765934387193 0.04565165089016646
0.026285590198268337 0.46173929841144923 174.36691669986826 0.028211829581550527
0.029138386796415672 0.45097559797163506 174.3481914799334 0.012524878540819323
0.026937698120100495 0.46780684291193775 174.3499726432749 0.03158783145503755
0.05150036514413795 0.40843127486453956 174.3279819703261 0.000848486336385639
0.0496659546307632 0.36985478080247214 174.33161675156714 8.156289668831026e-05
0.0553638526291805 0.4408146411590757 174.31776700297073 
0.056974455398503605 0.48213097926400567 174.31581154971698 
0.07309821348238625 0.3830735896360886 174.3068763196712 
0.024045074949240575 0.49146584397968 174.35812506773297 0.025282343113458686
0.013995598846748834 0.4891264847250738 174.4005770273944 0.057907756356996576
0.002615283422955388 0.1388657873174984 174.46107630083102 0.0934644966553339
0.0033601513754752273 0.2992533786860909 174.45599780656266 0.09888809782961513
-0.002712013111073601 0.4108638147639972 174.45586476692748 0.14385145149176504
-0.0010270971214598004 0.3670988552379898 174.46104496593375 0.0681342530160547
0.0010045700158078606 0.2520962784284794 174.44930993567425 0.08070938932277752
0.0028659811779632575 0.4384589480843656 174.46203585505853 0.066237310273689
0.002542217807096187 0.22137172828305582 174.4578568090311 0.09288907837386551
0.004622334307336454 0.18207061575654518 174.4589155961708 0.0612614482171548
0.0809723992331381 0.01314583446715226 174.45445983523575 0.04281705422066138
0.10537240037870414 0.006911318826427504 174.46847348813998 0.015978905879773676
0.28698474869675933 0.059916546329685766 174.43305245931887 0.006113189210426023
0.2898054636190836 0.03962509809738872 174.4525714677864 0.023423531658940656
0.29630886218877117 0.04942386308257595 174.4446778548048 0.01083067986272381
0.31531714023862617 0.036392186161917243 174.45292932018359 0.018596665527860594
0.28149991161505195 0.024694863852679234 174.45978798784654 0.03114964759227652
0.2930445044328369 0.0366285758716194 174.45690172790535 0.02219852746380348
0.2632086019887988 0.04114303338399974 174.44860960181995 0.045938560963885745
0.25647793194783347 0.04895111246129404 174.44185535879663 0.010798758943160805
0.2657922129716654 0.03624439331775585 174.4588744527456 0.02807563311356341
0.23920285628050234 0.027968065240587373 174.4569357021606 0.05962523854292712
0.26538893498953714 0.020990359841097168 174.45968994815524 0.03416297438252859
0.22948525185730353 0.03544263337343812 174.45528361729873 0.03487910279460833
0.21765127757184274 0.0392522923869994 174.45104803528096 0.03019065600166893
0.22969538999729489 0.05893067641447506 174.4167454100533 0.019722458740810547
0.24207074965477954 0.05695339310737144 174.42249906150613 0.014444717543313917
0.23142022492828243 0.05072347941230375 174.42602314626944 0.011014400341848462
0.19548315437736796 0.04183766731284346 174.45318687991738 0.025176176754286243
0.21875940687403198 0.048342904929156695 174.4319683890142 0.010902858565815961
0.18966793282862274 0.04915545047672809 174.4330800942131 0.005736829214107624
0.20933653064602883 0.06762478153386782 174.4155600180518 0.001876152105934612
0.1964287844195992 0.038155624340644144 174.4622949551091 0.01890631497028906
0.18008897074894867 0.06676996157037951 174.41569309741143 0.0029911045904180335
0.14349293714414643 0.04904374243566636 174.4456702378968 0.0016448559568964744
0.15520467511262762 0.05599841180940663 174.43383920147656 0.0035883340760528523
0.16204464945176686 0.04716697820279907 174.44479912951317 0.018375263609352883
0.1780119002798292 0.04382075532396475 174.4441978353336 0.026735271636013472
0.1236180372484347 0.058533885583298084 174.42805812099593 0.006147168513251477
0.036786478874991375 0.19494553922132168 174.4382967236593 0.15808526255992722
0.02456561581601456 0.1943936691189102 174.45475983705498 0.04740027216485684
0.04443011293080333 0.17503627660461316 174.4346108421463 0.0030088013679506645
0.033608851164872555 0.22851867383161337 174.43492655991471 0.08088005279408038
0.03737059056239799 0.20610207674949682 174.43923312777088 0.03208284679362406
0.0187532274714036 0.24156969434579215 174.46311883215208 0.10380274729082947
0.027432492287785912 0.25557698090067604 174.45392209065633 0.09027271382575834
0.020656447865019977 0.2266966625759977 174.45200447360466 0.08356801849000403
0.030098024106381047 0.28071341985186854 174.45490698047692 0.10754831365989803
0.015211294163813211 0.2704826363786022 174.46430023202043 0.08507333969644722
0.025236400109735435 0.30272328855813685 174.4598134136762 0.08651336058435259
0.008196986123092862 0.2825103658282481 174.4648385345756 0.08134940280066649
0.10310130083309826 0.36687694913108676 174.46506833721773 0.004060459653969385
0.0802538593418023 0.35534293063737477 174.45974765185707 1.122892976376869e-09
0.004625653487210906 0.340078758785705 174.4677128075605 0.0270591022347473
0.013272603400115858 0.30972892562122545 174.4677517049463 0.07337927849648954
0.13943534730146448 0.37073144182578666 174.4733914188224 0.002702864912403244
0.15312555015036625 0.3558023893224159 174.45690856475383 8.727742197057408e-06
0.1693418787745597 0.36500661409114077 174.46435203342654 0.015597782513977882
0.18921360661980532 0.35583138816597165 174.45578127376544 0.0009349534287458435
0.2232216290379933 0.35032887623592296 174.45796383968536 
0.42988344255340866 0.23060901445834261 174.3440835618016 
0.4312103201356851 0.19667776458848676 174.34221066153202 
0.4913069257637204 0.219054197990171 174.3604290864489 0.0006119617962236396
0.5134691023737477 0.2653370602416935 174.40307597990426 
0.5139179624454575 0.2616778994062183 174.41671782198947 0.012854353601953802
0.5157269221943758 0.2741679161596443 174.44568440139707 0.022507403226439928
0.5270308733998467 0.2656033626013907 174.45240039069998 0.04282156724401736
0.5226215240340455 0.2463583873364582 174.44526546223798 0.037481767083137135
0.5219211708229644 0.2889919690105987 174.45746952202595 0.004238073651112753
0.5359922314889266 0.2502238018839675 174.4563247256875 0.011114561001607074
0.5147335374295959 0.2126778188223455 174.43591239727257 0.018665433041662356
0.5144479331213132 0.22348409768865027 174.43676961176402 0.02612663609857015
0.5195920932029666 0.21796860987898517 174.45425534535093 0.03305338003882115
0.5193923865118456 0.22199140882268964 174.4199220978516 0.007467971587331879
0.520016454758713 0.19423113547472615 174.437388654002 0.03212890643147012
0.5087265296176825 0.1894601472246305 174.40652731606716 0.007763543624460789
0.5157970771013802 0.2246827343909293 174.39171805249958 0.008942286649565222
0.5138447328942435 0.22087081438237696 174.3895033963399 0.014401802705525477
0.5077692751855339 0.16714264890157568 174.44407447323474 0.015092407217846902
0.5235365748386303 0.17194790817354788 174.4528204248284 0.07547216464746574
0.5302938422741693 0.2051442115195529 174.45910589444367 0.03684556274150046
0.5141174367558385 0.1562977295242609 174.3999364648872 0.004622566586380745
0.4986981197976577 0.18269315002715517 174.3636306774218 0.008274188970108707
0.4997147153554701 0.17396366492469528 174.37026540222502 0.01839117960106388
0.5113523516205225 0.15766855479620864 174.39212378369496 0.014788955638361677
0.5080844843568318 0.14733059052985387 174.37947266279568 0.007002269610326878
0.509079148221986 0.11839643146301326 174.41254427575336 0.001283541074783935
0.5197302760653922 0.1488386922312574 174.42227858138438 0.02119033604790986
0.5043347347919414 0.11520676747508074 174.39026788824967 -1.279698098163751e-09
0.5001659402215718 0.14001703181830094 174.36928726166877 0.013983887717137006
0.4895077795202357 0.15262812628871306 174.3639313263345 0.018640093326298752
0.40258208343180046 0.06989644008827989 174.41375913724218 5.6504734672839485e-09
0.40681781442882725 0.0667813458867873 174.4167089623556 2.6275416072692276e-09
0.36491610900286875 0.05543860720867467 174.43469698032163 0.013371027076992453
0.34893853565332117 0.04597654412647974 174.4420183339015 0.018170257620898328
0.32410526574737614 0.050597665737586825 174.4452581359931 0.014482390671771936
0.34988838358597624 0.040866595328450155 174.4473485127421 0.01738915261991369
0.34097807575793937 0.060242860586314326 174.42397526499067 0.0017917357798148046
0.3028294681521865 0.05061256295314874 174.43340461351738 0.008728738877172931
0.25391817529937505 0.056305713062080105 174.42396271029827 0.0030311811923510513
0.4211922905416532 0.14450054690384173 174.34298334051937 
0.44488932550431126 0.1930299994800522 174.34266354463605 
0.491487947486791 0.18454099258562226 174.3569247072412 0.006644550099488167
0.477077965117167 0.17223683630009484 174.35294437671706 0.011412074054267774
0.4370823750051901 0.14644358670021743 174.34302044575227 
0.46734060783588705 0.14465345945547417 174.34879465671634 0.0004747814055102357
0.5038658669447299 0.1993540745817257 174.3750951545507 0.016937453919358157
0.5183155980399917 0.2400556458731355 174.41322892978167 0.009151866344065696
0.5024442418141954 0.22643145668575682 174.37557422335144 3.705935211592449e-05
0.35751855990015713 0.027174151508073403 174.45135267187527 0.015437312302287313
0.3432413761510004 0.021785992637005574 174.459090534963 0.011337168975157932
0.32784627257478816 0.029181900058771557 174.45517479311073 0.01828686361516367
0.3858960479395857 0.048873528679539306 174.4467658990289 0.008210837977535343
0.3710159402654202 0.01998628782218214 174.45944468104693 0.01629835269265175
0.3968525704810434 0.058323104314104646 174.4312212051579 0.001860019008006344
0.40851939338455545 0.02916226639302449 174.45805833080118 0.04499115310487963
0.3853126346180362 0.025114743817448604 174.4657744866666 0.032007794347262884
0.4293082056994832 0.05724093531623472 174.42537826392154 0.00015286324689861648
0.43325234906496857 0.04422803528818086 174.44103811109915 0.003251019733732742
