x y z curv
0.4797898939525176 0.004865620240615589 1.3915057342009252 0.012257957874325357
0.5504140173710611 -0.0005039749441509724 1.3879956759004932 0.016748457867229297
0.6415759829679998 0.0059160473139150006 1.3986105089179743 0.01960425994837941
0.3858673047905397 0.005606401322624361 1.4082514132712003 0.04127237172131724
0.5109698145557866 0.00853759302486053 1.3853758855595797 0.014081497142734458
0.5440541335241852 0.00238884224846241 1.4003633196518237 0.020309886265313378
0.1455461923676663 -0.002677871010166008 1.4115484754741097 0.04413318469787636
0.6260431189067949 0.0016420414100705978 1.4000514470955603 0.02601913136763617
0.29548758511736883 0.006831233180794261 1.3959791930066878 0.019996761915272845
0.20837232182214782 0.002011464565005722 1.4038664411456085 0.033222426193673535
0.4928946088704746 -0.005196763769944932 1.4193102713318773 0.0730693719024047
0.2323698585804842 0.011297817648121248 1.3967550930737054 0.025802344568620496
0.46407315798607074 0.004697252675750768 1.3868719464472576 0.023260637569658765
0.3205396605652137 0.0039887826731242896 1.4214487967661882 0.0847772913717134
0.5142546530413473 0.007337715563039351 1.4092254742514874 0.005155505694775926
0.6170510646049594 0.002327108757766347 1.3800046611241006 0.004461897576659661
0.6103601530540305 0.0012584460661787995 1.3907544560512053 0.02433491822156153
0.6855937116297056 0.0068892321570164314 1.4015439845618576 0.008839610866151865
0.43003980671710546 0.0006841526252832513 1.4136049571213478 0.05068883098898402
0.4522328191152197 0.008511602797250922 1.381260881235919 0.011974242522941807
0.34735135432121356 0.003995806250245142 1.4043806642216459 0.08956565629670671
0.540279526419546 -0.0007523825605711687 1.3687613107145562 0.01605961110914071
0.6606344300212232 -0.0011689439742092681 1.4089445302716064 0.008629138352096404
0.4513812451980894 -0.001356088565932623 1.4156008673185154 0.049918428566659144
0.6791752734697228 0.003901461475166514 1.3970708918993364 0.012062915266725873
0.23240554110551942 0.007095729188734482 1.3678566115952908 0.008832549586088713
0.18266205825861806 0.004962913631397589 1.3631897929407193 0.006279087863537217
0.020357058461119154 -0.0030037037392301887 1.4094537457521472 0.1136683462186489
0.06261116574891476 0.0016168679375678672 1.268405506547252 0.0036240054815548095
0.12915542698349577 0.0012430869313918898 1.3075495478515287 0.0065101978084097425
0.04232539444294054 0.00556091058214434 1.3748299143131812 0.01671618353194828
0.09023412091140083 0.001380420214691876 1.3655642012899407 0.007702292533484946
0.08028019647457244 0.0003286761483504656 1.3726994016437626 0.010648743385767592
0.0871909107933978 -0.0038246844004232563 1.313210978278283 0.0030038209042684344
0.07314809476763602 -0.0007244743321189537 1.372736517609984 0.010038291749847349
0.1236069541875482 0.0022419205741022437 1.291521246622878 0.004567038823357372
0.0009382297494573979 0.009768786472403642 1.3587611319689477 0.05876342621416873
0.08037151004674303 -0.0007817906882487076 1.3440691022713573 0.016381197429635494
0.024507389966851662 -0.00013245099610462258 1.2937566031449124 0.0451134396681448
0.0009003888540956065 -0.0009267043851307131 1.3368247637753865 0.07384630792159792
0.013633346233605877 -0.003254430397931738 1.3142252506069576 0.03880521887379556
0.09498386184588481 0.0045097150345022536 1.3453424949532202 0.0007531913647484642
0.0692888145562942 -0.0004599791567278505 1.2986973868337235 0.006039350110956943
0.005519300911088347 -0.0022602744284010924 1.2997676913007776 0.0756533870516244
0.09018842842387155 0.00254433781154152 1.2818531197554888 0.004020178458295437
0.03902943892157187 0.003850069442371874 1.3423691213559485 0.006794480838186518
-0.0051154762393567366 0.0040699962756045385 1.273609702290739 0.04659997409076348
0.024914674387081552 0.006965732744211251 1.3551173052898415 0.05471520340885916
0.04899602771443975 0.00857043519552824 1.3472190181878598 0.0007548621227709196
0.02298349036649191 0.007389092221536248 1.2696665772493805 0.09206831637184945
0.05485744718448457 0.0022554068532710993 1.30856752298584 0.006575444658954587
0.14105691215310856 -0.0006516292256659117 1.3333797160275007 0.0023295227582059044
0.024319665393401965 0.008651240396993084 1.2422378775725402 0.0024582597600811998
0.0737744064260199 0.0016875873777619037 1.2514624203048001 0.005175127336837736
0.05647594693455207 0.000813733800772367 1.3608763490733213 0.004338424932329338
0.048133517252098634 0.00030169129415273264 1.3045034919826952 0.0042267624864202194
0.07728162168582003 0.002189223106918244 1.3923697955941798 0.039324010412675595
0.006035988773510214 0.0018473092056840307 1.2580162764819711 0.09682637139059262
0.027363106664979053 0.011608297031428409 1.38995617077337 0.030137558606974407
0.0008514753249475698 -0.0041447961872594355 1.3861938944814136 0.06068987713853026
0.04857329208462996 0.0025040471507922005 1.3194620414430407 0.008479905962508
0.10852577540110653 0.005084224558672717 1.2954896357455759 0.006653971574373448
0.11124165424190569 0.0027148811506960647 1.3152779847043228 0.00984511905608124
0.037545029993815135 0.00015435542370782803 1.2888865161043248 0.007374941715558627
0.11326296083657049 0.011935747180569101 1.3795958685686043 0.010680837922805723
0.11529341183907461 0.005029393709915618 1.3131794740912286 0.010759570906283586
0.17095636233793124 0.0010322241212277132 1.3437984201142241 0.006896999225582597
0.05869878360580457 0.008521077257312172 1.2442831856588037 0.002249399563478556
0.04728097801744482 0.0032543237271068248 1.2759663361093758 0.005064815566769454
0.05437466980163165 0.0039818037858430294 1.3898131598355328 0.021019055095739626
0.16132578267167963 0.0042972236086615085 1.3172842561970626 0.0057071970031106495
0.13732329186274161 0.0038075111080046104 1.290670230501571 0.0038138702993038747
0.16654362890948166 0.002438354377289481 1.330101306933157 0.011465554630605855
0.6324514935455177 0.0038717231532610632 1.373279639917637 0.005063823507782697
0.6892366735304915 0.008618119537684238 1.380979703935874 0.0012781879299070085
0.6444935568278123 0.004598550699120316 1.3566858285372114 0.005811830474860396
0.7910685510294864 0.00479686067731695 1.281431425359842 0.0808576687086914
0.7132467431729457 0.0018644379429654237 1.2756142450182957 0.006544080063165001
0.7859853496200975 0.0038585733114533034 1.4114191364672217 0.06615116406936039
0.7099051338654422 0.008007887262908473 1.3791184018854954 0.008179173891553228
0.6523618991013956 0.009210603934024543 1.353403995803111 0.0036191879742961657
0.6614345687526343 0.0003337550366506129 1.3218081404507092 0.005624146189928726
0.731885969918615 -8.955050277315192e-05 1.256112493590032 0.0036618292942806946
0.7556568443468124 0.0020849649081911103 1.3374896422448033 0.00451512995009385
0.7918949349786383 -0.0030062710221156488 1.3008846297707843 0.09897625822594107
0.7802203815635814 0.0012069183045702514 1.3527908620050622 0.03288518592282141
0.6990571673979565 0.0036498483790218376 1.2801316833281888 0.002544593826328594
0.7333444682920692 0.007679945841838764 1.3865044934397013 0.024970752917088196
0.7222168409481462 0.009653524207321643 1.3570692030610196 0.0019815909851212355
0.7093827508000097 0.0008443673949888149 1.316282914734227 0.0026412903788558344
0.7621469687804114 -6.152199501212584e-05 1.3139926138001847 0.0016153420899657526
0.7397683375778012 0.00525801851926293 1.2881313170675641 0.0055216234540088754
0.7704498110660067 0.0011512086843022472 1.2931881534522833 0.00993041396670792
0.7352512371579774 0.007384410791729464 1.3006994753020944 0.003630978271985748
0.7520407869162846 0.009540097129467824 1.3673251890408897 0.006628424580665732
0.7740874844001358 -0.0031599640087936354 1.3303200318636579 0.046031393479831005
0.7181703356206992 0.0027731344152124664 1.3049276010527413 0.004353410841382165
0.7160119426250376 0.002913156618783685 1.322422821366758 0.0060889086657901536
0.7196672081476834 0.008342194729240962 1.3883510474974727 0.0066816590379579115
0.6819266604658474 -0.0011304249441232291 1.2865222315519445 0.002465345244375059
0.7733306186190706 0.0064831443798602124 1.3687191306088629 0.012680833571363778
0.6329393195230656 0.003241108223043723 1.3359253143442593 0.009917649621295616
0.7812196719256896 -0.0002548257873997081 1.347865009448252 0.053504300350412815
0.7528274495454581 0.004685443086170039 1.2622261292077808 0.003928462417760179
0.767641970270543 0.0017712067043614223 1.2726112450614355 0.02750731265117669
0.7905088132607249 0.005331469449978588 1.2714558806169696 0.047259492416874056
0.7882947679597093 0.006424593273877539 1.2016928258482795 0.1141912382681574
0.6999424636237563 0.004763642879221424 1.3336494601981947 0.001647132060121512
0.7716711070194875 0.0012766281247625617 1.305093706138225 0.007977342737923764
0.7684796474890042 0.01554000111931537 1.3996024179722597 0.02337738154616845
0.7786766776479279 0.007001411127120871 1.377608113648553 0.023932001742293436
0.6652252075932569 0.00033581277608493026 1.30872874506696 0.0061446847247076065
0.6732637756017198 0.007901012113089332 1.352101533228563 0.004035370707608199
0.7374794052031274 0.006013498945746781 1.3402646128694162 0.010159112130420908
0.6574317135223713 -0.0009744834155469396 1.3185784786605457 0.005336402388826165
0.7548344124320857 0.00487442037650008 1.2467480036414667 0.0022361577834217926
0.7275345733813723 0.0006348678287533 1.2382391334892784 0.004354049448327727
0.6521468964159813 0.0032623095594697636 1.2908579675886362 0.002650751085689645
0.7045617398828202 0.006144909357929878 1.2595351930081065 0.0026061792527404216
0.6022159824496622 0.01044761444828896 1.3405097851440935 0.005571627546254096
0.6703656233002234 -0.00019524329614377002 1.2917727743596301 0.0038035945314626915
0.6877402665446041 0.0033319744922552315 1.2670910174000372 0.009909172975960967
0.501972119994336 0.004120052355817579 1.2180542694636087 0.011874575722689627
0.5120592808873923 0.006760623987398389 1.2275659759544728 0.00950571275384184
0.6236505740211657 0.003536451648205867 1.2460829701204257 0.0022133054135535894
0.688751438568081 0.0031088417117286996 1.2344247601263918 0.0076016325169579405
0.528491014307981 0.00020652499019241765 1.261378017128937 0.004775160318049387
0.583784245251581 0.004727374379626599 1.30534604055543 0.003969064283872402
0.629088400312523 0.004332869578597025 1.2209783117659512 0.00994443543490009
0.544442136123865 0.005454621856473723 1.2791541096017076 0.01231210714606476
0.6435684249877865 -0.0012242613012577875 1.2944496044829545 0.0015074832958369463
0.5999324849364508 0.008585162366162281 1.2308723506654657 0.005214980373783811
0.5908365866431068 0.004451033773826636 1.3179353473648558 0.0002412220260224813
0.7449552217963638 0.0014738899755780029 1.2136875255785804 0.007850250580744705
0.5588542552068105 0.005752999242718602 1.2529469937087019 0.0024533650970403314
0.6555791341237087 0.003396263029710036 1.209089074471919 0.00536391649641305
0.6000311063525465 0.007126543866229213 1.2696062391722271 0.002698577253653516
0.518333076107364 0.009934568576168217 1.2088787055113297 0.005398997856780994
0.720833318868541 -0.0022005249698005187 1.1914861435570603 0.009986304065140351
0.4834571435928964 0.0012621581323444392 1.2050357833610887 0.014724846756576489
0.6560942125907466 0.006147323146929452 1.2151474756369727 0.021200707835400453
0.7233805387230381 0.006929378335651162 1.2042752339373952 0.004316112582503642
0.5446949766318652 -0.0006225654628584441 1.2213986772366905 0.011242328161995684
0.598172304455647 0.0077169482688196405 1.2446615327245147 0.0010868121108678634
0.6137132019401094 0.005053552670990809 1.2980481549749108 0.002686588602758514
0.7084647763148608 0.004615145221473208 1.2080645280349351 0.01373562138462896
0.5275659875600999 0.0018230014962772355 1.233496426009235 0.010266190233432207
0.5724413719499365 0.0020586613618345565 1.2927795223249499 0.002756081760887484
0.5598160802888599 0.005251956559120237 1.2780180793260567 0.009392322493959642
0.6386360911498197 0.005170747947908037 1.2513379171455576 0.0003882792702595424
0.5334266503255461 0.0014427380006785116 1.2119547344130241 0.018347545980588475
0.6661710533996087 0.010467463295203327 1.2447154354435932 0.0006824029103696816
0.7435874972385486 -0.001013991203815702 1.1999370058356584 0.011005344662547066
0.5870457340335083 0.00718684911231103 1.210176614826647 0.006142445999167882
0.7176581515309686 0.0034505004354202944 1.2371046577132199 0.004736572575704667
0.6348201234772812 0.005955733083766559 1.2660694937313335 0.008330879666358544
0.5782731127210478 0.0020435232487584104 1.1985681358101232 0.002099952389421348
0.7131029735006333 0.002431109833044043 1.230614511452213 0.005015156755395016
0.626312588393484 0.003074188088354618 1.2673754632758683 0.0038014537993801786
0.5774561660193193 0.008359507190965293 1.2172089173809804 0.0025115689013487635
0.5623002857601793 0.004430646352517903 1.2200126809465217 0.003411673590908566
0.6980441004671224 0.0038956506224073362 1.2214195350405108 0.014524010674610045
0.6827816444859854 0.013621805547242462 1.2001144333197107 0.0016560078594290754
0.7599300775054877 0.001078644432678896 1.2085675561742086 0.008956709520056444
0.47894249960336666 0.0027416590105536136 1.2144012281524852 0.0122013479746256
0.49261405507083494 0.0064941356999706264 1.2498165920417244 0.0047044234027193805
0.5205930037912044 0.0004592541949268744 1.2774512022162536 0.008182859663699126
0.48565886320329776 0.00696942087460136 1.2454323653106036 0.002667834025884668
0.49719230847060836 0.0012938498563208286 1.2686113937053896 0.008156807980552657
0.545102598671324 0.009006000106786663 1.3009502581807963 0.0022924268168722874
0.47235890168693034 0.0005094014074326199 1.2427555026790367 0.005562008420444132
0.462170041191809 0.0001069573706782646 1.2566183130055526 0.01000097959062974
0.508340007687696 0.001309221881089651 1.296507504366428 0.006688026534879217
0.5634629344978664 0.005609427708189605 1.3316014105301623 0.003982684325382661
0.47285879298833355 0.005832490759220242 1.2855829318465708 0.006724510881268561
0.4558183309458725 -0.0021560728410705303 1.2651329085384722 0.0018921998204182273
0.5005059764263782 0.0009749334522207868 1.2928329423017606 0.0024120113125655125
0.4611108349895373 0.007929757457107056 1.2984947900768664 0.013481252257845635
0.48197314527969676 0.0025153760926404306 1.3075253475926234 0.0030127743325115237
0.5406670313010971 0.0030386609077553963 1.3233575867257317 0.007783928024892989
0.27959239416645576 -0.0026004733387890167 1.1905931764961515 0.010127942129681228
0.3049593074037369 -0.0014183587142588576 1.2018149703211052 0.023851145470090068
0.013445497885320722 -0.006900296855447067 1.1909224046947584 0.016635201432605842
0.005050802355769938 -0.3174228316173355 1.194539413837721 0.014933606479831493
0.010075302437090893 -0.04243080819143698 1.185409654397301 -1.4396370515412096e-14
0.004097214745825389 -0.34145309683601227 1.1881193689544585 0.003261824636206132
0.0009490578454896597 -0.22824619745592195 1.193873601851605 0.010457426931620583
0.011617269778684661 -0.13695456724765384 1.1900361274470899 0.0047687897482510495
0.004852450419939524 -0.24986023977230687 1.1999345377963468 0.010324550300406576
0.013757551061550676 -0.2423489169466916 1.184722210820527 0.005447959732081393
0.003253752061029069 -0.4219099936314325 1.1992282306463593 0.0008256354412674294
0.008463942721121394 -0.18601843095303336 1.1968631715132438 0.005822235667638053
0.002102923263108347 -0.06774902289136261 1.195852941973335 0.001640206749088595
0.004880163989263408 -0.12138415137920493 1.1998544289506794 0.009433506444974475
0.004050877352018584 -0.13563656941631427 1.1966973314930136 0.01233537138330113
0.007340483991364964 -0.09525355133122887 1.19748056331068 4.9011378631408245e-05
0.00892245095280424 -0.45771137217915947 1.1906174135298773 0.007626846802206536
0.7979790700072079 -0.11397805171748054 1.198026874205752 0.0131848575155658
0.8042938840115822 -0.1512676998971442 1.1994270393614845 0.006841968138193314
0.7880898979719745 -0.281868151946986 1.1948895103399317 -1.0496991350935993e-13
0.7954420381796148 -0.01613811375258428 1.1888382495781964 0.021920960842648232
0.7995779864872892 -0.19257214957836233 1.1947830451660904 -3.2102436884106204e-13
0.773465720257313 0.002867139173610323 1.1974568050956416 0.10539937583388478
0.6308550982183563 -0.0032753656717251535 1.1943246741243865 0.0025380666823800985
0.5076030667906226 0.0018815778606506742 1.1989086483428457 0.018223992823239277
0.602118561718423 0.008679562253591911 1.1956963775758551 0.001304535744025627
0.7926977937789729 -0.27647825032760215 1.2687859040632339 0.006910422094667815
0.7968677536360979 -0.1928806119058355 1.2131601801832752 0.01703888092844548
0.7928235857817582 -0.011911697417175973 1.3508543198730527 0.05559417244806479
0.7927545698083738 -0.23314253376566754 1.2432144660635192 0.011727122994948366
0.7941584764832205 -0.11868826246024958 1.2300934686930545 0.007006304873764272
0.7922977761150529 -0.11555893588519842 1.2710289090804663 0.004597000276654884
0.7955344392957727 -0.1718369743291847 1.3122323008278125 0.00224373956119515
0.7959398586010666 -0.14826440860938497 1.3292275128629518 0.005704365663128527
0.7937189147364263 -0.2484942480781328 1.2043704886760733 0.010865897775357692
0.792351934047815 -0.038301928846153535 1.201642012865217 0.0010863159789689094
0.7939590304617943 -0.1433991688404861 1.2991593133928776 0.005520722389833823
0.7929920612360992 -0.15707951044602836 1.247885232882754 0.002357711590344507
0.7992662791252969 -0.04675607163293776 1.3658946092804565 0.00933229144225351
0.7974220910538237 -0.021232083044862585 1.2494161356861528 0.00625491971937883
0.7943062622727222 -0.17483274131502374 1.2341273686584378 0.005059040134346732
0.7959663044922223 -0.4052513874920169 1.2203380569122448 0.0014268707429627775
0.7975738034110886 -0.26471145182405653 1.2165132446973632 0.010564873950517277
0.8000360951042443 -0.10463029439907989 1.292220472631656 0.0036739524502960954
0.8000124867633234 -0.2269827082013788 1.3090307350159522 0.004182032946692314
0.7990702778283332 -0.16359376689170266 1.3312911416008635 0.0034882862226738613
0.7929589734044827 -0.09673478986616163 1.226257332504186 0.007596547903951644
0.7975279182368978 -0.06222768025791836 1.3441697323252864 0.0036773359396314485
0.7951262871640193 -0.3307600715048954 1.2481950783940838 0.0007953930967187308
0.797411464275664 -0.03308255119432917 1.2850636629996413 0.0012765927857841773
0.7925934525929608 -0.009460349639130512 1.233805570911324 0.005735518120077246
0.7873927018225624 0.003333898095082378 1.2473857530065358 0.04212431520858079
0.7966358140949908 -0.09286258857118321 1.3425149023465812 0.003460428425167761
0.7963660043941261 -0.17421979011989347 1.250433019400735 0.010066796070528013
0.8041002328390392 -0.3720859639571021 1.2195553624752782 0.004122143039518764
0.7931329350545991 -0.2183118053227597 1.275591434768334 0.01933834849918168
0.7979275507956259 -0.3215469580369341 1.2235433076369975 0.015220051187929759
0.7903280430573411 -0.20539646617894702 1.285052473574451 0.011601400187532912
0.797656405049074 -0.0021945113671480816 1.3315886761513316 0.05677379020094838
0.794785984288637 -0.31940020925982243 1.2523791707805698 0.0011017345428640459
0.7963991052124697 -0.23126534154519715 1.2865906735690869 0.013134057850190152
0.7923128544537249 -0.13061264163062086 1.3142173189575104 0.00537018195728927
0.79361805552227 -0.24423925386386575 1.212204049587739 0.006784348721047661
0.7931761477187632 -0.12224210167083083 1.288913926109091 0.007307117623826233
0.7918593679236756 -0.09413218001678712 1.1890669848294682 9.395087327219174e-06
0.7961019493315944 -0.05032006179964971 1.2344334816945375 0.00385818663688346
0.7889710681143419 0.004398290216616257 1.398325370511863 0.06093084830640623
0.797203533718028 -0.05533199435289247 1.3906502073862552 0.027495709989230756
0.7892487089450241 -0.26403962975521555 1.238479240560544 0.004488932648711537
0.7980820991361495 -0.04401124107963204 1.3139671155702184 0.0016009368777579395
0.7990168036951819 -0.34518459919546546 1.2300601024543176 0.007770434240836813
0.7993265601547163 -0.4465295191477578 1.191623098158511 
0.7996149863474201 -0.0028432315423372566 1.3245452302138723 0.04448988869313476
0.7958624338695973 -0.09155130661163823 1.3070548230641648 0.004575398601041541
0.7966770862052294 -0.12043603186860007 1.2153681545857251 0.013327198249466233
0.7937626492344105 -0.14046110401462245 1.272938008367106 0.004061502497314827
0.7996674845125258 -0.09795767892183029 1.2584971416916537 0.005006680875264785
0.7971976905366438 -0.061370880107151846 1.213338161421378 0.00457798040414144
0.7912183326605837 -0.13298913877627846 1.2597437868614043 0.0070688721241836065
0.7986906904292427 -0.058157822060688424 1.2991896017295392 0.002267332163705348
0.7936329363369012 -0.19388251291723574 1.270315578930857 0.00853342123107521
0.7946111537322782 -0.08067896201104055 1.2512342394133997 0.005970981884683108
0.7963665425899074 -0.026400495603728025 1.2099268736612596 0.03143270333765926
0.7961680971741051 -0.2925896023332271 1.246755311112743 0.002663546592691901
0.7937521396045049 -0.17674230687721984 1.2942964093018297 0.004696732493412374
0.7998908257204197 -0.07640821446156221 1.2961595555754717 0.003415947657430702
0.7957497235733921 -0.17649371339489178 1.2652239671227963 0.012291360007286553
0.7962373315458717 -0.3244829173630706 1.1903656953784145 
0.7962914956321084 -0.15110882757087485 1.2935012771011458 0.002197112411286625
0.7939834908028862 -0.01391831742984467 1.3615717113881747 0.055475355195997104
0.7962924465616172 -0.10476315192843591 1.2669076010092923 0.008236868993480166
0.796902583605681 -0.3927757068249788 1.2034733688480523 -4.09418764905759e-13
0.8001394491760363 -0.11301514430790179 1.3519446280973324 0.013613581652545914
0.7980857996152626 -0.010724817884852291 1.2184721172710424 0.02723789502753271
0.7937819265640563 -0.06355888173986754 1.2493052014539379 0.0033472575998640423
0.7979451665208929 -0.04268934351318322 1.2853377858593455 0.000365914310693445
0.794020613906687 -0.0132631489781484 1.2573471559108043 0.05609024220907466
0.8006178307619658 -0.03265395023046507 1.3694178315793621 0.005289033552588927
0.7991040778308995 -0.23024354062987956 1.2650343411747447 0.01739805825161274
0.7989458349064673 -0.2454913591543743 1.2686869144823474 0.00581977232852165
0.7921247346940858 -0.21762321741334853 1.204955837521106 0.001858314582197002
0.8003373964828792 -0.028723137067514885 1.328044306696657 0.06226523169132897
0.7924795543456247 -0.1462140002988537 1.2126515753703149 0.005447725118074062
0.7898291071161455 -0.13242793878574735 1.2322125753878106 0.0024346064557556214
0.7984483813857434 -0.07053826817723338 1.2295175418014723 0.006921573570526087
0.7962985725153405 -0.1588464513233736 1.2136780406017575 0.009599506751411226
0.7939846075296808 -0.0064689167849844575 1.286620302601713 0.10933647436106393
0.798412562687726 -0.00714239425727928 1.3856315195561353 0.02665766898846302
0.8039051659922166 -0.19695840972053388 1.2491805004913712 0.005042023457782325
0.8061300168543363 -0.31338391085810485 1.2130079444418946 7.58376973083548e-05
0.7968230011734659 -0.16215824483596253 1.2621341238681498 0.008280792680305378
0.7953661287752882 -0.18561918012293052 1.2867301869602807 0.0013439302650633833
0.7899932196705758 0.007190475620288841 1.2038938960474008 0.10214019616477525
0.7992854131187959 -0.028686550484388194 1.3809161707923683 0.016924302688025444
0.7973653423448912 -0.056881938090557506 1.2732040392278594 0.0013922193176174487
0.7932443509978591 -0.08020860843465362 1.205755969587968 0.010601031054100079
0.7930928757340975 -0.2378522096253445 1.1830933188810373 -4.636119093002037e-14
0.7929240339333684 -0.417729655815989 1.2164739214516282 0.016103940862421038
0.7963861114248143 -0.2982342959035215 1.2287859886156571 0.020593101354699665
0.8032418176511797 -0.08265855095612873 1.353673903137321 0.0035590141618015375
0.7940922387475938 -0.09714490626916007 1.3111378710988604 0.0040749284404187685
0.7916639625464625 -0.23462590493493324 1.2234256642148473 0.008616684038510005
0.8055453910315308 -0.29988333337352496 1.3513586222166312 0.0005066155058079401
0.7979132042782022 -0.2968300166106034 1.3226525631845498 0.00418564925787512
0.7975567082222476 -0.23416665712813503 1.376304586007037 0.01315149491459836
0.8012463472869599 -0.28864117486939966 1.3691574045121586 0.006672328695440971
0.8010057383746434 -0.40146194771308025 1.356028562700558 0.004123753218888092
0.8012966164901696 -0.41857151382601676 1.36966001320352 0.0036858506941092445
0.8054650383479218 -0.1986247473311862 1.3798454896322982 0.010464304303578446
0.806057943735184 -0.30653682274076627 1.416337215249709 0.10273677925121942
0.797160551185197 -0.31948309703608385 1.312415273117959 0.00263030982324311
0.7950260888911774 -0.2704484073244691 1.3219085550920775 0.0013388598678101234
0.7963120555687707 -0.2705153604734538 1.3070674173329118 0.002629656113119791
0.7946671451999202 -0.44155097725298065 1.3726376560831048 0.008143416424407525
0.7976925705247937 -0.24943724582526794 1.4089358201538282 0.10451241160235702
0.7937086937079243 -0.26509713880838276 1.4246390570632563 0.0628034388955931
0.8000062227039302 -0.4272080449922181 1.295518058429603 6.0032716005944466e-05
0.7979829705746648 -0.18123522015393603 1.3776704159762558 0.0007199788110499628
0.7949331747193081 -0.0801988477605392 1.3863250054281988 0.04550818087462989
0.7928871806671437 -0.4605590636939026 1.2470235570449266 0.003990909472289314
0.793736721494479 -0.3788598300426601 1.4153995689366767 0.09970005399184238
0.8012151459140054 -0.3814975146046407 1.3836756316895875 0.00325627842981646
0.79796953782544 -0.34494099881873225 1.284135700011919 0.0014238498471626083
0.7991026642729199 -0.33420494935393047 1.3912269572540665 0.10269699209438977
0.8040406298490403 -0.3842975046613197 1.2425082713642985 0.011487314466625292
0.8043501449388536 -0.17336440338003872 1.4091214837445643 0.1094923825551395
0.8001226919163718 -0.21478496685009024 1.3516057512996973 0.00587771042871694
0.7984451239353775 -0.4038958661946172 1.2955911644943354 0.0009537902855538449
0.7962230420046637 -0.34072946216164574 1.3100088594057702 0.0020935372948136226
0.8015010205368608 -0.3341518865858026 1.335512420701236 0.0015540562325030325
0.8027885296747936 -0.04782598562195828 1.4057183756949445 0.024073566252187126
0.8024522951206691 -0.1384556975836795 1.4084800800519464 0.12406881346567522
0.8031536167796343 -0.16010006285650366 1.4106670545907916 0.16647332722910466
0.7915797126889665 -0.02787518076939685 1.4117250676553772 0.05464213803285783
0.7965307856409555 -0.13131720386570372 1.3828783234953446 0.10761357813251789
0.8046303521412319 -0.38164041422955236 1.3217118113506177 0.0008860849361579444
0.7998644287598551 -0.19029784006223333 1.3300762436412232 0.0009472390161232067
0.7985516747132284 -0.2559838963011862 1.366119545286208 0.005674068549548877
0.7949844252553531 -0.26086285217467253 1.2894287650064828 0.0023682274091506223
0.7932322820816429 -0.45414699026153155 1.4078621620298575 0.07837123143014385
0.7981971535740754 -0.3503320932609529 1.2685074328869606 0.003049872430278575
0.796858461615763 -0.3014230771012459 1.2875553014606047 0.0005123931247749465
0.7993901586283484 -0.40711239196245835 1.2858135040270442 0.0005064424852579127
0.7957020922954521 -0.03405132629103179 1.3972512383077618 0.02486031930291771
0.7972455335790916 -0.25073322692924394 1.3898856656205825 0.08472292691619727
0.8046173247664986 -0.1422913132825316 1.3598867979205014 0.002897363519534025
0.7973676525540596 -0.06187258816897275 1.4029819189962174 0.04404173743349005
0.7948201646725431 -0.3544753706219296 1.283355248020932 0.001392815840723215
0.8013415024374673 -0.46184027954179263 1.327325227706311 0.00315307102597505
0.7981264506059541 -0.364191669421198 1.3127088112682765 0.003738115990047404
0.7924475737572491 -0.2302031280181944 1.41211965029783 0.09147826367620991
0.7987178697645336 -0.4432243985166009 1.263406063376584 0.0033460650159456073
0.800163487034743 -0.2937807525040423 1.391281135775363 0.10461450423326654
0.7954997516620751 -0.382636566572761 1.2717641530647883 0.002594972709927249
0.7997889736396948 -0.24768297288105667 1.3170478475005263 0.0011799292535107097
0.7900572744392803 -0.44457513065620724 1.2336932082521432 0.0016042530364650074
0.7955700359551247 -0.3060706485106777 1.301984764661105 0.00042856464500905266
0.8025035570495317 -0.4371058038392333 1.3427409600878453 0.004958295949505786
0.7971648880498627 -0.40085006562321374 1.3767504668029857 0.0036900210084006018
0.8005839595312889 -0.22517645195292219 1.3844759572034047 0.023901889957314102
0.8024636015312197 -0.24216233683109945 1.3535720296479672 0.0018437893146466117
0.7976076863975966 -0.12355657566265142 1.4166224647328094 0.1146552043767682
0.7974415606987802 -0.4531275296765308 1.280379705423942 0.001586950355559929
0.8032549615046893 -0.18767061807242608 1.3503435486894042 0.006376807816633327
0.8005847981689237 -0.3639724618211082 1.3628898932285616 0.004440656051965848
0.80438072868074 -0.32398038822788944 1.37028230319321 0.0017858899279170903
0.8009182812493568 -0.25974347000911546 1.33876116809181 0.004393517994845307
0.7961510844860324 -0.3302255786869054 1.407238024513821 0.09687928964070343
0.7974817345896041 -0.39047154180536175 1.2691203846774806 0.0036211933579851294
0.7976213719726281 -0.4267954124670037 1.3947809883816606 0.036799040591710824
0.7980446361272804 -0.4137066063927577 1.3375936008592242 0.0003431756202110102
0.797937858294886 -0.2832469141333152 1.3418831616913227 0.00556605728208118
0.8038145194958741 -0.0931720292888465 1.407874282072435 0.04418547746736607
0.7957668033372848 -0.36917541667314696 1.3907540304038069 0.052200655604145337
0.8043690646955536 -0.2665202793429836 1.3977937874157698 0.06937574997963959
0.8015743575041976 -0.28144165932665427 1.3602048570146867 0.007208518286367272
0.8018355952030788 -0.4166867583638163 1.248905340310193 0.0068472881731439375
0.7990152020388953 -0.044574603456544154 1.4163468020349927 0.024192095217580804
0.7983974077969072 -0.40334596000629275 1.401786394560362 0.0520374407544253
0.795349058507746 -0.42576723113444126 1.2303548575015943 0.0013133044059775627
0.7989305426988116 -0.15806527964522676 1.3799338849782108 0.023120098196589004
0.7991348004334061 -0.45054960007963896 1.3605763390122179 0.009738376781133887
0.796763593775049 -0.33710638974435364 1.380696638448213 0.06822001066835802
0.7866740871975232 -0.47407028347110236 1.236837026788175 0.0048671226222811925
0.792349734717259 -0.46736995350161636 1.414099458537488 0.029731692441492107
0.7908078697081625 -0.4733211340460797 1.3071076810264621 0.0007680425741345054
0.7929591479870407 -0.475508781185081 1.2662091210177864 0.0006954279569004164
0.7934331883201727 -0.461065401002136 1.2675753574086415 0.006144363428148342
0.8037176600695186 -0.4635988290047605 1.392641967444357 0.017920243741732435
0.7987265114881331 -0.46825584784772184 1.3540328602865863 0.036948913695836805
0.7897275843469045 -0.45901377929882803 1.2310516466361299 0.002032901622588233
0.7960860237292328 -0.47912197856415667 1.3335579068699746 0.012414639068142667
0.7973013771748488 -0.48156491536053775 1.356858981681169 0.007004037451090887
0.7802190802859716 -0.48312066517700847 1.2009755413795835 3.2112696062073413e-13
0.7802929069763342 -0.48291509064285326 1.211582755543027 0.05651920569097718
0.781500435496806 -0.4914131714348944 1.3016385612820578 3.722543747293484e-14
0.7825332494707268 -0.49077843074425465 1.2637587221812403 0.0061571752433093666
0.7836672128274028 -0.48444771059931085 1.2430723266320725 0.003902838462641689
0.777991966101452 -0.49307053869267115 1.376075795379013 0.007459660577162175
0.5978953999028996 -0.4787759670914124 1.4197366146609185 0.03790424156196514
0.2274860771987846 -0.491380090099193 1.4155493052072603 0.11452075363879359
0.25366867859751546 -0.4923696741280394 1.4162453018397603 0.026247467934417536
0.08123028245138214 -0.4940158655697816 1.4068396214940675 0.010924176864921762
0.49321065141200693 -0.4945350175359085 1.4079027495634515 0.023292065123453116
0.3258900822368347 -0.5005252834090047 1.40733824523884 0.03315975460273347
0.12347062084983744 -0.49408613516192956 1.41311982018189 0.035654029692254466
0.025058240619647315 -0.48842863628830696 1.1885699114464308 
0.035189711080801864 -0.4904072572362201 1.2443232899111585 
0.0446135174082797 -0.4947463318760893 1.398422816754461 0.020769160329927556
0.636743905073641 -0.4993261852226551 1.4057231869636788 0.0013599865317012036
0.723623183450047 -0.4879936195415854 1.4164026322862815 0.06076755952350302
0.7628059344305094 -0.5001717745653199 1.4049024210716619 0.02028199210097629
0.744639689897654 -0.49777729106599655 1.217229917049789 
0.7405707843004296 -0.49852391385092076 1.2817566837468812 
-0.0006069042183450317 -0.14140993462714951 1.380410883893635 0.008417476292931353
0.0006167679079325863 -0.3970064401721467 1.3048667010430457 0.008215814450312196
0.008744929484345984 -0.2235268491276842 1.4127902075489396 0.05867475576380335
-0.008643732382330412 -0.3473970515056185 1.3685668142014373 0.002160367025502739
-0.00031819097241284197 -0.4192214558608781 1.2880751690287775 0.00801674872899633
0.0025571354142745607 -0.38662238148420136 1.3643570138801517 0.006562080568114385
0.005392871317402074 -0.14445760166088706 1.41888796560887 0.04524818202450865
-0.003459438415621526 -0.41716340986318556 1.400483153922684 0.052823808800914626
0.001973873321110918 -0.20962470931556906 1.410690134408959 0.05018631757072551
-0.011327476493391697 -0.22955481714972836 1.3763016906202412 0.004167628793140611
-0.007085683959690784 -0.29913707978968945 1.3614730339399148 0.0053059322141019594
-0.008844925596776689 -0.21291131414223113 1.3755325789446922 0.018711685998607397
-0.0032865644164718714 -0.4254928975090651 1.4133967275127128 0.05219948554395448
-0.006505222497268439 -0.207190002204099 1.3554206594164846 0.008890252761604496
0.0018407274846556146 -0.11729914057633266 1.4103486452082905 0.05520385313031141
0.0008738861462852599 -0.3826504562979578 1.4112939348899667 0.06818026200207362
-0.007157744978924458 -0.3637900077797765 1.3030489767141356 0.002837095930003953
-0.0016484134458044932 -0.11027823502868453 1.3863732619552576 0.030903529472717243
-0.0007451347153250253 -0.3418220396555644 1.2989560730187895 0.015395781971373134
-0.0024527764685406917 -0.3728425634572137 1.3077440511401561 0.008431311873629747
-0.0035413514346776687 -0.4085450453330814 1.3314410744595997 0.008788177604345464
-0.006013660882563132 -0.2851451368054329 1.2855237642789166 0.01681034216325949
-0.0059596015593871374 -0.41364179977313265 1.3038154362668677 0.005385569043184449
-0.0007866619325828125 -0.3365171062580456 1.317409584937135 0.018822826508653228
-0.0036703894084648032 -0.24049967886807225 1.3598379989018399 0.0036180587168333223
0.001098041055978131 -0.37718066462636884 1.3889425001095506 0.036868271739043966
0.0012784761825731287 -0.24752351189913838 1.332930176705362 0.0018779710327722367
-0.0033211795560827663 -0.46006787557291956 1.2552225992606856 0.010392215314492229
-0.004779461298345408 -0.16967223650590002 1.327453391250416 0.005140905436152371
-0.0001870084561263045 -0.43135988796822844 1.2587249945943713 0.006351134957667334
-0.004391149349416428 -0.3027583725567501 1.4008658107191332 0.06945335835025304
-0.004940847314496017 -0.4170252758945251 1.3826642338956592 0.0032551129856159392
-0.008086116614185403 -0.28868573623453087 1.27821144802488 0.0068600355561201495
-0.005456271704795822 -0.31829488669383 1.3587645295438042 0.008202280014239009
-0.0038916235458650045 -0.051034078581406045 1.4026351449837557 0.03121760144173309
0.0019220368910642088 -0.4243848106433395 1.2439989053801737 0.007228397828864298
-0.0011791868978482264 -0.27066044396201167 1.3242918647248134 0.001575093064844959
-0.0021290732684659686 -0.19294904676276417 1.331887722522763 0.0026431048566762177
-0.0032369093694711716 -0.43143135620045564 1.351032529662074 0.004790973514580837
0.0018683403583537306 -0.44079730365469477 1.2642948157349494 0.00943463414238657
-0.0004864752366725701 -0.30260368614994637 1.329403867695225 0.010621017291962529
0.002390887930044463 -0.24192134690742267 1.2967485562484835 0.010688133349952215
-0.011517633035966205 -0.31534457052861903 1.3133775485197796 0.006866757384362772
-0.0007484387238381258 -0.1761212871833922 1.372186723658117 0.009355943098010884
0.003938133812080216 -0.35219653468650786 1.2518534261967726 0.005913165866539712
-0.0020104903306395736 -0.2544802305842079 1.3634136918182227 0.012730716779885857
0.0012650809281998744 -0.41846680043596574 1.258330232057217 0.00443681946388166
-0.0014585002176414866 -0.2792347421940016 1.396224047435698 0.05749669206735115
0.0005098631873748376 -0.4213186363644456 1.2312685595613129 0.004874065039839994
-0.005990670811337393 -0.2975412013137436 1.357019193631637 0.007433634939841801
-0.0037465829506158053 -0.19634146952622344 1.370016779304707 0.003134257420590291
0.001372133564520169 -0.10768697289010883 1.4033941722092242 0.08668193527913146
-0.0017592725627515091 -0.2923279822442816 1.3073908022566973 0.010245918155847657
-0.0017660859780448714 -0.4446053715160246 1.3205689933103069 0.003079461285951341
-0.002054608118186367 -0.45393741296383666 1.2169985651487325 0.010272391796665328
3.434724922616632e-05 -0.39629088562723674 1.4118531551599243 0.05856588802518671
0.002045896338418466 -0.4263028668328564 1.2808697888497187 0.005318904348888244
-0.007153045404166745 -0.24050852637363707 1.4055082855541134 0.047355391837147064
0.00495157373732813 -0.1655216706109303 1.39728914954664 0.03845156076012652
-0.0025450881552866126 -0.08911008364148607 1.378331275086263 0.005714648897036413
-0.002791948655047741 -0.4388862684236213 1.2324536078999409 0.004458543234748467
0.0049730274334612795 -0.1772728252064433 1.4133547943493445 0.03697848710697443
-0.004780215197443872 -0.12143915665881629 1.3991326820169188 0.03441871749434147
0.0021580732917833123 -0.323853515438061 1.2628523544426564 0.0021716890766369677
0.0015892862477817214 -0.4560494426619718 1.4014504284175073 0.041698134814009226
-0.0012030268539781252 -0.3538045609746777 1.3247433382197689 0.00965214597243844
-0.008250148048641106 -0.3200729918211041 1.342633460125095 0.012610053442277513
0.003903771396350333 -0.09560466308899045 1.4177236465400458 0.04106954140188873
0.00203837037887798 -0.4513865014320893 1.2706518362997063 0.012862449171109283
-0.0008389550160040912 -0.4039226169333171 1.3621498928608502 0.006853091809266045
-0.0007374127819101501 -0.3308147291528026 1.2705588627085806 0.004097088496599982
-0.0048368702619317 -0.40101260558777985 1.275289263583937 0.005819198332546867
0.0016407765500751686 -0.44842908698144013 1.3442523395422474 0.002114565455617827
-0.0005947338910492625 -0.15311168561452163 1.3545304476426232 0.004101087499952407
-0.0014990288999144688 -0.4561720307716183 1.3807615719889024 0.0026567508145639196
-0.0003139863791396531 -0.44436411615819676 1.2936607055381264 0.007499312952686837
-0.004805556467731588 -0.32890091179802217 1.3997220528419103 0.07988274139890868
-0.0034459684178861118 -0.2825739532339553 1.352796222868076 0.005716412178914439
0.0005886559270018392 -0.2563415816931848 1.351932986042824 0.011751112122016407
-0.002225011905147224 -0.15839559179921853 1.357510581360596 0.0036632282223019704
0.0002827469080151641 -0.3887922267316789 1.2826137478682096 0.007677652371572298
-0.004634014502974438 -0.138797199783407 1.3757604646813655 0.004024105779732788
-0.0034251764927099304 -0.3481059281635974 1.3805817531866165 0.03296954665834642
-0.006293094448484452 -0.18109386648018466 1.3639092900735201 0.0066925011913154114
0.00036364104302466456 -0.08185055469524631 1.3991452454839464 0.04777627301965424
0.0021185658951339897 -0.23177273734671724 1.308445934861822 0.0027447088988075143
0.0008770402426278245 -0.41046740956343214 1.243849184219813 0.007566045283788003
-0.0016903582107143443 -0.2591442280611871 1.3999040586817924 0.049138228263633926
-0.0018483144046171323 -0.2720949332967825 1.3280415913226493 0.002282202830254786
0.0008517130124788945 -0.275305721610819 1.3846741298126062 0.035888713315826166
-0.001032544353566113 -0.3671434114621706 1.3765860643847094 0.031641060443697064
-0.006051053870229843 -0.4322298868480433 1.3786159517724215 0.0032674739390881427
-0.0052193551780010845 -0.35502794185436237 1.401567862678657 0.056862221131143434
-0.0033794736010817924 -0.4300907621619363 1.3971486774898678 0.054439967358047514
-0.004831916012158904 -0.37005689470329806 1.273529389065395 0.006208585751671242
-0.0049879103013004055 -0.2561485351795155 1.379560657551316 0.011381599967494023
-0.007292235342244248 -0.19637119023909833 1.3967766552287644 0.02712826597402329
-0.007226729675051411 -0.3942670869922525 1.34420058163322 0.0007956837882731216
9.501460882526238e-05 -0.2171759340729169 1.3273088027698094 0.002028580898017932
0.000488895251770222 -0.23242828519709813 1.344935754808338 0.0026354103806073615
-0.0014048176588573038 -0.35560435552036934 1.2801128709154561 0.007376049180594404
-0.0012966965822800956 -0.18569699783996 1.313549147397284 0.0012222465549552558
0.0005532058877277229 -0.19779093123590055 1.3103020147743536 0.0025625186915531483
-0.0008431343730527213 -0.20804709971395316 1.2771946903394171 0.0036007507933927176
-0.01571869970337962 -0.016041027757759646 1.2102893177765208 
0.001276369824094105 -0.3238715069512499 1.2296619349914761 0.010246958001570463
-0.004154648694425408 -0.2861183643976306 1.2130519776969744 0.007335276549872479
0.002176764717469151 -0.1128994569369558 1.2787328607408064 0.0034425883567800277
0.0030686639199447676 -0.352431654869476 1.2351973854856875 0.005669442842378771
0.005620972702358826 -0.2775248512716932 1.201066961466474 0.0034515160711551638
-0.003355163962645805 -0.0356202040568509 1.4004497902459607 0.058324247359843685
-0.0015296565743298635 -0.14755400208867878 1.3355058098437802 0.0019202494404612562
-0.005216672136407104 -0.060083797836050314 1.3001188812024203 0.0064243385603422265
-0.0008196046307458434 -0.018953433626803767 1.40978383247968 0.06443904682723522
0.0010378039365192976 -0.187819479876118 1.2864769421165378 0.0032846604672570664
0.0013886985819324582 -0.15813246333117148 1.2492240748108059 0.002125770056949548
-0.002011595675727673 -0.28978322840937376 1.2515563020949527 0.006108354399186073
0.0019369752681339424 -0.3297579840466643 1.2138436071124714 0.014269670294867623
-0.001199506287345262 -0.38084048381056224 1.2082759074381262 0.010005517021381551
0.0007246469550557238 -0.018381310406640247 1.2834690981104926 0.06772003013459975
-0.005160053688614143 -0.3681455096615563 1.2004826882829127 0.004196123891804555
-0.0032058832175688944 -0.10629893159905375 1.3592212786011315 0.000498810644882598
0.0011669154889884052 -0.09691080146699141 1.3137773870506793 0.00797592445585032
0.0013282973084296043 -0.35572894958199786 1.2124912095679872 0.008781415767235762
-0.0009752713556487416 -0.01981012549984032 1.3407931963607864 0.041755274018075016
-0.003272400687403906 -0.08831353133253875 1.2581437671431828 0.005764502029594268
-0.0017374596670782661 -0.06990787355364504 1.2644318292097838 0.00645012958506963
0.0013352522534550416 -0.24071415166759538 1.2897698827446091 0.01359235027368235
-0.001551057817934966 -0.14136952887029658 1.3224808726631812 0.002154440342061844
-0.0028928135023942978 -0.15202917951903228 1.2158015833670714 0.02909272637760316
0.0010976099042523059 -0.09623885551146848 1.2055487085829575 0.006341218996470494
-0.0021019434704061327 -0.3910289435628859 1.2322667555176794 0.003603301648396168
-0.00828018928682863 -0.03760256420200533 1.2459062439347501 0.005634380392744381
5.2874580864842244e-05 0.004384788388596843 1.4040648449142945 0.043092032952929266
0.0031169650305245384 -0.2529135072157951 1.2040711426387072 0.012016823675660844
-0.00802674900913082 -0.038752290339704266 1.3165995738649634 0.002791071448941753
-0.005951269997506086 -0.13156598959687688 1.2250285928639602 0.019474464251265866
-0.0011865931154102882 -0.09753487763515185 1.306185042061896 0.008801060498478962
-0.004218841471937518 -0.17487999976041524 1.2636957009799128 0.004066643896541349
-0.006866700783481437 -0.04330291530941256 1.3548882736445338 0.004466415968965892
0.0012850727067025853 -0.20569198667601526 1.2049545175628342 0.01589683817861885
-0.007003961050095453 -0.07303027799460717 1.2318647173850366 0.004291779127270776
-0.007005706128673935 -0.020425855140180423 1.3587396069322302 0.0021365282465126405
0.005168066047454437 -0.30495566008060254 1.1947675389416594 0.013288305393931808
-0.0007088375207190498 -0.052712658447495474 1.25100372093303 0.013077725536060203
-4.8357466994764214e-05 -0.21602133091580034 1.2135824060092162 0.007944106410968967
-0.00185524289899982 -0.0999337135577735 1.2377193178901589 0.013497172538889593
0.000826356123517715 -0.057415991362468194 1.2144674315856694 0.01010253646042695
-0.0023708003283207327 -0.04201353198967092 1.2903843390080199 0.0014351356991865476
0.0009416584131962408 -0.11175966978051179 1.2115328996994172 0.013050291061672123
0.0020482153430563775 -0.08373527194603123 1.3228345765188585 0.0038339257788551607
-0.0017917153133188589 -0.2722657757418681 1.2561703862554126 0.0039662941935861545
-0.004799851845553433 -0.04778446569432791 1.3789177961017625 0.0017520457005501461
0.0011013603469289524 -0.19070828731866166 1.2532367049356692 0.004432494059299699
-0.0048236101115210405 -0.15628280132576156 1.2064452930039427 0.004149369975119174
0.0005467970946683013 -0.09506954338976668 1.2628974696623563 0.005959029418443967
0.0016313841100352292 -0.3375817943758176 1.2031799969529862 0.01848708584471301
-0.0006467348181866922 -0.08201811283507666 1.334911040070087 0.004794678323873186
-0.001043309392028422 -0.24489610598322906 1.2452501614529483 8.683671145573651e-05
0.0013891176916735427 -0.3122518605322109 1.2269154328639975 0.010316778553633754
-0.0073968072217573105 -0.06432809642278654 1.3675454642799814 0.0014800105801837814
0.005910305243177018 -0.3395921282707691 1.2385641486280534 0.005229950624784442
-0.0035974691523796625 -0.13318471379822905 1.2658737365247843 0.0076119617710402486
0.0010502258861895858 0.0008172679050217754 1.344126534525571 0.10455515939058786
0.0031972139944707496 -0.2027578864377363 1.2224739573082242 0.008559868839074999
-0.005107376918018033 -0.05628555844332908 1.3161957955444228 0.010340027660111198
-0.004483748136876381 -0.021518097562656022 1.3841898660951117 0.03769767346786949
0.0006530517327326291 -0.22482410241338416 1.2557013869018105 0.003053806877317968
-0.0026531081533524284 -0.16047264873531908 1.2993956513452278 0.004815010341382657
-0.0065405699887321886 -0.1545098738467178 1.2963642661459456 0.0031166823577134456
0.00527335450167103 -0.21349550880909704 1.1956155329106979 0.015233004322079573
-0.0018262273143408465 -0.24567883151664435 1.221382649907054 0.010472974741559917
-0.005335909660292185 -0.3095642676436055 1.2124129215515087 0.008619247059955783
-0.009273137265462547 -0.052111880887350824 1.32917442448153 0.010685751499958597
-0.0017857204729164757 -0.18138007487357777 1.2146535100816638 0.011580503945987003
0.003095634033774578 -0.0050311209034506425 1.215041071713027 0.0042543905578732305
-0.0035138773997390174 -0.12364430936215928 1.3272765785364407 0.0008904722381837993
0.006047860879019484 -0.0011127952416018125 1.315541606128275 0.03416828258743197
-0.0038966836267703016 -0.36972733232762006 1.2319929228050106 0.003284774447910907
-0.010979066967193512 -0.2650336496738451 1.284031855640858 0.005111115152351446
0.0011493436023689992 -0.27738689925004767 1.2159622931104994 0.01150018969878071
