x y z curv
0.9893764307985586 -0.13162757241654044 1.4915930960294175 
1.000099340161464 -0.3601005273954432 1.4870023260573824 0.0012778000752763728
0.9874860230170068 -0.19436302300352862 1.4873441900545565 0.023602272918962417
0.996202395510907 -0.07315389520475302 1.48478305355935 0.0005539280012908373
0.9856919899891022 -0.34907754860317464 1.4898460212467755 0.001870159566055791
0.9894104758360698 -0.3237752731116635 1.4863300217365747 0.007384493698178489
0.984606946934473 -0.2933441338955929 1.4853487080838628 0.022348114132681295
0.9926538363085305 -0.24624496697127896 1.481526575203213 4.2473960828583885e-13
0.9999439235120995 -0.40339344173336555 1.483049655804809 0.0005746636725905186
0.9505117620198164 -0.4573846252176369 1.4887427948615444 0.0008238863655052499
0.9750481616647855 -0.49275616670148625 1.4891628543654203 0.03641666396508299
0.7092649333467927 -0.44742734322101124 1.485865780984233 0.025434698819197084
0.9206560320805883 -0.4751600529927563 1.4850483726208747 0.054809235006927685
0.8333257003156453 -0.48014699212116474 1.4862450229734159 0.018144996081826736
0.61574193766425 -0.4550664303048705 1.4797918920963409 0.050791731427495795
0.8636112448006179 -0.46931202762876184 1.4832284315407243 0.028525947358864163
0.791243691698662 -0.4649632289451693 1.484644416266441 0.030700141879403814
0.7356724326221806 -0.4459504132203619 1.4772260412798468 0.02634654390673935
0.9090891040578877 -0.45129852431545536 1.4821496098970677 0.041218227230781966
0.792207633289248 -0.4442060037735235 1.4848073754642526 0.022184776554483122
0.6770068011282561 -0.4636490789685846 1.4978067259010444 0.03435376885371374
0.6670350921523981 -0.4551891843304901 1.4926770553431188 0.0670442822449118
0.9640665943728127 -0.4973562686246811 1.4840171949172953 0.049448666451847915
0.8029278776457509 -0.4433288252188301 1.4803398683589373 0.026519331402144464
0.7702289824618442 -0.46144923443273683 1.4846563455490291 0.056576660582078615
0.8274797386798082 -0.4652156989909561 1.4890419681569398 0.02389506324499925
0.73516115747432 -0.46453709454853837 1.486429753733606 0.06519434892552194
0.8821556420442125 -0.47281056769657226 1.4847425436801487 0.028163438693029536
0.5609019591690537 -0.44858850935248284 1.4812418943424874 0.0279796565076126
0.8914105421217494 -0.45963892383351657 1.487468341021255 0.03667215334684154
0.6928472132193771 -0.44149132734113206 1.4864169635043394 0.058283260704155467
0.8613387035328685 -0.45103846853509716 1.4812472172192663 0.05204330205675672
0.9319939726694642 -0.47959327354359405 1.4852726099781293 0.07549834707523455
0.9179959893982993 -0.44904146139832346 1.4823481649551007 0.03711839800272339
0.7596243502420998 -0.457218108433322 1.4875322532710389 0.04089546208433766
0.5237084629534702 -0.4949852873433789 1.4839803103063154 0.09854847472105384
0.627371156893627 -0.47933600544363636 1.4871782537119007 0.012945895619840284
0.5833340191354289 -0.46824371476932325 1.4878167765595023 0.04144437041673643
0.48421592015813214 -0.4532397709108131 1.4884331346626343 0.001869004841197598
0.4319179795772054 -0.49420258357192903 1.4890795397271264 0.07756687889509836
0.323606010150727 -0.4987982691234921 1.4783968770436928 0.06994160946912047
0.24034749933431326 -0.4951942846180546 1.481701994029939 0.034266205186183646
0.6724051534681682 -0.48734169803589095 1.4904582708436824 0.0684666644420785
0.8023957718388591 -0.5034333078605255 1.4776440540762952 0.02575716562051768
0.6516878328073493 -0.5042429669634688 1.4797620521299597 0.05717377416255509
0.767831191242613 -0.49691153514352376 1.4843087721088493 0.04674376314989661
0.8212188133085176 -0.4929416683725998 1.4861527522962634 0.005148016952826749
0.3617137971791448 -0.4833226848478943 1.4892166254054278 0.06216707904748807
0.7073647155497861 -0.46118933022120473 1.484898896103142 0.061085711877453756
0.1620464654968519 -0.4950194874200448 1.4867578655992595 0.055344310654182625
0.26430080322818994 -0.499894980128443 1.4835683826854262 0.025656122515733657
0.12578711124506148 -0.4973890775717954 1.475143823939478 0.08098742121143937
0.6488093633241648 -0.4708993855490112 1.4900001653239687 0.013140876990758412
0.4677463923330117 -0.48596004603125276 1.4846005518741834 0.09884819941741992
0.46925773012616223 -0.4578882340524432 1.485950739234703 0.008134978595031109
0.6529421239150413 -0.49292679312740684 1.4817070897365825 0.060074449188579834
0.30288826116777934 -0.4847533315491439 1.4845856047613115 0.04837587260830596
0.5036108082616104 -0.5007494821425676 1.4855800440998985 0.04996480082461101
0.7240948306587985 -0.48995509640979984 1.482592028046583 0.05314774970432196
0.19113647488939087 -0.5008276494086762 1.4826602554704096 0.07557881833244016
0.5840931528876327 -0.49853681850769294 1.4742679823479519 0.10438645479367949
0.6223257780761973 -0.4885161356030738 1.4838400422713782 0.10122612031461845
0.852073825593954 -0.503605504157593 1.476221647612203 0.10037730947482333
0.2835722512476772 -0.48112698501174184 1.4892153713061522 0.08705070485522874
0.6007754172228383 -0.46510965380306185 1.4871897311307263 0.02617905366807639
0.4529331646969758 -0.5050149145287236 1.475986871742345 0.015728324476181398
0.5765807570931196 -0.483896159429203 1.4871722081653487 0.07938910605915124
0.31353165942716027 -0.5012829716006667 1.4808560987472932 0.05646185398763815
0.3272602880393446 -0.4759614579312529 1.4907704991915867 0.014222889072856883
0.4435702718413736 -0.4610962593372184 1.4865767342988279 0.0036761867842910255
0.1748527041712809 -0.49654847740117514 1.479217695281434 0.05790464647694051
0.5142914267741059 -0.46710836433997166 1.4838560300024966 0.0011067366930587203
0.5456011114485858 -0.4563958868636935 1.487402462781626 0.002861456564872304
0.9058232583393789 -0.5032670152643848 1.4876153278151805 0.07722923979259656
0.841606105573343 -0.5010326904749278 1.4752496882333448 0.10583133077376378
0.5656726206991846 -0.4639399805799325 1.4894092284179101 0.0069005571339735335
0.4627658374729811 -0.49594390374566377 1.4785980915303192 0.11343791899367577
0.6272887189882392 -0.502389516095908 1.4819751951402618 0.08093199980043851
0.39749090230997297 -0.4751867307062725 1.4928730318093308 0.03416724641396745
0.22840164387820788 -0.48526789313688795 1.4872554604236106 0.08812247734020187
0.9256012547445667 -0.4999059285865588 1.475716578958848 0.0948743898503523
0.4027852206511413 -0.497385561243776 1.4836766156407646 0.07783993936797075
0.425372843154132 -0.49735549748249674 1.4809304593839188 0.04215195826349024
0.37349154212127905 -0.4610869655517584 1.4918993295138143 1.3185141342065102e-05
0.8766909878893396 -0.503045722098734 1.4818244344450882 0.08695291978886847
0.797432241862531 -0.4908440057904497 1.480720381772381 0.05055423018711466
0.6819863175987728 -0.47792797996009123 1.4936778654734069 0.056438255366939985
0.2794451094550056 -0.4867581805456015 1.4879056270116544 0.05859389385542778
0.5308728779727195 -0.48092199977312494 1.487787412075619 0.07623422336990826
0.20206743673610844 -0.4802201649632782 1.490272856224649 0.04217715094047819
0.5062714997182755 -0.44043173860148366 1.4875205066414112 3.642745189763234e-13
0.4251837449269088 -0.4266508757244409 1.4885507261745896 0.005000069769074261
0.35785644298393793 -0.46027584412849776 1.487339318098269 0.0025440864356845757
0.11347331419809023 -0.43768890348385237 1.4912197885695797 0.0007573812786588349
0.06089569199963569 -0.45301764460614946 1.48917839137599 0.011822229695321675
0.11662446467713913 -0.4688213988756521 1.4832024321492037 0.06309846231343491
0.0632408896026984 -0.4188855112868185 1.4851166902855724 0.0016902110049363311
0.08598716065808196 -0.4639709355502699 1.4854731633009668 0.0004185965408791552
0.050952136886326056 -0.49443094059407394 1.480228292041595 0.03014605081909697
0.041496922983876465 -0.4763242129058299 1.484483906979128 0.02450899471733999
0.286693860967191 -0.44435330912261 1.4886732751830387 0.0019017194774693389
0.07455427128542075 -0.4730062468765839 1.484937173827809 0.004410017486776039
0.14932160481087162 -0.47189116099172707 1.4869145947339086 0.058945775820529074
0.06514556652754144 -0.44323265170461756 1.4926581109752937 0.007208085653806696
0.04761407393860757 -0.47118381991475855 1.4845650826022099 0.02029693545545239
0.3602357339243833 -0.43162353147281984 1.4863599931359144 0.0058581727091075045
0.27902658250564105 -0.42620626402457423 1.4857592312442127 0.006416638771134022
0.09502109077210405 -0.40099108552387347 1.4905050395820814 4.810170098783915e-13
0.036223436389226156 -0.49695710452897807 1.472109324072271 0.06924214686983163
0.18647285289453622 -0.47140168962043544 1.492721399662721 0.03297914794556101
0.350670036691563 -0.42562755249061107 1.486989056148159 0.0017268458505298187
0.060246792133356666 -0.4797051622380852 1.4816743425968726 0.03066413013929025
0.2030359982716701 -0.45536901760968135 1.4885821455680985 1.2047068083245779e-05
0.320854271883123 -0.4375838461448654 1.4907526745070159 0.0011617626255934663
0.1523853269968237 -0.44973997788822184 1.495164065762585 
0.23275720564128127 -0.4493631293299677 1.4921118288534445 
0.13498592784857646 -0.4584111343356377 1.4856153413656465 0.001489939564606826
0.12485948488457037 -0.4883058825945598 1.4816915070306742 0.08375703650826517
0.3037407574182991 -0.4218265207944645 1.488404633704754 0.0003250439207869249
0.02267315080192622 -0.4771318474323647 1.4795706048412185 0.0816754853897022
0.0024850343453457447 -0.4885590222646424 1.4847248562999535 0.08225407918433537
0.30278541196653613 -0.40830253266369815 1.4838011789370673 0.00145292327239971
0.34745803278288606 -0.40711378682970834 1.482718792492087 1.58342133652462e-12
0.4438263039033541 -0.4034487506988308 1.483758477674471 0.006917125885637829
0.2049187451140773 -0.3986206564142407 1.490168937641643 
0.4030152660964269 -0.4049893881059304 1.4889516464352404 -8.465176124187084e-14
0.24154198673906355 -0.40628004467043993 1.4874067004750655 5.907023587823071e-05
0.46358360444637237 -0.42228111988738154 1.4839445488668066 0.002320948192639939
0.45220792831126966 -0.4053486678290782 1.4843527696961705 0.006770810527145435
0.07329845601067914 -0.3975584685486752 1.4868461975579021 0.004463408949670844
0.4729523542947215 -0.4133675834512559 1.4862699650163664 0.002304951232635746
0.2809470942089748 -0.4087159287011291 1.4813751810967268 0.005573192427372848
0.2605061535405676 -0.406163697935823 1.4844157137007776 1.52546765915514e-06
0.4501619812248817 -0.4112397011330414 1.486747298702545 0.0051223704608002315
0.11208889361750814 -0.4013937773136805 1.4857784544754644 1.2367906659326557e-13
0.1505845606603275 -0.4004924784740112 1.4991462608172106 
0.03279869002718378 -0.40963816059975167 1.4840961110088497 0.0532628749696406
0.020231126754380446 -0.4542582623398003 1.4837119111333925 0.05248927268653085
0.043012743228563736 -0.39489176523102526 1.4855873611319934 0.0006971978997854673
0.011180346341634256 -0.46561390363833693 1.4829593070784162 0.08298706700810897
0.027763903869476546 -0.3651668537086109 1.4868700390263436 0.06392996642877326
0.05110080012859973 -0.35276695743366093 1.4835291435968518 
0.01707922449781566 -0.40379437176196004 1.4861791293779443 0.09400995145904663
0.049899439004687886 -0.29961768611502004 1.4790278628236744 0.0022273458351612097
0.0153813893833943 -0.4324236552445054 1.484754961107502 0.04361965579067958
0.03913903545908215 -0.14930249204834317 1.4850605811357767 0.005455165418022206
0.04651220133821538 -0.24751198549173578 1.4871816460236473 0.0025360515275233164
0.0029341800972093484 -0.4234872008041873 1.4843996915292408 0.08257744833915946
0.0017399575064800067 -0.22591396966593505 1.4824089316049236 0.056861308196435645
0.0182607593197973 -0.2286472875622602 1.4813781979396288 0.07382845732608516
0.0015601443725610674 -0.3842334248445481 1.4806012518708824 0.031812935440427494
0.015815697291355298 -0.4017574148448199 1.486362352903773 0.07422817577913454
0.0023506755814915754 -0.1226355672511015 1.4757519275339261 0.0935485090403875
0.02035971196905473 -0.10903119103690771 1.4805673947896691 0.04698994716373654
0.004164820004313893 -0.06470698117761164 1.4807937359100476 0.048845974233008495
0.0011441173984572083 -0.10007277626835205 1.4815809939817743 0.06418770725863528
0.02709587000438278 -0.25615915444098086 1.485913573720723 0.04135699518017028
0.0008088807809765288 -0.15607769939166866 1.478789157391838 0.053282090570170824
0.02510955751904364 -0.20402625328153562 1.482617659674886 0.09063480444931077
0.0043582292551596815 -0.11858414750368874 1.4812698797662336 0.08589284099192081
0.009284460180060263 -0.07952121599927171 1.4840872652770052 0.05731158463984258
0.03572851359058708 -0.30907964832153983 1.4832806334174222 0.013255425893808969
0.0066639389535070315 -0.2675907845184185 1.478212731532209 0.10365484726550306
-0.004141809798450018 -0.17496844781137347 1.4930738763399816 0.020819153170584775
0.015929093347758917 -0.3131015096551162 1.4887529796562955 0.0628160709211537
0.02786619909178193 -0.28026273694451664 1.4846365094499308 0.0923515475508571
0.002257168818513918 -0.19131942157065845 1.4821758106481677 0.07268616402820931
0.047987745740081564 -0.22481326701701873 1.4820918731974868 0.00679673867737551
0.03462933809219226 -0.28941841840679583 1.4824244639032718 0.029924887688242523
0.004036302182904482 -0.24601726530577617 1.4830453089464668 0.07188612469544327
0.009255721017554489 -0.27390172385321715 1.4807965604561106 0.10262178448459322
0.016964556885899734 -0.354970991422774 1.488134726047596 0.1134476683085202
0.03082764004486552 -0.14719114555146728 1.4847928440596636 0.004996768455128962
0.04054319134182399 -0.11329521153885827 1.4842410324329889 0.0030451124015882106
0.03602244441024066 -0.09522158591236539 1.4835802353003988 0.0041858814036561665
0.35164082364495974 -0.08168223317082146 1.4821238441342877 0.0067887006220146194
0.2792950261713165 -0.08109229496201711 1.4855264060621467 3.385294301132398e-05
0.4383068138372725 -0.09191084545219816 1.484321721604366 0.008075541444758345
0.39514980582617887 -0.09501075541702289 1.4847766239265485 0.0006704564462356519
0.4581786973151247 -0.07772169873474868 1.4843991650123827 0.0022012242394285606
0.10812161968368467 -0.0924691315525235 1.4859590147802857 6.468609582220646e-06
0.36818215470372684 -0.09466079014214572 1.4821601673513147 0.007562254314035438
0.19544509531293486 -0.10712405644311536 1.4883970565723876 
0.15362705242971647 -0.0982604677787585 1.494285733802247 
0.4967522888861686 -0.08027265130149419 1.4844149853458182 0.0033011474477248255
0.48754379311089246 -0.10027766445195856 1.4864134267756013 0.003491449855656674
0.3517793721535692 -0.09592146280556858 1.482601336077137 0.012099369835306894
0.4175277119911638 -0.08080544130132523 1.488979895576286 0.004766381570622095
0.4642272649886204 -0.09964518014283195 1.4864818234975619 0.0051197559496062636
0.3378933215767533 -0.09531213191844069 1.4872736565843927 0.00047953049560734047
0.11854986542477643 -0.0671487161785578 1.4918799815796946 0.003741807893143014
0.10766833421567454 -0.026815866351376644 1.4895117580871295 0.05033774302710182
0.22912620299161773 -0.03837565726518408 1.4873784708863258 0.004237607557873165
0.18475469777479714 -0.03436883433793622 1.493695115239687 
0.04919262876731652 -0.010329431630068116 1.4824371436537442 0.07236584376525171
0.30044833036524643 -0.06943156418464272 1.4811774217204303 2.2038010996179415e-13
0.273103762105863 -0.0386824417582335 1.482982790786676 0.07725285759540251
0.15042766541232838 -0.05768106507653058 1.487012028469991 
0.13002201305564795 -0.030947930497181912 1.494962975755096 0.0006637246223519826
0.05226383130484238 -0.03186106343966927 1.4877540589392024 0.0034524510324887474
0.03911384873764736 -0.03001517158957788 1.4865364422927203 0.008669348079536402
0.483378517093999 -0.06342812786771841 1.4875272958459504 0.002053431986724246
0.05912988344726198 -0.019202902153765324 1.4863749760177871 0.06861386622364876
0.306901391072923 -0.07766465136163536 1.4821510235911766 0.0023728312913726735
0.05369806452975528 -0.05180633446193694 1.4864195019385913 0.0008778108447089663
0.3155531048789093 -0.08346146363190793 1.481868816878737 0.002875733571001691
0.24956835803358118 -0.04069009175795515 1.4814450649828572 0.0009891924376521928
0.06572701358783724 -0.07342753135729577 1.487738473989718 0.00031689395342183015
0.3508647039444607 -0.06518146105938039 1.4825700234322732 0.004543426551204474
0.22684854377375044 -0.059491633168922094 1.4966370527864654 -7.789466804794726e-13
0.36949711045169875 -0.059718880448455094 1.4837354097958289 0.00012287994882000417
0.0860543418781117 -0.07571477287626252 1.4841203902876956 0.0008764444926669513
0.02860237700632167 -0.04048743032354801 1.4868063618637035 0.018670367566820584
0.0378452279707009 -0.05884476170519257 1.4858644548947992 0.0011021048524973806
0.006568517359408627 -0.02134823153770207 1.4749367757321206 0.04036618889054433
0.023581733644795207 -0.03608820367870262 1.48484189429643 0.015759312049478114
0.08850945758050031 -0.005996810767881095 1.4900174296265343 0.06226938422544781
0.4390826911688257 -0.06186094646583326 1.488903362067186 0.001067215885390607
0.32155263310336624 -0.032625038705497066 1.4843412117498929 0.044709920554298496
0.6123873709135065 -0.007554821839217518 1.4804196514764685 0.013279975931233584
0.7974493821890657 0.0010717879615769884 1.474888416500984 0.10789918319308574
0.8222751396991104 -0.01446655722253796 1.4895770803510648 0.024945292443375806
0.12318461162702111 -0.011154910992390143 1.4888350223330429 0.08301735762469464
0.38242289927687395 -0.03607405146709361 1.4868472732959725 0.027835470176862987
0.4402346500120285 -0.04122453920499194 1.4870556209252563 0.0013560836494951349
0.3462441904519748 -0.03498554834164613 1.48318604409655 0.030093382174973555
0.4540656919456283 -0.005901596603751965 1.4849234080910727 0.035023288458139804
0.548645184220941 -0.01184694408107326 1.481578696510659 0.029378999793658277
0.30013755246029483 -0.021423336524408837 1.4837050559139493 0.07465566622405267
0.4573596121355888 -0.0013320132612530448 1.4822269177440455 0.031699026869514806
0.5072649001504843 -0.008667976160102222 1.4802803911095845 0.04645876217857425
0.4182051046035214 -0.012931723295555 1.488060607910645 0.04443762987639688
0.5400126015971257 -0.024183867204132004 1.4864515894694104 0.021526376433234923
0.6014507955903353 -0.005366215832093633 1.4813763664596438 0.02488130899095869
0.6315618145331503 -0.009952476256970412 1.489696374966498 0.05649822224835731
0.6950490042566766 -0.01969016732540175 1.4867754539681357 0.08931100944888751
0.34422564730590394 -0.009691925123865778 1.4844805376535937 0.06413585680392841
0.7881670975559063 -0.009989902154876228 1.4818048427516208 0.12546554199288873
0.21153698652153827 0.0024846637617560413 1.481087289626276 0.035211380380330094
0.7641602224452492 -0.016018297525464457 1.485313178463397 0.03491783660529638
0.45881381151585343 -0.006088923242913798 1.4837815677918085 0.045827663809031936
0.7352978917020301 -0.013849436934054509 1.4892705180867443 0.046215157541200785
0.48365564594928157 -0.016808646708224455 1.4877962614553104 0.051294976490599775
0.5184011307682694 -0.018752107007493694 1.4846711937883053 0.04341949177082757
0.8208119916010223 -0.0005292495596549134 1.483764422588208 0.07551999487080222
0.6634312569124986 -0.01927230974568103 1.487893479225348 0.09230674273293639
0.8392782886211115 -0.006679264352575457 1.4825346094671032 0.05897036890056614
0.45911100356470447 -0.022676339329880366 1.4841395293904747 0.06182303222249985
0.5122512263115765 -0.0041373210112216835 1.4793400540843686 0.019440497727135495
0.6883648810157036 -0.03096532686087227 1.4822627152104983 0.027206224391459505
0.8629672974824705 -0.004922928879404186 1.484614277161278 0.031913812279134125
0.7752190475769736 0.007683954444001752 1.4800906231564417 0.08704903078237353
0.19562702659875622 -0.0022943630476350042 1.4911264856014748 0.05779676362341938
0.5010805930346492 -0.04558737119751981 1.4855438126168108 0.0031011427143623144
0.32904319062250115 -0.015594210423468487 1.4862912989346586 0.06216892770265738
0.7100654735147032 -0.026271858987859695 1.4836949813333549 0.0235983856299655
0.35342869860422277 -0.01440480123894609 1.4868141307588387 0.06445163558653395
0.0390855073990591 0.005884964823571716 1.4819525643972145 0.06179961455166079
0.4007323835167651 -0.021321522730808323 1.488943751417313 0.06046403289013433
0.5834917112613425 -0.03367226975014784 1.490681580827947 0.018695921190927993
0.4834526811855651 -0.03757828366789233 1.485564140179439 0.02759457860204776
0.4695875047164969 -0.007536219786629239 1.482991323275384 0.0625104224246951
0.5639449378255144 -0.007784703790423301 1.4824707116368239 0.027739968736854293
0.715183996659382 -0.010415888818480656 1.4758511765082098 0.07056245391439991
0.6500347532643749 0.007931383640255462 1.4856862725535445 0.040468733020132625
0.22388504726665134 -0.01630906908483917 1.4830714298723204 0.10265945945178237
0.4119416872498963 -0.03091951978922966 1.4932156891463042 0.02741309674675068
0.30763429032631084 -0.0021450428029819602 1.4787054559392043 0.048129076560996624
0.5692673561295868 -0.0269696982452215 1.4857080967798124 0.03966076501718017
0.8801271987160592 0.0018361891577949032 1.4805159340902843 0.04841459962128069
0.5534642924364677 -0.011534246235737773 1.481963429495132 0.0299847634035441
0.38244204055892983 -0.009598618997844813 1.4810801522445183 0.049264362950101906
0.6804937056978496 -0.0002682618523526675 1.4814410483394944 0.09999889934399349
0.6005061766400434 -0.016498257156459174 1.489038170375724 0.017317573744760277
0.7388054660132323 -0.027948664379839634 1.4867804504439064 0.03671896539900429
0.6367991828665562 -0.04256162982277512 1.4868588836560026 0.09691520184835455
0.7739043829625039 -0.02926988523440743 1.484672882744839 0.03960737891578248
0.941644192392254 -0.006735343429449132 1.48111636677011 0.05833279186219424
0.883181509481629 -0.05219370531518213 1.488059050893915 0.0233157404533972
0.5495952016465357 -0.05664799195274141 1.4746865678522365 0.020960386649407164
0.8362774298373111 -0.03333381379631013 1.486055927445391 0.058556367093533936
0.9208996017722159 -0.040329054173247926 1.4871055363030017 0.026308928848240834
0.7430303354019256 -0.041108732268911694 1.484828650403027 0.05670929203498656
0.6369651818131267 -0.06094599004208824 1.4837243667742965 0.043143934934564795
0.6411245642784864 -0.047997261327719164 1.4882824814156155 0.08713976303868055
0.8685453928231337 -0.03445600091105238 1.4839118132921283 0.04621778530432285
0.8707402728348209 -0.041668832120757754 1.4843920780613515 0.06436549414786265
0.8957478177590226 -0.023811626419240332 1.4897136082358173 0.024763972466191178
0.9623770280086521 -0.017801496535986217 1.4930291905288224 0.01442457707448968
0.7899236151385777 -0.050979912250477474 1.4847833456765773 0.04250331357995332
0.6705199473632055 -0.04905507815631489 1.4804546347491414 0.06095445506103176
0.9087926462944178 -0.05853979365648277 1.4814595148218623 0.05504456427502139
0.9251787236316328 -0.01775748575455825 1.4884361566170337 0.03192845758848218
0.9306051960740536 -0.019492015492575426 1.4885904034453934 0.033150554628576155
0.8513831068321529 -0.04200551589393805 1.4841505633066787 0.07657548939630153
0.7730955653388473 -0.04767744758115708 1.4852189002829317 0.04908348778588713
0.8012612390424568 -0.0462190929834792 1.4887060418017595 0.03510972909405091
0.7660984318918116 -0.04285621037885826 1.4886187462511844 0.050615790234300725
0.955314857603615 -0.05256490561972611 1.4900059598456994 0.011940476543673766
0.9894109557715556 0.000970523726957372 1.4729355924413754 0.14514455505912227
0.9806512834958245 -0.04674560587766288 1.4906358938557462 0.01570809237397382
-0.003619902677040888 -0.241790333085348 1.462012098092806 0.035670610761328055
-0.00784358586031906 -0.44167718736831935 1.4784953847457565 0.06443102023935311
-0.0009638430922518624 -0.3414383634768091 1.4589993102364627 0.0419703777218684
-0.0015991057516351421 -0.3822004044615424 1.4725462232675188 0.03591117194701757
-0.0023701008655070328 -0.40693556137553577 1.465712223450045 0.09827231280061785
0.002756091977868481 -0.3643284420106979 1.4589266346712582 0.06874923080622926
-0.0026384634164159284 -0.4640888221517497 1.4613974080715844 0.1160294946557169
-0.004696947623015092 -0.12575581182548273 1.4444004319426427 0.0005425058874674784
0.002616862150298055 -0.3580830289610445 1.4764526371428444 0.09470021299027595
0.006133667684287873 -0.256596447908622 1.4504801228676312 0.016017742227486965
-0.001257562719723808 -0.2995414915502996 1.459157359004595 0.04966952403861181
-0.0014470826440497046 -0.47329377976332043 1.481209083026905 0.09773874274164338
-0.0031472977009948814 -0.37816239051492234 1.45984635688676 0.004730568865366552
-0.003970279932908392 -0.316911821110468 1.4698960433214208 0.0460248618094767
-8.282225019589312e-05 -0.4076158211987625 1.4557484619310443 0.05368333242048484
-0.004471937744006234 -0.44945520074864936 1.4658494434352953 0.09140137576566926
-0.005917024444769391 -0.16753976796021672 1.4639999202149625 0.010782633701058758
-0.004143591000475016 -0.19322231409419985 1.4693953478713935 0.07007703538438723
0.0034178099170468533 -0.295936216416362 1.4833454588154162 0.10194833144205209
-0.005786334535346636 -0.33048036354618593 1.4860995365445533 0.02692540121705662
0.00010758300976601385 -0.05398181606354893 1.4650823948858664 0.036143084447467666
0.0030363768093281452 -0.4566300191373579 1.481503382399282 0.07782887351354745
0.003099637167326181 -0.24118851591977067 1.4762949790763684 0.0644161507880416
0.0017147602609365127 -0.03825830896944675 1.480456671068512 0.023388138676809927
-0.0004885018417929027 -0.2199263631887914 1.4627733798847367 0.07155970376325389
-0.01392870003330664 -0.019200843441284574 1.452827411636598 0.03428503696246565
-0.0012055725001077 -0.08992357998405161 1.4756867113925278 0.07039631504970166
-0.002335326566597724 -0.13741506069344653 1.47775351657521 0.07398956531201002
-0.0005942787033252784 -0.27789651909006485 1.470794312999487 0.08778679662461318
-0.003961878801438735 -0.04246105668680246 1.4696099106724057 0.04350543084032154
0.0004891239780312714 -0.0735226568605 1.4582646368255383 0.016528777267039097
0.0006379434049024763 -0.04402203544776995 1.4764083782048303 0.03520404210161155
0.0008728970850236035 -0.10831668750208391 1.4587149338713354 0.05060685240189731
-0.004190586233128525 -0.06279507940219475 1.4751148153897327 0.04132244953528239
-0.003919637114439945 -0.4280868737108786 1.4841408354675003 0.0583430848658233
-0.0011580316963219774 -0.34091745595052125 1.480915047029785 0.05824425844703313
0.7028468793236745 -0.5005521881842789 1.4820883944484833 0.06104902350294124
0.37563041262758795 -0.5005099907765767 1.471059526306428 0.07210369343911104
0.5675479350756474 -0.5014704481170627 1.4707614946542593 0.049457722155453854
0.778429177365148 -0.5013625910974997 1.477166118082225 0.06450270470501979
0.8492446330074764 -0.5121001491338298 1.469436880159389 0.03785703525674219
0.11872333532399358 -0.5019741392106022 1.4843128907309615 0.08264919433919926
0.800933233932454 -0.507679566508843 1.46915980700456 0.02552613227667116
0.9100271272432273 -0.5078472898901842 1.4643185387085316 0.00740406704968805
0.7642867729411327 -0.4990601012608971 1.469558064846015 0.0188145709372213
0.9509415174248155 -0.5033714695718171 1.462733410202666 0.0662977610926714
0.4921838881207894 -0.5011264543101334 1.4684541771958304 0.013792867436079338
0.2038197913791125 -0.4942744742724979 1.4878092918461225 0.08648787216928176
0.7470434750777543 -0.4954205605027495 1.4753850578523948 0.07121000477460493
0.9415459732964835 -0.5032593326117055 1.480098759799139 0.0653803245914405
0.6822216829516629 -0.5026021033673077 1.4744809102546317 0.05588434722179211
0.38148274028558815 -0.4987312716427101 1.4804631960989534 0.06881291791887723
0.3922574993213389 -0.4990100510424444 1.4793799786411261 0.07782003127294602
0.5999671566913936 -0.502861398075305 1.4830776513664856 0.04450223073582571
0.5425286878689506 -0.5003975851789922 1.4816318320996933 0.024023922494931512
0.7260631088532424 -0.5052244190275709 1.463951156396933 0.011549274023374051
0.06785489907761699 -0.4949413955245259 1.477737264659311 0.032100734647265435
0.8852724577483017 -0.5058900731899394 1.4705607469806135 0.12749438306050534
0.7310502466194928 -0.49505053394229254 1.4790296091292943 0.07211846445488394
0.971655196942779 -0.5064014386876105 1.4746399160651675 0.002175102654623442
0.9723142374151683 -0.4983292812987745 1.4594788881604381 0.02141487099468416
0.1119608329921511 -0.49952841646506907 1.4628651902170402 0.11030750013082892
0.06292104259731765 -0.501574347534013 1.4706075368074505 0.030707662946885164
0.4077954303641897 -0.49274649627022427 1.4702557183839111 0.05183488520367005
0.5829946070566406 -0.4971715087242357 1.445586496710755 0.012062145565517483
0.584541995472651 -0.5014651902273626 1.4537132364110261 0.06417876718614388
0.7460403067045066 -0.498797181821453 1.4580425431407182 0.016051455712047344
0.2923918987174025 -0.4997445984945468 1.457319158584474 0.09195576685367512
0.09743476165577558 -0.5018535646256737 1.4540402290723051 0.01573418107577935
0.5489046790210089 -0.4990042417016935 1.4575395065254875 0.05060958609508006
0.09216909916088938 -0.5011758879297868 1.4679332573147539 0.06624895067524754
0.04321581938272182 -0.49737202854637974 1.4572542373531008 0.12840545573966605
0.09183206125432744 -0.5014094541486968 1.4724311053573265 0.05871306200801181
0.6945761501390624 -0.5013479160429362 1.4556141964049039 0.006196275395530848
0.3554374379377247 -0.5082625224725231 1.4748763367001196 0.028894613342319683
0.0370178604213743 -0.4998524465331941 1.4672128799944417 0.10259659526850319
0.4613359739631707 -0.49433244189125175 1.4808138399081547 0.11398146240994891
0.27075093504785475 -0.5076183621755292 1.4717804705570883 0.034848218064646476
0.6726034855674182 -0.5002427037658227 1.4545920344750582 0.043408906449648385
0.18262924375916292 -0.5029995913871671 1.4706943079670136 0.0749173203742557
0.29455894770185065 -0.5021493679570997 1.475458063706101 0.03848335504838881
0.3192582007149246 -0.508020002408015 1.469203423150344 0.06423168008153285
0.21052670124893616 -0.5049530778430122 1.4697436479179695 0.05040175816897174
0.12419746977787297 -0.4942227754766144 1.459252929427524 0.0972285298130742
0.1461292392444918 -0.4997115686378892 1.4812942164791585 0.06769507399730498
0.25901728899623905 -0.5089120813859439 1.4628482607690194 0.046988143616492915
0.16276554724829298 -0.4966799706065251 1.4641753158676678 0.08515176211353984
0.3687924889031895 -0.5020420846750979 1.4589831775651678 0.08629692736105397
0.02423903918986745 -0.5001406069322203 1.4702354617863531 0.06839164679132036
0.4407023613976651 -0.5026123994997871 1.462610944096122 0.02660427362230216
0.5647117030739356 -0.5035605648054615 1.459562194839459 0.05373001616433096
0.9895066744500732 -0.493686118670383 1.4712173889719058 0.04308416687086293
1.0019574985677588 -0.4912650072858222 1.4507310302900724 0.003479389458574537
0.7474139730053091 -0.06510830104925494 1.4525253779358416 0.00253431246425588
0.8381400872634025 -0.05535587616459956 1.4744956967841683 0.029475594245261492
0.7132748852795839 -0.06017487134196486 1.4600595992491336 0.00017616134804232931
0.623876360065363 -0.06547638666216847 1.4528858160136056 0.007310525847659753
0.5312132715294853 -0.05414952362663641 1.4784198999676181 0.0064935888730686345
0.6598297919237652 -0.06340637484288363 1.4685224250739657 0.046616153432747345
0.7684767435576099 -0.07182907495940864 1.436414699948665 2.988592154070175e-08
0.5802312423324191 -0.06683204704789127 1.4635027067492854 0.005150039931961423
0.648465997765066 -0.05967457789710972 1.455839883711681 0.038090527869480625
0.7023592792258126 -0.06210467897948404 1.4578125188309579 0.0037093132934091135
0.7759502896490152 -0.0629527615924482 1.4684622511482393 0.04037010184904411
0.8578534515255535 -0.06100616608149426 1.4549806107676302 0.026634168940701086
0.8456146263575912 -0.05860661231349475 1.4580967744361766 0.03792178121964911
0.5703378224529823 -0.061593816543555516 1.4792354770180718 0.03668276745900264
0.799421965104105 -0.058832071692210296 1.4704192693009577 0.011634513667193858
0.8659854095431265 -0.055949607630058504 1.4846543282656928 0.025822750973781887
0.8574934915456248 -0.056976227208520226 1.4705927973812696 0.04221793027804627
0.6215384116368338 -0.06162566441678558 1.460747794181643 0.03205720688152877
0.5900654826262114 -0.06577230082044681 1.4841796752446283 0.016175940806932968
0.7481698573288861 -0.06028957017710946 1.4834574081102263 0.027003927655034163
0.8257388475986146 -0.06205437064447859 1.4566184265820434 0.0038023626514165046
0.8640120653214596 -0.06457880446733451 1.4352352898727045 0.0008804021185413569
0.6349808286655408 -0.06987355509073066 1.4340737770144256 0.002041690239595323
0.8867002346260329 -0.05909326978754345 1.4683384534273751 0.046125216419526584
0.6046248828289513 -0.0686524384688638 1.4436301310398174 0.0003884713335743487
0.8082824287186463 -0.06741174868413678 1.4329163580049624 -1.8971654825389183e-12
0.900445124446939 -0.059550160976121716 1.4740815226285877 0.07179318542642874
0.8037906575244091 -0.06464157549126698 1.465815009532208 0.008641723775046775
0.7396651088620013 -0.0625829134316178 1.4711036353495939 0.028692122539474344
0.6409011023114576 -0.06302768452220156 1.4796446934356462 0.03397206617628051
0.6987320070876455 -0.06018286149134692 1.478977887334095 0.012952675074505189
0.7605073686567089 -0.06378229880699628 1.4608266175905207 0.037590494178371125
0.7679957965707439 -0.0516181195405591 1.4842138248871495 0.05375721372974738
0.5955527495188536 -0.06193534037207684 1.4736175701793974 0.05640730488318618
0.7434203684698452 -0.06368645090057867 1.4554457174216062 0.031042315345130838
0.8819068162862372 -0.06809305327981008 1.4511064753680771 0.0008271236701865202
0.6705013089630529 -0.06515041452555784 1.4556583447756746 0.029391234621338618
0.8627408579792935 -0.06767064547661514 1.4295630940789128 0.0004211129989692263
0.5088650474158989 -0.06529188153897855 1.4824337761833257 0.0018013187195141723
0.5069467488135804 -0.1975366769759502 1.4682224916868651 5.417620679207925e-13
0.5091632550231883 -0.2801191541114835 1.4711626104344269 
0.5133918543879783 -0.14806117689645534 1.4668419562258164 1.165622371291328e-12
0.507184666919743 -0.37185967607192233 1.4731120027472258 
0.515739806278459 -0.1934456015193944 1.4645622862923444 
0.5047509630820755 -0.4106090819336643 1.485906335031486 
0.6374012386203469 0.0012225460838558649 1.4646278670277322 0.04229956502993334
0.48017268443354766 -0.0016683796206439355 1.468617070323365 0.14546021533983378
0.5580730448990502 0.008493013804914342 1.4524394991708993 0.012032535701455422
0.2582315513885018 -0.00495559501151492 1.4581806852628416 0.01637198992679728
0.4303592563868388 0.002572521246456176 1.4653030847501953 0.008958130054168187
0.025204765800100552 0.002503501023817096 1.4659658275616032 0.07979821240459986
0.11255595772162325 -2.245998230763575e-05 1.4627009630346546 0.093623866184955
0.46017119226807424 0.003021588834828661 1.46362629241721 0.09914724713035684
0.18025576020986647 0.003513449368931185 1.4650020247509319 0.0035748784396080887
0.30415556523689774 0.002900190056872533 1.4529013994828757 0.0459504380036768
0.4894585714579575 -0.002147085604178817 1.4708090386240247 0.05351221127528093
0.31998679686229725 0.010597694055046503 1.4635390908968147 0.013305961033304938
0.3851668699489896 -0.0034936401268938627 1.4722928021061694 0.0896033921703786
0.038344497954475476 0.007981744956276746 1.463311560672433 0.037965917004472396
0.3597414702316086 -0.003705724985926689 1.4544287789983947 0.03159532264754398
0.41822461999669674 0.0014134875054201779 1.4728345007568324 0.0226555058171403
0.1329172414303962 -0.0005839658324065071 1.4570792604519267 0.04273581344375569
0.6607038029409865 -0.0016579345937499973 1.4527473566878897 0.05118184472531926
0.8548444252826388 0.007374786614784647 1.4611509867391104 0.001611760059795105
0.2974031469376116 0.006288703880455955 1.4646549838618161 0.08571965469493087
0.2725627867600819 -0.004929208228823849 1.4629566983485596 0.08623977611064516
0.199266980816369 8.888849286461207e-05 1.4600969494610456 0.03643569595509916
0.39915641117725026 0.0010590822227850944 1.4598194098212731 0.06685953384742521
0.5002312885686804 -0.0056823919273615376 1.4594534362696179 0.0773020901416179
0.3375455827462953 -0.006016668596740409 1.4702164399702178 0.07588013551880979
0.08584630551469342 0.004502736418563395 1.4751035297449155 0.04892227876217356
0.09841874867421281 -0.00043631507556439827 1.4645454708205174 0.08574227699959083
0.14456774976886344 0.0027022478031262518 1.4757159187424334 0.01797682367483342
0.37414638099981085 0.0046412732658544925 1.471962044102814 0.00991922296587259
0.5641243874792574 0.00773710264546616 1.466711349027095 0.03146070328663423
0.583944694038754 -0.002515032813517685 1.4764824830411962 0.02606170553319762
0.07281000303761544 0.006365194874024279 1.481501454489771 0.04691283508517205
0.7591176971042096 0.0009686383770659827 1.4705392966301054 0.07978397750771545
0.7385818438086207 0.005739148063674649 1.4772759115037857 0.039975998036650515
0.7550140401744583 -9.919322112675956e-05 1.4614285075543163 0.07268828166219643
0.9020053086924366 -0.0003507552064641269 1.4739118462205172 0.03255643966659716
0.5705578039049797 0.001993247969332983 1.4798995682625724 0.023064794671638807
0.6121284609014835 0.0010663997038991577 1.4724115847288286 0.013226377695906958
0.6272936024958923 0.0024324687059086845 1.465081456258742 0.05370629736579707
0.1519487477872256 0.0030703261036409035 1.4897205234894297 0.017957269689004626
0.2699311538966048 0.0007718394079127684 1.4821051395542588 0.05802375433799687
0.1680521496170313 0.002798552967773245 1.4786271302699965 0.0017426170372186714
0.7304912152195212 0.0047895281962747754 1.46604056397103 0.04536799801215713
0.921608231060731 0.0017134395518012724 1.4688081777180413 0.04297912981871336
0.6755483630273391 0.005971385600288423 1.461497723921707 0.07901646316107436
0.9789358555494365 0.004423301260656494 1.4841543338742043 0.006461184702942357
0.11739592914731552 0.0013563037553954453 1.4743094114745219 0.08221229564225703
0.2359476375893305 -0.002646704995416193 1.4797448343082567 0.10153395156410519
0.7581787211600546 0.000897018768774547 1.4778917769043505 0.04173891959351543
0.7874835795618279 0.004184043231755352 1.4675847296143085 0.11708949662135483
0.4090217568091848 -0.0036969598146274645 1.4862935580629035 0.022527180520154552
0.904514144313308 -0.0008836156693326212 1.4771192560916968 0.032206383303481995
0.8381387644325716 0.0004852364289353261 1.475161729062578 0.15174717012857591
0.8036641209928679 -0.00025332745321586097 1.4673009130672898 0.04602059409769183
0.5393516081656243 0.0003355625610251949 1.4709370147601593 0.02340450061828794
0.9488631438326157 -0.002567691648131451 1.4770611484849876 0.07630006612219796
0.9452105186695862 0.0022675999542978056 1.475120245438587 0.06909014444796945
0.11172640821243361 0.001549052891186837 1.4742426773212634 0.08097910052977833
0.48790769981638593 4.9684210487487236e-05 1.4763909305258827 0.05112971592178562
0.6918644586368093 0.0031585547987492022 1.472742020154468 0.06786369832491794
0.45600115680288195 0.002320347002860521 1.4697499077623075 0.028231420392555426
0.9772894357575416 5.712382275876632e-05 1.4708537564558821 0.08493149063781387
0.3801234898279136 -0.004704582489471418 1.4805033779964938 0.051317748083062116
0.6012507193026425 0.006831716588604877 1.4694942494369512 0.004117136501854114
0.24220134105351354 -0.0008556192644608236 1.4775870388928773 0.054158234364947926
0.3614128277370916 -0.005828924019211965 1.475861277894816 0.08355153921318476
0.687291484697209 0.0011979051426935772 1.486168206837597 0.04646969004861045
0.8589192421931522 0.0062172727381499164 1.4682741133661756 0.004012869271390056
0.9965928062075837 -0.011525045977139574 1.475726990822491 0.039492324957754114
-0.003436554365314589 -0.00737374679397279 1.4628069076129144 0.04222360191585565
0.00516609068762484 -0.0021324610631295493 1.476364261806968 0.024878743491544307
0.012013782050032396 0.0019248507884715976 1.4569527801795519 0.0528340026221767
0.023501462369503383 0.0012928498766162674 1.4718941803983903 0.07291153421875281
0.004829145487325239 -0.48025654619077346 1.454250468361993 0.11312375209826377
0.004839412730789779 -0.49051425077233357 1.4758246621987257 0.09224792938436635
0.8382249046059432 -0.4414874503160117 1.4639230977921884 0.02711044664136855
0.7056231015067528 -0.4387922972817505 1.4657810907428772 0.025206757645116904
0.7297434435637923 -0.4442396392900259 1.4773011497679662 0.028900505151806123
0.7164142875390785 -0.43099925254965515 1.4308049855977396 3.7741449802845544e-14
0.5686456287026864 -0.4492147170209467 1.4810518274188336 0.026046938852115252
0.6265092000679557 -0.4371142767603625 1.450129684898436 0.05052370243541712
0.5898149713775087 -0.44318440484332977 1.4771345564250409 0.012801518914038735
0.8208179223854546 -0.4448489785656802 1.4795648385279305 0.06830945322184612
0.6951639284298071 -0.4406681822751641 1.469911227869305 0.03091547175339967
0.7329266888707174 -0.4361978478191361 1.4484853106851479 0.0023678791453539427
0.7439440635650699 -0.44401256606830136 1.4770001415669 0.0408768804494177
0.7322846434609666 -0.4370303501032509 1.458688745250444 0.0232376315874098
0.8372763622607348 -0.4455260904543851 1.4813061501783638 0.06250328780251077
0.775861793720833 -0.4445160828282285 1.4810897072500764 0.03827526034761458
0.6800617546634966 -0.4355544004373204 1.449992498895676 0.0025707827048514283
0.777651588037731 -0.43487114619302086 1.4360331905064105 0.003663618246870139
0.5984450055796724 -0.4455772084771823 1.477345913448198 0.04018680569990488
0.6577494724106101 -0.4402383232900549 1.4895591671524393 0.05740019260254821
0.7811759679887158 -0.43564347473153026 1.469673525498881 0.04147872954858189
0.8469794699381054 -0.44106497870940303 1.4717174543050566 0.049285989335504966
0.7600367151584362 -0.44209250903523223 1.4576869894216369 0.03457552418566958
0.5819103503429864 -0.43613495675066 1.4644430015296204 0.00013377627355653544
0.6306094398030015 -0.437330239109939 1.478102249392734 0.08653000980637993
0.6575135981015935 -0.43947823324580043 1.4558278456189588 0.0066868541996211745
0.8698754402429085 -0.4401069703539515 1.450774927557079 0.00868597179025219
0.8081213128316249 -0.43448137663188663 1.4619161832635 0.003853853592434683
0.657449356605 -0.4319880944723425 1.4271860598968171 0.00032514028932138447
0.8894050429349617 -0.44530045981330735 1.4790582218529569 0.05047459234288894
0.6832256641250705 -0.4441635598239044 1.4725992915125414 0.08121425456378423
0.7550912205787038 -0.4398767913225945 1.4461211604610198 0.011894192419078561
0.8825546503136856 -0.453789593333421 1.4911621300248536 0.022013738528710084
0.8911776268592748 -0.4374992801742049 1.4666466945929755 0.01131317778377995
0.8435167891961869 -0.4409785379895803 1.4765366544054261 0.0366807327607799
0.6442494735067401 -0.4408029971295963 1.4605919012633326 0.04748253208150317
0.8118679202946162 -0.4417480799911669 1.4711657555162743 0.039798615014737276
0.6091694833006926 -0.4267870861107599 1.470109008948965 0.03420378508716511
0.8433247955453959 -0.42795022596088367 1.4295133523939216 -2.550085047996086e-13
0.8402219994843582 -0.43790521687939227 1.4460491798721808 0.005449429149562571
0.8895723591977748 -0.434924200507065 1.442932758709142 -1.0603649260408345e-13
0.9490478094489573 -0.43778161119753894 1.485427449423173 0.0031606437953336317
0.9453928601575355 -0.2680631963930831 1.456619125490233 0.007692586441736861
0.9526692623197105 -0.2878421437205816 1.4767865372157034 0.04339567063593804
0.9518760062074383 -0.3028986221934615 1.4771811416022085 0.009274924321749702
0.9482492094201713 -0.15914830079917536 1.4616667030850936 0.002441224467074688
0.9515913216460764 -0.21980095554221687 1.482055580967847 0.06870168482165823
0.9558605061756749 -0.32686328255510005 1.4831466416502364 0.0055622830069354135
0.9494516333899576 -0.1828442432412853 1.464015053697367 0.0032725155691165743
0.9436060152808594 -0.19494939298376876 1.459988196471835 0.005960604686286542
0.9412256987513296 -0.35892970200853497 1.4806637118648345 -9.173991032477298e-13
0.9538581857740861 -0.17750877494945838 1.475911565305951 0.060442565269873044
0.9506641057291563 -0.2607597554475031 1.4720429723199202 0.013881479259440407
0.9554987442627837 -0.28979981335395166 1.4787001605186951 0.04338745035135102
0.9494159911986415 -0.2372734899428107 1.4774929569912945 0.056681879207106725
0.9428718132510663 -0.3405218971032944 1.4717238956893957 0.000742061963903623
0.9435682026174599 -0.13423146890590204 1.4743898709079017 3.1536207390365385e-13
0.01878722400840798 -0.5028969847286948 1.4573337193462281 0.06578940683083145
0.0008171187196519323 -0.21434707638729691 1.45237689051225 0.043418111128677585
0.0008748753783326564 -0.1923041160266523 1.4597199872315396 0.06808162141076443
0.0043778781040640915 -0.2639184151075766 1.4582455496178364 0.0790430125681532
0.007433815990551181 -0.28735877516298025 1.4522510120046608 0.05735848309854704
-0.0025895648149635215 -0.4348235776053738 1.4478967493976018 0.015459992021491783
0.9078502928569598 0.001681437610178792 1.4575875663116267 0.002211648558223811
0.9629403492689136 -0.00938359631356761 1.4456117447768055 0.007210845448591956
0.9486948745361171 -0.0027286341950288704 1.4561134196454046 0.018854849338681208
0.6990115943636547 0.004771315463498009 1.4556794727745064 0.05763448079857814
0.5359667879210299 0.010472022825674394 1.455829970866287 0.0218689593413426
0.045971516606539406 0.0007759727418655297 1.455733492990843 0.08549978306881713
0.9261170927402196 -0.0012483295558110422 1.464160723164665 0.04320398593005787
0.06134904916115072 -0.0018905395038016208 1.4605401156739752 0.07306823841648395
0.08640604664372371 -0.0019099252454853133 1.4625433376639099 0.029627429367514464
0.7863364014143452 -0.005890736949085515 1.4475213688650699 0.05545781076499267
0.8013879616236309 -0.004356610197654899 1.4529366770036092 0.044178300540952856
0.2212183440632601 0.007489964092873598 1.4560595073822904 0.06059387972715834
0.7219159625664056 0.004045859273955111 1.4572519074326327 0.03144597285497679
0.3433564020136912 -0.0037974896219703028 1.4566285047699656 0.03867892851955792
1.0089959396156662 -0.02582877665157809 1.4486425084882886 0.003997971513474534
0.9607189083622568 -0.4990523318608185 1.4561129755139945 0.025178303666372217
0.35075867624701074 -0.5069103599131997 1.4566738634395087 0.016859619277159402
0.8360644797077608 -0.4990192199300996 1.4494672723250424 -8.830065956524918e-13
0.21323122427999894 -0.4938979191809851 1.4536445646920837 0.013139220246808862
0.5261643062770225 -0.5049900822499871 1.4570642909331406 0.06019143178737546
0.6370588687423309 -0.5033475812991843 1.4524118328015265 0.06124276851971778
0.3780502841743962 -0.4974260242704382 1.4576670097963438 0.055937894053807495
0.8901288016912168 -0.49677563094581967 1.451829069906224 0.012327919706257755
0.9270267301422678 -0.5024361509444681 1.4584158074693716 0.10300671410304339
0.7696279167557062 -0.5004118436287621 1.4575003592902713 0.025469833093809964
0.4353895026049855 -0.49885624060831324 1.4552871207675877 0.016664133944897585
0.4687612941129094 -0.49613539360575276 1.4568774619903107 0.0571781159510856
0.44679948012569976 -0.49688946443806353 1.4525271295447344 0.03384940161106204
0.428048860791827 -0.4955196019876832 1.4455640781457466 0.01094485239035483
0.3266331763715329 -0.5002948214945923 1.4486386887712381 0.015376256991674645
0.15698810228253188 -0.4938732549424646 1.460128291248323 0.09020081640554181
