x y z curv
0.8951660467625875 0.03810000419616699 0.22972076793706753 0.14887502037413472
0.8827580357030395 0.03810000419616699 0.22406141629125717 0.12506717684113947
0.5666819619799245 0.03810000419616699 0.4943922698629939 0.12262095189936928
0.6198424470205813 0.03810000419616699 0.49035343945867643 0.10295684136212115
0.6154454127144565 0.03810000419616699 0.5417626778694794 0.09025716947941831
0.8722182602998756 0.03810000419616699 0.4544544179196445 0.12176665116680518
0.839532608967723 0.03810000419616699 0.5672595127008185 0.10627078092614314
0.5879902085720579 0.038100004196166985 0.46061170615504254 0.10395493116902219
0.48083483276972505 0.03810000419616699 0.5591060482178591 0.13133150455315085
0.8460480061578516 0.03810000419616699 0.2769783479796687 0.10190052664768515
0.864237318469081 0.03810000419616699 0.2683361884810388 0.1015587139153152
0.8631862329419104 0.03810000419616699 0.4053531332159785 0.10934230041978688
0.857957383918396 0.03810000419616699 0.4470864810456806 0.10586878920589825
0.7864581930496632 0.03810000419616699 0.40422485766407434 0.10222797968432853
0.6081314104493145 0.03810000419616699 0.5635980034754907 0.09304039451365527
0.8516135215389429 0.03810000419616699 0.49546400809961394 0.10935807337831037
0.8181684952434283 0.03810000419616699 0.4448299701319897 0.11550490374970099
0.8405443609889597 0.03810000419616699 0.3441318490490825 0.1025876709335752
0.6980493020386654 0.03810000419616699 0.40345146593983733 0.10761739756097824
0.5695787350322988 0.03810000419616699 0.5052675796271335 0.10718586983684372
0.587372099780109 0.03810000419616699 0.4967272213452655 0.10394826178915151
0.7483651127404507 0.03810000419616699 0.5628601004744183 0.09321950066598592
0.8514583391252859 0.03810000419616699 0.1750118174086164 0.10382117316641766
0.8302152824452396 0.03810000419616699 0.37004680334105755 0.10761503866882302
0.9130000014078461 0.038100004196166985 0.14857774573046784 0.13959121347047387
0.8659113181405715 0.03810000419616699 0.5241251828958221 0.10665387183361527
0.7919049134492907 0.03810000419616699 0.3558310699709235 0.11133226568447804
0.8112149640124601 0.03810000419616699 0.45391676151867477 0.11513277256789525
0.8973406085172756 0.03810000419616699 0.2184152213773038 0.15528216364340044
0.855253394292716 0.03810000419616699 0.37209949306606227 0.10726925803776267
0.8064139402609214 0.03810000419616699 0.3497200056462121 0.11135633472154584
0.8552989779797134 0.03810000419616699 0.5451770426064287 0.10274283076952645
0.8613319273340495 0.03810000419616699 0.4792351974031891 0.10933075175458667
0.8110633141003656 0.03810000419616699 0.2572574009860872 0.11273207785063699
0.8083617937101849 0.03810000419616699 0.4737181126523491 0.10679665797467033
0.7248769199149834 0.038100004196166985 0.37992414518186346 0.1058462045236979
0.8629248161485857 0.03810000419616699 0.17539418269837562 0.10687487332951769
0.6090513637468686 0.03810000419616699 0.5058977490205706 0.10438915106605004
0.7066941260418997 0.03810000419616699 0.3552774884577248 0.09983090833000437
0.8360276231688126 0.03810000419616699 0.43080142992197623 0.11211621661421747
0.7997434043923286 0.03810000419616699 0.4485516459651917 0.10287875613340315
0.8727999685659251 0.03810000419616699 0.41236949667524975 0.1250378117578714
0.8199551076617619 0.03810000419616699 0.21646919195623102 0.10339232546240185
0.840232634189694 0.03810000419616699 0.5546806921933798 0.09942869807770457
0.83099384822207 0.03810000419616699 0.26379810505201373 0.1010657798187118
0.7660026997745831 0.03810000419616699 0.30600327765711616 0.11259592532260765
0.8835583311319213 0.038100004196167 0.315475339501736 0.1045642079266038
0.7653405472344633 0.03810000419616699 0.2905668440149055 0.102916341515712
0.5518428538420452 0.03810000419616699 0.5647711325128848 0.1003988652253187
0.826608977615386 0.03810000419616699 0.5070444851333015 0.10364873146607698
0.5164834965034927 0.038100004196167 0.5324420726206759 0.12985429787583172
0.838768982881017 0.038100004196167 0.20402316121012312 0.10662547963642797
0.9009786863995617 0.03810000419616699 0.48591583965718665 0.13349861731325574
0.8683685026454928 0.03810000419616699 0.30723192396751314 0.10818791444675585
0.6201804786437299 0.03810000419616699 0.4562177428671665 0.11366400956467834
0.578606161214434 0.03810000419616699 0.5592935523336606 0.10458086260870764
0.8853763189106567 0.03810000419616699 0.2727152642693309 0.14830765618187758
0.8410636663001998 0.03810000419616699 0.4194205429387666 0.11088228841574818
0.718382451216858 0.03810000419616699 0.5371794757530086 0.09848560100184287
0.7731359022735923 0.03810000419616699 0.4037878443841964 0.11023791135685324
0.9084214592872043 0.03810000419616699 0.23448477249729033 0.2009113406547901
0.7632339502109649 0.03810000419616699 0.5650193081130243 0.10601229884738965
0.844697963371032 0.03810000419616699 0.38287591823641137 0.1024757999340657
0.6616287802540535 0.038100004196167 0.40595940692191573 0.11265450594082496
0.8425144668415311 0.03810000419616699 0.22855606935333395 0.10951021557262637
0.8822374132059797 0.03810000419616699 0.4634140972854817 0.13725557255591894
0.8408846884727731 0.03810000419616699 0.48178342813369157 0.10518526663916931
0.7951195607988166 0.03810000419616699 0.27045575415277656 0.10439812471510292
0.7037474414440478 0.038100004196166985 0.3297690718206267 0.11229982995685445
0.7572463388040793 0.038100004196167 0.2790110276352961 0.10963928036393758
0.8854557203633772 0.03810000419616699 0.5522939172012986 0.1229189859233244
0.6475468537805967 0.03810000419616699 0.4211164872384306 0.1069716025127397
0.7135410754878596 0.03810000419616699 0.4372287747846816 0.10521248733460832
0.9064052698357805 0.03810000419616699 0.3308433028567569 0.1724294974047973
0.7663111352020371 0.03810000419616699 0.2546729143295166 0.09883103408048864
0.6055209138340627 0.03810000419616699 0.47276780803791085 0.11179345268123728
0.7367729889186263 0.03810000419616699 0.41007966933570983 0.09977513752249746
0.7709763598604875 0.03810000419616699 0.2781115499036481 0.102337566690224
0.758243980747237 0.03810000419616699 0.5111437172539697 0.10334155270399391
0.8801623404304896 0.03810000419616699 0.20580843316234598 0.13182519039929477
0.785187550961837 0.03810000419616699 0.3395571478941467 0.1029364908328004
0.8058940405208302 0.03810000419616699 0.4874292051138223 0.10109358655750535
0.8813233584184925 0.03810000419616699 0.34063206284230657 0.12649261100311324
0.7802923674276881 0.03810000419616699 0.46159240671740376 0.10376570846612602
0.8237585733784069 0.03810000419616699 0.407174516284475 0.10791734217675646
0.853010780513777 0.03810000419616699 0.5334432913158442 0.09778909227644385
0.6862068117313849 0.03810000419616699 0.3399074610422736 0.11232138334859174
0.90202522206118 0.03810000419616699 0.15465970418076114 0.16567929884186047
0.8177070216337777 0.03810000419616699 0.4953401905949315 0.09736788979599104
0.8626959669418486 0.03810000419616699 0.1620394511585056 0.11254556481655653
0.6065074671676859 0.03810000419616699 0.45935369805589354 0.11458104274839447
0.8863119849354875 0.03810000419616699 0.135435252581233 0.13482447058394592
0.6504640111902901 0.03810000419616699 0.44588332545213316 0.11385200495460908
0.732859458920768 0.03810000419616699 0.5628933547228354 0.10360717806723675
0.8549253873564123 0.03810000419616699 0.2307891592334087 0.11480391530908371
0.7867034333124743 0.03810000419616699 0.511825332343856 0.10739354021606999
0.9009287433915438 0.03810000419616699 0.34147667812401294 0.17790614162921836
0.7343519103900726 0.03810000419616699 0.5087450832626285 0.11234536881812193
0.8737892598233089 0.03810000419616699 0.1945034397432742 0.12401452756132647
0.676540897422827 0.03810000419616699 0.35117897890285876 0.09525292135600245
0.8985489656446058 0.03810000419616699 0.5403978680682571 0.13368395275609637
0.7668468117501142 0.03810000419616699 0.4139496324360463 0.10219135429913725
0.6130619778102706 0.03810000419616699 0.5166000768805763 0.10320689822831675
0.5992840189733653 0.03810000419616699 0.5151786816188079 0.10024376199180551
0.8940759488091277 0.03810000419616699 0.4652151948131529 0.16276947419802973
0.6838549331442558 0.03810000419616699 0.5079204701490896 0.1128265867664516
0.6642969310988349 0.03810000419616699 0.48489475250464203 0.11341253557698004
0.6637276795103135 0.03810000419616699 0.5266330483665232 0.10902571172854529
0.7070523838394045 0.03810000419616699 0.4941488465423505 0.11242369367276694
0.63191281037691 0.03810000419616699 0.41742467635648517 0.10885916216929223
0.6386535550453918 0.03810000419616699 0.5471328326993852 0.09200369610403741
0.8625840279954091 0.03810000419616699 0.34153450147072395 0.10322423303726201
0.9010951272485177 0.03810000419616699 0.382573985502952 0.1793992831667382
0.8850538039566815 0.03810000419616699 0.42743051443512303 0.129257855870916
0.5219393819779776 0.03810000419616699 0.5210195065466189 0.1234880652306303
0.6551393023238978 0.03810000419616699 0.457791943749452 0.11664588586148217
0.8863143912588833 0.03810000419616699 0.5196694472810501 0.1238913388377525
0.8129138728100909 0.038100004196167 0.2295828198185684 0.10159964105367197
0.7399066121278136 0.03810000419616699 0.3155481162875121 0.10492510604077418
0.8657958224347063 0.03810000419616699 0.24023817221067448 0.1068975868666015
0.7630185125056026 0.03810000419616699 0.3271283918651939 0.11047548827817057
0.8308985487304094 0.03810000419616699 0.19572165496973676 0.11017568292826106
0.6160609883601091 0.03810000419616699 0.4435566907988802 0.11798140719853828
0.6552467779609011 0.038100004196167 0.43143727848722513 0.1104345482704151
0.7555249847550195 0.03810000419616699 0.3001670773341988 0.10286976160589838
0.670567352107678 0.03810000419616699 0.5456226568869648 0.09790398231489303
0.7470288618275196 0.03810000419616699 0.3442162778298909 0.11758693474275732
0.8206958359967448 0.03810000419616699 0.2894516058731089 0.1140713101094548
0.8753545775697213 0.03810000419616699 0.2529425325711512 0.12214564982776266
0.8999582348404523 0.03810000419616699 0.45340033715247846 0.15666854957372928
0.8911329645618835 0.03810000419616699 0.3242741492723298 0.11501614436522017
0.5916341471182314 0.038100004196166985 0.5313688983728733 0.1151400868445138
0.6536708896580612 0.03810000419616699 0.5341376870199006 0.10232138468688746
0.7885295153136316 0.03810000419616699 0.5355069978559595 0.10160422123936877
0.560531544632574 0.038100004196166985 0.48152147946058643 0.11159573278238483
0.7487274465644217 0.038100004196166985 0.2892741120217732 0.10945483923506626
0.882529500387496 0.03810000419616699 0.16055537550287094 0.13662918782193972
0.8452613445126043 0.03810000419616699 0.30714254194720325 0.11141467424908813
0.6217893022040651 0.03810000419616699 0.504903607297075 0.11435539223475376
0.6136357660255505 0.038100004196166985 0.41426572388941696 0.11698191181379387
0.7489977864696569 0.03810000419616699 0.36106921702134026 0.10979078328934809
0.8939426506411994 0.03810000419616699 0.5082254869892607 0.16951563078615645
0.5490050367893484 0.03810000419616699 0.5135501459839884 0.10376133740675239
0.7060748368445962 0.03810000419616699 0.3942040445526398 0.10444624522393928
0.8320578813115391 0.03810000419616699 0.5194564099299366 0.10175045514835808
0.7367258994312279 0.03810000419616699 0.38041818299402186 0.10113223502970278
0.801188734473274 0.03810000419616699 0.39595208470173304 0.10299699979090912
0.8863265440322158 0.03810000419616699 0.14935920530465013 0.13305518822595805
0.534104964176068 0.038100004196166985 0.5257117571161319 0.1105324722553486
0.6205926237869605 0.03810000419616699 0.4290926431840432 0.11055211541953781
0.7964743644769241 0.03810000419616699 0.4710331524422584 0.10491299706278015
0.6318622882782383 0.03810000419616699 0.5113691845850075 0.10925424723120268
0.8263103001541638 0.03810000419616699 0.5312749359781997 0.110898289435229
0.5880232389585942 0.03810000419616699 0.4470668497589734 0.10149725195560487
0.7359708472368737 0.03810000419616699 0.3413099136215614 0.10106856644209654
0.7834534057906912 0.03810000419616699 0.47556338070147947 0.10377309611425789
0.8175944781796664 0.03810000419616699 0.5432537926537852 0.09892409990255213
0.6524790029432302 0.03810000419616699 0.4919278893690792 0.10267743732299092
0.9044115369155438 0.03810000419616699 0.3641529855177238 0.17026993511741562
0.794324592150896 0.03810000419616699 0.23124219126550277 0.10919670946722873
0.900083348365537 0.03810000419616699 0.5609424009144962 0.14106184235204863
0.6317486153242697 0.03810000419616699 0.5357548128882569 0.09742910376260834
0.7705057798063153 0.03810000419616699 0.430501396724345 0.10454072227420563
0.9090697002955892 0.03810000419616699 0.28035178437694214 0.1769847527884318
0.5372192633625731 0.03810000419616699 0.5051981448245771 0.10754427884490106
0.7443735077575565 0.03810000419616699 0.30400170747660604 0.10764571907443642
0.7483298167639221 0.03810000419616699 0.5046407038892503 0.1017473160163379
0.5458245167806851 0.03810000419616699 0.497530238711399 0.10659188691856887
0.8129153064801036 0.03810000419616699 0.28135014432023275 0.12104717496836712
0.6722241138195857 0.03810000419616699 0.47282153500354485 0.11706113937348607
0.8393222582914379 0.03810000419616699 0.21652509302212217 0.10472218214963527
0.8526421934852417 0.03810000419616699 0.42208024114303244 0.11068633298585813
0.618693934561827 0.03810000419616699 0.473549945098807 0.11143770684815496
0.7889727340618657 0.03810000419616699 0.3144250246000617 0.10891858809857939
0.8383739998119982 0.03810000419616699 0.3933250848863117 0.10401795740831266
0.8593846569001335 0.03810000419616699 0.21796597867907308 0.10739821842179112
0.7005793817065512 0.03810000419616699 0.3735542621231326 0.10218028195023633
0.5297826622284619 0.03810000419616699 0.5519025458602971 0.10298785438164483
0.8538417025165823 0.038100004196167 0.2992424132587477 0.1187590134563353
0.8022312048620981 0.03810000419616699 0.461010028888133 0.11075340136336315
0.8775181560002245 0.03810000419616699 0.44249852047240346 0.11402767248950808
0.598327750998648 0.03810000419616699 0.4876651812022268 0.10818533326271863
0.7656389864854067 0.03810000419616699 0.3879842759798797 0.10402933191344983
0.7255032922513504 0.03810000419616699 0.44015744477784424 0.10885554915808396
0.7267187447944823 0.03810000419616699 0.3504285166741088 0.10284247476583253
0.6586019038638705 0.03810000419616699 0.558473772641666 0.10083486318265562
0.7249586729255083 0.03810000419616699 0.3983109913667897 0.11230029492700817
0.7152439681938443 0.03810000419616699 0.5647384772593995 0.10168361107601663
0.8662328110971219 0.03810000419616699 0.2093353692893151 0.10730980469444382
0.6828044000575207 0.03810000419616699 0.4789480430604786 0.10386324157479414
0.8596700312075893 0.038100004196167 0.2871741984106584 0.09707360267056087
0.7613825060055992 0.03810000419616699 0.5242609067007737 0.10877695171309842
0.5104901936121554 0.03810000419616699 0.5655463387291533 0.0968179637055764
0.845281309319592 0.03810000419616699 0.32316638125550623 0.10591486730288746
0.5806762476309527 0.03810000419616699 0.50733706210151 0.10467885462073907
0.8063937666662552 0.03810000419616699 0.27083116520578593 0.11981452161350936
0.837789194839455 0.03810000419616699 0.5015824423853507 0.10537455460763105
0.9014379873968816 0.03810000419616699 0.42136901142457317 0.16242176785274992
0.8262714961034126 0.03810000419616699 0.4545377630293581 0.10828763685617855
0.8822762394275973 0.03810000419616699 0.28701110445076 0.11689335706492698
0.9130818231663945 0.03810000419616699 0.11678756585316744 0.11395747148034788
0.5045010658510055 0.03810000419616699 0.551325245793564 0.11040085194787588
0.8184027466599122 0.03810000419616699 0.2658829950303127 0.11491105193161998
0.7236357466049436 0.03810000419616699 0.5194484719801105 0.10942299909346401
0.5659136243600646 0.03810000419616699 0.519330742378292 0.10517748363443465
0.721648187202355 0.03810000419616699 0.4839932627470619 0.10720936687411671
0.8683161512250592 0.03810000419616699 0.4905122747026979 0.11804352903349885
0.6970357446396509 0.03810000419616699 0.46213138636372986 0.11064443150122419
0.7201984222865622 0.03810000419616699 0.4180488170515998 0.10759685830927702
0.8884954595917738 0.03810000419616699 0.4415133934705172 0.14720588926501157
0.8052391646532006 0.03810000419616699 0.22017442482690763 0.10517827969966685
0.7651898259357062 0.03810000419616699 0.4779141453887956 0.11646294637684187
0.8987248645978043 0.03810000419616699 0.4981062826498662 0.1444906374799448
0.6505639049021921 0.03810000419616699 0.4723769736442093 0.11082873759021113
0.6091802991434832 0.03810000419616699 0.48349251251693537 0.11207215537631601
0.714739108118587 0.03810000419616699 0.3869177910107363 0.09600182717794133
0.7146221273545146 0.038100004196166985 0.34720606126799725 0.09889239596335682
0.80688020709513 0.03810000419616699 0.5364677871984042 0.10420251543255936
0.7668248465351191 0.03810000419616699 0.4895139457778874 0.09875319622505675
0.7791037559469252 0.03810000419616699 0.2986529489994213 0.10614330173878427
0.6806992435543308 0.03810000419616699 0.4178428134135147 0.10253691884886759
0.7118335419522368 0.03810000419616699 0.5470435779333975 0.09774538678072382
0.671155118858556 0.03810000419616699 0.5117206729157171 0.10855068180542353
0.7810161028477467 0.03810000419616699 0.4177858572355253 0.11069941642651761
0.7657262271928763 0.03810000419616699 0.5015358234949503 0.11464351891533682
0.7540614597562183 0.03810000419616699 0.49436439976496976 0.11046075366558432
0.5549055748364207 0.03810000419616699 0.5379905039942041 0.09797606186291871
0.6007821239891826 0.03810000419616699 0.5412270514308826 0.10013135147216067
0.7486469548989161 0.03810000419616699 0.4076522885565974 0.1026456812421907
0.8110179122981865 0.03810000419616699 0.37218046622968437 0.10979256981997648
0.7838460159709869 0.03810000419616699 0.5518636565026739 0.09916708458300624
0.8613044356856419 0.03810000419616699 0.35716499548563935 0.11390710555695713
0.5683834890697963 0.03810000419616699 0.5394742954115649 0.09797729990189584
0.8026014051567903 0.03810000419616699 0.28741045268992527 0.11510178200883103
0.5715532214573984 0.03810000419616699 0.4703390357781928 0.1091029842557645
0.7481840155056177 0.03810000419616699 0.44033513788473033 0.10535449629447922
0.7820188801686225 0.03810000419616699 0.5255117929897447 0.10226520713239225
0.6825812085666396 0.03810000419616699 0.5701967246081996 0.09456589327599238
0.7725836827027346 0.03810000419616699 0.5353096950165166 0.10633726767778688
0.5457560924031057 0.03810000419616699 0.5299318709163456 0.10681632208649493
0.879933685715651 0.03810000419616699 0.2993545648161141 0.11170916278947464
0.7354197605319419 0.03810000419616699 0.4341113551660367 0.10421062805290282
0.5765888355853114 0.03810000419616699 0.48268680307173933 0.10404985379063651
0.833060382147399 0.03810000419616699 0.3327229250904872 0.10260444858245285
0.8799887382286389 0.03810000419616699 0.4945380623946757 0.1172495407059314
0.6945890921467144 0.038100004196166985 0.35921207935364713 0.10720436405979557
0.7943689443786647 0.03810000419616699 0.49550716621092183 0.09710466587354184
0.7859167806781985 0.03810000419616699 0.24549769596381577 0.10152566686131674
0.810236275127722 0.03810000419616699 0.5164365349292098 0.10702112376640277
0.7741641430635866 0.03810000419616699 0.44990716849462975 0.10541417239668233
0.7126542643723393 0.03810000419616699 0.4509758831071254 0.11165371689355802
0.8039004047237158 0.03810000419616699 0.3386826406027035 0.10935910270955462
0.6541594220303689 0.03810000419616699 0.37390300566128404 0.11219511253956783
0.6907596008435369 0.03810000419616699 0.5435763524605208 0.0952118421588022
0.8787388379002132 0.03810000419616699 0.24097502628728878 0.13675408730160954
0.6361455450773609 0.03810000419616699 0.4301550310197557 0.11831155384324006
0.6380992726358932 0.038100004196167 0.4038274322522275 0.11554451141855547
0.8575380683608215 0.03810000419616699 0.43407791302659704 0.11114366830256564
0.6637782277082082 0.03810000419616699 0.4412353094484902 0.10833868003539912
0.7664159232284296 0.03810000419616699 0.267373266797337 0.1061592608241102
0.8824395741658242 0.03810000419616699 0.3996591865236462 0.141109284022696
0.7513800102850867 0.03810000419616699 0.5415960881079828 0.09512711200695874
0.5875451265895979 0.03810000419616699 0.5198352174118539 0.10525450503584441
0.7992797974287091 0.03810000419616699 0.5073038927015381 0.09029154572928995
0.8464969436946381 0.03810000419616699 0.2894665773312301 0.10765362714305067
0.8940073368657911 0.03810000419616699 0.28807079471747915 0.14247399542707465
0.9129339881098101 0.03810000419616699 0.49807814192892935 0.12475910934501695
0.8132050448257536 0.03810000419616699 0.3940319267971769 0.10889282608131425
0.8395818954847389 0.03810000419616699 0.4552022550042765 0.11289930052074279
0.7298130582250725 0.03810000419616699 0.45368908931882923 0.11563118819848307
0.9101629926338395 0.03810000419616699 0.2663837650052389 0.1968493565835375
0.7702372691811746 0.03810000419616699 0.3536788215207052 0.1057535951850633
0.8206241026423343 0.03810000419616699 0.30088376143325024 0.10555283023429869
0.8202273556830667 0.03810000419616699 0.23979844606984893 0.11016905521890462
0.630234934079818 0.03810000419616699 0.4943890939444255 0.11004037852195254
0.8072538003649902 0.03810000419616699 0.2390657629570088 0.10625736434512667
0.7813845482457001 0.03810000419616699 0.569880966530306 0.09792903355690065
0.8321029437910428 0.03810000419616699 0.5437588053991077 0.10230959636388137
0.7384184415333104 0.03810000419616699 0.3655424101215849 0.1145856878496191
0.7937765367967915 0.03810000419616699 0.3301596803557649 0.10912496527233741
0.7274297047724901 0.03810000419616699 0.3313105138650214 0.10607732941285411
0.8460407878473108 0.03810000419616699 0.5155839368809889 0.09309060614577971
0.8561575239041346 0.03810000419616699 0.4674335388811203 0.1070731030330091
0.7121647119493112 0.03810000419616699 0.31647109566960124 0.10375377417168125
0.7865061518919126 0.03810000419616699 0.3749499651247349 0.10084661414738207
0.7378124723507884 0.03810000419616699 0.3946567822890274 0.10872718117049852
0.8057527328086878 0.03810000419616699 0.40936613953694184 0.0955425118019237
0.844164296055329 0.03810000419616699 0.18490265334179554 0.10576770956242867
0.8312418949228336 0.03810000419616699 0.4738209337543412 0.11530336869295832
0.6875209260212256 0.03810000419616699 0.4327155688382116 0.10231694297998366
0.6631613432300412 0.03810000419616699 0.41952486861787874 0.11165444418555315
0.7183305586672634 0.03810000419616699 0.4619268486027145 0.10592144227002058
0.9134251724013849 0.03810000419616699 0.3201123109156326 0.11656717284158725
0.5886236693638711 0.03810000419616699 0.4814055182315488 0.11297485039556274
0.6793424892804774 0.03810000419616699 0.5568564457527194 0.09916954450928937
0.7091596752334952 0.03810000419616699 0.4257726084818619 0.10483704383004404
0.8865900737120518 0.03810000419616699 0.2594113624769306 0.155555792178912
0.8327192346380808 0.03810000419616699 0.24929533238651183 0.11555975815228899
0.8660901291468974 0.03810000419616699 0.3235865350976761 0.10681766346197112
0.565566238944776 0.03810000419616699 0.5611724154434324 0.09984783198100572
0.5875002639341638 0.03810000419616699 0.5423477896874409 0.10006810455562752
0.8261816143832942 0.03810000419616699 0.3950900818050962 0.10195019593483805
0.6196659945542601 0.03810000419616699 0.5258037258145508 0.1085516881098226
0.8131598758051806 0.03810000419616699 0.5536871403223615 0.09975414506126211
0.7609539040250746 0.03810000419616699 0.3606978698512773 0.11169651424128166
0.8714535683678446 0.03810000419616699 0.3524769183381562 0.11319268621090207
0.831870094019395 0.03810000419616699 0.23738772246253118 0.12067720357782404
0.8709501454674533 0.03810000419616699 0.3650424819306878 0.12918413855727165
0.8501937076941101 0.03810000419616699 0.24060518158798136 0.11005995938196618
0.7529479787127712 0.03810000419616699 0.4726514319632481 0.10696727920206557
0.8867908209550324 0.038100004196166985 0.19161093358831555 0.115226030911539
0.5955767263071412 0.03810000419616699 0.5672848908399167 0.09416304031258789
0.858285067209789 0.03810000419616699 0.1967652143854559 0.11652909587418174
0.8256543965681709 0.03810000419616699 0.42343198668638965 0.1197463486421053
0.5984323522889161 0.038100004196166985 0.43111283701918884 0.10952542789567031
0.6522259897967138 0.038100004196166985 0.3998260218665539 0.11877436775445604
0.6800177571045621 0.03810000419616699 0.4031634365960456 0.10859629262955904
0.8697471073369833 0.03810000419616699 0.5586101451631061 0.11014690931325227
0.674109166923397 0.03810000419616699 0.4963587599991738 0.110111701922549
0.7802373296515908 0.03810000419616699 0.4885909004513148 0.10260506191484312
0.6412261206119819 0.03810000419616699 0.45724391111937945 0.10301049595493676
0.7039996017155553 0.03810000419616699 0.5578533256752392 0.10114676091165722
0.7916964385084363 0.03810000419616699 0.25785142075439377 0.1030752885825067
0.7395191923494975 0.03810000419616699 0.46800884755288713 0.11130917421395466
0.4936263804982485 0.03810000419616699 0.5423398308528343 0.14472211531825144
0.8257946202354678 0.03810000419616699 0.48421378417283173 0.10062775302885864
0.8794079396462091 0.03810000419616699 0.5054240093204516 0.1424003181142109
0.6999478598609785 0.03810000419616699 0.5080742691874914 0.11020514000268031
0.7488190573083426 0.03810000419616699 0.32347201738282894 0.10401346092705878
0.8589374337942502 0.03810000419616699 0.5636851256596223 0.09975084206059444
0.6714519403666888 0.03810000419616699 0.4612487044522104 0.11605757281804685
0.6899108209838869 0.03810000419616699 0.5181587150000924 0.1119290413141205
0.5467256640956093 0.03810000419616699 0.4826403138420337 0.12242203691550223
0.9126893334367605 0.03810000419616699 0.5437115148866654 0.14240564428488517
0.6848751916805186 0.038100004196166985 0.3670249035956737 0.1077051081003813
0.8085469042634718 0.03810000419616699 0.568855388452244 0.10533744767568108
0.8133562369725276 0.03810000419616699 0.3593241639863607 0.1105428964655868
0.8261728429353945 0.03810000419616699 0.3201341864624255 0.11110079594530643
0.7018520973950562 0.03810000419616699 0.5231677941008364 0.10264968353447704
0.828885910834458 0.03810000419616699 0.22442494553087308 0.10769853577861432
0.9028181830967246 0.03810000419616699 0.3075362882656855 0.12483127335107645
0.7314426032437908 0.03810000419616699 0.42345374526878343 0.1007062867119229
0.8148919588702401 0.03810000419616699 0.34084494986493064 0.11563954408245664
0.8335736601273487 0.03810000419616699 0.3091317474975177 0.10773197912139422
0.47176967819657983 0.03810000419616699 0.5685744894331151 0.08054913688704063
0.9001124971271729 0.03810000419616699 0.18608559863990742 0.15780316487079238
0.7769315411238411 0.038100004196167 0.31688259225630244 0.10291636155032459
0.7141449111302864 0.03810000419616699 0.5070724172263261 0.10717594595631329
0.7997066506128436 0.03810000419616699 0.5575682925207562 0.08839724427604068
0.8966222530399974 0.03810000419616699 0.41017194065093215 0.15741237341081982
0.8897842722132926 0.03810000419616699 0.39096645349636333 0.16326033561999392
0.8265577715223779 0.03810000419616699 0.5576584276321978 0.10576153933579771
0.8261565804271355 0.03810000419616699 0.2774528149281258 0.10146185252376068
0.6500371903178725 0.03810000419616699 0.5062756337705797 0.11032554819759498
0.8482413572349714 0.03810000419616699 0.3614432409923055 0.10292579649025928
0.7258567135166641 0.03810000419616699 0.3683089886113662 0.10887213349207668
0.7734216725989768 0.03810000419616699 0.33330853252781906 0.10669836041903964
0.6557642730321311 0.03810000419616699 0.386615172134932 0.10058009169882061
0.9033514896361324 0.03810000419616699 0.19970976440798083 0.15988714726041425
0.8951630850176792 0.038100004196167 0.16962567272524556 0.14918506568555753
0.8181249989983091 0.03810000419616699 0.46409809723689865 0.10894645737774002
0.7045877450171723 0.03810000419616699 0.4140069482682116 0.10838239079804415
0.904323287543898 0.03810000419616699 0.24788821771949843 0.1697698768461325
0.514542129765795 0.038100004196167 0.5469518791560195 0.12853433283557303
0.6949311786930158 0.038100004196167 0.3845267101815668 0.11000894180282896
0.7475989556265854 0.03810000419616699 0.4186388868344313 0.10229126062473584
0.8118917734095568 0.03810000419616699 0.4320601437937405 0.10673208847203436
0.6850288324676224 0.03810000419616699 0.4450905899624539 0.10656130493299777
0.7246709883575965 0.03810000419616699 0.3125876369680201 0.09930915048590754
0.7890832537204755 0.03810000419616699 0.4410845210561548 0.1024081369219873
0.8013461287876327 0.03810000419616699 0.3166744280448657 0.10869774523313205
0.7102590451439981 0.03810000419616699 0.4745398936788044 0.10440727849619656
0.6866376201073339 0.03810000419616699 0.496002261063139 0.10498463650524552
0.643471147778903 0.03810000419616699 0.48089475776706947 0.10599891790167816
0.8478566191939942 0.03810000419616699 0.4096550945206442 0.11133757147626328
0.7505506837870448 0.03810000419616699 0.3908388744994208 0.1071919479471847
0.6848198976103045 0.03810000419616699 0.3913378678510534 0.12100809124958292
0.9054125370450425 0.03810000419616699 0.5245366281781245 0.1371116122286538
0.8678404490611883 0.03810000419616699 0.4688597584486192 0.10678414616391367
0.9047180639935493 0.03810000419616699 0.4428010821881357 0.1910662202998033
0.8797103718658973 0.03810000419616699 0.3834780045970445 0.12942983695863564
0.812435143178304 0.03810000419616699 0.3100370813954618 0.1092552334694015
0.8660361611079718 0.03810000419616699 0.5475465228121794 0.10490321652378046
0.7912484529684367 0.03810000419616699 0.2961561151028111 0.1052711090146684
0.8518151213772288 0.03810000419616699 0.2073198485717869 0.11374624596544937
0.6713511324604937 0.03810000419616699 0.4491794629194946 0.11541122612490694
0.6410226469277662 0.03810000419616699 0.5241888885460547 0.10171131708443608
0.8313928660559824 0.03810000419616699 0.3519287948705129 0.10962464088917384
0.7023068361935051 0.03810000419616699 0.4436198619343994 0.10677061531251253
0.8414301066146144 0.03810000419616699 0.5296734756402469 0.10715968199164497
0.723657639847862 0.03810000419616699 0.49878299757713884 0.09878894601926003
0.9048787160649249 0.03810000419616699 0.47167201881269794 0.15203076830726736
0.7433313253266355 0.03810000419616699 0.48077346505788604 0.10907565477559829
0.8849090416619712 0.03810000419616699 0.3569527783337162 0.1523152097205699
0.877784282645709 0.03810000419616699 0.5335395696070586 0.10579035671204316
0.5938561167582743 0.03810000419616699 0.5515603435556526 0.09633717084413089
0.7979981384662874 0.03810000419616699 0.37574645168429677 0.10427690950252504
0.8760034588619542 0.03810000419616699 0.17036263943820446 0.12890140931064173
0.7456316756438801 0.03810000419616699 0.45517533649970865 0.11241162606355151
0.8963282703027029 0.03810000419616699 0.3556243186479173 0.17481183182947252
0.7519415951974286 0.03810000419616699 0.3742540635678649 0.10942722028396905
0.9105575613063388 0.03810000419616699 0.4010409783040157 0.15967432804549894
0.8964893669602244 0.03810000419616699 0.27579863859371045 0.1697925033591673
0.7642833670566241 0.03810000419616699 0.34365980784598116 0.10024320274941628
0.6288892708041046 0.038100004196166985 0.4430613554814765 0.1197123413570726
0.7627436638907097 0.03810000419616699 0.5503668778858637 0.09507184007953226
0.5031963434698519 0.038100004196167 0.5353167466580951 0.16301233481994534
0.528569174078543 0.03810000419616699 0.5383056053968784 0.10793308536048615
0.887974457408297 0.03810000419616699 0.17832514238493183 0.13438631905521783
0.7143455275487838 0.03810000419616699 0.40489435658992506 0.09882671115082764
0.626040747428336 0.038100004196166985 0.5535974743941203 0.09400836764488821
0.9130222565826561 0.03810000419616699 0.1291612013549469 0.13177039257811954
0.8851598840208353 0.03810000419616699 0.41281534653992463 0.14133921024853222
0.685943415957485 0.03810000419616699 0.4598423985573137 0.11310271187089364
0.8698729284256768 0.03810000419616699 0.28028960897480915 0.1219180597211033
0.8015163591394259 0.03810000419616699 0.30229555619685855 0.11473236326558231
0.6726719084200775 0.03810000419616699 0.37532621879353867 0.10689367153318367
0.7691613352231625 0.03810000419616699 0.4676579501148991 0.09930113694198499
0.7593548745200006 0.03810000419616699 0.43219221791971196 0.10759558676362958
0.84651673526786 0.03810000419616699 0.2540106167451205 0.10514485419943656
0.8125806781591507 0.03810000419616699 0.3235933376145901 0.10827442181594633
0.7371771608799633 0.03810000419616699 0.5283281674781171 0.10609981637201292
0.9007327332132958 0.03810000419616699 0.12317333029193385 0.16475405149894914
0.8158216565309986 0.03810000419616699 0.38295335843497535 0.11168471926444655
0.6451072102793669 0.03810000419616699 0.11860855531446493 0.14342385695162882
0.6272593326491872 0.03810000419616699 0.30967575201668135 0.10887887682953104
0.5398117673380877 0.03810000419616699 0.20082773832894937 0.10171099022191889
0.6698395233301236 0.03810000419616699 0.313032394474577 0.11378464574590748
0.5860775678597161 0.03810000419616699 0.27512742504316257 0.10466877823999148
0.6744210418313987 0.03810000419616699 0.19792307598766426 0.11811233277701938
0.4672151432206799 0.03810000419616699 0.3786563034100714 0.09614950763464296
0.7579265871461683 0.03810000419616699 0.13188161705009657 0.1223042498824208
0.6222327789006913 0.03810000419616699 0.34643896606930774 0.10240420312798751
0.7008953518826948 0.038100004196167 0.14921256566710628 0.1041363918794443
0.6182980369950205 0.03810000419616699 0.1843291010058652 0.11058469189072258
0.714771709349232 0.03810000419616699 0.13793088917994265 0.131307353550988
0.7734814162803779 0.03810000419616699 0.13865878236384258 0.12576288506993458
0.5293790898999806 0.03810000419616699 0.310581579969864 0.11343410529570738
0.6570306633927679 0.03810000419616699 0.2739304014791473 0.11196322592685504
0.6691743612415302 0.03810000419616699 0.2711310873197263 0.1081736027779291
0.8490173959658109 0.03810000419616699 0.15545285101172138 0.11204460485683997
0.6311158000073739 0.03810000419616699 0.24719898204384133 0.11021589396876572
0.5198663859197602 0.03810000419616699 0.253968990899102 0.10475590623095243
0.6419843008401037 0.03810000419616699 0.28303983189398874 0.10161114305189095
0.5613854480402898 0.03810000419616699 0.1817148990469737 0.11036923492050689
0.5699460434665043 0.03810000419616699 0.3300823718680297 0.11155160711780636
0.7656241728290228 0.03810000419616699 0.21615386503964756 0.10999630124027547
0.6135557053436633 0.038100004196167 0.3743598131888134 0.10535751649896354
0.7200560311381818 0.03810000419616699 0.17050101759538522 0.11850051286943057
0.574640603158952 0.03810000419616699 0.18794522433587318 0.09782308440531419
0.8579095375590854 0.03810000419616699 0.13163901632042116 0.1159404177798179
0.5791062320258563 0.03810000419616699 0.21580260031140505 0.1032448005865
0.8904457638661 0.03810000419616699 0.11115738859304873 0.15231590197127956
0.5149713554570471 0.03810000419616699 0.3126657774424868 0.11643904048815601
0.5293839879219011 0.03810000419616699 0.2137657907228207 0.10470060855602642
0.5172588904958466 0.03810000419616699 0.2308903283106047 0.11071197383341265
0.5127071778504796 0.03810000419616699 0.5151162803044657 0.13549563362983275
0.6622218540806142 0.03810000419616699 0.25508758039483437 0.10541367752324489
0.8478002222072825 0.03810000419616699 0.13760258170082185 0.1157878859483558
0.7684421336373871 0.03810000419616699 0.18794700192467026 0.10588201768793921
0.45967368857864527 0.03810000419616699 0.27474645033316203 0.09705411838009409
0.6715287159395555 0.03810000419616699 0.3376278024214633 0.10856823092308414
0.6366693802454719 0.03810000419616699 0.2012450180797744 0.10023307935257132
0.4892728565299447 0.038100004196167 0.43092714995528114 0.18695681383668475
0.5318272174454854 0.03810000419616699 0.4860819202226709 0.10320160822615095
0.521473281620382 0.03810000419616699 0.33396982117026713 0.1115205583731843
0.5276543169193041 0.03810000419616699 0.17715987190456498 0.11237386763416346
0.7315563187762573 0.03810000419616699 0.11216985073074814 0.15564649428263866
0.7128990447714916 0.03810000419616699 0.1862894521748461 0.11506466448090508
0.6132700049604256 0.03810000419616699 0.11616610319655625 0.14010400991467734
0.6035276922920506 0.03810000419616699 0.21397424639514162 0.10465050980935668
0.6185164110313962 0.03810000419616699 0.25065067657369056 0.10633808508590342
0.5382176928059056 0.038100004196167 0.3972283507073865 0.1018753696310532
0.5038338009875141 0.03810000419616699 0.1019884767511367 0.12192486542855784
0.7047550962682361 0.03810000419616699 0.2632152925925689 0.10456933724326788
0.5931244573453635 0.03810000419616699 0.22097643165577083 0.10480615458895982
0.4949549306082199 0.03810000419616699 0.18605680571158745 0.11081129902858204
0.5305118126524231 0.03810000419616699 0.24840931957274187 0.11475391075664335
0.7800373711820252 0.03810000419616699 0.2162453704819068 0.11359966837222972
0.4839244838523521 0.03810000419616699 0.469395295363506 0.28785499703678247
0.5030613630773965 0.03810000419616699 0.4042559410413085 0.11145989835479082
0.5006235439859967 0.03810000419616699 0.433471638100445 0.15647307943676478
0.5580683125229657 0.03810000419616699 0.2662896153256066 0.1123473774451517
0.7000460232586062 0.03810000419616699 0.18017798497556317 0.1159095623088866
0.6153065567535037 0.03810000419616699 0.1411597418615331 0.11832959117947757
0.5914194526394737 0.03810000419616699 0.17728650185095735 0.10966040482678535
0.5801829562864664 0.03810000419616699 0.15163940018727645 0.1101450219849917
0.66837560862494 0.03810000419616699 0.2260994401820592 0.11854719622750524
0.7264055559258685 0.03810000419616699 0.2285268925539673 0.12958272347439706
0.577243441394869 0.03810000419616699 0.1162414320116177 0.147137942907844
0.6759402780102325 0.03810000419616699 0.2622139329950221 0.10665300004350173
0.549632259480821 0.038100004196167 0.4493480959946102 0.099578705563828
0.6042309126988812 0.03810000419616699 0.3114376366576708 0.10445935139535042
0.5632993171006035 0.03810000419616699 0.4048961547019174 0.1041930030248448
0.5726916695325278 0.03810000419616699 0.24101910716975783 0.11023127805826914
0.5691097424990913 0.03810000419616699 0.3569688436371434 0.11243576273536157
0.5818574092501088 0.03810000419616699 0.10462480184896022 0.13905026370532222
0.5734458946854488 0.03810000419616699 0.3724095267317913 0.10829985699252391
0.5464437603391009 0.03810000419616699 0.27427010183748796 0.10845688496898048
0.5855442437438688 0.03810000419616699 0.3524985746250627 0.09788020339216148
0.6851298279828466 0.03810000419616699 0.2899598389110919 0.1104117339705763
0.5209492390016814 0.03810000419616699 0.2674148074047526 0.10740084264930995
0.47189809286374057 0.03810000419616699 0.5347264332307854 0.1629985779344953
0.777505803774074 0.03810000419616699 0.20107686290626287 0.1146302456110839
0.5828138256822278 0.03810000419616699 0.3975936914421494 0.11087048581394471
0.7221735531310499 0.03810000419616699 0.29178648894598813 0.10061578877273043
0.7365104292072235 0.03810000419616699 0.14885496337106438 0.10880736287719406
0.6136630370428079 0.03810000419616699 0.27790891851901456 0.10752099099242686
0.5468281405607541 0.03810000419616699 0.2872124021290142 0.10458034690024681
0.881923735716405 0.038100004196166985 0.12423047078183895 0.13756447440592912
0.5908183769624349 0.03810000419616699 0.24090602997258828 0.10944235350592055
0.4988838999035492 0.03810000419616699 0.1394069817688442 0.107539362615531
0.6924180888005753 0.03810000419616699 0.20439429966049572 0.10727874093693439
0.617271633700553 0.03810000419616699 0.21750904420104028 0.11081902568535824
0.5380350025204015 0.03810000419616699 0.1587962617538579 0.10852869389223337
0.6845874124517565 0.03810000419616699 0.3187130659304572 0.11716442178122026
0.7901949214282704 0.03810000419616699 0.2045303611816408 0.10806534836194723
0.5578676562032859 0.03810000419616699 0.28986596142593646 0.10586438210147689
0.7549401067681187 0.038100004196167 0.21807993261929978 0.10949450578379347
0.597185569030556 0.03810000419616699 0.4036036194941739 0.11200798510866931
0.5265739862824714 0.03810000419616699 0.11021101051628264 0.1550542292254393
0.47804880203604483 0.03810000419616699 0.18822717334314104 0.10659826629276538
0.6289172022026446 0.03810000419616699 0.12864233456932753 0.1296125529259144
0.5906653648053343 0.03810000419616699 0.3027263285088149 0.1025617493469712
0.6649075038833449 0.03810000419616699 0.1250472990794852 0.13884835591118674
0.6075720692789083 0.03810000419616699 0.15170774266124698 0.1040798325596077
0.5396470851675134 0.038100004196167 0.3748459876672545 0.10670893757022737
0.5427384895401063 0.03810000419616699 0.30722638489620135 0.11459317085695397
0.4848622910553364 0.03810000419616699 0.38996865800997166 0.09994604058707676
0.7947172174038615 0.03810000419616699 0.17324067202017857 0.11298802323064801
0.5198028520438591 0.03810000419616699 0.3011386044439318 0.10880602034680839
0.4842827248772889 0.03810000419616699 0.1441691380627541 0.11982746799466848
0.6197999882579115 0.03810000419616699 0.23060848465164868 0.11320023001502365
0.6543446975569923 0.03810000419616699 0.1662082964396078 0.1097349140053526
0.6384439844638643 0.03810000419616699 0.3554086374341687 0.10752899766460426
0.5316955929506699 0.03810000419616699 0.19139887335664038 0.10925531113595999
0.6241786171520101 0.03810000419616699 0.20353276271713922 0.11197968960192582
0.6400869867770603 0.03810000419616699 0.22456850863354744 0.10271287810008137
0.4706324385504158 0.03810000419616699 0.20091217875006842 0.11025824745953272
0.5693077304086427 0.03810000419616699 0.15817995217293807 0.11383408302713482
0.5841583048655048 0.038100004196166985 0.38344979443421295 0.10801473226461848
0.7254071018615987 0.03810000419616699 0.14424782644056 0.11610045244963386
0.6497342548762597 0.03810000419616699 0.30098083673940385 0.10645471632512296
0.53656244495835 0.03810000419616699 0.44937137782805303 0.09576116107384096
0.5515690861740263 0.03810000419616699 0.15613694320489774 0.11510079011170468
0.4855923163157552 0.03810000419616699 0.28752741066069043 0.09556225872666571
0.7038352528875138 0.03810000419616699 0.27502046651582546 0.11233092267422556
0.6043439396608891 0.03810000419616699 0.1740107694041178 0.10830578494485019
0.47943224248301747 0.03810000419616699 0.500348582682244 0.2819188366590842
0.6134036581675438 0.03810000419616699 0.3273467005902393 0.10182328982557161
0.468009077870994 0.03810000419616699 0.5015360561499576 0.22160676436289306
0.5895583668475138 0.03810000419616699 0.31470805323234036 0.10375948568095816
0.597826849600558 0.03810000419616699 0.32196663774943046 0.10694751515394772
0.5996021688025491 0.03810000419616699 0.3453312518083178 0.11172680226802724
0.6579291461353722 0.03810000419616699 0.19499500909859194 0.10641077933289758
0.8360359227327836 0.03810000419616699 0.11993313109132124 0.16641822587737276
0.6843719925693434 0.03810000419616699 0.24278806375677275 0.110143287426445
0.5336374076578784 0.038100004196167 0.41754335996237935 0.11105260216367924
0.48879709231044743 0.03810000419616699 0.15512189560361395 0.10380857060000143
0.7052680660484801 0.03810000419616699 0.12152880228849894 0.15908524161033846
0.7011497479130333 0.03810000419616699 0.24628549376586867 0.10232187002065353
0.761000056210459 0.03810000419616699 0.17613624090084312 0.09983618264928251
0.5581773296300832 0.03810000419616699 0.22165824257978978 0.11198656126587939
0.6435708441508993 0.03810000419616699 0.17039950578657848 0.10428846375705565
0.7588927641502097 0.03810000419616699 0.1996215293599324 0.1011953430247465
0.5436255546321921 0.03810000419616699 0.41059391816014057 0.10846527858049215
0.4770908086021658 0.03810000419616699 0.30976191347697035 0.10085063324390478
0.6580832828796632 0.03810000419616699 0.3085497405655397 0.10754286040350378
0.6190685381043162 0.03810000419616699 0.10515112462437089 0.17919158124252063
0.5083939372836423 0.03810000419616699 0.4163549658992269 0.11289205125108158
0.5825708545292545 0.03810000419616699 0.3270651964361524 0.1094131833819982
0.7319070423442223 0.03810000419616699 0.2411653054735987 0.11220509849808459
0.4756163058758922 0.03810000419616699 0.4197644334024453 0.14153019174338324
0.7763328341241026 0.03810000419616699 0.2335636631474569 0.105880871687338
0.47798123447163415 0.03810000419616699 0.13245489052781045 0.12813739375568128
0.6830083539161724 0.03810000419616699 0.11597497671496568 0.1444631732989767
0.740767665079777 0.038100004196167 0.18835790838901123 0.10820119586984957
0.4926690727770241 0.03810000419616699 0.21877101549575734 0.10445119955471162
0.467910728705594 0.03810000419616699 0.55583099527832 0.13332482076499438
0.670392486587541 0.03810000419616699 0.10972996047932557 0.1381641249853098
0.5681647616969904 0.03810000419616699 0.25656963625797713 0.10280185435848396
0.5249682509542636 0.03810000419616699 0.46259362836044593 0.11287675579412544
0.8093774733098937 0.03810000419616699 0.17245707581963451 0.10714209901838886
0.5315851068752082 0.03810000419616699 0.3611707893248076 0.11109837102091312
0.521454752263201 0.038100004196167 0.3686728692661661 0.11419823427119441
0.6551595971576791 0.03810000419616699 0.13529938481916026 0.12734084405526414
0.8239350934907335 0.03810000419616699 0.1841411659743989 0.10056971575797717
0.46488767368990364 0.03810000419616699 0.13381056769376742 0.1028296126001468
0.6305758232260885 0.038100004196166985 0.3732025552850229 0.1074702129803396
0.747362619398928 0.03810000419616699 0.14995136860673058 0.1090855546530508
0.542495579499229 0.03810000419616699 0.24498252939043935 0.11369358106803333
0.5076865835646618 0.03810000419616699 0.11445975029870416 0.18134861028429924
0.7003363093313678 0.03810000419616699 0.2860960231519828 0.11097671591038634
0.7499577273591091 0.03810000419616699 0.10909544043178754 0.177532347885455
0.5704970967087122 0.03810000419616699 0.34446181159767353 0.11722418539437063
0.6627168123148064 0.03810000419616699 0.284797101410748 0.10783545295431049
0.4620194869364246 0.03810000419616699 0.3485039278453278 0.09899214223421866
0.517061868393643 0.03810000419616699 0.3456962457488779 0.10605370375774988
0.7090690744562068 0.03810000419616699 0.2998897792438264 0.11363654451181046
0.7059238037483214 0.03810000419616699 0.20197188366759042 0.10785204500635644
0.4802476977719014 0.03810000419616699 0.5170974097158445 0.25437826963769744
0.4975266023437479 0.038100004196167 0.3539687242929094 0.09847660433348643
0.6862542042782604 0.03810000419616699 0.3019983115740666 0.10332541818019951
0.5570082612659769 0.03810000419616699 0.11200501435808628 0.14343238733559335
0.5570645926232072 0.03810000419616699 0.4337386469439524 0.1072939978771709
0.8217475563177582 0.03810000419616699 0.1223619852039603 0.16518540465848638
0.620524810427174 0.03810000419616699 0.3930573806794584 0.09811797673276873
0.5724093268748751 0.03810000419616699 0.29720119003813283 0.1077495508291381
0.799742840862274 0.03810000419616699 0.1325777652276641 0.13639067400653276
0.6727032560498697 0.03810000419616699 0.24222542448883425 0.11150202018998996
0.5473566011736273 0.03810000419616699 0.12049025626258905 0.1597869910968552
0.8035535422265028 0.03810000419616699 0.16097295252130406 0.10410945561071347
0.5520612659847162 0.03810000419616699 0.47044807456945886 0.11097263362997037
0.5434727063530506 0.03810000419616699 0.46153207237192156 0.10711254687742566
0.5129955798342282 0.03810000419616699 0.38220796917995986 0.11268628798373918
