x y z curv
0.6000000834465027 0.5932535187657083 0.6423527516082363 0.08163427801666304
0.6000000834465029 0.44445584296402346 0.25333683169001003 0.07978439296513014
0.6000000834465028 0.2211795413034846 0.34557115404053174 0.07642068839727692
0.6000000834465029 0.37900164137280873 0.2618224794896974 0.078358655073265
0.6000000834465029 0.49038145986872983 0.19999479528464087 0.07553265302762831
0.6000000834465028 0.517202670207258 0.5873109400904849 0.07568249996212509
0.6000000834465029 0.4311376489729928 0.3130267742856491 0.07635439268339614
0.6000000834465027 0.5057002085362656 0.6243633836086722 0.07587346188162496
0.6000000834465028 0.2808858794789809 0.3153386838319143 0.07575171947401235
0.6000000834465027 0.4811699267679407 0.5584637229392146 0.07880416861458545
0.6000000834465029 0.31035325618262116 0.2678911820153911 0.08037156862426066
0.6000000834465028 0.5709719476723069 0.24935737417776255 0.07356167252310583
0.6000000834465028 0.4984580938683817 0.4491290900819953 0.08595904809573832
0.6000000834465029 0.5605579447518239 0.23841404597827906 0.07607401159663119
0.6000000834465028 0.4596230458942669 0.4551593543802407 0.08162781529941203
0.6000000834465028 0.4735614046777814 0.4001240008234258 0.08174952566874384
0.6000000834465027 0.3709846585400966 0.5126382780168117 0.07747804602702212
0.6000000834465029 0.5444875206658526 0.4901134648160301 0.07508866900154651
0.6000000834465029 0.5363732503208074 0.2410837357936435 0.08032803066145212
0.6000000834465029 0.46283955828325907 0.19024520477239504 0.08618584261960809
0.6000000834465029 0.5040792477189573 0.3372675835751927 0.08231606594884822
0.6000000834465029 0.2280300847993521 0.1736320441367401 0.11728999740441846
0.6000000834465028 0.5374067832227902 0.6310860204496641 0.07685377121263327
0.6000000834465027 0.4528438133300632 0.601731443938543 0.07758490592965032
0.6000000834465028 0.5670105490986276 0.44721176297411136 0.08001873800143082
0.6000000834465029 0.13948288376562082 0.17014158167722024 0.1317828540797813
0.6000000834465028 0.622241224474738 0.39431310823742044 0.1434996075920556
0.6000000834465029 0.4801132624969679 0.1977031655526263 0.07561153122047273
0.6000000834465029 0.2282160496977546 0.29703417790085224 0.07821278239786421
0.6000000834465029 0.4304853441720647 0.22190588740081477 0.0802464432260367
0.6000000834465029 0.10331649289570179 0.1840765980203374 0.09130420234015868
0.6000000834465029 0.41155210434799555 0.5380072267881724 0.08032329822024564
0.6000000834465028 0.4226009509047073 0.5923562390509912 0.07834717074609657
0.6000000834465029 0.5962057267918184 0.5724794558075754 0.06974945703074378
0.6000000834465027 0.5150111798980684 0.5729460456395259 0.0781901740191494
0.6000000834465029 0.545224264713163 0.20620569452299453 0.0785852087357476
0.6000000834465029 0.6280707293912794 0.3085016553869646 0.14925392433946594
0.6000000834465029 0.491506500786543 0.35257128370672575 0.07999120236419668
0.6000000834465028 0.5950550453706378 0.5247917722993014 0.08457034272669223
0.6000000834465029 0.3661034958751587 0.5310254568263318 0.0796529384727278
0.6000000834465029 0.3586947517504781 0.17820336782297685 0.1137311382997753
0.6000000834465029 0.31601960162739046 0.18164083840438766 0.10925403585691994
0.6000000834465029 0.3994052263363006 0.2173618563742885 0.07104151332904174
0.6000000834465029 0.5641870400443522 0.22808166440451774 0.06995088586434992
0.6000000834465028 0.45509655162063933 0.358901931361774 0.08164308507141299
0.6000000834465029 0.25062266069372036 0.25622564426961025 0.07930586365984552
0.6000000834465028 0.4596675295454517 0.6338323133519259 0.07723729993221604
0.6000000834465029 0.2816552196147687 0.17379662564262538 0.11408402310958139
0.6000000834465028 0.5885354110315728 0.3492170801754575 0.07159906499350503
0.6000000834465029 0.4984936560396729 0.3196534418201588 0.07600922880829014
0.6000000834465027 0.6222655866647142 0.8142711782134338 0.14619748379855904
0.6000000834465028 0.5251844236976181 0.6429292670217349 0.07820385279342179
0.6000000834465027 0.5920645842131218 0.7611910643980051 0.07750018885803647
0.6000000834465029 0.41164260690882654 0.3009346824033058 0.07262411109219746
0.6000000834465029 0.5913023988031666 0.30999963718329443 0.07464973803454115
0.6000000834465029 0.18979324132847236 0.1752634101136625 0.13084518496502137
0.6000000834465027 0.5293984411842649 0.6082278287446098 0.07012870338523637
0.6000000834465029 0.1584116078275963 0.20863606729094103 0.07896301949344393
0.6000000834465028 0.22912089627695797 0.3101760334486592 0.07923204021627726
0.6000000834465029 0.48134093164578234 0.16115678123355542 0.16842248574376037
0.6000000834465028 0.4763326474952603 0.6302648785020728 0.07645870938672984
0.6000000834465028 0.47934851140031715 0.46401420870510685 0.08102658016991082
0.6000000834465028 0.4691207569964719 0.46186771756745404 0.07695095728812236
0.6000000834465029 0.1692519271943083 0.23940629618380102 0.07585661909180114
0.6000000834465029 0.36692895250739355 0.2810152752507411 0.07207595236783604
0.6000000834465029 0.2597553207522083 0.3662130503403065 0.07501539132365433
0.6000000834465027 0.5487069426068326 0.7321885383949024 0.07779396713608705
0.6000000834465028 0.617425577718775 0.5096779483888951 0.1350581708548928
0.6000000834465029 0.24943528610967644 0.17129182176211066 0.12554647929094898
0.6000000834465029 0.27467278649158616 0.16335784620457613 0.14391404839093475
0.6000000834465028 0.1966057852492468 0.28064799310748234 0.07712014446678044
0.6000000834465027 0.5588967906409817 0.6677687764956345 0.07719251028197177
0.6000000834465029 0.310277563383763 0.15702242329260493 0.16031196477282975
0.6000000834465028 0.6108555545349788 0.38118624035183907 0.12031255563971234
0.6000000834465027 0.6119866309273592 0.7999843875852664 0.11546711069792795
0.6000000834465028 0.5547558040429171 0.39880292066814504 0.0787607485595047
0.6000000834465029 0.408506562698437 0.3105247666880087 0.07949261723123216
0.6000000834465029 0.499741261805003 0.15612089287657788 0.15311611615910756
0.6000000834465029 0.2865265698743107 0.1938826737850247 0.08256821136289506
0.6000000834465029 0.6013961714542272 0.24616225337040484 0.10306680483945144
0.6000000834465027 0.6282315599393694 0.7628581261494836 0.13208221946734303
0.6000000834465029 0.37927086208944366 0.24740043964270172 0.07692516782101348
0.6000000834465028 0.32911525144045073 0.4098391541622644 0.08376850713878684
0.6000000834465028 0.4394947357880022 0.4047721664816513 0.08071057189223481
0.6000000834465029 0.551742908752556 0.26473345646261726 0.07966446182807446
0.6000000834465027 0.552306401084144 0.6111270884218246 0.07902201873185771
0.6000000834465029 0.40363375506819915 0.3421243723739488 0.07437659117875957
0.6000000834465029 0.5351855199305717 0.2575823097945904 0.07386662440123717
0.6000000834465029 0.48670496715082057 0.3075712418971376 0.0773632143425417
0.6000000834465028 0.5209135504002683 0.3065912256763535 0.0743714843265768
0.6000000834465027 0.630719204848866 0.6106187089883542 0.16435667100243173
0.6000000834465028 0.5128459938836241 0.42702558309607064 0.07779784480586811
0.6000000834465029 0.5391753035364085 0.15373082822241446 0.16239569578054128
0.6000000834465029 0.38606638166968327 0.21437118280361864 0.07573772729909985
0.6000000834465029 0.34481661944277153 0.29881414090221176 0.0699931734154682
0.6000000834465028 0.6164048174045256 0.8226296248487757 0.11064290058138829
0.6000000834465028 0.5737546709882921 0.5397470066913503 0.07548589259785489
0.6000000834465027 0.5004385346964481 0.6049229757677296 0.07522994341271655
0.6000000834465027 0.5226696460408728 0.6915930108115864 0.0808121587538607
0.6000000834465029 0.08287774999777614 0.1790845327590446 0.09202052085619707
0.6000000834465029 0.38966888618698486 0.31229044191112276 0.0757974067677485
0.6000000834465029 0.27181437766772515 0.32199207734496815 0.07718031986458468
0.6000000834465029 0.2614976769567497 0.3111199390427036 0.07417335110053204
0.6000000834465029 0.5032741659583954 0.23405706144504404 0.07616601285537465
0.6000000834465029 0.40479763004510105 0.3867498023821921 0.08043571405362385
0.6000000834465028 0.5316811795896292 0.48490062260683464 0.07462979877653267
0.6000000834465029 0.19893230404306805 0.2142371411528978 0.08019501176228447
0.6000000834465028 0.2505243410492549 0.36838610661957194 0.07583885582937866
0.6000000834465028 0.5514171838943508 0.5777080690011591 0.07455631864173935
0.6000000834465028 0.30815862869457666 0.4593757315380526 0.07807525862114684
0.6000000834465028 0.5961587955955946 0.49743905262316346 0.08792570868594798
0.6000000834465029 0.3659407244856499 0.3469332667402911 0.07487620376844331
0.6000000834465029 0.21793471041640317 0.2213078013028301 0.07805723275290744
0.6000000834465028 0.4835931394527137 0.5231823692664894 0.07836838621291223
0.6000000834465029 0.3825826045709163 0.3298384811625458 0.08247625308226833
0.6000000834465028 0.5071580125875299 0.40992979961131387 0.07755988503875356
0.6000000834465028 0.5813646732272074 0.23780536304167582 0.07123630349543379
0.6000000834465028 0.32794538103467613 0.4692870889427954 0.0782090752132978
0.6000000834465028 0.4331208876687643 0.44564863983280856 0.07309267607934436
0.6000000834465028 0.5784185113000313 0.4734158918603679 0.077693499918426
0.6000000834465028 0.4267816524198268 0.4232162576577785 0.07927290217941134
0.6000000834465029 0.30097030867177854 0.2664824388550591 0.07610207319437035
0.6000000834465029 0.11504994545472347 0.18726253641737398 0.09768568664576677
0.6000000834465029 0.2917716559155784 0.21687759969446485 0.07660806571145014
0.6000000834465029 0.25721413859761233 0.29601297939363125 0.07984957806144086
0.6000000834465029 0.21479291590623104 0.3006141287311259 0.07764475113009264
0.6000000834465028 0.5421934418736821 0.5872653861946313 0.07464352284735036
0.6000000834465028 0.5591437514028348 0.5350022155425745 0.07716326672716381
0.6000000834465028 0.4503098821438534 0.6152825245963219 0.07573448077755542
0.6000000834465029 0.29927392319188517 0.1940788980637284 0.07928675422646851
0.6000000834465028 0.5401301528796055 0.5385155039669294 0.07505423515848489
0.6000000834465029 0.37031497468495517 0.17966744359014425 0.10839280650560959
0.6000000834465028 0.4052267577562224 0.4675748746431927 0.07907318190801248
0.6000000834465029 0.31965348577168223 0.33395144621164624 0.07466283065232462
0.6000000834465029 0.341585845567229 0.40121825853630866 0.08129493478469736
0.6000000834465029 0.4495303700280134 0.3122327776300493 0.07761733611564722
0.6000000834465028 0.6084012473666722 0.5540776278463833 0.10336701967739734
0.6000000834465029 0.18181536532298095 0.15730992093873353 0.17962985796815484
0.6000000834465028 0.6181024778958273 0.45916067793749527 0.13660888619112366
0.6000000834465028 0.5768488841179372 0.49975360660997303 0.07572745648564165
0.6000000834465029 0.516769192130937 0.33738690196736565 0.07913176580858733
0.6000000834465028 0.44286135582549613 0.5688908988890717 0.07900522173665518
0.6000000834465029 0.5082780171038553 0.4573123034724764 0.08149574759731332
0.6000000834465029 0.27919385105939987 0.20016818050947327 0.07990633783540152
0.6000000834465029 0.312250923838496 0.19464823466640502 0.08178089189167105
0.6000000834465029 0.14567930996477627 0.2482046597040448 0.07316494647817105
0.6000000834465029 0.25156062217220093 0.31127947917873605 0.07240395213015689
0.6000000834465029 0.20589271854774216 0.24822572648085034 0.08314633073135554
0.6000000834465028 0.517689777275201 0.5606764647666822 0.07818031988377037
0.6000000834465029 0.20378945618764946 0.23689927106252395 0.077294190798638
0.6000000834465028 0.38253858650698963 0.45551799765355633 0.07460452596193572
0.6000000834465028 0.2827270365585899 0.39805395088294826 0.07588857124010119
0.6000000834465028 0.6091478855657237 0.4145308360194828 0.1156291661552244
0.6000000834465029 0.34235908181986957 0.31216129735636855 0.07260509977400692
0.6000000834465027 0.35997503150173815 0.5109109528812421 0.08004273945047811
0.6000000834465028 0.5909399341917981 0.18566312182998118 0.08499739082395456
0.6000000834465029 0.5614130494177048 0.3325578409957901 0.08224791005047441
0.6000000834465028 0.49331581353848586 0.47901935811965346 0.07642958847536836
0.6000000834465028 0.5329234895233507 0.37510868026823974 0.07252335226020253
0.6000000834465029 0.4487990812820646 0.4475583366092902 0.07624382939333724
0.6000000834465027 0.5267785061820968 0.7071809261179577 0.0722332428633786
0.6000000834465029 0.4660777249306469 0.3769516061696911 0.08180521523119136
0.6000000834465027 0.6021846764732016 0.5636408229809017 0.099148253212456
0.6000000834465029 0.429010363677964 0.19267338193996428 0.0799237037915768
0.6000000834465028 0.48954899146325903 0.5087906807325734 0.07657007988551326
0.6000000834465028 0.44706721985556086 0.5002426406651644 0.07958341446887142
0.6000000834465029 0.3998665427645518 0.5462486522005676 0.07688711795984392
0.6000000834465029 0.4396797702757391 0.2630577783938924 0.08111327490916534
0.6000000834465029 0.3797870614436131 0.1891037363332176 0.08392101268110944
0.6000000834465028 0.33121661548181897 0.4602826357784159 0.08205708267490287
0.6000000834465029 0.21254739002878958 0.3146364659611633 0.08253010848690616
0.6000000834465029 0.6048954011352832 0.15944919374581007 0.15963387414166968
0.6000000834465028 0.5517586158159807 0.42982465998895913 0.07560455356431278
0.6000000834465029 0.5355846995327658 0.2939752522149963 0.08093072683536288
0.6000000834465028 0.425009985239015 0.38778963110070946 0.07881754672595333
0.6000000834465029 0.5420884649812974 0.3260050566647584 0.07927846505344756
0.6000000834465028 0.5785273697699087 0.4236709068647282 0.07700593919336701
0.6000000834465029 0.6022921240183184 0.37066727324619 0.09980641799200314
0.6000000834465028 0.5349116384057998 0.47293493393311914 0.07855445459634607
0.6000000834465029 0.5083731959075731 0.28055465151370085 0.07669322642128563
0.6000000834465028 0.4881805701508717 0.45545185478084615 0.08041365468291536
0.6000000834465029 0.3746772327881083 0.22530763057832898 0.08360872705725056
0.6000000834465029 0.4015910494315125 0.2470345284731119 0.07156064470666773
0.6000000834465029 0.6012346234193946 0.421930561434085 0.09941801421410164
0.6000000834465028 0.30023681390964624 0.4253775987081206 0.074134479225557
0.6000000834465029 0.5828899552892669 0.15578733282644266 0.16738346822677283
0.6000000834465029 0.22267474327056846 0.3192721773052859 0.08120211776810768
0.6000000834465029 0.29165951275617796 0.23037467579776616 0.0729534004351442
0.6000000834465029 0.3836789379349155 0.37192811053573616 0.07611948306456537
0.6000000834465027 0.49748924851253046 0.5942372347501755 0.07438173522888594
0.6000000834465029 0.5536864502706014 0.4166351566682466 0.07793567266868624
0.6000000834465028 0.551727134408884 0.30811266247894464 0.0839333006442823
0.6000000834465028 0.6028413518554336 0.6460851427521275 0.10491330829382083
0.6000000834465029 0.19499485817554252 0.20191887593724084 0.0752569208169262
0.6000000834465028 0.5911518454852585 0.7147711079461487 0.08134470667551287
0.6000000834465029 0.39666248355753914 0.29590004415446175 0.07294297455937467
0.6000000834465029 0.2505327050026431 0.3209412220626483 0.07249651198471506
0.6000000834465029 0.2835639112565618 0.2101162286529641 0.08285077701852452
0.6000000834465029 0.6169596077804634 0.17059245484485416 0.16481120417533163
0.6000000834465029 0.22653736164512517 0.328208390793001 0.083540602260005
0.6000000834465028 0.484397249081445 0.426809774113995 0.07657995801331204
0.6000000834465029 0.14964312444937994 0.21457005294015608 0.07954652109367005
0.6000000834465029 0.29976755446304065 0.2973428128823919 0.08255540976252787
0.6000000834465028 0.23751831988781175 0.32103061008690104 0.07988598964318322
0.6000000834465028 0.23529470502447167 0.3351889552533228 0.07484406393336038
0.6000000834465028 0.6083027396302972 0.4671511981027696 0.1089136449484238
0.6000000834465029 0.29083423991947016 0.24155346236161268 0.07503935590869226
0.6000000834465028 0.5782191644417325 0.6421617699331659 0.07718602289960053
0.6000000834465029 0.2944279589080226 0.27805339489411524 0.07843097907605599
0.6000000834465028 0.3885555276257538 0.5475060030958789 0.0760121975439959
0.6000000834465029 0.22269537508663756 0.26236479478192487 0.07816723721104522
0.6000000834465029 0.6140962723812067 0.3046122097840559 0.12473218136796543
0.6000000834465028 0.636267836283627 0.7728134347434176 0.13918729989481465
0.6000000834465029 0.5312133920862837 0.5248191343915329 0.07304789373336891
0.6000000834465029 0.4080935297505916 0.184450409940715 0.09414059894649472
0.6000000834465027 0.5958046785758414 0.746630155654126 0.07792849981393819
0.6000000834465029 0.5834172223122649 0.5346589115961263 0.07371478195797394
0.6000000834465028 0.3629552505261144 0.4818888445583537 0.07575204763512636
0.6000000834465028 0.596083551919769 0.5956706162632844 0.08362718797237179
0.6000000834465028 0.3537877189217939 0.37859407019617886 0.07460353182674857
0.6000000834465028 0.5901992529999636 0.2008622481153545 0.07916629623945445
0.6000000834465027 0.4783258478917449 0.6497469251900811 0.07784764801487135
0.6000000834465029 0.4436264399371927 0.15660250170352324 0.16226322252079378
0.6000000834465029 0.4250584515625423 0.28567967624466145 0.07372129458925097
0.6000000834465029 0.30314721130531574 0.3159374690231434 0.07565730019516904
0.6000000834465029 0.5129962819272272 0.3827221311102514 0.07558815976878289
0.6000000834465027 0.5747965005492441 0.6049723336206395 0.07759354557657015
0.6000000834465027 0.5630068862751128 0.6062251151000335 0.07409391416303433
0.6000000834465029 0.5776574883619603 0.17944020309945113 0.1169360656525976
0.6000000834465027 0.5690448380951135 0.5968103169725363 0.0792324922110375
0.6000000834465029 0.3560145980377531 0.4457530297474649 0.0773794401131032
0.6000000834465029 0.3886384816041427 0.253908797592024 0.07358828413929859
0.6000000834465028 0.6111459393625989 0.26666220554806386 0.11085129404091283
0.6000000834465029 0.41949859640071196 0.33881782136840716 0.07318884784940345
0.6000000834465029 0.35118670012355474 0.18940418416500476 0.09731455612655096
0.6000000834465028 0.5449422827161604 0.6668968805698368 0.08222763367789383
0.6000000834465028 0.6110511902621434 0.6060514335953108 0.1070388468178075
0.6000000834465028 0.39356982145198216 0.4500440964495908 0.07417977106287976
0.6000000834465029 0.3294724437173998 0.25723438086610595 0.07947862459035607
0.6000000834465028 0.3467103312044678 0.3393511302183356 0.0776799589429611
0.6000000834465028 0.5991064644014484 0.2730892090516444 0.08041338285615053
0.6000000834465029 0.3471003205878479 0.32717058184262776 0.07495703851687452
0.6000000834465029 0.3102696211462347 0.3878878194546999 0.0709292648628033
0.6000000834465028 0.49758948001591663 0.516910309226529 0.07354517008449593
0.6000000834465028 0.4435160321768977 0.4812686292105573 0.08010455970093754
0.6000000834465029 0.5065116318614792 0.2931088580722736 0.07928787981441573
0.6000000834465029 0.6054748789382235 0.17990570771622044 0.09478021346127212
0.6000000834465029 0.6115301542156859 0.32052847637394977 0.11049967277490216
0.6000000834465029 0.1437076483439563 0.15874858115186632 0.15508481922468909
0.6000000834465028 0.4408539570985228 0.5093037269394916 0.07707610129938142
0.6000000834465029 0.4671643793686102 0.35907611971439735 0.07541058226113387
0.6000000834465027 0.509830652690342 0.6065068041432065 0.07617063006865969
0.6000000834465029 0.5266617188767018 0.17751800571394827 0.11439328373786345
0.6000000834465029 0.5387559086162588 0.17705031000553478 0.11503207436723731
0.6000000834465029 0.1233445027854603 0.19178317671886375 0.08525116413553536
0.6000000834465028 0.6007062556116439 0.6297824623342566 0.08988584568743728
0.6000000834465029 0.4235415604477917 0.3649132754084062 0.08114656480226631
0.6000000834465027 0.6103452870709795 0.7275391033975303 0.10268406965778548
0.6000000834465028 0.4983977254986056 0.5414955944846958 0.0803141662752318
0.6000000834465029 0.3522848121001906 0.23618127629086727 0.07775431802927427
0.6000000834465028 0.45368948067325177 0.47949933095548014 0.07632221804097122
0.6000000834465029 0.31969152812276763 0.26199397642630284 0.07951614763820523
0.6000000834465027 0.5870269675350127 0.613669038907917 0.07653998611449706
0.6000000834465029 0.5640949218155823 0.3070923475566998 0.08023966974041868
0.6000000834465028 0.29044388040181013 0.42045752404799225 0.08036107060860152
0.6000000834465029 0.46995890196203705 0.2655195442977822 0.07925183437154756
0.6000000834465028 0.3863330299289824 0.40030152897634474 0.07527427171059581
0.6000000834465028 0.5180096941442344 0.6298305008041365 0.07693753113388736
0.6000000834465027 0.5244872940407656 0.7251523742444713 0.07841728575632267
0.6000000834465029 0.3042216825284817 0.35514331650971864 0.07526088089982856
0.6000000834465028 0.3818057035716777 0.42316086249214063 0.08329470929640223
0.6000000834465029 0.5281475721057514 0.24878329912927222 0.07844546177360118
0.6000000834465029 0.16847131442348334 0.19995457676188394 0.07585808446404896
0.6000000834465028 0.4413167079107923 0.4628754557624933 0.0778952471434729
0.6000000834465027 0.5381069721127064 0.701340165918751 0.07883582041080546
0.6000000834465028 0.6289544205938041 0.36422460787931893 0.12760549377406893
0.6000000834465028 0.5551021907929239 0.5907538550205591 0.07442960641083478
0.6000000834465028 0.6306067382055792 0.6327949838034472 0.1446295275922053
0.6000000834465029 0.500195349284583 0.3591470156088229 0.08194821202882283
0.6000000834465029 0.17439731407857956 0.25732810916563775 0.08784336937340473
0.6000000834465029 0.5151189335106293 0.18479401024644126 0.08632599624459576
0.6000000834465027 0.5970923591293807 0.7791871472654243 0.0882614971413078
0.6000000834465029 0.19598102704341566 0.24520440479280398 0.08360056320441459
0.6000000834465028 0.5302007989603492 0.6248123785815267 0.07487799813338251
0.6000000834465029 0.4903513510189723 0.22321107080125052 0.0781716415339468
0.6000000834465029 0.6150903395144726 0.153534058962168 0.17292435492386657
0.6000000834465027 0.5662042075644206 0.7736496784032646 0.07815738597364343
0.6000000834465029 0.2346043398272621 0.24900131997926533 0.07832286786235546
0.6000000834465028 0.5541290433197761 0.359862128589408 0.06956375748517367
0.6000000834465029 0.5198234202858779 0.2222792261065825 0.0813471401135678
0.6000000834465027 0.47238465786627637 0.5841227960425418 0.07387471337330376
0.6000000834465028 0.5333799890836415 0.5495514388564459 0.07551089731641122
0.6000000834465027 0.5572030130883019 0.635245191094831 0.07467532320086764
0.6000000834465029 0.4419798897514468 0.3200711888734018 0.07520489638101253
0.6000000834465028 0.4337296515908146 0.5877101018171774 0.07732843323661237
0.6000000834465027 0.5808260032421034 0.7239296620366121 0.0790467476979226
0.6000000834465029 0.3115119252198078 0.3229353747643798 0.07748693957547995
0.6000000834465029 0.2769253267700489 0.42159153964180845 0.08166207660387914
0.6000000834465029 0.6269786720829286 0.17527204135279906 0.15307724497650965
0.6000000834465027 0.5386806864058411 0.6889990223008234 0.08257492842039552
0.6000000834465029 0.38174013170050475 0.4100764717094923 0.08104752540252012
0.6000000834465028 0.4148059872011301 0.23197126193493012 0.07450393343643005
0.6000000834465028 0.35866621149887923 0.41602752998011594 0.0784506280102047
0.6000000834465029 0.24512471554262258 0.21141080570173987 0.07652182058197103
0.6000000834465029 0.42262933145836057 0.1684535424773236 0.12435011688449497
0.6000000834465029 0.32797676245915003 0.19963570501523348 0.07851785548907626
0.6000000834465028 0.5853093865983938 0.523770450041622 0.07528558248315503
0.6000000834465028 0.47979752901136585 0.392080352811925 0.0768609988386768
0.6000000834465029 0.07416372832578426 0.15563783230684167 0.1306031952612893
0.6000000834465029 0.1944864161952492 0.27081199580934023 0.0796120299180325
0.6000000834465029 0.4488319200281418 0.2097072182233092 0.0767543321980019
0.6000000834465029 0.34265054636143377 0.43989289463017167 0.07584261306144309
0.6000000834465029 0.46623100950537855 0.2988444284114698 0.07490439122222693
0.6000000834465028 0.5960450534199632 0.4113521090482584 0.08447944625906202
0.6000000834465029 0.3937959602137759 0.19808050544781952 0.07859146631149165
0.6000000834465029 0.5523714614124875 0.16030132788893325 0.15835768069589123
0.6000000834465029 0.4396072795368678 0.23407483459187917 0.08115391930922879
0.6000000834465028 0.6136402650220374 0.479584994070488 0.13746338072246084
0.6000000834465029 0.32779941372654114 0.18376244896841015 0.09141434078540682
0.6000000834465029 0.5755269547383357 0.297268523479522 0.07819756427078046
0.6000000834465029 0.2553137613958546 0.3516398987153677 0.07574720285270282
0.6000000834465029 0.5538244085153414 0.19167938427701536 0.0788831220946672
0.6000000834465029 0.5982511003479087 0.2897175953122934 0.08265928272503316
0.6000000834465028 0.3256543359098639 0.43938548019822005 0.07809005643106166
0.6000000834465028 0.44335191847649263 0.4140094322718646 0.081826327984136
0.6000000834465028 0.4916659494218756 0.41295257254331597 0.07443681520616179
0.6000000834465029 0.32730490872997736 0.24662081742420605 0.07448933454280639
0.6000000834465029 0.5645754762403205 0.20983286610272422 0.08169149147147114
0.6000000834465029 0.3124322258217437 0.3056243241540086 0.07849964736272994
0.6000000834465027 0.5716200408553183 0.574219734550171 0.07920578533205382
0.6000000834465028 0.5355316495416741 0.4416878796745949 0.08248390361951351
0.6000000834465029 0.3261585371132656 0.39779217590900146 0.07964606268211864
0.6000000834465029 0.45029847396174555 0.4004918943477284 0.0783037838997879
0.6000000834465029 0.5613472521032181 0.38632396576753514 0.08614016909658402
0.6000000834465028 0.42679074010754714 0.23264899495777763 0.0768963488275997
0.6000000834465029 0.6100650168394712 0.49896550864756617 0.11156795130473927
0.6000000834465029 0.12040302513985926 0.1745665822255539 0.1221807895176705
0.6000000834465029 0.4052611632360309 0.20915201588730759 0.08152255803134459
0.6000000834465029 0.39675630906624937 0.3808334466029824 0.07853543889082054
0.6000000834465028 0.5623740198112965 0.5818142715784623 0.07367519605976797
0.6000000834465028 0.35217721109845246 0.48421747320984343 0.0732750813711158
0.6000000834465027 0.5049945516349061 0.6854019810748037 0.08034304039554797
0.6000000834465029 0.3315244757183966 0.36327362319538314 0.08003099374236254
0.6000000834465029 0.35008304217953995 0.20974719053187502 0.07868263077980905
0.6000000834465029 0.5313951952318708 0.30455839493294046 0.07427340530726363
0.6000000834465028 0.43100559230981605 0.5492284836895209 0.07639983815632806
0.6000000834465028 0.5974198535135306 0.6581253043769748 0.09842458794378357
0.6000000834465029 0.15332301389684383 0.16627111258059538 0.14278529507512588
0.6000000834465028 0.593279289572113 0.5082558777573262 0.07847988821164031
0.6000000834465029 0.435928788985594 0.1796939427562938 0.10221339321431062
0.6000000834465029 0.2759327040340323 0.2915238865624265 0.07473709179086607
0.6000000834465029 0.23043324411980198 0.27005622900044196 0.07855938030098866
0.6000000834465029 0.42233440416528367 0.43667923524832347 0.07676085468197917
0.6000000834465029 0.2557833262938847 0.2480094400378935 0.07449293410989359
0.6000000834465029 0.573228887819907 0.16208797416007706 0.15009953936329934
0.6000000834465028 0.45201800986065455 0.6252888786979386 0.07513106290388101
0.6000000834465028 0.38939030104311634 0.4759875394317549 0.07683841275268832
0.6000000834465029 0.5504056957122815 0.21475996080509163 0.0756586759585566
0.6000000834465029 0.6026098634123107 0.26016272649860467 0.10113801561639452
0.6000000834465028 0.449236490878953 0.38813117295654426 0.07897505101190078
0.6000000834465029 0.2681813615618569 0.3453873948421149 0.07475385219745301
0.6000000834465029 0.4633158227614247 0.24566334377661583 0.07820909120888105
0.6000000834465027 0.5833004896741227 0.7666420883015873 0.07902353650369555
0.6000000834465028 0.6041413835314817 0.45684127669746677 0.10141386811695229
0.6000000834465028 0.522292666420151 0.39637062766002834 0.07900675748404505
0.6000000834465029 0.11386676676701157 0.20385664224752836 0.0772418332744311
0.6000000834465028 0.39342555492773634 0.3252276134147985 0.07555007706853617
0.6000000834465028 0.4259516891183457 0.5160838922849124 0.07482546515706891
0.6000000834465028 0.4923764423371659 0.5772138081860142 0.07439451771565973
0.6000000834465028 0.5071312941496495 0.6473942785312105 0.07563642804335462
0.6000000834465029 0.16491325518270167 0.1511878248172736 0.1494253102086056
0.6000000834465027 0.4921159538012986 0.6275623980397204 0.07955166945065972
0.6000000834465029 0.4241353752814296 0.3257320515637499 0.07845205710655856
0.6000000834465029 0.34637212813747814 0.17633011942010524 0.10736196492881857
0.6000000834465028 0.5847468700464644 0.169100232803149 0.13136818856384525
0.6000000834465029 0.5523422563598863 0.5139517881590989 0.08010360145038238
0.6000000834465028 0.4831477773570721 0.233369052142033 0.07672935929193497
0.6000000834465029 0.3444313101088842 0.2256264962780407 0.07331813484399032
0.6000000834465028 0.4459356584819712 0.5794149714588349 0.07985114039753874
0.6000000834465028 0.6287499890489686 0.6940916990774695 0.1431390205546452
0.6000000834465028 0.5117997994208111 0.39424196702093467 0.07538177665597176
0.6000000834465029 0.458183129845334 0.16889045431335434 0.12803415716473712
0.6000000834465028 0.6078873857966108 0.5717650795299882 0.10624788752773683
0.6000000834465029 0.24788507181684452 0.1609069160253583 0.15488287611167298
0.6000000834465029 0.3280911092382422 0.22932019486076877 0.07167692388743319
0.6000000834465029 0.3194767359194598 0.23967049627799078 0.07771565047037941
0.6000000834465029 0.2672548557095687 0.23922894654537463 0.0784649014239978
0.6000000834465028 0.6328949935805845 0.464231485040918 0.12962795344195327
0.6000000834465028 0.4088857716662595 0.37259215470626306 0.07778495694786958
0.6000000834465029 0.2721965648921157 0.3031734613725727 0.0734984194138206
0.6000000834465027 0.6156788379378784 0.6338937362721422 0.11969376629009396
0.6000000834465029 0.6197645644948296 0.42292002672362755 0.13137829210155966
0.6000000834465028 0.5504200641201642 0.7063743168242091 0.08129875131162724
0.6000000834465028 0.5300604274666093 0.4231795416872442 0.0773021403665067
0.6000000834465028 0.4965150162262659 0.6653172921740034 0.07615682780460603
0.6000000834465029 0.4198123750138968 0.30908244603207863 0.07467609676477749
0.6000000834465029 0.20928721301013192 0.22617143274166185 0.07781287830758903
0.6000000834465029 0.4288959088222622 0.26037796096799 0.07847325455435274
0.6000000834465029 0.09081950194677635 0.18904077920575038 0.09135237001835528
0.6000000834465029 0.531896777642986 0.31890573010744827 0.07588594542877493
0.6000000834465027 0.5538344709452852 0.7500770715762719 0.07927283161660552
0.6000000834465028 0.35836692459468494 0.4304948544457083 0.08216376685846265
0.6000000834465027 0.5937049512361287 0.8017475933879621 0.08243112374975183
0.6000000834465029 0.2805555702191468 0.23182046680650148 0.08003117051535813
0.6000000834465029 0.5702943096673162 0.2189852761929167 0.0835544795606542
0.6000000834465028 0.5906697500685475 0.37409712892340846 0.07850025702277828
0.6000000834465029 0.3240991615419325 0.3714227855654504 0.07609243106278346
0.6000000834465028 0.6229321898527878 0.4125031331472879 0.14751796614794152
0.6000000834465029 0.2650371292797102 0.16793389484238164 0.13296090955192233
0.6000000834465029 0.264201196004234 0.25503635878980113 0.07314896447552724
0.6000000834465029 0.5822926927564006 0.33926950169866665 0.07710936923681584
0.6000000834465028 0.3855354708196911 0.44238475653831233 0.07720331211821403
0.6000000834465027 0.6001210360418605 0.7208174255504726 0.08510036757887132
0.6000000834465029 0.5782784675077396 0.37669411122799157 0.08233434818094269
0.6000000834465029 0.22726886067900792 0.18386516617337756 0.0874183119800067
0.6000000834465029 0.27986943983623 0.3626778666535731 0.07271643108839271
0.6000000834465029 0.3668936948609922 0.30311269150589315 0.07821987856459085
0.6000000834465029 0.11576603201220971 0.2154434173861817 0.07650953001384712
0.6000000834465029 0.44254304796805594 0.19038733192845042 0.08335922623765267
0.6000000834465027 0.3729692420369057 0.5240291817604964 0.0776643924786496
0.6000000834465029 0.5035568770196727 0.34830826842310375 0.0815735309302034
0.6000000834465028 0.6272193361293458 0.7086205023859783 0.12318712403226777
0.6000000834465028 0.43060211207611304 0.5271486539503727 0.07777993659408151
0.6000000834465029 0.13250195030500414 0.18661089620537452 0.09459156501453832
0.6000000834465029 0.37215596629803194 0.29035286068292737 0.0810449899494486
0.6000000834465029 0.562539922043927 0.27312765910368236 0.07989814001330825
0.6000000834465028 0.5530596463132583 0.4768604373206509 0.07688001503076201
0.6000000834465028 0.4106393304984472 0.5539439042607894 0.08269720876385496
0.6000000834465029 0.5547526268530093 0.3199965395175515 0.07849599147729061
0.6000000834465028 0.5546355239269208 0.4481233964626689 0.08634471534693713
0.6000000834465029 0.18419120253153018 0.24822648144306153 0.07697983088835046
0.6000000834465028 0.37171793056684 0.3820733820393885 0.07753856253089163
0.6000000834465028 0.5532519161205728 0.5577909457371849 0.07298826835905108
0.6000000834465028 0.620517621300919 0.6870472640994333 0.14887882454784457
0.6000000834465029 0.5710133286642082 0.17216172830359316 0.13173657841990397
0.6000000834465029 0.19146587634409745 0.22704283862954644 0.0739818653777494
0.6000000834465028 0.5864018744407803 0.7852213496990292 0.07376119710876869
0.6000000834465029 0.3990681949859919 0.30647720949044677 0.07762873264309306
0.6000000834465028 0.24546705592282356 0.2885437574136706 0.07743343972623298
0.6000000834465028 0.5215801847232449 0.47581638566487 0.0807907987060265
0.6000000834465028 0.6252625985302066 0.5784293330019808 0.13080890027306613
0.6000000834465029 0.5761421209028055 0.4620702731570521 0.07670922271840755
0.6000000834465029 0.5400724871526862 0.26638351598872506 0.07373355844225313
0.6000000834465027 0.5180214000659686 0.6828896789343962 0.07935638947591447
0.6000000834465029 0.19483646750983277 0.29902350150379015 0.07205239759619171
0.6000000834465027 0.5541440858111072 0.6577519483368204 0.08131608962048188
0.6000000834465029 0.5906624961829019 0.41930984582370473 0.08545400595964878
0.6000000834465029 0.4214993180876674 0.18149063409539887 0.100332433821138
0.6000000834465027 0.5192450381006531 0.5188398629365087 0.08003660946782103
0.6000000834465028 0.5037019678060909 0.5805147010955856 0.07441406654025959
0.6000000834465029 0.5919079562464427 0.3894108381411175 0.0811633513374479
0.6000000834465027 0.4577010223444812 0.5496782475729528 0.07902452449600238
0.6000000834465029 0.2711114545159986 0.17868118375724318 0.10670531963317448
0.6000000834465028 0.3247309751881394 0.3489555253440839 0.08144493431473214
0.6000000834465028 0.5839980308305982 0.6520372143643527 0.07895678237154029
0.6000000834465029 0.597936680117259 0.3344373335137807 0.08776022261884568
0.6000000834465029 0.4229991314315057 0.4761803398010658 0.07572128451072824
0.6000000834465029 0.40234168401268205 0.2285292956694096 0.07535844882189464
0.6000000834465029 0.3100611450870507 0.27931932446643365 0.0791898944551433
0.6000000834465029 0.32220553864178486 0.15603209142043326 0.16769925823570994
0.6000000834465029 0.204743865900118 0.29406244163313544 0.07765291020773667
0.6000000834465029 0.3084002264793013 0.1682735992179834 0.13018564620527118
0.6000000834465029 0.20567990777080913 0.26182026986158824 0.0776270512739343
0.6000000834465029 0.4513299275771594 0.4686838985004778 0.085151836286997
0.6000000834465029 0.535681562144828 0.33561942115512433 0.07777711966362481
0.6000000834465029 0.272967469670552 0.26169258087534436 0.07778126296812515
0.6000000834465027 0.31906031630085474 0.4571259401918968 0.07748299181953137
0.6000000834465029 0.37127301404169216 0.3258607443732908 0.07483180435273395
0.6000000834465029 0.1374860320232056 0.21673033448783163 0.07786957591714913
0.6000000834465029 0.3945618470497112 0.5086518041491933 0.07493153615745324
0.6000000834465028 0.40383443793319823 0.47728187091609103 0.07849090667387168
0.6000000834465029 0.30475851910929147 0.22646736655124272 0.0698592039802579
0.6000000834465028 0.4085468717389855 0.4581462553739942 0.07663998433894982
0.6000000834465028 0.60004626828336 0.6721265720523709 0.10216521868663202
0.6000000834465028 0.5393813993653283 0.45175463179653913 0.08056005301091636
0.6000000834465027 0.5044193314889526 0.6588212827358166 0.07705831427635763
0.6000000834465028 0.43398607766013697 0.3709413988523034 0.08246391513682996
0.6000000834465028 0.3761225291494049 0.48263100937033143 0.08338679485928699
0.6000000834465029 0.3392121461635617 0.1841627606123926 0.11108195075554105
0.6000000834465028 0.4121595390830341 0.2501937962188725 0.07343865178522939
0.6000000834465029 0.22507389943158349 0.23000912239964807 0.08252056700992642
0.6000000834465029 0.4250734316970048 0.4577096423629734 0.07624032273226064
0.6000000834465028 0.5780675447952942 0.44307731768636865 0.08357215667423823
0.6000000834465029 0.4799313098860536 0.18600419165628224 0.10164289152728738
0.6000000834465028 0.5939250569609209 0.4534859144646121 0.08479863652645238
0.6000000834465028 0.25848705835509994 0.3784463263314131 0.08154998495295346
0.6000000834465028 0.5410493219535164 0.3046582994918561 0.08219428872336675
0.6000000834465028 0.6261897939687748 0.21480272204485046 0.1384565526671811
0.6000000834465028 0.5307694759245292 0.6686569953455528 0.08421099337552497
0.6000000834465028 0.6005569006041447 0.3817427368171694 0.08894314291395208
0.6000000834465028 0.5756520409940372 0.6325125473241103 0.07584953678630514
0.6000000834465028 0.45367013553813657 0.5707891277902724 0.08198213118099837
0.6000000834465028 0.5709213612794323 0.5522313268956477 0.07457028908708911
0.6000000834465029 0.465648859211631 0.31684274887261243 0.07769057231367602
0.6000000834465028 0.5628658676343092 0.6444413835147754 0.07628182630335215
0.6000000834465028 0.5405167136185498 0.35611289842497124 0.07358987916123569
0.6000000834465029 0.48069951900074825 0.2730944646696835 0.07920301898626028
0.6000000834465028 0.43718770929737927 0.601161712760046 0.0763576278785897
0.6000000834465028 0.4625576043255509 0.46907609433111264 0.07685101289977649
0.6000000834465027 0.5184875264369576 0.6695046448546846 0.07599035928856177
0.6000000834465027 0.4314325478866107 0.5753540132397321 0.07960169804274672
0.6000000834465027 0.48982720151966475 0.548679485977714 0.07662203781430693
0.6000000834465028 0.5452448520409475 0.25381208401623445 0.0732220827944825
0.6000000834465029 0.2216354595285192 0.2529472155150975 0.07745493190844836
0.6000000834465029 0.26598961189971027 0.3333733377316041 0.07798725784787733
0.6000000834465029 0.2664528237000278 0.2287582287455015 0.079681088580607
0.6000000834465029 0.5207596837701666 0.27867226728752975 0.08409738516142211
0.6000000834465028 0.6056976780779727 0.7561916738172144 0.10340478639937654
0.6000000834465028 0.5074527172891649 0.5624148080410013 0.08478193048549691
0.6000000834465029 0.5721778746620985 0.48911726677510076 0.0811686374371094
0.6000000834465029 0.41898424144993524 0.41403540497088576 0.07761562420228016
0.6000000834465029 0.5305519175141862 0.20761957911703013 0.07636700898754593
0.6000000834465029 0.26259656748404164 0.3877608332690262 0.07929807603884434
0.6000000834465028 0.46977651791301983 0.655841451337099 0.07524365445911048
0.6000000834465029 0.3810220791810861 0.2360949713871641 0.07818695547492094
0.6000000834465029 0.5451485887680687 0.40520632567314235 0.07319198248439648
0.6000000834465029 0.3463233037103398 0.42462130363087447 0.07735500505003867
0.6000000834465028 0.6018697867386084 0.5852128403143437 0.08789595801388263
0.6000000834465028 0.4247783495945717 0.48575585839167323 0.08263341484258896
0.6000000834465027 0.5159174630144597 0.48855537189240406 0.07676911647439107
0.6000000834465028 0.2987505904403401 0.36655584677380004 0.07484150558908739
0.6000000834465029 0.5530548312994593 0.1764906081156314 0.11061247200102775
0.6000000834465028 0.43465514851099407 0.4959583760318326 0.07766152234438103
0.6000000834465029 0.43222003601582415 0.15855766707014823 0.15268263198839785
0.6000000834465027 0.6273940964715901 0.8552355769512868 0.18959218900162494
0.6000000834465028 0.5350864911067204 0.39361467114806004 0.0762809678278401
0.6000000834465027 0.5289373072334798 0.5827736913121124 0.0824029655243905
0.6000000834465029 0.4544632886165765 0.33119737281204575 0.07660943359938557
0.6000000834465029 0.5719740066333323 0.26707374311737786 0.07248337240986627
0.6000000834465029 0.16268467874243575 0.1841511617671573 0.09787330085271169
0.6000000834465029 0.5414853460901141 0.41820685375435934 0.07425918133977391
0.6000000834465027 0.5363802232507957 0.677039009398084 0.08128104529528549
0.6000000834465029 0.40047771802878923 0.3987415736009392 0.08029626089503265
0.6000000834465028 0.42979847280990985 0.29900070715469057 0.07801784575462062
0.6000000834465029 0.5702004271846141 0.2845090992226961 0.07408359041533934
0.6000000834465028 0.5919013927701057 0.5558705873171158 0.07510927320534053
0.6000000834465028 0.5854249568353336 0.7443722669121811 0.0773833025549366
0.6000000834465028 0.5836182513818814 0.19356359685135488 0.0848053738025414
0.6000000834465029 0.16171440071842563 0.25195255923583554 0.07939266841314109
0.6000000834465027 0.6326600609362106 0.7185051655985947 0.15966212592276102
0.6000000834465028 0.35250846957712684 0.31005621733012045 0.07300511334735474
0.6000000834465029 0.18162488664632845 0.18467275609508238 0.11234387251563124
0.6000000834465029 0.453053078591849 0.1933034201215574 0.08428790621562099
0.6000000834465028 0.34322491947027645 0.35381300768337476 0.07769520261329352
0.6000000834465029 0.5876258855034928 0.214624007862919 0.07563402195563075
0.6000000834465028 0.27169130427213184 0.40576819857687524 0.07804343483892358
0.6000000834465029 0.6298826058126666 0.23782378434420923 0.15777408144158087
0.6000000834465028 0.5835582930931696 0.598904588473836 0.0765188371979705
0.6000000834465029 0.2568054990869812 0.23520242277480924 0.07814711094456646
0.6000000834465028 0.5583238872872541 0.7261137843653379 0.0777174461487286
0.6000000834465027 0.5093790424631143 0.6763191199223396 0.08355096300275464
0.6000000834465029 0.31955187160878995 0.16641424073702493 0.14493713499895575
0.6000000834465028 0.5772236280471903 0.32640457846232845 0.08173912366112941
0.6000000834465028 0.39456827461826327 0.3521178449240895 0.0744220438941612
0.6000000834465029 0.314149167257036 0.2169268798161157 0.07280025063848176
0.6000000834465028 0.5398871439831846 0.714111667121647 0.07873398743273324
0.6000000834465028 0.608869137203191 0.29023555968025466 0.10853872717536744
0.6000000834465029 0.41296380162786317 0.26274801504518225 0.07625691161670213
0.6000000834465029 0.20901866191810273 0.2045123610438428 0.0791302755061043
0.6000000834465027 0.5897703565478473 0.627142214591702 0.08039961567378415
0.6000000834465029 0.29202817865254793 0.1835476337385693 0.09585034493892843
0.6000000834465029 0.36613579378461375 0.33410695571517934 0.07496948631198423
0.6000000834465028 0.5780932063903317 0.585922835711083 0.072974520062174
0.6000000834465028 0.630402633461163 0.6567834494177501 0.1535786877726545
0.6000000834465028 0.6291242962751101 0.5207498880317115 0.13141904211361405
0.6000000834465029 0.33199792352805074 0.32228845924883787 0.0777007961176575
0.6000000834465029 0.36286174802467325 0.16420384251030629 0.14390757862253473
0.6000000834465029 0.5133277383057493 0.2301656804772616 0.07510624158324464
0.6000000834465028 0.584172932708179 0.49157152742864013 0.07643051214246291
0.6000000834465027 0.6210426461832171 0.8383251449621048 0.15519601133903113
0.6000000834465029 0.2542637079129304 0.18092424527020864 0.08520158135462462
0.6000000834465028 0.5459073151530413 0.5007785888381974 0.08134215670140302
0.6000000834465028 0.5360965378929111 0.49718820506461936 0.07793906608445852
0.6000000834465029 0.3882070734027952 0.18081548466205608 0.10269666835290772
0.6000000834465027 0.624846462957724 0.430847394789472 0.13558488265857985
0.6000000834465028 0.45365633724063087 0.24044380345366756 0.07902717745605616
0.6000000834465029 0.09556161372253026 0.1640508172783087 0.1256732973909416
0.6000000834465028 0.2787184483279088 0.33193701141199233 0.07440586673171665
0.6000000834465028 0.5436611144598424 0.46687820117128664 0.07751830421670718
0.6000000834465029 0.41509866212960433 0.28562575555820024 0.07765792713612876
0.6000000834465028 0.6056498014514151 0.4455321822821279 0.09950918386192974
0.6000000834465027 0.4189443260858965 0.4665229788743611 0.07213337503846227
0.6000000834465028 0.2850650689665719 0.4110531316363982 0.08237415869856983
0.6000000834465028 0.6316960995733139 0.4200794884835909 0.15254047580810418
0.6000000834465028 0.5435474548148806 0.6166502868686646 0.07123094618887024
0.6000000834465028 0.3952868690941422 0.48504297003341973 0.08037817816605816
0.6000000834465029 0.39841853566167873 0.28580369885340073 0.07227012785865186
0.6000000834465029 0.44762982934616274 0.2213057218732156 0.08259562698695544
0.6000000834465029 0.19507923242498063 0.3085032365312107 0.07312808203933967
0.6000000834465029 0.45937234183647646 0.3693912555464452 0.07914295045071465
0.6000000834465029 0.4879190801671586 0.2848182119793252 0.07565198865097228
0.6000000834465029 0.6238847118266749 0.2244131534150099 0.14959406907469075
0.6000000834465028 0.524271907549819 0.43544158923984383 0.08050178679387099
0.6000000834465028 0.4931638234779623 0.566086108697537 0.0800160914017455
0.6000000834465029 0.21883071839742438 0.2428479778891271 0.0782173806104269
0.6000000834465029 0.18459710115921157 0.212530679654648 0.07583790004222246
0.6000000834465028 0.4793721116923224 0.4117977768272252 0.07681574116531183
0.6000000834465028 0.4584179613882521 0.3479179829596006 0.07885739138785264
0.6000000834465027 0.5039831459903081 0.6360021084366619 0.07658256918144753
0.6000000834465029 0.5274193527527268 0.19329498648254545 0.07572726308594627
0.6000000834465028 0.46351962367857513 0.4097972183140232 0.07669404836811139
0.6000000834465029 0.20176043108138086 0.17057358613896034 0.14618187555464124
0.6000000834465027 0.6313982512692615 0.7876625602842248 0.1346524871648659
0.6000000834465029 0.17400162666631702 0.28388838642837394 0.07345756483617359
0.6000000834465029 0.14223219263339956 0.20610521618607688 0.07970080631909073
0.6000000834465028 0.398203525274206 0.5316373193413676 0.074470078537085
0.6000000834465029 0.19424650683612554 0.19081720997281715 0.08913302737142417
0.6000000834465028 0.33756298309331023 0.41786310950965544 0.08165915373850534
0.6000000834465029 0.4688170701529989 0.17541849401773316 0.1183808644790888
0.6000000834465029 0.34246927750518563 0.2396839395472441 0.07310894201773409
0.6000000834465029 0.20880188089084872 0.2158123802625567 0.0856175399186525
0.6000000834465028 0.5459617263495968 0.5248194974094426 0.07620702268167492
0.6000000834465029 0.3323371919178131 0.2981044211075963 0.0743244353199757
0.6000000834465029 0.318770659543735 0.3563274122255131 0.07728363569423886
0.6000000834465029 0.6275609725729355 0.27114320263410513 0.15027434869713044
0.6000000834465029 0.6356053247789505 0.4389696249702241 0.13851890307000247
0.6000000834465028 0.5577410463624689 0.5053660953146678 0.07790437714863278
0.6000000834465029 0.21159018775657673 0.18047522627597795 0.10518412555473769
0.6000000834465027 0.587283936998889 0.6648260378498801 0.07843158877843802
0.6000000834465028 0.506067092879871 0.5099152839581582 0.08280069539568934
