x y z curv
0.1521111599397648 35.420429597950545 472.05437015978987 0.01190803714327305
0.14491378802544438 35.42274136069322 472.1194723801184 0.003675959224013327
0.07552694760344876 35.425532458291976 472.1274084362123 0.0441992328941865
0.37109872269270516 35.41701105319956 472.08021224332174 0.0029969124955368073
0.22804846309287635 35.41567450205833 472.03074022283846 0.003779914972758067
0.38402642361146644 35.41833622423763 472.0300957617474 0.005549515229047183
0.47966325291515277 35.41956476633349 471.9744516048271 0.004504871176521315
0.13439698511552933 35.41639965956538 472.03944710837857 0.007252579804496349
0.7430160177156921 35.42221565261155 471.9629471695663 0.0053768999220511066
0.26211526234088856 35.41366212931281 472.0506083822348 0.010287486650458883
0.48455376755749063 35.42263269292974 472.01458834547327 0.009089607694254199
0.25000795404625437 35.41842673180219 472.0241919597415 0.010657751303243843
0.48119434347349377 35.41231993193286 472.05137906937114 0.007579471424260655
0.772614043258547 35.42621136918287 471.980925502607 0.0078557158573099
0.4145574752130449 35.4219616884898 472.03846726350315 0.009310311957515026
0.054001603818914605 35.42588950868126 472.06949968052083 0.05091953492414623
0.4066672282934615 35.41390442756586 472.0166291755706 0.0028554677157569394
0.0578795825370758 35.42223472661571 471.99732581757803 0.05353552344241591
0.3270674726281208 35.417087036099026 472.0899434499347 0.0037983599683487283
0.17570745188676057 35.42366803823069 472.12683239553695 0.004041630761295452
0.3562957005267755 35.41707745251742 472.0093317985758 0.005206543340555626
0.4698721816827767 35.420954214048635 472.04968492637624 0.009371518444036997
0.492222958382131 35.41586263138664 472.04726686406667 0.012550240124496804
0.09444290705991255 35.428148836059314 472.14853823830543 0.03188705032641932
0.7918460620303942 35.42704244487653 471.9816044411499 0.007170100018641282
0.7887085441738424 35.423129944591075 472.0049695519148 0.0014177009824221426
0.27129203507721955 35.423130024541415 472.0743455127433 0.005823556548291792
0.15009694740463653 35.41828915588267 472.0420735995424 0.008789973879625481
0.22930382990628043 35.418072479532505 472.02270839957816 0.01587802064390805
0.4932415961775214 35.422935236925525 471.9651874645046 0.01884679447509824
0.20382325662307296 35.4196766461579 472.07155672344913 0.0025521224744556566
0.5161863101205288 35.42209253656105 472.02568043349527 0.005590722576595283
0.2194683022267634 35.410924024834564 471.9659255862091 0.002119360183605575
0.07914801151032733 35.42201927776722 472.00717944324686 0.03812887455576505
0.7501329697473421 35.41678974402984 471.99300858735813 0.004604022379728972
0.07638795271461572 35.4222184875722 472.03173314327336 0.03488705592528378
0.11891972066728002 35.420574193905736 471.9811635081028 0.006403464343753531
0.613215695893219 35.42159277838278 471.9581902397312 0.010028548782904023
0.0813511434152083 35.42005426376879 472.08759397269887 0.029543791422684918
0.06409653609483687 35.42166892694237 472.10933315235707 0.09504268408184469
0.5041927070317108 35.42424653930902 471.98435119748666 0.008108860321713672
0.576795183749601 35.42247455692389 472.0320454394008 0.015414709583611984
0.05350992772136219 35.43032068830938 472.13805212547027 0.10366673458088398
0.12371826105041772 35.41971006923392 472.0019892443582 0.004862313456344867
0.12396611507860532 35.42710781401352 472.05793139790393 0.010741755515257419
0.5803350057916759 35.425648392690675 472.0066759797052 0.002062634032473567
0.6482781387596647 35.41840598085863 471.9897954597919 0.010118875865337312
0.3304132407947955 35.417560061193235 472.0639846886565 0.003906612168611867
0.30168972990724174 35.421665911913 471.9938021628917 0.0023296696291797273
0.6422032883423532 35.41862070895771 472.0218177375098 0.01262161222482529
0.5310713212890913 35.418579134366205 472.0112984493451 0.0068403760742952275
0.17510994893427959 35.421831569124635 472.04523993346 0.002569422298804257
0.0654074049316585 35.41843858438328 472.0804855455992 0.043640726282762804
0.7856873571543691 35.4189561118102 471.96372008437504 0.0009125887802210321
0.27373666857944084 35.41819601967803 472.00512354221905 0.0032861810777641987
0.38936870531257317 35.41896922444065 472.04387815739034 0.006524646250999155
0.4439486617547773 35.42069756663684 472.00843704237 0.02198523068424757
0.5684883508205962 35.41272641527875 472.05801419223593 0.0067146861723932005
0.24330879449892182 35.420836566439164 471.9620088932217 0.01932868266186913
0.3812294001413693 35.417147354848964 471.99023381332825 0.009616828754053569
0.2792283115710151 35.42014734209227 472.0788465719664 0.008343578430586538
0.6680356998720777 35.41845332988648 472.00984027849734 0.016261636698652025
0.47031430542260827 35.42269967536504 472.0680805196203 0.009372272222739014
0.16060750329595827 35.422831813984956 472.14361361207773 0.009639417739282992
0.9102839194293695 35.41962250537263 471.98722053756387 0.005438420537219476
0.35307859991370916 35.42112574691277 472.085471707664 0.003517972175377289
0.11478118364447316 35.42343853481051 472.05814568024607 0.014953886376708234
0.3210528316919688 35.42378077481997 472.0059914937857 0.009089834866755936
0.5620207029410373 35.422852603690465 472.03389493815615 0.011072726697252918
0.33669514113986654 35.42540527332306 472.0410103251152 0.0046321505867323925
0.5489010711004949 35.424420637853196 472.0612931956402 0.012207023744064011
0.131222285314666 35.423480422482406 471.95691033592107 0.007416850906566417
0.3649658850753798 35.414746225673696 472.00005250364393 0.005959830520724266
0.23501311923745308 35.42189739082464 472.102030398131 0.00575855979495974
0.3397295516469973 35.42175563304357 472.06958169560147 0.0047135986848665
0.06729351071713298 35.4194980396376 472.0271246720221 0.04693585266330572
0.1956698754966426 35.418200289681174 472.09030279963827 0.002265541133658077
0.43658948446605156 35.424041246649686 472.0417217453406 0.002820247439879209
0.11596002435013984 35.41689858196116 472.0353035701245 0.009589633535836386
0.30414918824388626 35.4211058457593 471.98524708033835 0.0023550696292900792
0.20875591089098794 35.42105414137748 472.033893848376 0.0074680861383826895
0.6220078853782456 35.422881915681735 471.99021840602853 0.014916260729785153
0.38872985942222477 35.419044474591146 472.08126917672575 0.0032419188962596562
0.16027180233421956 35.42024570996596 472.1335957084686 0.005280842906321934
0.1153220996620487 35.42126703840112 471.99270184382834 0.0028374164392622313
0.1673408823920808 35.41997485101326 472.08909704819115 0.004250315501497745
0.7810461739855465 35.41956820067197 472.1393185549571 0.014198162287675542
0.6139023230202669 35.41987861532193 472.0863421150068 0.005851866314358448
0.9765330062441545 35.42078484609993 472.0191460182329 0.009827280525627603
0.38323661076063725 35.41487457865301 472.115454877315 0.005280937575517641
0.7742569664431633 35.41800585200599 472.0386900485376 0.0026272127968413536
1.0341129744335606 35.42337348724358 472.1443104733081 0.10812435773764295
0.34195909507267 35.419355956990074 472.15174512532394 0.05511751876589331
0.25135239783363955 35.42093763074656 472.13230691439634 0.011858545766421926
0.5666018008290927 35.42288059274547 472.1127346936471 0.004937686651510953
0.13435232606311368 35.42402912209358 472.1393054968916 0.012060175564233387
0.49621747468536054 35.42290974046567 472.0817487212653 0.008778753135396106
0.8413611553550193 35.422601185586984 472.00307106435304 0.007974530488484958
0.8373672616505001 35.42650539043569 472.1493850288784 0.02623135636724552
0.8658181243051523 35.42778984098392 472.153196545336 0.028616962927167155
0.8529181605657757 35.42723095136345 472.14349789485703 0.020015149842406495
0.3060350380385022 35.42744458838652 472.1474356371502 0.09474071287969367
0.7408397728770444 35.42151147567253 472.03684784895535 0.004454813934159773
0.7663590147450202 35.41907673287682 472.05141253689203 0.004892038238028079
1.0365541481487253 35.423456406360856 472.06444416114385 0.09577659116725876
0.730030375837445 35.42668278663835 472.1403101986609 0.04394667191548107
0.8907222258339719 35.42064852620062 472.0430213309957 0.0031691048407967836
0.3428870400708389 35.42080350580086 472.1136281460332 0.0049294510594808105
0.45733205287654266 35.41687007761816 472.0819012116806 0.017363137757865122
0.5352630897232098 35.418713610892596 472.093553294708 0.011547095400348574
1.0686698515885478 35.42729789346396 472.12644947283246 0.032205744612924116
0.9860289704983007 35.42213726160213 471.9863846807299 0.01098881977504871
0.968556622474026 35.421730696189364 472.1436895333176 0.04681048829575235
0.7241377995643974 35.418405756403324 472.1163316093797 0.007686350566968761
0.43898917435341595 35.427705723482966 472.10346767705886 0.004907748931267171
1.035025192165542 35.42498220739788 472.0388276409562 0.09881840153785501
1.009499502950662 35.42319820860252 472.10443802055073 0.0026301556091411393
0.7977939940877001 35.42106679244609 472.02106171958167 0.004663407786920927
0.3260116739790104 35.42321045825623 472.13997874645503 0.03704774686334992
0.7478790703354219 35.42872203725695 472.15619687500725 0.04519135928957169
0.5107102187726867 35.42639149276565 472.0933050804183 0.008685364030813292
0.860486335074696 35.417635430324594 472.03030196040953 0.001277655954752848
0.7982649999935294 35.41858653924353 472.06092442490996 0.005662502273820728
0.3865756073802535 35.41503978378609 472.09308864702047 0.003685027665615325
0.8144302099662082 35.42756867016483 472.1426368249866 0.014876967259561853
1.0058179017302138 35.4235008163762 472.147162172821 0.02398270127582564
0.7988140792453515 35.42316431997916 472.0442301317721 0.0019283514913055208
0.6493909700460239 35.41946693525442 472.08241368113875 0.006255504517765818
0.8717215928597178 35.42259287299083 472.1058579516439 0.0028432028536863603
0.9307754914703049 35.417873564851426 472.0865486972245 0.00895585655772805
0.3690037773702116 35.41929409876436 472.116551264571 0.007321141103996392
0.14976440386642578 35.42134008429295 472.14891238232553 0.009068054962863671
1.036027514483748 35.420237750302505 472.0937909002699 0.04732581278722054
0.2543792238661592 35.43533429026349 472.16466207337766 0.011422492957050667
0.21059654186433827 35.4206739582598 472.1247941390095 0.004092216859031412
1.0165138021202318 35.41728324226255 472.07913844922894 0.004069949676081437
0.7972414955715206 35.423235355887996 472.11354809235655 0.006638189198342337
0.3890432609436642 35.416805711350605 472.1287316524838 0.00589485870050625
0.9403280866111104 35.421888173606355 471.98721910225254 0.00603135583099066
0.9365584701241676 35.42209918842374 471.9991940813265 0.00783312229807246
0.6223918322817902 35.417495301447914 472.07202700599237 0.013162436856885966
0.9130308909296854 35.42278796320514 472.0661303284989 0.003448895549574472
0.7480020908736519 35.417649060986854 472.140997151336 0.015793801262713045
0.6507721965748264 35.41554514336898 472.13408941451075 0.008877480439295815
0.40116224761260816 35.42325796456144 472.14286860413125 0.01947805007940849
0.44379413752506636 35.416451438018996 472.15117311180734 0.028386640622592576
0.1794179532269592 35.428519017663 472.16425828407216 0.01604750889961764
0.3763804267611805 35.42486554536002 472.1598487979597 0.035507134354497635
0.9722171329889931 35.41821364115283 472.1263130935629 0.004493375973257305
0.6274535591653336 35.41710313668295 472.1566135189881 0.006744750068132344
0.8782183007182879 35.42063757201514 472.11288612567836 0.003917211290633263
0.8963781006263618 35.42152033185331 472.0205058258455 0.0034690426178916904
1.0539242469902868 35.42330912587936 472.03227587257146 0.06347003387412675
1.0521313010572912 35.426934398136304 471.9767648190988 0.057454992064076484
0.6891927669718889 35.41871473987418 472.0883544812424 0.006825188277308907
0.8085853270315686 35.41881090818733 472.1194981502878 0.007430067477493196
0.5799647399734685 35.42420255918414 472.0690053119693 0.0114030705655336
0.6343100748470468 35.42181037378224 472.07419752053306 0.017495608892742008
0.27600872384989983 35.41512099302583 472.12598125774815 0.006027298238630466
0.9730403924663303 35.417833915472 471.96802620095536 0.013691924562612267
0.85938727188846 35.42031965824856 471.99675870054745 0.0088940053203891
0.6314420677048312 35.41673068703235 472.11853883024014 0.007344170783761834
0.9251455910465521 35.422899514182205 472.0355631256481 0.006285493914172065
0.9219669552598847 35.42414425971909 472.0175730946515 0.004255513104310346
0.950778600398324 35.419688770949314 472.1456808466412 0.008514474478762435
0.9931860870150614 35.424206084239124 472.1421378793643 0.03402423550846245
0.7508900884022555 35.418682849212544 472.03268881400857 0.0046537191267635985
1.0408869062793698 35.425167555713735 472.02558907078503 0.07821183428431705
0.46350442095207023 35.42496575761916 472.1449424042768 0.05744849572192624
0.9869737292724972 35.424377352929326 471.9938496088916 0.0023600537741914804
0.8212777451566824 35.41489198855953 472.05284037964253 0.0050699215919261425
0.21836475536266498 35.42511969515563 472.13939590695406 0.007622979643911058
1.0156313168307476 35.42112547770075 472.12970866047107 0.02080350096579496
0.9107958886694035 35.42146596920817 472.0324828812301 0.004484006657576202
0.707641927329388 35.422172636982225 472.14875943998624 0.007902012569082111
1.0438470121036059 35.42038755431429 472.07212927633594 0.03736982030466934
0.9603385517331117 35.41351887854755 472.0663612921476 0.00671468897556948
1.0393503847838643 35.42262394967392 472.00331332989543 0.027869968529365765
0.41788149274376374 35.42308136627159 472.15026764638503 0.04460627168526924
0.9673424004249314 35.41908242987557 471.9917106317285 0.007707184123943681
0.434124714168979 35.42410360021883 472.1322209337273 0.0519294247306963
0.7837389529212342 35.416975842372246 472.0641247658543 0.005866697532297262
0.49086559014476255 35.42568788677218 472.15632423816623 0.022216371769359006
0.4103838467615453 35.41681125846972 472.1320824761738 0.02805722519576938
0.686477542702825 35.42216029842432 472.0561265529199 0.006130471312950622
0.6775173876622436 35.41843710398494 472.0667759726639 0.008396255477381563
0.08365478593769005 35.428016064649405 472.1528878337879 0.04929253872718927
0.9482186113879111 35.41623789194718 472.0027353143919 0.0033606149113855647
0.8792452809484427 35.42154010306584 472.0876631649084 0.003066054738025986
0.6577553384169827 35.427926561664776 472.1673136208831 0.011265693579516494
0.45850127185187706 35.417542742225194 472.07266304947484 0.020339944370158743
0.9755190603042223 35.42221334517071 472.09623840817414 0.00818806331216898
0.9279846986328691 35.42392033441321 472.15541776723126 0.05227501799092077
0.3026350577801318 35.4226318952245 472.11633701446186 0.008717327398087601
0.34506720668959007 35.41758872429589 472.12382052372993 0.006276250839783201
0.29627088829828135 35.423435569866776 472.1187021315458 0.011024657969130195
0.585532557980257 35.42261391041632 472.102610580342 0.009631460270660412
0.8046601404099412 35.415563764990075 472.0765129326124 0.010835523984349137
0.5933073178349044 35.42548940198155 472.10468101825865 0.007792561705189152
0.5825683830951337 35.418245620116615 472.1348168746159 0.026883454173886993
0.9029874650974079 35.4236482957061 472.0107834891269 0.0017331687363154103
1.034828585742129 35.42591095061304 471.98174547115485 0.03901755554235614
0.21096121534390422 35.421688726544716 472.13435525198065 0.006164335436092199
1.0388419937420634 35.42553205900842 471.9704091722185 0.045594711975881344
0.57508727231671 35.41942278713742 472.0887622653093 0.018083362144371264
1.0338530643452775 35.42373672091753 472.1567417505163 0.15509326623537723
0.904147616086665 35.424017124080756 472.0520072345942 0.004290312439490391
0.6123630015907421 35.42545157161499 472.1287724389747 0.009311722009007354
0.864757616024749 35.42311103347289 472.05584295566644 0.005073386218498633
0.8703190766871681 35.420112731509676 472.0124039354822 0.0030646923751872735
1.0027156475368815 35.423856186192786 472.04086845409915 0.01006446318670819
0.9924919579266348 35.4171299603514 472.08780690519694 0.00752809829660626
0.5663201826459853 35.43054203331149 472.1580246147282 0.011742576331432508
0.8779193136038378 35.42528676431153 472.054292311429 0.003312558945820697
0.9304930564892611 35.41857611651487 472.04681405074905 0.0030782730791125506
0.5089341427704042 35.42128162026879 472.1556968192201 0.027382459198175453
0.364317766627515 35.425371622751015 472.1512235688991 0.04627884720951412
0.7582755281354105 35.42598002711618 472.11317930167917 0.008581041538439017
0.7737794925883758 35.42014328490539 472.05103372419785 0.004078764758530167
0.262686744105372 35.423001640366245 472.1341391678899 0.01707510800610567
0.9487736545143058 35.413362144970826 472.0499861654278 0.009049180627791708
0.6212103298117213 35.4239669363249 472.0519180908094 0.0129678915971628
0.5550316514169849 35.42707010612656 472.1515048625229 0.012244103806164886
0.44259782292100036 35.4150018648675 472.0798495935058 0.01269853103626782
0.9167794536975669 35.41168017490986 472.1399752623467 0.00887993784832407
0.778128143324781 35.42150358481207 472.0126800894925 0.004213681315159082
0.7651618494093845 35.4130713438847 472.0890782989629 0.004339104333242654
0.6915342416050775 35.423247321210326 472.12996707682794 0.00795504695986863
0.9663411240347345 35.419908963796196 472.1112061184518 0.0032470369215105363
0.6994945341124257 35.42296512095957 472.11441757692177 0.003984869018015539
0.5794759472703973 35.419851691063116 472.14430237283887 0.03024083029355548
0.5163474099205325 35.425718071993316 472.08244390937995 0.009869260839255947
0.773391448866711 35.41987584581699 472.14382658485965 0.01447999368934898
0.8196676182196844 35.41664079126202 472.06111902245334 0.009030318358357589
0.47519028463315927 35.41993299480794 472.09386421631774 0.015151638593573555
0.7158808170622608 35.427039796872236 472.1545180755735 0.03744283317139596
0.8456620934358736 35.42339011695578 472.03670515299086 0.00646719795036496
0.4845223612383344 35.423858552986374 472.1417479692628 0.023123058176445457
0.5460556467271541 35.41896324615784 472.085695383914 0.015472999001639306
1.0372032103444397 35.42471576520692 472.0391983634984 0.09002584782049218
0.858918318546017 35.42420509526406 472.0621932507387 0.00713284045032983
0.9687723162721003 35.42330458637663 472.01605620398914 0.006406437432891538
0.5447195024149647 35.41539444695846 472.1217823838645 0.010906221389757494
0.49966943582448387 35.41600199568008 472.15257883253577 0.016647783241197974
0.715340654112098 35.41907561038341 472.0417118545841 0.013051825921642609
0.2633652614523408 35.428441115704246 472.15354298682956 0.029366092332732182
0.46211480147281137 35.41679437607739 472.1175607040041 0.013534375321159428
0.7436390294525289 35.418205168408264 472.0799531259743 0.014682267246673975
0.8457979382417521 35.4272526460721 472.1240974125799 0.009299220610693125
0.7174021614767095 35.413780288596655 472.06609242529345 0.0038344005643224217
0.6664785028135423 35.42429013055535 472.0956285755666 0.0009480336400200242
0.7490477150775822 35.42230271584395 472.04926148357697 0.0033180335059123244
0.8777400414877528 35.42154382741867 472.13493337276896 0.013794041850204117
0.5982814847703564 35.42493968028666 472.0853951123823 0.00935521745359247
0.9637325678025859 35.421350428597734 472.08288248175313 0.00659907352647933
0.21603255030723068 35.42463303012481 472.15466711422954 0.019752660645687925
0.7448590934353472 35.42292407190739 472.11756158877483 0.013836343962294861
0.8035264628163244 35.42363049543701 472.1377733627823 0.016760795914088716
0.5225356730175394 35.41873599775483 472.13329720208776 0.0173308552524788
0.9754451350959268 35.42163497235878 472.0310208552906 0.01072460167101994
0.5507553438302344 35.4158000989985 472.13829603328327 0.017674538742474887
0.6931478494684247 35.42238600817284 472.13056849164775 0.009025755464874895
0.6932067291586008 35.42131829756064 472.1033706908747 0.0046733201981762704
0.6403278725486755 35.421293165048525 472.1443829485482 0.017443800484590214
1.009883786693719 35.41498287330488 472.0263086492151 0.004345864219631167
0.1857256867281908 35.42175535757359 472.14579825513164 0.011398581395857981
0.839566029116475 35.423614617821436 472.10312378006347 0.00608569646788129
0.6396912026050896 35.41156882174975 472.05359609972396 0.006445672661725465
0.41285970597751437 35.41806355329354 472.0971343023219 0.012769084257725159
0.6690027818703552 35.426127534252714 472.14836257787454 0.008958247350927335
0.42634312121761464 35.41899799173612 472.0860925853712 0.013936881031779726
0.473505004229367 35.42213756785149 472.1098255512504 0.009921146660245753
0.817636677073695 35.41895649728814 472.0946341169933 0.004365471935765251
0.9789788577946289 35.41744925126044 472.0843992074847 0.008222446007416886
0.833309555794581 35.422381896757344 472.1419065744609 0.02167598746455515
0.8990114906367133 35.416721253030595 472.159729769246 0.006833627358911573
0.7217706772619047 35.42278366227649 472.09573736407623 0.005193511506226922
0.2282005989605041 35.427067014408365 472.1241237905819 0.002826028906723646
1.0550349805024541 35.419514890032744 472.0844189504888 0.1222563928040965
0.8548074689732386 35.42368900360486 472.08711130919016 0.008302579748279991
0.601952457215951 35.42563371121921 472.1496414298751 0.03067113302900874
0.9847581184013934 35.42030079273165 472.05471975297036 0.010364585906771183
1.0403825275634704 35.42011232995609 472.10504370165364 0.03266206259688725
1.0109639042939358 35.419977128825806 472.06450962618237 0.00701498595297284
0.834079882535244 35.422286342204565 472.12902177742683 0.007068414619113423
1.049595049042936 35.42420504340063 472.00405606174246 0.03767141374279047
0.6686931056415332 35.41802731553109 472.06528601462605 0.013705632332067895
1.0424193540926041 35.41919643551467 472.1156988285086 0.10734371293418025
0.9263957640324312 35.4229665972064 472.1050083312967 0.011422143781357101
0.7490066122398473 35.4205332708282 472.0249085646219 0.004974015880094598
0.5597363688712815 35.423687879367506 472.09554260835927 0.006201216450415054
0.4999873953853866 35.419792175839454 472.11750680458607 0.005916685888145315
0.900591664014885 35.41519686624362 472.1397810289544 0.017414935058548672
0.18998177406801534 35.41912402560196 472.12263888500365 0.005362430576791635
0.4735629162854403 35.42424215091182 472.1490102035728 0.04448792637836389
1.0187642912109727 35.41761623190258 472.0113124492488 0.010124219124549498
0.7816995210102229 35.41866683765425 472.08165720817476 0.009560185174830576
0.5707216551907728 35.41878062921815 472.07659770047843 0.013429337858543116
0.8806299066638226 35.42893299905999 472.15709397190346 0.015567546422721793
0.71947062818201 35.418859531979486 472.13114927118386 0.012009484612738017
0.8591789114454339 35.42310196555276 472.09650585661404 0.0031388160410386963
0.9048705908750577 35.42106010459283 472.11646294840165 0.009267951605545126
0.8039313850124787 35.422325047025105 472.01849113067107 0.004944307279539078
0.7059394719667937 35.41702550682164 472.0343283281983 0.016974640455031338
0.2919254790697494 35.42491212927274 472.1450692967052 0.046465937486047354
0.5910148398061595 35.427259254300424 472.05664451160504 0.01197740440109149
0.24945535271750008 35.424940999800604 472.1376423000089 0.016061687423017324
0.12008156318627401 35.42446002475913 472.1417509953951 0.011775329984594378
0.9442425952167026 35.41968249066336 472.02694660784266 0.010060540246253928
0.8683506766766806 35.42902765085122 472.1571296226454 0.021732353884521584
0.7687615095976144 35.421305651012474 472.13083609444374 0.01803289129447674
0.9909183658157497 35.418269820837864 472.12368854455286 0.009441423008035753
0.5369851562413945 35.424065118063425 472.0624555195016 0.013033938865902627
0.9134394952232142 35.41635752885609 472.1020250808107 0.008118597679933715
0.6250885751133587 35.419618904129756 472.1095915861725 0.005336880553381181
0.8903620792238345 35.41692318731475 472.092058322201 0.004023600892371246
0.8408783357949136 35.42509111764247 472.0846842709854 0.004165209778620988
0.8170455682911677 35.42134468640456 472.1235319121833 0.006544574681518309
0.6126035651847422 35.42587141782145 472.0562664443168 0.013513637926057021
0.5185860008036609 35.4174679608043 472.0681940631842 0.011504039219917148
0.49983788982995714 35.422397457608305 472.110106234556 0.008892088233481315
1.058567968899172 35.44988675964677 472.0115071413073 0.05632800890128847
1.0561863065706116 35.49650592022448 472.10535057842577 0.0007354405907577005
1.0502117269538371 35.45858704058875 472.08372266023184 0.006430350881743078
1.0546870688537517 35.45499162943847 472.03480212691574 0.06141075786920239
1.0566128851465855 35.58065773801561 472.00201783545424 0.002952238760981052
1.0545476586460105 35.53932091532823 471.99224886771805 0.00795616203021246
1.0642315509196334 35.89198239844348 471.9511967490705 1.2556416439096275e-08
1.0585123384787518 35.59862924036351 472.0175701594278 0.006801237655293194
1.0558770337006562 35.76135095788557 471.9794954857534 0.006822907282093964
1.0641168259499842 35.4595804030107 471.9929754538031 0.01895024582694278
1.0611615418394318 35.659475312563345 472.03990526058186 0.0043739855094612244
1.058543017103317 35.4296273596411 471.98288405493656 0.04467787876274171
1.0631191451521442 35.50820210817421 472.05261027777755 0.007182972973170167
1.066591122338345 35.44576964942399 472.004822384927 0.04202957572939817
1.0534849140973128 35.579421306279905 472.0601901469938 0.007255458759109884
1.05696553604102 35.65532049264215 472.00655714187087 0.005806076561318666
1.0559838806319264 35.57206480530131 471.97609028487284 0.01007067874717505
1.058396162649598 35.54232909635979 472.0124542329408 0.0006585498408980539
1.0570989859221418 35.522365285413564 472.10461487704856 0.0005223123608832202
1.0565436053445685 35.54481759315319 472.03331622126086 0.00924774930394873
1.055156106484335 35.53494854087735 472.0964888227583 0.0005628818808693038
1.0548255477133854 35.76809047682427 472.01618732551213 0.00520134503449598
1.065949816255848 35.695609203821135 471.9841575292151 0.00109016315387998
1.0537538253490686 35.584626615640644 471.9878286393726 0.006568287682259743
1.0603124410453242 35.51764735535956 471.97571792636086 0.012582229999199312
1.055643912170825 35.724304440465616 471.98822918005516 0.00840047121561711
1.0554223412446022 35.514267867993354 472.0160608164927 0.0066001146003350775
1.0562528632223822 35.45554289109608 472.1239922490351 0.0520126179592332
1.0557258616629495 35.48683067234345 472.0619905248111 0.009252068505637612
1.0548694177701234 35.58388693178291 471.9799696014924 0.007504648757058116
1.0548625917622634 35.698647468521095 472.00699101333095 0.016439536835275975
1.056056746115398 35.73356394721324 471.97733914859623 0.010802235726286776
1.0514091733632556 35.519867233841495 472.0708020558465 0.005487172729648437
1.0494497567100063 35.539190931447635 471.9587667461328 0.0013719061818438922
1.0571873421296 35.513360088710286 472.1023247704937 0.000539429940012357
1.0578126704551052 35.50896398365291 472.0347657741739 0.011334856720674295
1.0523081108685428 35.608617914966835 471.9911604014932 0.003554241261563076
1.0560677336281201 35.822889318020046 471.973525220441 0.006675322299532018
1.0580870777571258 35.49808584398123 471.97230394107083 0.017881365188056254
1.0566207535400125 35.507550320054506 472.107243418456 0.0005563320470720019
1.058622914783455 35.56501943742557 472.0795023755666 0.014139830689352803
1.0566240319124025 35.556578099883026 472.02515829332856 0.007526726514883597
1.0577224600586703 35.55807235131747 472.0733430370956 0.021582299975916926
1.0556511691895396 35.696437613075275 471.9571494238915 0.010848038197293722
1.0601098406940572 35.43799102937679 472.0299199276129 0.06088744520186494
1.0595898303650173 35.55417425057347 472.04324687099256 0.007884087358982184
1.059479085813675 35.58867885213499 472.02011393980325 0.006261690729270162
1.0610587377365723 35.50033509260396 472.0109340073196 0.0032920781917283575
1.0552233440983054 35.49535464924879 471.98154763290466 0.01695340801210486
1.059999792567099 35.50909901658627 471.9671876023129 0.01492028838589452
1.0569574500037053 35.61006376959881 471.9709907347602 0.009674943180735661
1.0601498814121375 35.498866062498266 472.1252748544707 0.00010390873682952396
1.0560614005165907 35.69543120005333 472.024573203377 0.010200342155490748
1.0551412098169992 35.41863011634549 472.0504446699755 0.07602924295419969
1.0571201020579795 35.63945109698532 472.03909937802706 0.0027767726266736004
1.0523428704959705 35.68302157087292 472.04952896186705 0.00416510003841022
1.056724057321517 35.476280033379886 472.0929913336046 0.0023339798839770035
1.0611172836825467 35.79488803439354 471.9967557373665 0.0062093061459630354
1.055356140201446 35.43559325016068 471.9698871125954 0.06175601349663951
1.0558440110154836 35.519445634194845 471.9873569655028 0.010365511053159842
1.053834805665413 35.82425289359856 471.9547951745103 0.0018536232822874016
1.0582621607408829 35.546227010857486 471.9718411474793 0.012826979260671926
1.061223780840085 35.62102777195794 471.9572057130963 0.004290660127531993
1.053868204781489 35.55946882768362 471.9796271221365 0.00902916553342798
1.0583844186288294 35.62384898623657 472.01592655519255 0.0045163205021650325
1.052016420432657 35.43968729970825 472.09946125941735 0.0766139615636601
1.0535625995220943 35.66595488707838 471.97555013438074 0.0162860170476231
1.050516885487003 35.450381906882285 472.1390796911004 0.06406401816970872
1.0510189233775602 35.66985805441421 472.0073811898977 0.016964500817456835
1.0571748289811835 35.424784380575105 472.10765153875167 0.09769394067072361
1.054970380528527 35.60758859016799 472.03982909249925 0.0038289740524784692
1.0575946902737825 35.7847386632115 471.9995994428662 0.014229690167705452
1.0597990275240219 35.43347263363202 472.0705096393502 0.04986759125150942
1.052124951140404 35.733053316198855 472.0157119753212 0.002888819193007677
1.0640222164776423 35.54594895628843 472.0576691448407 0.009659991582333818
1.0535780212185293 35.45506005243525 472.05256864142416 0.05537390846416466
1.0552660778582854 35.470021331620316 472.0441064657843 0.010569503286670976
1.0535334998556534 35.77660999046205 471.9833707293553 0.008142137421573423
1.0543543862233622 35.72181826144054 472.0102524592351 0.014405854252238507
1.0555992779158332 35.57838033113523 472.00111610522106 0.002956763341255423
1.0569203344693192 35.52186626594248 472.0305866885575 0.008743886337549921
1.059475662713017 35.642025468770505 472.04911725420715 0.004584578907554998
1.054507711562762 35.56909532430008 472.06496059704824 0.006715701025234225
1.0529689462185867 35.717695559145916 472.02595243510547 0.00590058928770079
1.0536320813629014 35.730968715522515 471.98873051209563 0.008845157625055984
1.054723325171232 35.48487883292615 472.08316404746375 0.010019110732758728
1.0528787398173463 35.46178286593304 472.06428745808375 0.007307350997703119
1.059248424473156 35.72980166261331 472.0385988753349 0.004083902215295272
1.0541772522476272 35.69755392995778 472.0363312717154 0.008929875482380736
1.0530625664019688 35.4850562994989 472.01821785186183 0.00817945233225064
1.056003742490057 35.837166335031924 471.94535665709316 2.081539197684821e-09
1.0547312890708138 35.604981289768084 472.0710134827995 0.0018599779780358945
1.0519599069787988 35.645146897756355 471.9683206159452 0.0034322917100366823
1.0574152037929203 35.76390895766978 471.98896626499834 0.007662316298529171
1.0519048540319231 35.48321547195349 471.9635386529185 0.007861004264089786
1.0571107451229877 35.77403192821929 472.00809753569024 0.009022281486439876
1.0532055817662818 35.6746927946676 471.95322983214714 0.0062470444996451215
1.0541038241481493 35.747094902213306 471.9695876612901 0.005953483380634693
1.0548176500884319 35.63257415656794 472.031948879832 0.00370194476485473
1.0568179026746967 35.64190759586088 472.00880201891323 0.008751436391630313
1.0545037722787447 35.65124148335877 471.96045287909254 0.0051815337504929355
1.0586190540022753 35.57665344092027 472.08427059300345 0.0011401544954499872
1.0525524215097009 35.57582949607049 472.045615319996 0.005945487356614164
1.0530277934555057 35.4788395404614 472.0161865802995 0.011707607343805083
1.0553701772100847 35.46373032981766 472.0583543454434 0.007440872470906294
1.055508898040107 35.522231802946834 471.99209102188837 0.0077431661003404114
1.0589171317206647 35.62475032562664 472.07397963136907 0.004098731438146231
1.057735625854395 35.88064283744826 471.96259880763654 0.0031012417464860516
1.055850586880756 35.47716665402963 472.0433514666051 0.006647101798151025
1.0568763309348832 35.61991114072183 471.97969493913945 0.008605062800071263
1.0553167967366572 35.85116995284639 471.9687259847385 0.008715317193060118
1.0544053609751236 35.497703451307714 472.06091023188566 0.008093015141319493
1.053304950714722 35.470294650766874 472.0837757959306 0.007308568694722113
1.0559250264264677 35.53281889348007 472.0249322539453 0.004248564186354038
1.0531068538198274 35.803212287615224 471.9737592043319 0.001338120860665836
1.0573690906374096 35.57897154404604 472.0256844974273 0.005641075638217172
1.05714608131291 35.900942432215935 471.9601728798289 0.01444385821038906
1.05605266876531 35.7616796614821 472.0195135374054 0.014613603049408007
1.0561927239409516 35.62706792179673 472.1487205673479 0.012088762493439821
1.059827721295831 35.87948579212816 472.011835698237 0.0034670115078717406
1.0650701952020063 35.604724674086626 472.1420630377348 0.003235959420819434
1.0591776295786548 35.75567567431797 472.1177639690456 0.014155550051162058
1.0541802840190968 35.86539383984359 472.07920857791834 0.006964094556730282
1.0501612921770953 35.648530487933186 472.1389534839631 0.0072893064939130465
1.048618397307936 35.76295550491101 472.08747582652967 0.01743422014310099
1.0592979176167874 35.85836791572202 472.14888596090054 -3.814366536958562e-12
1.0539108840083553 35.77354615655965 472.034130614691 0.005152616361201955
1.0549359589492515 35.87512543828081 472.1053502145864 0.0011993239683520062
1.062630015081831 35.73911449693884 472.1028096537286 0.003716681979569276
1.0568681264439173 35.623158216408164 472.09096833587495 0.012244269263845175
1.0512691073822793 35.854085819940956 472.04920522005955 0.0020983694978992584
1.048203252834114 35.75898202714045 472.0558069773319 0.008260633234080153
1.0547330610437042 35.781685459836076 472.0995615644909 0.017740072087369385
1.060690738712524 35.795922336233495 472.04156078907096 0.008831710839980125
1.0526203876352227 35.85715177337979 472.07213910645237 0.005290600640289103
1.0596075333063024 35.88091175412078 472.0346070680211 0.008016344165565766
1.0537327603294695 35.796265129727416 472.0761638541772 0.009127078846554516
1.0586748294393733 35.665925694789784 472.0749777762156 0.011024390883301835
1.0477447211535802 35.47472010651875 472.15817928998445 0.001984458469143761
1.055495856605497 35.887666920550934 472.0805069406815 0.004214299775853113
1.0517828516167516 35.88646188697863 471.9807969440806 0.010492912729904092
1.0532552080521174 35.641356130489385 472.11079624703626 0.012214040008857674
1.0586433692835333 35.69853846437739 472.11153936050226 0.006887617300236772
1.0537994790639529 35.78376652652847 472.07185189248867 0.007223100205603639
1.0521340826830223 35.666004067926444 472.1339185337554 0.005605038223118947
1.0604352744354455 35.79327954018041 472.064600738001 0.005924344353443453
1.057325388802127 35.83111607629899 472.01143284519134 0.00670053063623938
1.0486133468072458 35.69140152621473 472.1498699095569 0.024065971593690016
1.0530021498821593 35.73058083394838 472.1535476794495 0.026207404184694683
1.0528422505317043 35.78989510380476 472.1002724743279 0.017148745193078064
1.0537986331389675 35.84701601068241 472.0732962338122 0.008275357843942496
1.0543454842716993 35.71138276996359 472.1428180027658 0.021567050487132162
1.0572037209384073 35.890773152255186 472.10102696771077 0.008431638700232068
1.0583315394901966 35.59006738825764 472.105427748451 0.00018858848216819413
1.0586776721927775 35.9148858741958 472.1122520824561 0.010458614387098374
1.0500502326339747 35.77244383030491 472.0916512541148 0.0167700212722543
1.0580851937940312 35.86271576231992 472.0248638321457 0.00801876554887599
1.0566065227254675 35.86391170846772 472.0384542229459 0.004419072164940654
1.0516373362600233 35.67189023131389 472.1393448972432 0.004840254718680545
1.063202883509053 35.839377549235586 472.0016122623166 0.0008537251118637846
1.0516327564881691 35.848139959201404 472.1020104533347 0.001920745993807156
1.0546379669649897 35.863816953751595 472.05119747237046 0.0036992289426839215
1.058579015216838 35.666284102500214 472.1094617256307 0.0055119425372295375
1.0520354216754215 35.92861715110082 471.9933013513542 0.0021236942789939406
1.0510258864861217 35.77884122669715 472.07227384197995 0.00889945641214611
1.05826941174027 35.84506925860157 472.008880072836 0.010015686807932408
1.0519354596588457 35.91895132784743 472.1599136983041 0.019846114641210482
1.0534307543788186 35.88125301238411 472.11920781934316 0.0041129596025573124
1.0610686968714074 35.68557508552396 472.0742495773067 0.002521193043310081
1.0553888572973646 35.648011766541856 472.1332684006148 0.008662717948181558
1.058156187463399 35.84179294960374 472.035995589144 0.006011310581871114
1.0633022351933383 35.60565088820404 472.11208215435227 0.005579798835972859
1.0542172348926595 35.8879535050411 472.14125182638946 0.006976765762817331
1.053435237864045 35.80297755068653 472.1021141483112 0.009473491023449397
1.055653162975355 35.914698951621205 472.00433990483435 0.0073774881001124545
1.0575944123968641 35.60308111668841 472.15325784324176 -2.5129302589972937e-10
1.0523603558064474 35.74880878646809 472.06437789143945 0.0066422488008225375
1.0541620626406973 35.88409599798892 472.0507590883202 0.003017014919118276
1.0532515828339493 35.90779001801977 472.07847479163894 0.0351355367897382
1.061221326379305 35.71018337203622 472.12283453871663 0.006327736830064605
1.0553299272754213 35.83310601218001 472.04138546604287 0.0032797265992791764
1.060723619133414 35.91372971880381 472.06098994134305 0.028993484573476745
1.05385994246814 35.74242959342499 472.0791683965113 0.008753520982938164
1.0575917685586063 35.89717332073707 472.0492019710693 0.034073069700968565
1.0507349338365721 35.6407298805962 472.1521725115548 0.005998737390738567
1.0576468664989678 35.743786459346154 472.1494382582149 0.005473768037819107
1.0538545246621533 35.77252235243141 472.1138819208436 0.011032669272524899
1.0551837892928269 35.826402933865786 472.0521046211665 0.006725763933041468
1.0527244166651564 35.91565193003356 472.02464125787725 0.02558086867735707
1.0596492664603423 35.655261559060705 472.0801051733477 0.004459941344246381
1.052321498079043 35.711772106499666 472.0587393218265 0.008080293464360967
1.0564666022890061 35.90470948383205 472.14531611488155 0.01599809490067631
1.0562065575177821 35.678953299529184 472.1252309822771 0.008024446010191248
1.0543810565555474 35.9110965254403 471.98926244197816 0.00607660771678314
1.0555243664696015 35.694901690106484 472.09713426024575 0.0014217270969923406
1.054923923394807 35.85884003561282 472.0016480433115 0.006914688948728409
1.059479214271437 35.90450591193856 472.125068504831 0.010224199073474948
1.0558701498475662 35.47054390712453 472.13742599521026 0.003941436961628593
1.0533924713517657 35.64490920622086 472.087920185657 0.002322119630666377
1.0553870418163862 35.722892235074596 472.06557640489314 0.010206910516681489
1.0582520748235966 35.65630420708192 472.11701830867185 0.006307480787679644
1.0600733877402162 35.83188408003474 472.0879516458713 0.00048816697835435885
1.0586397801793215 35.77578001972358 472.13558970225256 0.001216233517054596
1.0476521583815896 35.75587028008031 472.1583237075737 0.003425107233262126
1.053334731622484 35.874180032456614 472.1659226763698 1.4146932391438235e-08
1.0555411100446441 35.63017594840794 472.12037607555897 0.01372611792989718
1.0631199840812235 35.79566368464041 472.01140728395546 0.006905747987375066
1.0537963961195893 35.92235534205185 472.08811654197154 0.04759251469557729
1.0349255032518903 35.92925543041985 472.0556101282084 0.012898984282156693
1.0516709768921848 35.92802967614055 472.02424648143904 0.011741888389559299
1.046518842142826 35.92873496130246 472.0356675212156 0.03991061844542823
1.0501249865428441 35.9244266391473 472.1047610627742 0.016067745312535558
1.0474763286363746 35.92984474911297 472.1274503184656 0.003519150258747572
1.0512893439438282 35.92339303197577 471.9738890485237 0.00849010038377006
0.05956903748076676 35.91960803927251 471.9601437038615 0.014466224082671925
0.044755958960599945 35.92942912098399 472.027074699088 0.0321500482966162
0.05054618876080722 35.92765329518335 472.00977312327046 0.03019521371522862
0.0548043502646105 35.92095168697652 472.153918667442 0.008954639140697072
0.050351677826677405 35.92724318558784 472.07096880420494 0.021357777026683063
0.05692644568342065 35.92429504324798 471.9687338136124 0.02104504642157332
0.05932897465790665 35.93132289324933 472.0033643686213 0.005264653750898121
1.0427367094951683 35.9341968553319 472.1637683730744 0.0011556212057628637
0.06594314381659443 35.930362902415666 472.13290805515635 0.003655189118040725
0.05638478481596468 35.92711219906016 471.98166567808346 0.012793108444568754
0.053102328984193356 35.65728217752886 471.9627195883913 0.004479415341154473
0.052488339964087555 35.93131782066882 472.11082972114866 0.005335121067045327
0.04367395909365245 35.88905777195454 471.97646186727974 0.027874392766566603
0.04820174418822055 35.501321566239824 471.9815264912981 0.005834717704572316
0.05102684493412545 35.81275981185487 471.98222547702323 0.004276307778583859
0.0520421625327526 35.80091413878016 472.08257767142686 0.010630566202589389
0.04703113432784464 35.64504289511823 472.0128985249622 0.011872849649496212
0.050571760680982056 35.81122402895642 472.114873884962 0.00798457672021786
0.05086763057408571 35.595983706210056 472.00188966214955 0.002480288343585021
0.049701676402936754 35.87369450397036 472.0474897308901 0.005572975758918825
0.049728866473940696 35.86522950700893 472.04605933704255 0.008552439389103458
0.05288838795729407 35.62646108606029 471.97983970832513 0.003403662566379633
0.05350571385371968 35.66462232197082 471.97207475355896 0.006780003860244122
0.04911198477401346 35.66869982766709 472.03277300520944 0.003128514035321891
0.04860213150697406 35.91822204452948 472.00118365217827 0.017918081048810566
0.049953490866340884 35.81404862618109 472.01601505960997 0.005444128312945229
0.04928229500134558 35.79400692733858 472.0216543547967 0.0047617952600180055
0.05483695741947537 35.79067446973202 471.96559637541225 0.025559004621972296
0.047161686819403935 35.819396945340685 472.0050851895632 0.0045616198359371436
0.05008809236505027 35.70863900815409 472.01985474228906 0.008493716202206776
0.05116352552787868 35.50761029202448 471.9698089715109 0.005620164437775558
0.048984241236954315 35.85346527143078 472.1155403088757 0.004335795381943219
0.044150025915605656 35.599985437761234 472.0205996068137 0.002919207592667786
0.052405346395085046 35.53487697597492 471.961756649923 0.0026180583742082403
0.04626467496336704 35.77114982015815 471.96854812932116 0.006125039052559812
0.04789440205550164 35.79657647038585 472.0397685201537 0.013628025537408921
0.043844638803480794 35.91504248976513 472.04002846902614 0.005618164609509949
0.048439639865722195 35.643431921544355 471.98288417625383 0.0028202435485669614
0.05157162533238211 35.47250266183926 471.9597639393176 0.004781079747842452
0.045774187458435686 35.90803632125482 472.01637101046794 0.02667650559203082
0.05301967309991805 35.896783627342 472.0584597866072 0.004602436045504024
0.05229000007116875 35.70395300013867 472.00601334574054 0.011478683374292769
0.04694062440821176 35.706084077445865 472.0458469706929 0.009633896640390589
0.05084084231484472 35.86955016746948 472.1004743529415 0.0023864459172962594
0.05142550003061776 35.52105456986603 471.966898332215 0.0032887292898002144
0.048786240054221434 35.57013903423424 472.0103534691366 0.005021930352422355
0.05187174576561846 35.78177824124951 472.09649142344455 0.009530740637852886
0.04960277267295528 35.779339182625144 472.0287056898718 0.008158230298216168
0.05203251972069695 35.70064002399915 471.9948354490085 0.01376746951047687
0.04865089778750588 35.897815271180846 472.08787935477955 0.0038777039550618488
0.050439774980854946 35.85409537063465 472.07395267473936 0.003166677697844227
0.05171071980711695 35.911772756642776 472.07924218413325 0.0029187032530913525
0.05088481019027756 35.859917274106905 472.0155281249932 0.009191758700058117
0.04687173927016089 35.691585360913976 472.0265327867194 0.006341578472341377
0.04629044240936471 35.835087779147166 471.97632604345125 0.005456085316145473
0.046742222008082014 35.76969371034995 472.01151866273307 0.003438704109970916
0.04559729907036161 35.80743214190773 472.0520553512252 0.00693229106867089
0.04462024886561223 35.61294531881183 472.0277646075057 0.004387562325309344
0.0547930287986351 35.778617146534245 472.05966495550297 0.009096673781677549
0.05010470949143352 35.61333375737737 471.96796483572393 0.0022706721340936707
0.04866983687571958 35.89782672619703 472.13664804051456 0.01602489189065509
0.047536772111297726 35.657215192482006 471.9916887950059 0.005889859487045965
0.04822518243625807 35.70429293732013 472.04033761648674 0.0075901412152924504
0.04747782186789065 35.90564828407403 472.1206168946857 0.016163790299019803
0.04846135466575169 35.897238635433396 472.0342918240398 0.008321608747134345
0.04673314243376263 35.844036754196914 472.05938183509903 0.0056650752103384735
0.05464551906619907 35.80237414012292 471.9767552700935 0.014708551862462633
0.0503431523211422 35.631384509752834 472.0007333438235 0.004354505612340805
0.04682342913183495 35.8105836707269 472.0956690376952 0.005135545252709584
0.04676501909605725 35.8385059421386 472.1135981708727 0.0023411581889316545
0.04434640639921969 35.69186508105356 471.97977884993946 0.0079659944835321
0.043158166734966426 35.74561558383374 471.99123857949877 0.007303904182095289
0.04792833707093491 35.89615359325654 472.097367286414 0.003632627511945873
0.04729793521097822 35.81063743630797 472.0784490150597 0.0069390737619147505
0.04825028829800238 35.891576505986 472.04716576477136 0.004173571658633239
0.044644711756738426 35.743377883124474 472.02709742353085 0.006619701804833615
0.050493749470691004 35.45935454121918 471.97217975945415 0.00792140013118659
0.05135496493222659 35.768933232056405 472.0699322211462 0.010108735599036413
0.04460718875887935 35.72423321467168 472.068610062873 0.005990626591504338
0.051711570366846336 35.693025160717006 471.9952991638898 0.011850722087587516
0.05594408447315674 35.917292734246445 472.1426008920218 0.018771140089309368
0.05181530047304971 35.82931109221253 472.0858635626116 0.004536994004221217
0.043707125688350876 35.83241016914139 472.03463537888115 0.014958158326337902
0.050166332784740315 35.678327317717205 471.9524022749316 0.005468812273266144
0.04697403496648444 35.756322166611966 472.0411626553022 0.005006355368651974
0.0500661256312902 35.74312219228703 472.0740721546888 0.007034992460842926
0.04593260194775417 35.579365808326045 471.99507544330936 0.0034219472042816422
0.05177498089618752 35.91633268500808 472.0711604616273 0.00947791089229964
0.049545152005743366 35.80230238402909 472.0254760534822 0.011849841719193772
0.04337507932799861 35.74640933209971 471.95810258274633 0.0120979068734215
0.04605659243417594 35.771361065007945 471.98875254772327 0.0076811170805404765
