x y z curv
-0.006019183950174969 0.11701223072472917 1748.3683645145688 0.016037861581746492
-0.002952006221219447 0.2917862420708225 1748.0011071653262 0.012318655739474169
-0.000328235576729559 0.2522032809709959 1747.5131563458917 0.011974499570210798
-0.002862614907143974 0.12451494489962593 1747.7062135196668 0.01077218465845198
0.004053821723984245 0.11779343514987058 1748.220233563587 0.007784447004810571
0.0008631684054472978 0.4663480457882537 1747.7983739508663 0.016237724976461334
-0.0024955337224988835 0.5064838871357924 1747.2606813096122 0.01205296929332674
-0.0019946457523142185 0.32507048828284474 1748.3352568402358 0.015411022440118185
-0.0007028178865810015 0.4652584142799608 1747.5880573464433 0.021794964939936816
-0.000883846325711766 0.24093438806103887 1747.2036462036656 0.004737625927309426
-0.002852441445469395 0.23660640548612563 1747.5823966465691 0.015249850687403164
-0.009516211662891155 0.392689164737883 1747.2839824839864 0.006743904532806469
0.005059169285538534 0.35410134291991935 1748.034305581368 0.011590535901329416
-0.005497832213665915 0.37334304599892415 1747.9003623193337 0.01616728265376585
-0.006025490356657627 0.08528351119444844 1748.4142102100593 0.013543467008734881
-0.00380006895697047 0.21705209627426994 1748.2422022613298 0.03277363752906049
-0.009888570312573994 0.6236500251114142 1747.2027925639602 0.009418382651842423
-0.00011886529182931121 0.26992944489844944 1747.956311412011 0.005643505452255119
-0.004840547889283313 0.26694410912256905 1748.5148225072885 0.0209849258616481
-0.006599632826145999 0.09660663273135424 1748.295842682571 0.02675459872280918
-0.0004231426247200902 0.1630214453101263 1748.153212210123 0.015162041346867385
-0.009429494466322415 0.5661069972963719 1747.3633543418255 0.004985985628448425
-0.0038342628874738645 0.3440147368158053 1748.1625960651302 0.014419377519048001
0.0011309094448371546 0.4997156391054073 1747.6773323498612 0.01436231897122762
0.00029932402141003776 0.21672267566248857 1747.3801418738133 0.008908045908301477
-0.009882995584213922 0.5334418523058038 1747.2607067868064 0.010177122758554131
-0.00479143988182354 0.4267458636106478 1747.6361095425739 0.008597564996717532
-0.0049396018750277665 0.20846299625284992 1747.6453289980457 0.009070460821228851
-0.00819852701293621 0.1094740689447736 1748.6715784677554 0.008588330304061162
-0.0029017916107844065 0.36203113353239325 1747.8706614316945 0.018352932007298872
-0.0018693402421016134 0.2746995582238069 1747.5706811181485 0.013683919043318109
0.0005872797960364569 0.215785833097626 1747.753544418301 0.011930964635432065
-0.0036861538788097153 0.40567550569884636 1747.8919141890926 0.020618444771464996
0.004094232014475812 0.2589878383696882 1747.6352536732645 0.017852067057459654
-0.0008757295148896726 0.5404088372220294 1747.3508375097424 0.009178630296415033
0.0016164086416070472 0.3617827317213085 1748.1354395377493 0.006423693922027464
-0.013724685258722578 0.14346240737042845 1747.6411799142168 0.02361105261984152
0.002188074249501642 0.16386157421800554 1748.3284786341028 0.024148367033265183
-0.004859190362361594 0.0885930054205581 1748.8164212954518 0.009214653227350825
-0.0003605033316394633 0.49191144508738993 1747.314121224396 0.006473664605981135
-0.0005563268710786161 0.41893702102942276 1747.9785690869808 0.020743677792247093
0.0002251526226054381 0.2677625968289336 1748.111700459833 0.02008698826081028
-0.0022252702513827116 0.18015176732784494 1747.6092374353304 0.012600222252012053
-0.0013983618511498564 0.16016958886379998 1748.907059378642 0.02153431531429454
0.002310329217900379 0.17060962100514673 1747.956370810704 0.01681203621964104
-0.0014565943635424345 0.08899727028243944 1748.3716587302401 0.014682550267243823
-0.006918044830680112 0.09095496227189212 1747.4867991982385 0.009902494096499471
-0.00021200869082428986 0.21235879017963633 1747.716838049804 0.026511216769296835
-0.0026639253555794276 0.5875773919676611 1747.2572477935903 0.012074591232939268
-0.0002216054518156127 0.18355889050976268 1747.9207025783053 0.03150146454679455
-0.008333137251209181 0.2382074306306123 1748.5645410978864 0.015914298021463647
-0.0036864229093695497 0.16273343374830274 1748.2429191479337 0.026370619995465854
0.0036336244649874073 0.38741847308938104 1747.9734791092503 0.015010629330373634
-0.012667968554838475 0.20875974638382422 1748.237821758069 0.03392378003272834
0.0060268116038230644 0.37138502222016195 1749.1801409726825 0.017908923722428933
0.009721151199120471 0.6695014136700116 1749.1709760835945 0.03916924853660606
0.007272538325970996 0.5944161734329537 1749.1726196592926 0.041193695525682195
0.018428595255505432 0.15952344689784237 1749.1807776692578 0.015838314667744425
0.00040193594947081487 0.4144517503337138 1749.1722408658684 0.06157570630270278
0.0021488326433357473 0.42585359711523363 1749.17392058027 0.07459848661466685
0.0009449371477989682 0.6536747157265244 1749.1798074609444 0.06571486953689791
0.005735464975414117 0.446484466547544 1749.1750051183114 0.058968599844504095
0.00704223223982516 0.3274819581222987 1749.1753474760753 0.027422081581500897
0.009678216059258369 0.13682690690584204 1749.1769743053685 0.011669025875375785
0.012513634131877144 0.1925684209712948 1749.179800741704 0.03366014137819309
0.010775046532109684 0.11711875134873277 1749.1817972924052 0.027234374739905417
0.003105311568911371 0.21338988445232254 1749.1755820070682 0.025015365008229044
0.008075502867754906 0.5241610180296006 1749.1770445233421 0.01735715905400857
0.015283387850566673 0.1465375618849479 1749.1757473194903 0.010065240197169199
0.0006087422491937947 0.5550603632925237 1749.1723254043231 0.02402868893022326
0.005234518191261038 0.311941251070956 1749.1775999187469 0.029397126405223507
0.02377224472898444 0.42240669096075967 1749.1804442353298 0.03644151168504745
0.010633333765184442 0.6170643047144598 1749.1832607592803 0.03868823312929662
0.0003305702327877878 0.12142894887919398 1749.1677824532005 0.019987673633338084
0.0003728259019028326 0.5899994234043153 1749.180178546739 0.023303860267453694
0.011541959043343201 0.11493691194195077 1749.1841529198182 0.024335549776440285
0.590684129197981 0.6343714298237053 1749.1680125179864 0.03212387537593679
0.5803977000927493 0.3905724174875852 1749.1852010002676 0.00892905347394042
0.5841322096674176 0.4999386720604112 1749.1821175720443 0.026794194618054008
0.5836296474495495 0.5388365898359551 1749.177056112939 0.018744931906203497
0.598677606307179 0.28758275339805073 1749.1786599630345 0.04516307156193893
0.5890367622214919 0.5702514148060938 1749.1786548307703 0.03164048543723383
0.5847552015542948 0.6107193142330913 1749.176065932948 0.02062237043104849
0.5794486543839817 0.09049851156984412 1749.1813753860981 0.012467191657206465
0.5822075965274978 0.18586542141382223 1749.1838981050278 0.009568606655488254
0.5937470498065199 0.31439083948732455 1749.1724340208953 0.0253538071501588
0.5934853818656024 0.42338952116758133 1749.1797428182526 0.03485938427120073
0.5969549857955812 0.5318724672467366 1749.1673925633938 0.03695553432369218
0.5869862450769797 0.20830924016750502 1749.1759527301697 0.011131906421043263
0.5807382482128971 0.2789914598491703 1749.182724329511 0.02249193084554368
0.5801721472054904 0.13689824601667522 1749.17763142154 0.05154218311523138
0.5795617720298483 0.3477768133825536 1749.1819314802945 0.01830097588744895
0.590610227357854 0.5743113893074969 1749.1742922649466 0.03396097280667106
0.5658533488244653 0.13363187768691356 1749.1823473754448 0.05210027956446923
0.5760559889430468 0.3199066762639087 1749.1869106230242 0.0003930570594276951
0.5950826091989055 0.08897213742335953 1749.1738032968954 0.023994890785822162
0.5871321461961277 0.13230458783176402 1749.1696577012117 0.06927308454580057
0.5958964516387623 0.507450695693109 1749.174138408222 0.03159789659737668
0.5892678982117455 0.17058152399847248 1749.1823621631036 0.0134635975716914
0.5889229319328249 0.5197805225940967 1749.1778505434104 0.04647628011178767
0.5920049217804043 0.22099112938707627 1749.175438327585 0.013534996988763764
0.006840972736099165 0.6606924971912385 1749.17617475809 0.034865221975495
0.5949631158519022 0.5834711544219198 1749.1810777413202 0.01596970335777776
0.5931314542854227 0.5641644256351637 1749.1754672285865 0.0499198521890081
0.5982931318001028 0.43603786877146317 1749.1787942686542 0.012337947696703173
0.5814166862811441 0.5731150862164227 1749.1843951471592 0.04275148980933689
0.5860490998830984 0.6587541018237463 1749.1785458472878 0.12228979902331358
0.5825992686838485 0.6172615902597416 1749.1806618165679 0.016539451900995105
0.5891809177231219 0.47026926447907913 1749.174583510742 0.02914140479057141
0.5916048779811185 0.3814297810713016 1749.17465241824 0.02464073328321063
0.5903429996336172 0.542174285288862 1749.166702197412 0.02970973589377814
0.5944197445944106 0.35785049807375485 1749.1723861417236 0.03245775458255925
0.004332072219369849 0.22731035674862432 1749.1801643496665 0.045504587852394265
-0.007140789957330744 0.387445508673981 1749.1714679493798 0.011869105888269867
-0.0030779373262947757 0.47691156636011156 1749.1755721763568 0.012784020454400767
-0.002922818061979945 0.10299006744840852 1749.1769632130631 0.03449448417220107
-0.001027007310031856 0.06990818293070442 1747.7308375159425 0.022902067240261982
0.005098499422559783 0.06882060425623183 1748.319804535965 0.012570571963873088
0.0008722357678156665 0.07003445516869294 1748.220436029489 0.008280315415458369
0.000254856689134174 0.06938157697670283 1748.3667042251318 0.016256176295672303
-0.006110896792494318 0.0795436689625195 1749.1693920332912 0.021532694420248553
0.003752937204662235 0.07979053716861516 1747.3071121198207 0.013409100055404747
-0.0008174153183495958 0.07323374913293705 1747.7568909738295 0.011772830349516985
-0.0015566926167514868 0.06588671146496751 1748.5282855625933 0.017588611423595385
-0.006139035827286994 0.08049307162409623 1748.9123256249147 0.025242099017823195
0.5931275842451302 0.0748383032016159 1748.4949828619867 0.024554381663259767
0.5987963560400912 0.07884313525539195 1748.5823226398622 0.02918573477044457
0.5936841905364525 0.06864820947671024 1748.1686293881148 0.02514018628005393
0.6006652111250996 0.07432030161203075 1748.9719434347376 0.011894241593534438
0.5914010687532236 0.06788104057232605 1748.7993541778105 0.028064996220140893
0.5923271984230684 0.07052015221940537 1748.3828407581268 0.038882581941352794
0.5896761604490793 0.06715887914480713 1749.168176295874 0.056659102830129045
0.5967557108860534 0.07799838791588433 1748.5163123182256 0.01900570555928909
0.6006553090604518 0.07585098451192546 1747.4003098934143 0.007720387891896488
0.600402239536027 0.08384695076258654 1747.691652893922 0.020941920971006008
0.5927087633652734 0.07174541982172797 1747.425943810508 0.013684819404952345
0.59870387591311 0.0636197648848766 1747.2976958950821 0.007298230708166602
0.5893652945815269 0.07128142322632802 1747.8260860115895 0.010856051755155667
0.59457453074586 0.06738527535700735 1747.714799997108 0.0544297764899553
0.5948463609040726 0.07865976298313951 1748.1131443201155 0.027849446104587828
0.5978842014147038 0.07429337003222457 1748.394855125734 0.023349665296770766
0.5888629018791184 0.06895078973018745 1747.3080571950964 0.005522462918229297
0.5995471972566092 0.08051481991553877 1748.210818258554 0.015913953642309072
0.5897950928992963 0.06790953819669737 1747.7759525890733 0.01894948456454182
0.5962713183874034 0.6749080998028619 1748.6301078453578 0.022563989485951615
0.5908500652867299 0.6644595362300182 1749.0845024245639 0.020044387576289395
0.5917811831921245 0.6718526755641419 1748.3235379185116 0.019077778886492237
0.5947188240986186 0.6650934148900959 1749.1539934360137 0.08292892031114722
0.5975328159542229 0.6702268110207579 1748.7159796266073 0.023506604329115582
0.5982706804648051 0.6670559149253767 1749.1252627096583 0.044220122872152344
0.5950150408549106 0.6718707541012103 1748.068673926446 0.0233114876967481
0.5861748629715171 0.6726664246100371 1748.8842744492608 0.030142404202902325
0.59621311793688 0.6616320974902737 1749.1589356779232 0.09743805477558157
0.5880742969579856 0.6720396548224592 1748.7037683246745 0.026047148924345932
0.5923412730495122 0.6692883318806935 1748.204963849063 0.08332365359773818
0.6027821614140619 0.6624993169093482 1748.191132060013 0.0489135963839011
0.5927090971326957 0.6668834808013805 1748.9413244727266 0.038681393318821776
0.5860297184482897 0.6629890090821833 1748.9793320279819 0.0276347894969013
0.6010007857702722 0.6654672150769331 1747.33054142736 0.01873865702362649
0.5936173318762383 0.6721132655013976 1747.4423992604277 0.06286815547795434
0.5931269216155346 0.674183812680979 1747.8134010214928 0.017690968684747874
0.5960385949052102 0.6677912563908152 1748.6698444874912 0.04997583559377792
0.5850426804604322 0.6704763403528144 1747.1756988221266 0.003704172564425253
0.5962559232808201 0.6592823712907078 1747.372835761266 0.01583948919144379
0.590647565499506 0.666987183574746 1748.499452192314 0.06484131770065965
0.5922783170000459 0.6622348713158343 1748.5685077718024 0.01156033141714737
-0.01160574590050288 0.672977485766148 1748.9888059136765 0.0024898121300772516
0.004290208412983495 0.6662953204677579 1748.7957551812938 0.017950994262214647
-0.001278303711148365 0.6596637179439864 1749.0893217030775 0.02119254909962996
0.002554638788367629 0.6762982284474901 1748.849854246111 0.01258761711553916
0.0019832721013714567 0.676992563666689 1748.5396272743262 0.011459217603550582
0.004763841595283929 0.6643388626682406 1747.5291739683732 0.010696392950613788
-0.009085588432259548 0.6674697600336861 1748.3445771427334 0.013060198405256138
0.0032373708040827304 0.6695123165975652 1748.8198835017706 0.015132165508974532
0.006203957758475397 0.6700074642284176 1748.6767460092062 0.02017124845510933
0.002728497553431074 0.6593418800024381 1747.8089047571107 0.010736782954419826
0.0035602663881018487 0.6713000114607269 1748.0083453740135 0.030055343545171254
0.0032652722938597578 0.6720461676966001 1747.2912324186768 0.017480902711836926
0.0025758519944831387 0.6609122251509499 1747.57828778995 0.023508941867614833
-0.0007061595144383311 0.6653670870958833 1747.7936785602628 0.01415289326767624
0.0013034769246118064 0.6722185265038807 1747.9211806171118 0.023092822523664257
0.0008063263000206008 0.6724247527383919 1747.902000301212 0.04620094661156041
-0.003276051734116848 0.6639254377772693 1748.0877226315324 0.050263506189181115
0.47654984227332897 0.035869656557039276 1747.9647528919845 0.015122865170035244
0.4543507442994671 0.030242423060302198 1747.967974212876 0.011905101691010191
0.5129840220645007 0.03269776501289641 1747.9707817662463 0.018827908156439616
0.582891473988137 0.04832816837031967 1747.9640233966343 0.09348858810721168
0.43482955677653795 0.027806119150505196 1747.9628895927358 0.013371744181982214
0.19516259007404654 0.036868650022930056 1747.9678633065387 0.033171277510370224
0.3998022753989737 0.01771007268802357 1747.9643268864502 0.01150333707583252
0.20597833266377466 0.031021742171045502 1747.9661416485706 0.021960979704009773
0.44018057165174995 0.029370329368799263 1747.9689876310772 0.011386536750334316
0.5904933376752738 0.05923584455754015 1747.9620542314708 0.045927800800146974
0.5464150107735996 0.03681267190649989 1747.9650099228027 0.01931567077672105
0.11860399106025518 0.03882964166421966 1747.9574729438618 0.017285279001093404
0.1661706969955692 0.03158092363523638 1747.9598082785399 0.02394713999381951
0.21576086511385484 0.023317027666842335 1747.9600919487596 0.021454348093047797
0.19259597620462948 0.03719151561404792 1747.963676295989 0.03535953286121623
0.018479209748499446 0.0051707082228314456 1747.7395516982315 0.05336208317949563
0.014705439162030529 0.001022657975918444 1747.7214453301103 0.02678953313099525
0.028022509664705108 0.0006273216917852219 1747.3512617140752 0.022842443051592932
0.026306710647740865 -0.0023949966641942243 1747.935053051018 0.08774442383327917
0.029169027900746533 0.0007919737072028051 1747.544475655772 0.03536951804871745
0.03570443524169385 0.002639939887093317 1747.3387135438193 0.010423001157131151
0.030094309950346978 0.0031006405818848775 1747.7385311319943 0.07116560948823492
0.028482592851927266 -0.004851368205732425 1747.447597554354 0.046894836431900316
0.031190909092420095 0.002561989782360561 1747.5617109942907 0.021805447537568603
0.03564639703208632 0.0029990738517105047 1747.474849868376 0.08988669626879754
0.03295643509369806 -0.0002667824952665987 1747.7212544199847 0.033042679703749425
0.03477512726340567 -0.005373009034772089 1747.6706466022756 0.0436519718085039
0.03191331496578713 -0.0022593005315600673 1747.6409139789282 0.03015283012692411
0.014741070243095697 0.007384749044141765 1747.615359293474 0.03923122968970351
0.038706450069772816 -0.0010478539136348 1747.489630441006 0.0156468839364815
0.03160681592253697 3.734899010752655e-05 1747.3242956826975 0.010506489592972684
0.018477216361425915 0.009682413981316815 1747.6909075177819 0.0552528063013458
0.021987363119557055 0.0025540291958833236 1747.423524397836 0.0666871594258279
0.011088993475382536 -0.00873841826688106 1747.2801438979702 0.09232786896783997
0.06212617560952956 0.0025715823032028077 1747.2536211366378 0.010518514951404568
0.022847239685817065 -0.003821416796283033 1747.8697811382544 0.07500099565332134
0.04697611089243358 0.0023893990523549723 1747.430612265585 0.04526174868863728
0.03786299834945137 0.005802064886715417 1747.3118929418097 0.012711445417900397
0.033628187327129036 0.002001524768459456 1747.6833057984018 0.04749074603398809
0.0447490382013706 -0.005053885012156302 1747.378369719479 0.02209982355388734
0.029363491836552364 -0.010394191138850286 1747.392820313004 0.02429757238344101
0.03354766428267075 0.00344332470531327 1747.8019574105695 0.04270502492396806
0.022691093813866366 0.00804336127141314 1747.8819394074058 0.06892785927178137
0.02755458421344211 0.007124131258813087 1747.5942695513543 0.06175610523208124
0.022867168893901915 0.0012869665842319606 1747.309399538569 0.10546200639933435
0.03773800824411246 0.003231630382244827 1747.3590854136708 0.02481928808538417
0.033056871034545555 -0.006635670670582938 1747.266084714187 0.07932658223591812
0.039281361143653236 -0.0019525799710686605 1747.2994207851707 0.007927019940792732
0.03416955849893645 0.005386642388879078 1747.7739627103601 0.0334200166524646
0.05727089399234251 -0.0016577888404454393 1747.3471492275612 0.01783209095368393
0.026005838809832912 0.003980737514886274 1747.7544978250858 0.0959488484548232
0.01615180582875539 0.004897185426076844 1747.4943410568353 0.04410525499545624
0.07034062428217622 0.006776594183749116 1747.3736727526255 0.013664337485849425
0.041979165146587054 0.005180098839540631 1747.729723162994 0.052246598971972515
0.04556966348351896 0.006815508912147014 1747.9347642428297 0.09295912347744589
0.057929456187149946 -0.001427544422450903 1747.7137899166496 0.027580649702431723
0.039708236676804017 -0.0030445154991249742 1747.6136650730182 0.01600331210140754
0.052429292359750655 -0.0033703327669387263 1747.7943197270786 0.06738199050789777
0.046753065655277835 -0.0014079963832160447 1747.809559193552 0.027570308152280107
0.04401017145590019 -0.004891403927736311 1747.4642437852897 0.04905198051409218
0.03834541303948184 -0.0016392159746439895 1747.6465778394581 0.039597331058091795
0.05629147293341236 0.0018686439833149496 1747.5873031559884 0.06075780909759907
0.0454700982857297 -0.003663490275421285 1747.903826292082 0.021870833789795124
0.06121795938974112 0.001168939489455964 1747.6931914394459 0.039256297788238415
0.06069967764449236 0.006078617835106348 1747.6067241172552 0.050789863835549794
0.0303235680817405 0.003172191375908385 1747.771167396679 0.0394182130069635
0.053635166733782484 -0.00015410564141945843 1747.886830560807 0.03274362524338811
0.03438882295750442 -0.006278274610157967 1747.894679961514 0.017713783493929172
0.06648344689729552 0.0001425501913923336 1747.8309595026474 0.028956275559837198
0.04122614066570723 -0.0011638723506234802 1747.5629223172546 0.018929627310582394
0.04000017306036976 -0.0015560032741385671 1747.909961252988 0.03344175312526266
0.0657803373790859 0.012788855384517309 1747.6756146640148 0.024264623604861896
0.04444405039131369 -0.0008863130714980893 1747.856784291345 0.02500681839602544
0.03069540455582605 -0.001187848083718343 1747.871566875679 0.07402296535491718
0.06223855348653833 0.001021435980210382 1747.5529758120767 0.0309350458191234
0.033428561335210126 -0.001635817855191762 1747.8293771533654 0.02429045470904391
0.042816828597185136 -0.005505752589312273 1747.7119626306069 0.038219097664866385
0.0677295927546278 0.0015597273671727361 1747.793309331146 0.0635735350247029
0.050348633210520945 -0.0016185715376010675 1747.7587304886622 0.03251384658794108
0.034862107916469876 0.0040636253608223516 1747.809886598759 0.028391235980133114
0.02793681119278018 0.000856020640536161 1747.8240230128552 0.06909248853344167
0.06143828481038088 0.00462461264956255 1747.462826691808 0.02251480875079686
0.0653821272014594 0.004101629434330813 1747.5015887761663 0.019764426084374342
0.056624760139582675 0.00613556226856864 1747.927346692396 0.060364942762000204
0.044838805950930774 0.002352309554540538 1747.8797583056032 0.02954879460391263
0.06382797954958698 -0.001446591591924161 1747.9193445490657 0.014494225532533088
0.059381492076725266 0.008411246209772365 1747.4360190691864 0.041104533519945384
0.06799031677890897 0.003063698610754847 1747.2999110671365 0.033793859689058806
0.06918375411479287 -0.0008815426744606415 1747.3325590446736 0.006361933757496044
0.06217400887460972 0.006730663795964282 1747.635240085883 0.026222843367341108
0.07294614328923593 0.0009683993235867954 1747.5455510183904 0.021488646920483422
0.07532184959209759 0.008197239085406262 1747.4113495485865 0.023135236562631306
0.06563505027722107 0.0024215409506167973 1747.3537661338723 0.018912516494582976
0.06671524152229567 0.0062516484940327854 1747.5732344723633 0.06809203277036076
0.06419513438230132 -0.0008066031661335725 1747.4056319074516 0.005258204887811877
0.05519041972931751 -0.00040437844057110233 1747.486779457432 0.015117089041336606
0.05642081412068182 -0.0004738241113453126 1747.6541189175105 0.026613687655608745
0.057069617884378206 0.007349758837013374 1747.8096803341289 0.0755315926554917
0.05928317439125905 0.001878780678033572 1747.319705940174 0.011923686475050297
0.06921461817268228 -0.002703541992633854 1747.7785922244107 0.05690496144335052
0.06676924186024652 0.010781071441063682 1747.5282480365274 0.04750648302573599
0.05918518123365767 0.009914528100578813 1747.729204230005 0.09237029517195412
0.06636535101175586 0.00586929946584381 1747.2844526638626 0.020876936253164724
0.0395137409383694 0.003530985853221843 1747.5264867798783 0.03212990001784101
0.04841028195625538 0.0026994216763110844 1747.359263855637 0.02121067437121686
0.03222293817097369 9.238218575719458e-05 1747.4303208985043 0.06533250265051362
0.04870423484772722 0.001250705377194677 1747.4195767511221 0.028496119255119277
0.038142893551585455 0.0012496330827371045 1747.442402249708 0.07424667135937145
0.047307552015216435 0.004461716828264733 1747.6443609637986 0.06443195995390612
0.0629915727907779 0.011009334844115787 1747.7520298253455 0.06680243975114644
0.04111619601895483 -0.005159433979056752 1747.679242795239 0.046790739817152115
0.04310767897648371 0.002606825983222718 1747.6495105359309 0.041150417616517686
0.043517746561610955 0.004471991883184799 1747.778545136471 0.03743838274157056
0.017874644321709245 -0.0007866777813980361 1747.3636889358718 0.05246980331532045
0.03251806763155484 0.0011135577143402504 1747.5454700489931 0.05088391938941975
0.018098180005608262 -0.001319150020238925 1747.7703715671005 0.032906001629050954
0.02423498598923586 0.002433048229228389 1747.6525168515902 0.037437426536437564
0.0312915772396047 0.00021504556491626706 1747.531663710631 0.061261495106106435
0.05931380269195497 0.0027088102554351573 1747.8926510996325 0.029416428542819215
0.016286746648897673 -0.003008309345169562 1747.2941418887326 0.08562138763185526
0.02112089098266416 0.003335009878292253 1747.8689701059911 0.08754464612162495
0.03500649318455985 -0.0037217363671382 1747.5146945658116 0.024776874065883494
0.01337783488892301 0.005427837844787262 1747.4814336957031 0.036462259247028686
0.023647937100603422 -0.00525622987281062 1747.2617423154677 0.11907108150778548
0.02523075436954015 0.003054506966526914 1747.8424093952758 0.07585345142847048
0.02159449050625324 0.004351203328688813 1747.5876144337828 0.05422855117902386
0.015907992101052155 0.00434324375245974 1747.6780223693443 0.03462626822719722
0.01503420427125695 0.014360119623634917 1747.3982890464501 0.009234478020319159
0.01981712676859672 0.0010135910982468869 1747.807686720735 0.07027217378439733
0.028646867697915333 -0.007007400481343533 1747.9637370664118 0.0702983030992278
0.04939513984977199 0.010968515173812067 1747.9553700280942 0.05029597938427438
0.02011933428402627 0.008426651599896903 1748.6519581057617 0.09953063484210131
0.022216732793790026 0.0011480567930839541 1748.3436371142102 0.0860373143101435
0.022002745280197793 0.0033248073615415345 1748.6208179793248 0.08369733958246285
0.019656698854355267 0.0036522123816604404 1748.426953856864 0.08260611020013879
0.029681476153922186 0.00706206290094815 1748.1395967143658 0.11175196046093554
0.01892510158118209 0.004545616750996538 1747.991193443646 0.08951757081444968
0.017816793440961588 0.015121594377925358 1748.3428236526054 0.07489279914717752
0.022692636170026186 0.0027865969001901122 1748.18121090949 0.0759345536812
0.014023007613710876 0.007350150847454756 1748.0946072387035 0.061036924317705236
0.017480605568402648 0.010345779704905647 1748.2033067704715 0.061539518623620504
0.022062579860172016 0.0028023781377572235 1748.4041342792286 0.08223602378094877
0.02618184754297695 0.010339413714348794 1748.572517780169 0.058569587249479256
0.024743940277441416 0.015401773220088389 1748.283719193682 0.0917382043403385
0.019612430295486365 0.009249245042671717 1748.3795630941163 0.07991102720993602
0.023021544994935302 0.01845218202106663 1748.1506387003847 0.06410849542002356
0.018259729787737097 0.009647936935532446 1748.5236611695711 0.04996221583687509
0.017950205818463415 0.012275060112790333 1748.4335818844045 0.08102849954794696
0.025617392881805003 0.016833933877154247 1748.3930682578107 0.14876723450762033
0.020925883922705182 0.018989501867504782 1748.0018066967134 0.05853099166938196
0.02690384019009688 0.015177914354479195 1748.1353965397986 0.13690560881514816
0.02752635802738194 0.0096434027287461 1748.4992174795195 0.05546634652676649
0.019295061715462157 0.02108894649218223 1748.4088028935062 0.029886289292085245
0.026302871724406728 0.016347023826742677 1748.606575476583 0.07980124812581524
0.031069769117573753 0.012635203459301659 1748.4897388143447 0.07741084756700865
0.02382715556566544 0.02192013052999821 1748.5561525410822 0.07807508045351823
0.02024800218703885 0.02326365649148519 1748.5365266254835 0.047057246061020894
0.02622384359300583 0.010670918423654264 1748.2890291416852 0.09188622732189876
0.029719114236260547 0.019635270268582375 1748.1795218494638 0.13827712770483414
0.023853874428197454 0.02545791375199475 1747.9854316108622 0.080084426263791
0.018081383965149904 0.022405939165734443 1748.6453136784187 0.0663604616363633
0.018141272381124562 0.020508845775223404 1748.584919172543 0.06643627822747265
0.020631429460653376 0.027527621849074986 1748.6323240201489 0.06325733335940281
0.06151598019928367 0.017808307078613774 1748.1712343577956 0.06242083524028733
0.061657268218278445 0.015610589624245424 1748.3702077921462 0.031881643848685755
0.05796871265484426 0.007077159677873942 1748.3494191566456 0.05751297020322991
0.0626739930956858 0.018579276624498882 1748.0559270851757 0.026218364881998697
0.05818566615999175 0.008765741944313527 1748.5644922098113 0.11862729245297447
0.07318102278623345 0.005197475450867036 1748.545924612643 0.04009450615054457
0.061181703237487894 0.011690113011514448 1748.4134066010754 0.026833665916276464
0.05923982350870177 0.01365753229203669 1748.3745067240316 0.057302901063589505
0.06395367589519166 0.019327881214088845 1747.9848913015014 0.009930033224080315
0.061723732176431956 0.012452756749716081 1748.195315184878 0.058149741631095146
0.05957732045160079 0.011640685367996537 1748.299513738243 0.12997940980321016
0.061592585715673824 0.007600088806576437 1748.1486214193897 0.058813176830425265
0.0646855730578991 0.00822150384323271 1748.2697575840077 0.04972885947528674
0.056540387751288224 0.005789610286063709 1748.6491463308466 0.08951762086413986
0.07059275714078461 0.003213046009301967 1748.4808023176367 0.0472265400979921
0.06349034732783057 0.005774719368749081 1748.4450851619433 0.07484211113753499
0.06100969788935454 0.007759934789622946 1748.2509770419858 0.03854790810837188
0.06390302387564088 0.011533444217398409 1748.0445628850448 0.016655705404724455
0.0749355218857891 0.009040394391093508 1748.520802893537 0.035861310354515466
0.028914195813396867 0.0023608496801721035 1748.4906857236679 0.04305423941888681
0.037625608829296706 -0.007718982689501292 1748.3809890199218 0.07972998063837568
0.03432228633952372 -0.00048340841938815556 1748.5330541068947 0.040790124540559886
0.02049412590591602 0.009388169109159579 1748.089860193374 0.06775507741148556
0.0442637343488772 -0.001067948923314803 1748.3546475273301 0.07474253289276717
0.014998512330694054 0.001974981073796023 1748.4818004684528 0.03831878446927554
0.04113958818982966 0.003801695075732394 1748.63429840367 0.09911158878419261
0.05311339235338414 0.0032911982403401974 1748.5788496386053 0.10732567534143213
0.02226667614445185 0.003195066232700011 1748.1972238317103 0.06095571331887859
0.02911278783235502 0.002832752584165695 1748.479128861532 0.05107890982695501
0.047047450821132604 0.000429525360257154 1748.5929004249533 0.029783822150743596
0.0242970542925253 0.007348985174707541 1748.3080605609 0.08117620073744061
0.016894928074410034 0.006262043003232084 1748.0501773771364 0.03749567769690907
0.04220924079377574 0.0018616332122326903 1748.6197767486497 0.07442308813822619
0.049441379848548586 -0.000743241871904084 1748.638788681157 0.0953438010267923
0.057361377321376236 -0.0023036141645644635 1748.6681148865944 0.028288212937151103
0.05341525707069406 0.002879093714422705 1748.0570870009024 0.04950309743211165
0.03289206354292278 0.00014234368328259073 1748.0119439694206 0.0838716298844498
0.050233411846978944 0.002470150281421585 1748.3570360690974 0.08050516870461849
0.053821450487500144 0.005191255723044268 1748.1505075331556 0.06207489377880726
0.04052131075712923 0.00677575006095041 1748.0883478693108 0.05794895804922143
0.038367679471602904 0.0030540726565288752 1748.1216937836155 0.034851930843305956
0.04057558857416208 0.0009307243712387723 1748.2529537718553 0.02707759357522366
0.03860832905611517 0.006199761696960426 1748.1790915750034 0.07319852785088794
0.04250716247367667 0.0007815255932815974 1748.0546466990786 0.02950879383127048
0.04487768684767963 0.002800313400253303 1748.1122841942133 0.028722925122513482
0.023199588380904034 0.014375218149351277 1747.990130439783 0.07558864766290666
0.06822406649904321 0.0030416050604653517 1748.1589025951344 0.019381921644854905
0.05980590131043671 0.012814635646583496 1748.0691673129645 0.044456579579330344
0.018090039409017517 0.017240942210289573 1748.2536805906839 0.05862723011703733
0.02168712415085151 0.004817589431224787 1748.5576239948027 0.06042535355575026
0.02187897912015736 0.009717357724682834 1748.6411229202793 0.13282512598896085
0.011980771286545115 0.04386726848328212 1747.9653042018767 0.02143266449239178
0.2617477243119828 0.023776331639776212 1747.9733608279348 0.02087521063301994
0.17983886914723718 0.03900373501028257 1747.9797757498345 0.03246340214162625
0.5859982255790659 0.04439568088553627 1747.978521930154 0.07105436772463254
0.4580248415522324 0.03215969722242843 1747.9746819194277 0.017854464669570268
0.46488767613484816 0.033240351367256116 1747.9721278710426 0.016334912826636024
0.10310321352580855 0.0324515047061029 1747.9668612187713 0.02198149432034198
0.22659579583185838 0.029039025975558273 1747.9736490679031 0.022146078285560672
0.24614915371096577 0.03179117400165761 1747.987943684432 0.011399662928621022
0.0029336538105277786 0.043279718047536914 1747.9787034325138 0.008375756609336617
0.2969249644774055 0.03316584281302741 1747.972190990548 0.0169228607804445
0.014755676340324073 0.035590375579840204 1747.2089844282807 0.04201823951655631
0.0031288340106726533 0.05126208537893749 1747.560168520144 0.026186019592874026
0.5846257180297193 0.03757173336248165 1747.5003584810997 0.07591220749447262
0.5847781932087693 0.04799111660327397 1747.2377123197605 0.06439829723937956
0.5872598093273563 0.04330335061526845 1747.570990638428 0.06095584002849763
0.5948301049839333 0.041724860555305124 1747.727940550583 0.053781895871830694
0.5886929086253768 0.04292899444168773 1747.1947842557988 0.037602457590868874
0.5782557666474846 0.03885025320821646 1747.6814783406144 0.02668713468700929
0.5618732551674003 0.03136910190377579 1747.2398434386216 0.007681141699014176
0.5939677339953964 0.040741435234104055 1747.4783063102107 0.10551821227966009
0.5816299773110207 0.04445797869044814 1747.6271744925143 0.08949891922207988
0.5520134456808274 0.03875863403024175 1747.2063193207641 0.010915091126632576
0.5857732877559365 0.03587708748234697 1747.8201224597622 0.07661195623850829
0.5783714362828577 0.04060357671380161 1747.6190795450634 0.04086434506574674
0.5733982892836067 0.03900055055910402 1747.2040287817067 0.02721835178528013
0.5792864364819079 0.0350925758727766 1747.508311086984 0.04139441502278988
0.5579476908824844 0.040002240579377964 1747.2102011963939 0.014194893853248293
0.5859678973147111 0.0465795166806015 1747.6532499956077 0.053476823762662676
0.5842085091979533 0.036005370205898064 1747.6062855163975 0.03321525098872963
0.5698885393495603 0.03742941900786667 1747.5456082155222 0.04647744454433173
0.5909202172387491 0.04590472086526252 1747.4837575416846 0.09235020293761877
0.5736574595710029 0.04106233029830807 1747.6365332724956 0.05068831101375706
0.569046699020759 0.03259534641384262 1747.42497627841 0.08487155636273098
0.5799582594838496 0.037066222250682436 1747.192952556744 0.02556644321013421
0.5668947866515535 0.0441109500006185 1747.49510603507 0.020359321098642445
0.5721290650179673 0.03781314578925776 1747.6559823707685 0.01406477186246342
0.5865708044112974 0.03480879963978451 1747.303675813533 0.04873249657515003
0.5641874664245264 0.032981565593780744 1747.390863326649 0.012766457351449139
0.5853737975747447 0.03470106554033673 1747.8931652353947 0.026951101209698757
0.5778455090601076 0.03946140823546005 1747.2615337984273 0.058677320829330346
0.577740096035506 0.047779833963297276 1747.5617553768884 0.09087882699558913
0.5671078589366196 0.0435366015713108 1747.4911652483213 0.02387908122442616
0.5829252145429236 0.038948146489474464 1747.3607147804612 0.0610490373158952
0.5833391791622913 0.042061846592386105 1747.3461079000886 0.06798347397475443
0.584970682809217 0.038441328149678274 1747.79321926744 0.07042135521072558
0.5829349886104894 0.03965400193475637 1747.6993229195712 0.04289256278024495
0.5785622977170137 0.03609841824423096 1747.4775610508443 0.06654438747456821
0.5842224847411345 0.03706705785820045 1747.280575797039 0.06689693115231672
0.5662497965487178 0.03143188922777629 1747.3688268933029 0.02353983632687207
0.5818771372246603 0.044452030013992415 1747.2177010982082 0.030094019317106608
0.5844319482133784 0.040770355829041365 1747.5797225009098 0.06059581640562277
0.5615172588195966 0.037051508636204065 1747.2670676164305 0.01788621558880037
0.5830460645301676 0.03737576920220778 1747.544119926807 0.0540248482650864
0.5889831921635308 0.028464965852166974 1747.456488414015 0.049565092918764264
0.5669534932757309 0.029875376252404676 1747.2984574046811 0.015768970437299752
0.5481551593167914 0.03918171738801768 1747.2210030470467 0.007822075126729826
0.5965657909290014 0.048110167706417774 1747.7839335997478 0.036048641125664624
0.5625201051845641 0.041654067228594285 1747.8925381337017 0.02347722043803426
0.5628584630092631 0.02953811715605574 1747.4278856336355 0.0060624924617884894
0.5625528256215762 0.04071406087494301 1747.8942888820302 0.024527990684867017
0.565027870134916 0.030663647403638826 1747.5985084543809 0.008186550709751505
0.5645276072325756 0.03769760187716363 1747.7369518186806 0.042368711176409446
0.5712682186409737 0.036067957027026545 1747.803659620485 0.07852113860780856
0.5763891790720636 0.0429658153080776 1747.6904337839794 0.03525673744395864
0.5765338169893531 0.04095637260798041 1747.7232476829474 0.04322700943021023
0.5610353679890487 0.03882211293723198 1747.6544408692791 0.012770558847450996
0.5585262431195055 0.03603749971376971 1747.7996579325484 0.010243834914361497
0.5773984548487294 0.03790543979781995 1747.7588332812054 0.05672308905223924
0.5564505382331765 0.0371189397441935 1747.8710599191288 0.014318300695134597
0.5605312330088977 0.0354081484319465 1747.6363255282622 0.014886932738563292
0.5583435838839563 0.039665464781696795 1747.8254742866764 0.02002095866936799
0.5754417188276719 0.03940062526937321 1747.8668906447097 0.05386726508799375
0.5746266317066183 0.039315086741662626 1747.9236981719428 0.04239591799905821
0.5539657628989089 0.0411172702584719 1747.515606994335 0.017854161281370948
0.5658919452968466 0.035639026406426896 1747.7882309950717 0.051681853471518414
0.5556345882889908 0.03583606233861871 1747.539716066723 0.02017184412708693
0.5665254329724246 0.0379619242100918 1747.6187681386589 0.031495876501445585
0.5907403864500591 0.04227431079222331 1747.9118832631175 0.0738016579970242
0.5612199581537801 0.04194651292203296 1747.6663699502785 0.01823438928767763
0.5552952008556158 0.03909885957182716 1747.8906156274463 0.015288474985584043
0.5506061601246897 0.03659377086663583 1747.7122294546045 0.003391915356647855
0.5727080062421767 0.036527766262386276 1747.8370215399111 0.04607528061148213
0.5571770627205577 0.03632666077296953 1747.8198441511008 0.014664740553298038
0.5721273569933187 0.0437638746220286 1747.9369804423843 0.05402116548726118
0.572605431961685 0.042098741699243186 1747.8739689249762 0.04514150590606573
0.577630772779995 0.04020918580910914 1747.865425194692 0.05304732887720152
0.5745823824348407 0.03993732071444934 1747.7668150068378 0.05643860925306557
0.5658191379389954 0.039849790623206115 1747.5748054116336 0.04645554253705433
0.5545023699567322 0.03947961924565421 1747.6413604104705 0.013285479285577566
0.5540151472988809 0.038083008338991954 1747.7180534817828 0.003955432067028712
0.5788152462785178 0.03870710822785535 1747.7151939448274 0.03915072049279647
0.5611831110486856 0.035953958021832134 1747.761367941284 0.03227203759941293
0.5582452155646545 0.030783197941599866 1747.4685953026703 0.02569399867875551
0.5655675874044104 0.04165097086328013 1747.9128861668519 0.03170940062027076
0.584534243807573 0.03695281914825471 1747.9455392005734 0.030306675052986908
0.5553143606827815 0.03402180371897205 1747.8457569676027 0.008913405107881599
0.5728384289719092 0.04347851208104711 1747.6894598538238 0.019044726969606646
0.5573412158232727 0.037373093776635676 1747.6812155767248 0.008839467453585177
0.5467492324298915 0.03583728051389481 1747.9025149596416 0.015301591505516169
0.5635711610737819 0.03847251554469741 1747.554522372429 0.0582256881832286
0.548692300956134 0.03662209455018772 1747.356833902169 0.018508414556903163
0.5631418228129301 0.03422903343524217 1747.9039116917256 0.02323135556462346
0.5642198279407329 0.03752057879803736 1747.9509001378508 0.025319197651619944
0.5507792690261282 0.030982907582600767 1747.3945124940753 0.00727955193520719
0.5894972897601484 0.05096528167652224 1747.9618502142494 0.054810214892667165
0.5571019302360704 0.04164668265594018 1747.5150010406767 0.01719748739911226
0.56856748752415 0.043423018172615055 1747.6825053585846 0.026189535867517582
0.5553737465464823 0.0325678440044536 1747.7639203157883 0.038520408825936235
0.5670489837579835 0.033652844070770155 1747.8022525109852 0.05113383934801569
0.5574294875919855 0.036955687429110484 1747.408815957048 0.006097783057451858
0.5865303011735246 0.0445397405446814 1747.92620176732 0.06311814948280783
0.556225501412521 0.040646489613597195 1747.6864124369936 0.009291234546852052
0.5315367656957567 0.034737894479837335 1747.470114066362 0.008830177452976122
0.5409128672222151 0.030617027002706597 1747.303350589097 0.013924340939911689
0.5377255658512509 0.034873883018027574 1747.191821207061 0.010679455173896428
0.5329456051356122 0.033200134390323266 1747.4058847992826 0.008311249710113214
0.5117400877897867 0.024574396018095492 1747.7364730656302 0.0068764868070642
0.5312919055836058 0.031712512865362516 1747.483663698153 0.029888800949207813
0.5087437405850384 0.03141056793819522 1747.3977680893424 0.012483669531689138
0.5242080181063797 0.027930633796884728 1747.4838947292935 0.009688830270077916
0.5180723524172587 0.03249950240231823 1747.6371713713982 0.026648274823697967
0.5221464496847025 0.031636001916982084 1747.2688650426828 0.009643157018588632
0.5344769464056466 0.035420617692039226 1747.5540373887177 0.012064122356392619
0.5331981360897021 0.03419242634670103 1747.2577478004732 0.00898962943279619
0.5225731100869155 0.03718777074679964 1747.7600822961524 0.017343069875646877
0.5167082531594076 0.03215862209988233 1747.5835153396306 0.026522609960404883
0.5207398453031306 0.031882574556102945 1747.336206543892 0.01688618695278744
0.5341720045438435 0.03202020543846015 1747.2285067539726 0.014335342285489881
0.5277351092561321 0.031101766315429828 1747.579587265606 0.0210346431349488
0.5255703985283785 0.03702315059594366 1747.2087664669532 0.011384730816800014
0.513170927078314 0.02450504604128346 1747.3007357383176 0.006159069304573468
0.5303435521712809 0.03152529038286858 1747.350238848304 0.020702990018716005
0.5220655946807498 0.028447046208108246 1747.2344252934006 0.012060832297960076
0.5160577323500216 0.037055025454743665 1747.409328335486 0.007159761817665507
0.5242364816432421 0.031334279406241304 1747.3807895488685 0.009714844729983406
0.5268870690878575 0.03176274365696533 1747.539258752631 0.014558576832790366
0.5196090342307712 0.031800979286348396 1747.1936766347635 0.011294736781609313
0.5127430528076419 0.027319981831008477 1747.5254301212426 0.016341250592542437
0.5235152604263542 0.03360183074641224 1747.8667155283188 0.011676331269962266
0.5188245984233258 0.03426264435796445 1747.7096641376968 0.02754544906237197
0.513659671995781 0.026227731781124978 1747.3628028291412 0.007328287395983696
0.5214693289351247 0.035517316358517494 1747.6087700436865 0.01435171055055794
0.5160729292028735 0.020273883613634858 1747.6731581072902 0.0074518679935785415
0.5516387173993819 0.03814620214012057 1747.1933839881112 0.013028048104699399
0.5165813407169421 0.03545595530793606 1747.5566731872261 0.017364819125987262
0.5466519011571382 0.033261896906737747 1747.2808907931005 0.004475011826185542
0.5279636983560988 0.032051049664635074 1747.5728516189947 0.020279147946450735
0.5310261168868662 0.03228761511850459 1747.4584027373576 0.008095717670552217
0.5352935156527983 0.035776315714760046 1747.3793180184957 0.007804363588468538
0.5234303016578116 0.0337472910281671 1747.602338412476 0.019271291678197938
0.5374097090812016 0.02924804907877962 1747.3269196992617 0.020284251778854
0.5188779972050233 0.030817982107841348 1747.2866380014957 0.006094192200760034
0.5485508243265148 0.037758534134856664 1747.2094502083673 0.009718853987821881
0.5146869332395972 0.024748145491734475 1747.8151550102477 0.009798598661719107
0.5434498420941698 0.031701685728385574 1747.2428328079318 0.006327966972222083
0.5368183287782364 0.0324757686560985 1747.4291206615912 0.008048884599727857
0.5241071565180699 0.029507177120819888 1747.3898031194526 0.008007108886605259
0.5206715297346406 0.03598727589468723 1747.4413519560885 0.009508282211501387
0.5318493243943933 0.028491995479096602 1747.504288498521 0.010457919017978448
0.517762676571257 0.02733026305411421 1747.6468857108093 0.02390237456383641
0.5200480829541089 0.03701082963918245 1747.8354992587613 0.01481402440052444
0.5469258005237377 0.03185607835238409 1747.4850947444454 0.02167741332296781
0.5335133667650026 0.036288504274519594 1747.705170433568 0.027793449367892884
0.5296092424010861 0.03229779227945069 1747.8180290213068 0.014164773565487558
0.5477624619216072 0.03805174658157142 1747.4588836032017 0.015992188120270093
0.5397886053534623 0.030015272817531264 1747.9425630929616 0.028373100353948272
0.5325323397573823 0.030485421149129093 1747.9106536522584 0.0159047263621431
0.5287983723834857 0.03763101273577298 1747.6942367280149 0.0212841702666533
0.5461596205033102 0.02707869225391582 1747.6177854071502 0.009917084921659465
0.5449025406665163 0.035895847971398734 1747.3581892379375 0.016198951642821834
0.5351427934463405 0.03812230520935408 1747.7647497999988 0.015385297337611894
0.5482772853437556 0.03602392901659352 1747.3853538371784 0.010530926360706773
0.5295045117528299 0.033190916869594224 1747.8505879787035 0.012757158270349152
0.5539724397513512 0.028062317784504923 1747.9476752883666 0.014605670812883761
0.5456391618351207 0.020565066993054108 1747.3293333590639 0.008089909063797788
0.528964393911233 0.030608714190165108 1747.6695002162926 0.01681264721175946
0.5468426384775303 0.036344753128126794 1747.2572137173086 0.009272624970940627
0.5483097528426819 0.027995584559772444 1747.346474116083 0.02236036839307968
0.5472387664639292 0.04011507129579823 1747.8778892535981 0.011278664233830615
0.5411449947267164 0.03744057447957252 1747.8150339582116 0.015046452256076459
0.5292885678879324 0.03207839389859364 1747.9403684416116 0.016826824469039395
0.5398348017471885 0.042529306505488494 1747.8521547643893 0.0065293745080866805
0.5432045960065013 0.02831397481800177 1747.925234035226 0.01830576090990969
0.5294834046822016 0.036410895339992866 1747.7195815427765 0.010363713385908732
0.5521269124285962 0.04190948982432696 1747.7882520984188 0.006814265245878143
0.5421226028739178 0.0390278067858945 1747.7272119770153 0.008911819469837053
0.5306572272637731 0.030424306991027966 1747.830310904024 0.011785177490033803
0.5480913897292561 0.03642486184543214 1747.7493733556544 0.007504824033571873
0.542950051038731 0.03467635612295456 1747.4070912044917 0.00948079777789833
0.5334180914614863 0.031051238188950576 1747.5993463192333 0.01567896683484297
0.5327553062794083 0.03363029593904716 1747.872004556115 0.010531264715789421
0.5403299489554014 0.03874344504869767 1747.7775149997838 0.00900486467810618
0.5203101692284748 0.03032876963447703 1747.9594161835364 0.023078558623193635
0.5299006010654351 0.04007256847875095 1747.7338994112586 0.009332642293250398
0.5486564325832959 0.038457788350289984 1747.53033800428 0.010206108506343538
0.5266422666521773 0.029575448141873743 1747.796406304342 0.005801473450495992
0.546647281638934 0.03955567741788091 1747.7184533074828 0.0035878158963033474
0.5451908809839127 0.03633296612959158 1747.5665045011428 0.013184987449653643
0.5540417852314269 0.04318932236216955 1747.6692543502909 0.007787076329551173
0.5447448684792696 0.03039954608377234 1747.4950727444914 0.0176474236738016
0.5223822317705334 0.03297902247447221 1747.8943713654435 0.01176169515613935
0.5382974477884256 0.04081138940317541 1747.8889283359479 0.009304890998236432
0.5552278152513572 0.03666340346190862 1747.8045344544196 0.013467020390704182
0.534636461614227 0.03320947846122037 1747.631919395626 0.014159280455973635
0.5395674976644532 0.039382981394737025 1747.6877007086036 0.015567268067175117
