x y z curv
0.0017082695221006018 0.6582410046380943 1673.2375690892147 0.03215743196304375
0.001377347477458676 0.6099896862125286 1672.2377915233485 0.016656743117585162
0.002415811115656559 0.3424658827201199 1673.6055093628047 0.010051236605463384
0.0015151350673418462 0.5850196796882507 1673.3895434783171 0.019912638727555106
-0.0019063585784536428 0.3147670796319606 1673.024070754563 0.01907460625572442
-0.0003352302367924559 0.5799812159862276 1672.464563207625 0.01848250114737019
-0.003464137340489391 0.5943716948100869 1672.2262237976727 0.016925718744772642
-0.0016593861120239493 0.5242674854478079 1673.315339477116 0.025188058373346017
-0.004114075677189902 0.6183649229361504 1671.9592540711244 0.005414828670501418
-0.001693152928353184 0.4852443018338371 1673.5760852737985 0.011890647254731764
-0.005381604651677914 0.4158331759260039 1672.840781828466 0.019299722037418112
0.0036266867725821116 0.5436259542107782 1672.4516437447537 0.03002652248396804
0.005718279700958762 0.5098991756123484 1672.5090290820883 0.008235416158210293
0.00358509129819291 0.6071588832436788 1672.9479885276057 0.008830290104834364
0.000636399468600563 0.45848526326235306 1672.8937437880054 0.012199930595998483
-0.00263426269876671 0.5714156844502442 1673.1850911681572 0.009693430165109878
-0.003365341884249611 0.6316058620700563 1673.5914209919738 0.022371237994890453
0.004202270594689483 0.4185277206020794 1673.1642018444156 0.02831333877998903
-0.0007336581954184676 0.6201329824966155 1672.7564473107236 0.014694142963835151
0.0003508208446229492 0.2740586117023371 1673.5206735359325 0.012345119533218792
-0.0059100290599859075 0.4462549998222956 1672.6460131160688 0.013047431650506062
0.002020217029894412 0.6485426344165187 1673.4493804501758 0.021150221583864884
-0.003683339098900728 0.6334729686959094 1673.0168937354333 0.013199984659031664
-0.0006749763261041195 0.4809925606127271 1673.5415778711836 0.00792800120369784
-0.0024879750162802574 0.5393496022606891 1673.2638583961466 0.016710767069384742
0.001721650958757351 0.47383127608713493 1672.8369326352538 0.016686157404488824
0.0011392704917135117 0.6191797793678245 1672.2856609261426 0.01916561992130702
-0.005554477239740738 0.5228687922032411 1672.5949985693815 0.02314836036042259
-0.0037085669593460956 0.44376170746817645 1672.8351998112657 0.01434293682010504
0.005955017762388414 0.263228387491752 1673.1671637566603 0.027797982879583467
-0.0011841117306034302 0.44220899419512927 1672.9215588412803 0.008462351309135188
-0.009836671703781866 0.45501720480972735 1673.5077495084042 0.015659997183650763
0.0026281765456216476 0.3466911967980276 1672.8350300599493 0.01811052696297296
-0.0011028879242271584 0.5670820809358321 1673.338637862873 0.01265065173295367
0.0024178627930663064 0.42202004064876764 1673.3585765067712 0.02091689822099938
-0.0035227637571886984 0.5033169602387951 1673.6081945582132 0.016918439317381025
-0.0018298643368225098 0.28915339539338775 1673.526984686496 0.017249111054754004
0.0017572551659507621 0.6049907990756799 1673.3056530705994 0.020711590377401144
-0.002694074670110003 0.46781987267007413 1673.2030881541418 0.01085919006709631
-0.004427977781211811 0.3271987862791728 1673.6116473979366 0.011682468862186065
0.00012217441680755986 0.5178470665668393 1672.7034150326306 0.024612898053711543
0.003999275135535412 0.5377398450463731 1673.1263617859174 0.017356033489198064
-0.004159627801197429 0.29135964978321205 1673.043120417526 0.014387408701169762
-0.0035630625228886387 0.43136888142874036 1672.9811743060714 0.027342774606151914
0.0014323176637003124 0.4454619072770255 1672.7880288918398 0.0175140750801782
-0.0023950090724766736 0.6537260482559263 1672.4937580932244 0.022495656966117716
0.0064742801845122855 0.3413947850918037 1673.1037577708262 0.029795815042052656
-0.0012020118706594742 0.3658675734580435 1673.1551061851624 0.013836205825150301
-0.007758893751155197 0.2809510575563865 1673.2351928755604 0.01953302097531716
-0.0037543172323260547 0.5721720367059006 1672.6656772561525 0.010512333935365369
-0.00428028468207952 0.43145683363225706 1673.3694641948482 0.015031436865515635
0.005344017579580559 0.4796465322668084 1672.5431454402456 0.013308912274811789
0.0034317430276868616 0.4460445546867484 1673.1882459984631 0.013281823940238493
7.517341027110739e-05 0.3109452054920167 1673.4619646020449 0.013581023792241322
0.003012460821963259 0.5118079250924862 1673.3189618589724 0.021862008672545973
-0.001418451664416607 0.4627454673755922 1673.3582887379482 0.010051453906239596
-0.0019076463739600008 0.6627069689473912 1673.1564785727437 0.04303943162926395
-0.0036838305118819608 0.43382571602155096 1673.6079714144414 0.023561305360253016
0.0010855750398120296 0.3597457895484627 1672.9366924320593 0.011244135318813268
-0.006567700133735821 0.6427728326525632 1672.6836811911132 0.022013065009817128
-0.00040248333135172793 0.1710780795978236 1673.4310220405623 0.013629526772619787
-0.0007482570787299648 0.5791380329597507 1673.2101624554537 0.012153549555637626
-0.002016206301011143 0.4418422354149206 1673.543496863745 0.01653628464000475
0.005023452131004365 0.4031931643678885 1673.1605201228201 0.023090472277022402
0.00032161614552782226 0.6376835097504328 1673.321218484567 0.027171585238889902
-0.006374263293398255 0.203283292953529 1673.3194389542944 0.02360362290971488
-0.006314944100070941 0.627870018131389 1673.4396799540336 0.024382781299872903
-0.004170141153346302 0.5669522416629725 1673.4942276325928 0.01451027025783101
-0.007693961927323771 0.4742413457698465 1673.4442287564223 0.027632327631083434
0.005614817723642048 0.5450300494510992 1673.1478939060491 0.01296758102926182
-0.00617989172033154 0.21645572955883707 1673.431617426134 0.012297433069359974
-0.003177439047272923 0.2957676313966881 1673.64621258279 0.03212375622621368
0.0052953608504994224 0.5655527801949577 1672.8607830464173 0.02346972760561462
-0.004554693682833777 0.14237408424733905 1673.4465031295551 0.023302087505369957
0.003951509349084161 0.5344817981058853 1673.1548322674491 0.013634025780755826
-0.005756889899460655 0.6525201242212734 1673.4839333015063 0.04519593584721825
-0.0025009543446880716 0.5374733476428789 1672.2617292244386 0.01823365251627832
-0.001534782732795896 0.6062944288332134 1672.8932956587591 0.01913028566064838
0.0006577053038958264 0.4050543629854872 1673.0264054997313 0.02537663241981206
0.0006974042193695236 0.45104645148188927 1673.1168901066635 0.016879511754872407
0.0008078378307450802 0.5964459376385675 1672.3332071815773 0.010613641432951472
0.0023297264911602313 0.24781886745192094 1673.3879207571194 0.018234428794802342
-0.0038069202049561247 0.5770460788260158 1673.3266025324506 0.01476116110560377
-0.0015495794409470277 0.41873195636373073 1672.6962969595315 0.017898206289459668
0.0022165062040913133 0.48949222480014765 1673.0853988249812 0.02432681559566981
-0.004704186182144435 0.4381424734037732 1672.6104395774935 0.013142229500419699
0.00288552397533094 0.2478844031689282 1673.2377788288923 0.024989272195558652
-0.004435828731599315 0.43713261340967 1673.431537755391 0.029521700672736684
-0.0032702344370046906 0.4687522533874977 1672.5747164604566 0.019345104876662477
-0.0026244790219653157 0.27967942860975703 1673.002236528746 0.014406927215432363
-0.006625905476155201 0.28269794774296375 1673.3498490093525 0.011911267264172696
0.0009781877417845578 0.49707227311469593 1673.5937314028045 0.017666539802014068
0.0028233348524381637 0.30838663655112364 1673.3075888446635 0.01582544557375645
-0.00641093723008096 0.563461815940569 1672.226269052207 0.014758641295201234
0.0036605624877086122 0.5245007479113978 1673.0321031378714 0.020754115345490678
0.003431263437992549 0.5932521998976842 1673.0479303849027 0.01762582466980219
-0.0033038131986510384 0.2529551962107179 1673.5923338958887 0.013774225898143642
0.0012179817279047214 0.6323282992239608 1672.4645461648981 0.00841995999651428
-0.001294114623756316 0.4739806816860395 1673.1452130070043 0.021850019607710266
0.004647478900272082 0.4587941086126106 1672.4892155853543 0.01575110151831096
0.003637362206741428 0.629020998382228 1673.4267375990974 0.006855206632663373
0.004008076482204544 0.3797542855722136 1673.1808483089133 0.02173822719460523
-0.002936078395982666 0.37476920411204817 1672.7808320155139 0.019578988965418105
-0.0029866365192328854 0.6190848771392549 1672.3206967573985 0.020698551107781533
0.004934327824089834 0.6307898666246471 1673.1006460255912 0.009340149457196661
0.0045650422117118165 0.5568461678486691 1673.6377685355694 0.013751414823406026
-0.004727404900071951 0.6654439888078381 1672.1850650107535 0.02497184269301665
0.001252185233012188 0.2099287472997143 1673.3915445970429 0.021924017804878036
-0.005161756934501215 0.5154385940747958 1673.0766580498366 0.02876977183783701
0.0006997359153418844 0.36205816755712517 1672.867036992774 0.015251870910938358
-0.0047533919433883085 0.6228589720180278 1672.175773607768 0.021538953813524754
-0.0008200233786036748 0.23800454807624183 1673.2863017337788 0.021718241278488207
-0.004804297491774553 0.45754673342618424 1673.0758144707086 0.011873748429218026
-0.005928920802339346 0.5435527096335151 1673.1760592113903 0.01139883018100764
-0.004795840870492176 0.5030874499765711 1673.511520880027 0.013958837376564894
-0.0018954969862504348 0.5172706700302121 1673.4969380755326 0.01612445406552282
0.002106620006855623 0.4870785461174347 1672.74613579237 0.025704359310375922
0.0060742511630516895 0.469523923497394 1672.7455670554264 0.023034359461802826
-0.0017888682302173507 0.36594641277975076 1673.5823051748935 0.015388278189168743
0.0014493531087689654 0.5513815251967814 1673.1157642551643 0.019138549740249866
-0.0035988896225592976 0.6114075898794806 1672.1563548907966 0.018510925140533492
0.0013971103694133094 0.36904292510585057 1673.1696684479987 0.016505849131502638
0.002250094478185741 0.5257441038383124 1672.35558865772 0.021181204505786047
-0.005255622561814004 0.5161037073057634 1673.3317408895055 0.015145217858246478
-0.0044207402771950476 0.4648007046517252 1672.519225493311 0.0197976885876429
-0.0037691706292316733 0.6079354164083747 1672.8560225684437 0.029414290936467025
-0.003799452197360585 0.628043216245476 1673.223483320592 0.020059693642166216
-0.0014064529006850683 0.5527643389596482 1672.3321519535014 0.017568971121521275
-0.006753973012162846 0.48838546034310637 1673.3147929379993 0.018871119690811386
-0.0015365679828228758 0.6642145941403087 1673.533086877349 0.039035336790061284
-0.0031105733898615547 0.5916014829719187 1673.1595137435584 0.023836649003828998
-0.006072830904501685 0.42927733646134164 1672.9805584367648 0.02859161804587148
0.005646599652342603 0.49446527107043314 1672.723341191857 0.01890703123766891
-0.002595554053164931 0.29908172037940384 1673.2434367131439 0.024923631971359432
0.0011472406323175563 0.5923676317588877 1673.0649596814703 0.028475971667938846
-0.004944270313265673 0.472660180154302 1673.394834412511 0.017962600840510465
0.0034941524348374915 0.2520760519715593 1673.0774288742668 0.01874734599804473
-0.002733293981054671 0.556271973790981 1672.2932481995592 0.01588620091503985
-0.006677302112212898 0.4591558653977708 1673.157087993548 0.018952184503688917
0.0014930570974516903 0.5201546572536735 1673.3870551398302 0.02445524050606639
-0.001730871265909127 0.4259137407987026 1672.7583071146353 0.015338025471550972
-0.0017566179067661717 0.4902445737731986 1673.5567430530948 0.00788372981750505
0.00120776390021668 0.46449887651828314 1673.140934141773 0.017924365008348396
-0.007372694790052934 0.46094687687682545 1673.526875717 0.014918891279125516
0.006015122529811947 0.4706494993872437 1673.2952810291893 0.016516629597508447
-0.009132613888025871 0.5791731578806864 1672.1913606247522 0.01570093752964147
0.003241818504826049 0.6599201634929933 1673.2829557687933 0.02889590834715733
0.0068055946035333985 0.3507320232616326 1673.53112803505 0.014637309793790536
-0.005387890858491271 0.2156040796342824 1673.2935471232204 0.014505108792342994
0.005350521098791623 0.6234896854949685 1673.0785499499902 0.015648102853827624
0.0002910708266573084 0.6497246650789316 1673.4208574439494 0.015219725853523273
-0.006172241974395756 0.24154453891754402 1673.1789670047344 0.0376401992249383
0.00233228613937882 0.6381277648044832 1672.6450191304548 0.017643535312777636
0.000809421206231313 0.3954801508735502 1673.4039222711908 0.016346341403776415
0.001391192189478174 0.5917825614890077 1672.8801126675303 0.01873556028559542
0.0006673291596591734 0.6315168013651357 1673.0447424908814 0.0176720334283606
-0.002484495905619295 0.6087029935659153 1672.222615347973 0.016616665854629807
0.0052169198845643736 0.5365552661361273 1673.5978597892722 0.01616374035569031
0.00349766708548914 0.4062795338296733 1673.4358454983803 0.017526727699645507
-0.0068931335558467316 0.5452296692332156 1672.2678958617366 0.014300144486004217
-9.954001756673977e-06 0.45586409192050004 1673.496338588874 0.026660423971259523
-0.010992842205982178 0.5200772138419583 1672.4686786555578 0.009744011002590107
-0.0013741463484544189 0.6136336403278885 1672.9999628499818 0.011929772229615335
-0.0016378980783497022 0.500450016072405 1673.2613201973177 0.01762976069650092
-0.009963648901061968 0.4486007946447358 1673.065530370497 0.010168847612023987
0.0018311187651808317 0.5395129867376026 1673.099891917157 0.02266638575310644
-0.00032828960782059794 0.5405523089646715 1672.8560157457262 0.028654268782217208
-0.004869025705359894 0.21846036057708068 1673.4810593398124 0.016975324859593532
-0.005219018818570416 0.5811022419460768 1672.4160800914826 0.016835421698426552
0.004581673380126506 0.5371086295841697 1673.4363188839595 0.017044884750938467
0.0013418970763683419 0.5868059931529003 1672.6374408391061 0.008285264511416129
0.00013657394792279304 0.269675647650162 1673.1203581287537 0.018240277279670324
-0.0020961499412854453 0.4328008827558595 1672.6660487820636 0.020738721804322253
-0.0023597384132486073 0.6439105924162761 1673.2102456984258 0.021945119429681494
-0.002395399535519627 0.5990270912220336 1672.572962770099 0.030356035342306544
0.0027562534304124186 0.5355216602619401 1673.231194009051 0.011423089843791968
-0.0020833546439940186 0.6533926928118818 1672.2608401172954 0.012002292526476077
1.4635054725776695e-05 0.162875922331227 1673.502476642526 0.02593685942710751
-0.0019195902588798966 0.6571126763208093 1672.5715208030433 0.03856629290653784
0.0011732749866507895 0.5535315320264564 1672.4891439091107 0.016210629956739078
-0.0006816073605895986 0.6116662279718744 1673.1865863259845 0.028101432772373345
-0.0006693805046803213 0.4997282788642085 1672.880398733186 0.011522274266605109
-0.0004291141601482256 0.5422271156368667 1672.6296366561928 0.017756024237824696
-0.0003544155051618219 0.6158487740693622 1672.1952905886542 0.010001859422990339
-0.003368177204056119 0.25266780337318023 1673.3278021158637 0.01887688231697784
-0.001068915034555273 0.18145560387329204 1673.3632012567607 0.016120809023218236
-0.0026322683828132526 0.3573125571914568 1673.5050044811564 0.021525608995461364
-0.006705907763910191 0.20271156855718675 1673.3841988851516 0.015583381627562076
0.0012555840277686605 0.6452223347717337 1672.2137080436607 0.019761261468506503
-0.001096879307839319 0.43293626420543707 1673.2733945648463 0.010991440053125828
-0.0037291921481108787 0.5054811243357937 1672.8854748117249 0.010745014107384628
0.005213374508577563 0.4878780728545151 1672.4705029231304 0.022118423389786212
0.0005643581608679209 0.6460903272427184 1673.028332847445 0.011802183895464178
0.007461455363200871 0.3721797070059654 1673.630568827333 0.046162280187174484
-0.0019458617544735562 0.27551941666316765 1673.250890404706 0.017356765353200906
0.000110112974643949 0.5145598012118288 1673.5353071941577 0.009930881165359555
0.002318221493382505 0.506859806277811 1673.2981765872726 0.01810471288215632
-0.0027733442565019916 0.5927165118993731 1673.0023613744368 0.013058566915743447
0.00337083685880412 0.311315332427863 1673.3476838225577 0.016383876540545798
0.0028946795691681417 0.6102581720804963 1673.226248839661 0.01636796632205253
-0.002594774976775557 0.5612437659138694 1672.9026833740245 0.02684528921709877
0.0020500836595128613 0.5004579346418448 1672.9753854856804 0.01135285465612118
0.0031107251734110017 0.5959503385223344 1672.4691097424984 0.015369000003774827
-0.002299598135364965 0.626670607974251 1672.5364589482315 0.02648518720317195
-0.000507935172514923 0.6688976423394393 1673.366539538995 0.018390430895038116
0.0014596729110559344 0.6651416718791439 1672.7322601968076 0.02314884146596817
-0.0032765174080536096 0.4574649245101637 1673.4759894351973 0.03456991201240041
-0.0001712647490508268 0.5888942692740855 1672.61452332391 0.017370667715400512
0.0010552049960713913 0.3517732939498543 1673.0895092412138 0.019877583686662783
0.006628486164843868 0.5299844858637972 1672.3294779813498 0.014360841815972147
-0.00023688467280289755 0.5516543694050864 1673.5979425537091 0.03292271886096988
-0.0036023114111329788 0.16125604564496096 1673.515529571534 0.017819403543710498
-0.0024216700160693237 0.2681849863276595 1673.2202643133196 0.02151212165680528
-0.009684760519677944 0.3800394052839138 1672.982299503194 0.014640979017259895
-0.004032404781297815 0.5817512419893859 1672.5704112019064 0.015952290426283888
-0.00029552589395226946 0.2649292462565416 1673.1137273100644 0.022946241585638755
-0.003878135022663137 0.38164788638481556 1673.3078272177074 0.01896772005005903
-0.00493185040960254 0.4917016562352374 1672.5319087194578 0.01721037654815799
-0.008779619340398894 0.6107350263198843 1673.4539598319232 0.025868986451891028
-0.007162932126689852 0.5078120288524617 1673.378902615179 0.017454936980513
-0.0018982536442089333 0.5933791897878337 1672.233063528497 0.01698780554585995
-0.0019498211801725319 0.4491583977234602 1673.3794628131664 0.009169604904806092
0.010428316677062769 0.5833852624758461 1673.5803604478226 0.008789419605119777
-0.0005129571914369089 0.49029280872435616 1672.9020144895726 0.011598649307804378
-0.00504592354402251 0.2457007060088529 1673.6088860578361 0.016262869627645407
0.0005004561657937205 0.26083071820453657 1673.5240209436881 0.013986453562541658
-0.0017872093511996914 0.6163541577049868 1673.1017382042135 0.010079120826437724
0.008389247587319909 0.40054366146153647 1673.3712848506666 0.01544588383700409
0.0007786671953689351 0.5526827926777027 1672.5079091240527 0.007027918577094177
-0.0019552027996292375 0.5333102798097346 1673.0420549271034 0.019193806257518126
0.0018083612646884967 0.31913040731973114 1673.0182553908394 0.024122722386916207
-0.0006342176245545373 0.2324906732282849 1673.1932677805955 0.0328132289765701
0.002704098753863495 0.5894885733030693 1672.7610545282914 0.016771288048757764
-0.004060624374426837 0.6646779914805354 1673.0785775135546 0.013516980127983533
-0.001305032655150345 0.287709204752484 1673.5236503008166 0.013881808025323536
-0.0016122325481904567 0.3316843856539538 1673.3463080670706 0.014606845200910282
-0.004090038120984626 0.18206760348111134 1673.5163949959501 0.01650713970303164
0.0041375952963009005 0.5436794166930997 1673.4063766507297 0.014545977141396263
-0.0013427384723229726 0.5318960485465031 1673.1389766148552 0.030802661607281557
-0.0005100920151727334 0.6472938678868425 1672.9325676473134 0.015578892658371566
-0.004403557101246272 0.5976722321665163 1672.1202411477777 0.01400349853955428
-0.002353034944292238 0.35452589006221713 1673.2950951011205 0.012421746419129541
-0.0005909396859201143 0.37729176688506877 1673.4823794948297 0.021841196788745257
-0.0013042458167820392 0.14597749789212666 1673.5882557663808 0.017029378713061573
0.0022301439880610878 0.2678662457573392 1673.4033048670171 0.019934252384760508
0.0009210801262210964 0.6178207433032226 1672.8367723624756 0.020282377449141874
-0.006388523075624315 0.37740755022152356 1672.9452459768256 0.018842471683704363
-0.013602712043163783 0.3968957506170156 1673.5004973749933 0.02049140966972928
-0.0028720614001946795 0.3806624058752285 1673.017080936863 0.017332323251895505
-0.00635327153789819 0.5692291462487128 1673.6222754160233 0.029680733648282064
-0.004277204647887586 0.45876074928382327 1672.5390009658436 0.014201960799252332
-0.008348634304581852 0.6463609673149917 1673.2005615762407 0.022392166748055588
-0.005148500520025305 0.5345331913335125 1673.3187582642615 0.01965391850510221
0.002474858267191344 0.16686336491957665 1673.6064353710774 0.01960468969149489
0.005297903139001954 0.4830478009692086 1672.6246692849377 0.010905086678807177
-0.002445293404986031 0.22757392280232727 1673.4036508385777 0.014968090095267434
0.005481287870749751 0.5143624202446929 1672.3716962075364 0.020571983514042158
-0.006042345648156469 0.48285127780887505 1673.2354821546733 0.015144906148669986
-0.006950978157709771 0.5544203458632846 1672.5203427385268 0.012511622483190247
-0.0020319580604685394 0.5441258200179563 1672.4147847078757 0.033572136692753364
-0.005117395712812551 0.6114762648213881 1673.314738326339 0.021757451373638485
0.0028138843874521485 0.3752825763653472 1673.0367959354442 0.021785604499499636
0.006163029240189157 0.481408547637594 1672.865068389698 0.012167779789372642
-0.006562602743853654 0.5463048840938829 1672.5481377761407 0.01129105064656481
-0.00470542892438505 0.47985443325402954 1672.8868269447319 0.008550986028759913
-0.0005053974049805794 0.6622653619116476 1672.3130146565477 0.019165153765369772
-0.00821845041007874 0.11327906617788203 1673.5795387599128 0.042969901663520466
-0.0026890163351575474 0.4290467534328242 1672.6137000718386 0.010600556447225391
-0.004073751422920416 0.5742401675252006 1672.1150250470919 0.018400483916608097
0.008248542195172768 0.6232148100582371 1672.5631252977867 0.02297534532140155
0.0015109945825463045 0.33682028338940095 1673.2762305974134 0.014805829693920162
-0.002152700060937645 0.6633937487914942 1672.3874797620133 0.053593236673304234
0.0026134334495161943 0.48122459931152123 1673.4932427929075 0.013322572268234823
-0.002468732746557927 0.6625151259100478 1672.6134804036103 0.032927684576375356
-0.003563429739587307 0.6229934144565746 1673.4659859493408 0.03515270931423716
0.0019239265174524603 0.31784369638642546 1673.4371219529314 0.026386982868197205
0.0021244445780149975 0.4360063240626561 1673.501023940499 0.01901186525442196
-0.0035754237757933166 0.6007025416261403 1673.5154950126453 0.02053107961665723
-0.0016149237886112953 0.5736952401056229 1672.381186547562 0.027716870439075357
-0.004231198055066913 0.5047611721351262 1673.0627053162261 0.02213563037755187
-0.00465926262497254 0.4465572646617028 1673.360550759454 0.01083080206128994
-0.0073893790168275 0.39278174147440714 1673.3522360134589 0.03545190880706192
-0.008519156336999525 0.39682248977131584 1673.48175898591 0.021799905484367135
-0.010381848867619418 0.6321778622953582 1673.5730383639511 0.014530028460167911
0.0025090976787058273 0.47687421355289705 1673.2386184686027 0.01753956542930201
0.0013585662268356155 0.5734893213805052 1672.7621416430597 0.021187111509836303
0.0021187494814868387 0.4598897869357438 1673.5492470191966 0.012104664073848971
-0.004570864262382561 0.5710435926332641 1673.4215212166794 0.015029213844509049
0.0025609153219922193 0.27200151881735757 1673.6095019058102 0.014893565677431877
-0.005371854395780687 0.6439170921501214 1672.2052696253002 0.009900521464232046
0.00038345215219531766 0.6517978892742463 1672.1827233242877 0.010753783305963103
-0.007330227559581007 0.37469539913948124 1673.0467938156125 0.014510854969356212
-0.0027970854945534567 0.5083849651453253 1672.3564585561091 0.0164261655632142
0.00243876702116209 0.6300644866757007 1673.2633783436506 0.024088694177073534
-0.005413876556692774 0.6555046339161941 1673.0147821496755 0.008263221345455483
0.0017555010169175538 0.5685214632974439 1672.8785206170946 0.018139582699193905
0.0031945862664682313 0.603912669667768 1672.7500405950911 0.018254870754889956
0.0010684090520197314 0.4811227305815904 1673.3094841621628 0.025017709849983454
-0.0019468752708907261 0.2358064463096462 1673.513885233786 0.015858346167092557
-8.025946315927393e-05 0.4515372816649912 1672.8895407530933 0.012679470879650726
-0.007741467606594013 0.4175883228041985 1673.4551774313468 0.02961446065934789
0.0007894066279500533 0.615236411839323 1672.7412763684727 0.011983689698150734
-0.004691164351374201 0.2993913800721218 1673.4365671891908 0.02694036975864054
0.00627605360416204 0.28824162964136046 1673.5655085808587 0.012485373972497441
-0.010073062174468761 0.6315213974090409 1673.5029227282982 0.022643260958321143
0.00023429873102427798 0.258120187894695 1673.2716214237792 0.020033733429362075
0.0014799899885867835 0.6070556824890811 1673.1863161664282 0.02279722533949882
-0.0052334491456024305 0.2428215679267411 1673.2281529050856 0.018904769633203138
-0.0020236318003979924 0.48764549324220674 1673.3017946283599 0.019426365831611767
0.0037581680529961297 0.2773155912724111 1673.5698045859947 0.012460214556812987
-0.003989246048261896 0.5050506998431616 1672.899107190755 0.009256420640703441
-0.007164026089400323 0.497146110822519 1672.501089167192 0.019332996674557304
-0.0003254510607893239 0.14451303915473554 1673.579316415873 0.009004547678049278
-0.00775716351451361 0.5006676005076146 1673.567784762651 0.00800750690540609
-0.0054282187388985225 0.5680092537283173 1672.3063518306467 0.014882010951423332
-0.0030938060575710948 0.48233120248890904 1672.3976179863585 0.014303355823554909
0.006454632858353102 0.38233411237705417 1672.8283716125054 0.023006154089019563
0.002757733038909328 0.5233876272784413 1673.402882415198 0.016258595147405575
-0.0016181075528167688 0.22969654681135404 1673.3715123869656 0.01792626039426475
-0.00322764910194471 0.5517187684334892 1673.0113621927155 0.016418135835088613
-0.007104091247535161 0.6020090386522571 1673.1251663946528 0.017670141601577857
0.006636462801971372 0.4817931720826896 1673.409483777371 0.023377817454812416
-0.009520140464141243 0.6683074615484967 1673.1483171925295 0.019450240207424148
-0.0020242942835756125 0.32119295056296526 1673.5678763226392 0.007910474513974534
0.0017344971550549808 0.5067610927269031 1673.1479277727133 0.030862088494149464
-0.006868113114401779 0.5322873908618652 1673.2137012267585 0.00959640880953905
0.0015624229857859764 0.6334842128151731 1672.757260053514 0.008179161371701348
0.0018719367513756312 0.5896685470720178 1673.0488425644335 0.019589329483236783
0.001659974033435801 0.19717141671560176 1673.569982115855 0.023437208825545064
0.005692188363847646 0.509108881500475 1672.3792409883304 0.01423472259057371
0.005125395323304911 0.5189846928269316 1673.2866093532098 0.013343407181760242
0.00041012994470297987 0.63591725908657 1672.6595125381646 0.019243116727300065
-0.0008476815972102902 0.4115284430678863 1673.3511939453253 0.02512065698319403
-0.0058817155862610285 0.43848773179332096 1672.621230736333 0.009658344740819232
-0.0007004471539710666 0.4036951273779258 1672.7698668398154 0.049667462193107914
-0.0020856014832105513 0.38019222876295466 1672.8924549165622 0.01632123992257474
-0.00439929196111137 0.5355508536768465 1672.7862887208362 0.013351429009858544
-0.0025880720706667015 0.5392453459974469 1673.3753184126833 0.024652519365559813
-0.003985797723836227 0.20703173747675138 1673.2832185665154 0.024433660807569913
0.0030294251740497742 0.4230344492581635 1673.3833374399549 0.010349871925708553
-0.009058088696389788 0.22128747033855686 1673.3722518782895 0.014900220667915947
0.003582468143444348 0.4520778137683982 1673.3682276775717 0.008091543888227885
-0.00044360040927978665 0.3630344271815818 1672.9458950371716 0.014149559723011223
-0.0038320559749927276 0.2970749496202111 1673.0556422624256 0.011201915657717349
-0.004721353714595589 0.4019190155088431 1673.558764890611 0.0073034751602143975
0.0012496080506259816 0.40761346958992506 1673.3620620969566 0.026938542893021153
0.00042391210621332083 0.6284883619662494 1672.2619468245464 0.02087061413806109
-0.003668153601007455 0.25545570445873417 1673.1293932953163 0.03186571225045861
-0.0013424803018511416 0.4880331239363773 1673.6413992435416 0.0366319603903441
-0.003913598541394149 0.2325846759384737 1673.4028276466524 0.014927046801557051
-0.0031256062376120246 0.31020805649867694 1673.2269529339906 0.02126589717191963
-0.006057430155167802 0.5831188703381417 1672.7793950871762 0.004528786355908813
0.006318558409666473 0.4335725877617992 1673.2957543055147 0.025389355897702703
-0.0060824609381293065 0.4440014439667717 1672.7206510187411 0.01543459931207761
0.0030608333228373027 0.483566060713451 1672.6123508677179 0.017091106232920514
-5.561326178047824e-05 0.5505732739991108 1672.6600463354812 0.009443761030861754
-0.0019089334152001497 0.5496804047130205 1673.2402777259535 0.011357275637538583
-0.005856317302381232 0.49970473337986443 1673.1956370825737 0.009220014197030788
0.002532091342551918 0.5670233044507814 1673.517796530467 0.007771024421182585
-0.0009850390205467204 0.5554824051073405 1672.786395282245 0.008648442101681959
-0.0021632660735524147 0.631173485454508 1672.9937807830095 0.014322038765634044
-0.006252430332998347 0.38431042464525733 1673.4265959958536 0.018251459253457863
0.005548836240932561 0.39957732747788205 1672.9268152623222 0.009188426930164896
-0.0019691641803080747 0.40531168012925844 1673.0639101015524 0.011332357240047506
-0.004503786484600363 0.38721414278334887 1673.2990362533062 0.01879514632518192
-0.006511841658798731 0.5582367461916068 1673.5039178363184 0.010529822432913076
-0.0018474913941656326 0.18204138131610317 1673.6147769183897 0.021207213325984426
-0.005446645201736992 0.6004142978093896 1672.490487945391 0.005922006883258465
0.0037541670601669275 0.2720703507433805 1673.0967137451362 0.01896286892961583
-0.0016856157889051876 0.49750942262484243 1672.6533653914255 0.0047428919731469675
0.004960907951145436 0.4983598567984202 1672.856442962508 0.013418587850056552
0.002365208497111199 0.142354857051039 1673.612785038425 0.027118286695095906
0.0063979931005662205 0.3415188668508886 1672.9882015694084 0.01641846032669101
-0.005223133894117966 0.31107294138069064 1673.034314398987 0.023293913266744997
-0.005191679241675197 0.25658689892667136 1673.60880754296 0.014428278331512792
-0.002253705415004385 0.39596644138624376 1672.9095415019106 0.014295613545412877
-0.0028124996934590536 0.4866375461285167 1673.1694383143263 0.018648827621106884
0.0015523734455783385 0.1945364980866642 1673.4288302476534 0.015726620240473242
-0.010528962250608603 0.16456960492834788 1673.624685075446 0.02360011963865955
-0.007409954940333188 0.5620553861190292 1673.5018985124834 0.009067556742373889
-0.003342941471809437 0.5771271554182648 1673.3079444105833 0.01988108340053683
-0.004238135747351939 0.6718859506742103 1673.5671138725313 0.039253515358779224
0.0031393381716428234 0.3869723996610732 1672.7961220134764 0.020908791194693018
-0.00604054848144675 0.6727370089330874 1672.5201779318625 0.0205379229760099
0.0035825759968532715 0.3157476469599062 1672.920500440599 0.02170649040238233
-0.007271085676066616 0.6027826121338278 1672.3906955055684 0.01489877557663605
-0.001842998700655532 0.5883212768992025 1673.5362878039841 0.00760354140909278
-0.0014344601244895053 0.6722481624631743 1672.7923495066977 0.010438452625666618
0.004757456001004985 0.29275045463818006 1673.260311496519 0.019959061875282423
-0.0008840615569774828 0.41080630059687484 1673.0402922506294 0.02216683963674219
0.007610809063553392 0.45770595991276375 1672.8658580824892 0.012371025367751294
-0.0037121255610383158 0.6012289997867594 1673.13547918782 0.022404280102318947
-0.0002404213391705538 0.47601165867117 1673.5017393146475 0.013386908287853777
-0.003901468230853656 0.5084674280113736 1672.6841959738263 0.017034963469844445
-0.009714899976660727 0.40557944245577043 1673.1971345857396 0.015039844626512925
0.0024562458379243333 0.5428411493248669 1673.1049947913302 0.02575913918883505
-0.0011666645140125762 0.6624693867455219 1672.7473185367583 0.01407054278604852
0.003965741921593571 0.6682565826964254 1673.3499217592555 0.019187417126409374
-0.0010720835737926258 0.5072353690913783 1673.0474023177758 0.019072554021409668
0.0008006846072409716 0.5911563895570483 1672.1495704655779 0.027194039550776955
0.0023312112359964677 0.3424539063937379 1673.3953854841106 0.020279800428853408
0.0007288088906762152 0.5256310424318029 1673.375242827379 0.019530450387654774
0.009018604945232198 0.16230884626202063 1673.5326571481573 0.016046841957030992
-0.001328223611497141 0.4148855767205497 1673.3738102416298 0.014429443098255534
0.006320047588399056 0.5401096597070227 1672.3232702704206 0.01733876564760266
-0.007610645425910183 0.5227392988472082 1672.7255784287904 0.03228869609259213
-0.0014710262026748266 0.4482036146574743 1672.6737082821694 0.017974833931374085
-0.006635667203544708 0.44058018201603677 1673.0007650621403 0.03265338941474927
0.005049300884917653 0.4996873351230728 1673.3657296191302 0.016859832303427507
-0.008912940360753345 0.5250271619064817 1672.5050207201796 0.016091643442175195
0.0007738863016600191 0.4176622499041656 1673.0491393444786 0.020947014506625648
0.003575274852318041 0.18800944596128613 1673.5025127388153 0.019898033498439383
-0.006472625608754108 0.35435269578758255 1673.226360611637 0.016464796208544717
-0.0036324578636011966 0.6508404643121689 1673.322727986609 0.028261191491282287
-0.00031118321905954907 0.6291976064209689 1673.6189861008515 0.02395611607810275
-0.00875473584343821 0.6278668981259824 1672.2146109030862 0.008592856403412024
0.0055995616614415355 0.6425972187639788 1673.4058336353837 0.015377287210223717
-0.005823735034069953 0.2487604074298825 1673.215829646244 0.016460508625551363
-0.0003153380500169075 0.40739536204453813 1673.3822422136222 0.01643955554929989
-0.004555465228237402 0.599961380962409 1672.8711235439746 0.02754908302174021
0.0029947628455616886 0.1366823511435069 1673.5287289134333 0.01277064489470107
-0.000183534154819538 0.5965231281958777 1673.2486194767994 0.010693566161440673
0.0004409560878437714 0.5295249348036426 1672.660769206729 0.007352926387076804
-0.007179895535018318 0.6325901579639652 1673.4736535724671 0.029641646100529453
-0.004597024479058285 0.23939258773273733 1673.56046679888 0.02519052833270067
-0.006225271993836941 0.23813939404572057 1673.548932026829 0.026265700655161102
-0.007886946460712045 0.4062778802687082 1673.6123680125859 0.020879880194244128
0.004114494087646453 0.349485709826286 1672.8953240769604 0.009688529816493366
-0.004203174413462656 0.18318026709262375 1673.589220191321 0.005902022265913285
0.006358744081187724 0.6678952807735513 1672.7016219152267 0.04730497898685363
-0.002661928322618004 0.5125999016244059 1672.7578353585516 0.0365311665066568
0.003316658409918912 0.5136484741544625 1673.2708058714297 0.021560188512764478
-0.015585458040517109 0.530137730156571 1672.424250492857 0.019329919986570684
0.006909601661949863 0.2561269362424473 1673.2536177281268 0.013699991544875402
-0.002427244951226253 0.49600553510727774 1673.3771213410362 0.01872522855123627
-0.0032380321865175883 0.45372746611754095 1673.159640307103 0.020274628837807118
0.0011917702024281278 0.09583440875285354 1673.6471271760322 0.010879110499942335
0.0038917235662910645 0.5811577107619311 1673.546516396873 0.007803843153996765
-0.0019793970344916716 0.5263847630321999 1673.5840489180366 0.021085458333524047
-1.1343435214657688e-05 0.14718881661097025 1673.4940186548515 0.019632243359343476
-0.008802997956982195 0.5797293504858734 1673.4499726087483 0.021976069045070126
0.002954652753380816 0.6164553239789762 1672.2520773891254 0.012724136399600383
-0.001189434176937753 0.3385904839506911 1673.2075944906264 0.023878506417009226
0.003516327623341705 0.40913064658853404 1673.651061279265 0.028929352205612623
-0.01040136463096692 0.5822877347390005 1673.6146217906644 0.02242616355926231
0.0017004685422087546 0.6451393800941134 1672.8664210057443 0.03583693774644984
-0.003756685386278651 0.32430031545441085 1673.6054294291905 0.011012155422525595
0.0016591675116487828 0.5221339219474542 1673.0556989789252 0.029246886454555924
-0.00922671068135569 0.6612162502940133 1673.4966435770457 0.03021576675521573
-0.0016339954964739965 0.6476548578917338 1672.0695118071208 0.019656149965420235
-0.002373376068479852 0.2149217403909007 1673.475468317852 0.023730011515061527
-0.0019672845353415143 0.14572222382859004 1673.5268603461282 0.021066669864949202
-0.005174637021862386 0.5809705408737679 1673.5111514901334 0.012802928591349733
0.00016051240130589322 0.49525139444339866 1672.4885929848115 0.027590901350147856
-0.0071807255485945 0.3172782234385838 1673.2094257690967 0.01756926821115828
-0.0025385825962899776 0.2981467598843044 1673.6114158791781 0.011828619607232138
0.0007610143822581767 0.3668970088680037 1672.7951086964515 0.021969465833345
-0.00046781185827380424 0.6417172068533614 1673.29767161584 0.029500608393837016
-0.0018209016873742521 0.567263863969814 1673.4061161355646 0.021280976776330552
-0.003801342060477467 0.33421035213024974 1672.9319356255573 0.020250034332809284
0.0020935592563332303 0.3733065060842695 1673.4487188503003 0.01599176793189074
0.003634409770769073 0.6551175036599522 1672.6751156503171 0.02330396699091143
-0.0018517591582946642 0.6180697590794384 1672.968819359109 0.0217935606356502
0.001837460998509186 0.300352988814963 1673.2334757850983 0.023373795947531622
0.003095920028541891 0.16419193231109377 1673.490230594374 0.02616777980276913
-0.0035757412066379393 0.594589294122491 1672.9639536274865 0.01727725996961708
0.0031757624302491535 0.26596543380881527 1673.333756156642 0.01590636407360604
-0.003289636735147066 0.4047080304808093 1672.854279514431 0.029413210657892173
0.0013342862023474772 0.4750093636830305 1672.560994707205 0.02368356419409336
0.002250194389421359 0.5651683259216853 1672.979876448482 0.007023703200897929
-0.0063939867887725715 0.42555727964524775 1673.4559050145228 0.025235494716551808
0.00696915232397157 0.5721272434725607 1673.3977057078228 0.021935894081597938
0.00451399486832446 0.6101747514928083 1672.4619468857084 0.02219680741672665
-0.0016256445166705697 0.6672269208216932 1673.0024065492091 0.013098321798351105
-0.0025973135823298466 0.12425499641935905 1673.5252743799576 0.010095213842702337
-0.008041358443344266 0.503002831708957 1673.5837844869416 0.013050463391474535
-8.738825996290796e-05 0.5307513727753286 1673.0909556365061 0.027033342932647485
-0.008528842165247493 0.6473161326067853 1671.9338243455088 0.017795850358231585
0.0024842896886983572 0.5823537575129036 1673.1516344435145 0.018010769976248914
-0.002437629709757513 0.5108321331597867 1672.3058042816642 0.026107453872688712
-0.01071052810094261 0.5450721624922156 1672.894227911777 0.011294508334961754
0.005826972285342214 0.32558107619481824 1673.0368942050393 0.0168128138207879
-0.005853904125544853 0.19990582462208684 1673.6523182490062 0.01937090469220518
-0.004285756711122637 0.46814313911325817 1672.6211889510328 0.013415574991426085
-0.002208805791953259 0.207419793525329 1673.525189645578 0.02260265483877701
-0.0054647030707556145 0.6257323923480019 1673.0559365960926 0.01408806783253294
0.0009922796914792864 0.5560680264131931 1673.5374423220624 0.007901035862328024
-0.008379302112469404 0.6420900506457365 1672.449524406158 0.014374273507580583
0.0015209508302937772 0.43305476907239926 1673.254150858866 0.010325525195621096
-0.0028858698665980686 0.6277766464011347 1673.6366507149232 0.0170065853927291
0.0038783829795412885 0.32356659348710703 1673.3563026685604 0.017876942410651686
0.0013668797147695555 0.5265600116833109 1672.3721809917263 0.03203035260897927
0.0028807785183206985 0.5166557282010616 1672.6291167388247 0.01884255500102091
-0.001636120682034273 0.4104375807903504 1672.877449769773 0.014680680100932424
-0.0008186164527494978 0.4850759505618427 1673.358416878251 0.01599333204839224
-0.0026381270307598587 0.5647524799572163 1673.3207234832341 0.022928476747372955
0.0011133101614560473 0.2975506355075319 1673.4951933284747 0.008792742093679248
0.00301550161670234 0.37805685178833215 1673.2623029568663 0.011913695532470434
-3.8639038496825784e-05 0.5020407943028169 1673.1008326845483 0.029932876302089354
0.002211813441998055 0.4398184720582423 1673.576189859744 0.013026411094560238
-0.0054095727075271285 0.2363484312723402 1673.6302598878135 0.01877749169654579
-0.010674332369399178 0.3194310519129698 1673.2749073216542 0.02336972444654924
0.0017873127188896723 0.5882078872116391 1672.8993808388852 0.018109472398978622
-0.007058465367972388 0.1636703823628155 1673.4176816633249 0.01238524590201779
-0.008226994165059846 0.6203509123651958 1672.5179520743304 0.010146885489937342
-0.008730420083591891 0.4493032865803883 1673.5733693922298 0.007105784455568207
-0.004136650828069567 0.3307926812709263 1673.5337790284311 0.02058384145932127
-0.008322787727160944 0.2602294033423091 1673.5314137264688 0.010259636740759774
-0.0032907656925980334 0.6420456809898036 1673.3758641016639 0.0139573747637459
-0.002170774779091201 0.43067235444440094 1672.7145277770803 0.019361634906500228
-0.006575170072937545 0.32949624766553576 1673.136185310438 0.010140238636548797
-0.006467650899472182 0.5308230227081635 1673.1718046529481 0.01162883778002444
-0.0032674410575982784 0.4539331413132354 1673.3237333365012 0.020891873259589404
0.00019140360868547668 0.566838998724016 1672.4036048710757 0.025874260572612797
-0.0024411669840319105 0.2819914303662892 1673.2524290815736 0.01911357241130885
0.0034741428968897764 0.6099436496354559 1673.0798061738137 0.01949440357910513
-0.0015629491308292898 0.38315595482551995 1673.1865098642222 0.021843972222169484
-0.002745852518779435 0.1521966431868876 1673.457403484418 0.021527023967682583
-0.00014438516855762646 0.6258050844168367 1672.438900374609 0.01071917184114914
-0.002518766582528656 0.5684685839812035 1673.1831775549033 0.009812409373805184
-0.0015884313836720028 0.24947727807295855 1673.3012199477578 0.01665599740935199
0.0006649548003096168 0.5305373134044434 1673.6326321631557 0.02033902853125125
0.0021534628764832355 0.3347486817799367 1672.8754259020338 0.012604791292561313
-0.0043560682288141354 0.49573166573058997 1672.9967844670985 0.01691885937909785
-0.0002834522619806573 0.3407812698164482 1673.4736288740419 0.019962934440729226
-0.015249078696994038 0.6110039827649354 1672.606504527042 0.010077727625699083
-0.002048714042794762 0.5025095512732153 1672.789221922188 0.01849629873761075
-0.0007661733008071688 0.39862563159053155 1673.3423769235967 0.03240383709533292
0.005317205069985868 0.46004406738725684 1673.433409017606 0.03851982092965246
-0.0008829277159991355 0.438431363704821 1672.8006742161513 0.01727606969313706
-0.003151664912915121 0.5380050254173632 1672.526383297477 0.02026175351181827
-0.0059328532062471575 0.6266231758667773 1673.5088534364693 0.026399987051267858
0.005028900927204687 0.27098482589933837 1673.4987676469207 0.007672192758835531
0.00044426170967112644 0.5220802648019487 1672.9505385085965 0.019908431262169575
0.009087360529847752 0.5191792324213543 1673.1512166242894 0.023336518190792598
-0.005446758917536083 0.6180281511212168 1672.9165428529252 0.010578575229939406
0.0014853553325552627 0.5401776579393827 1672.9259780838925 0.02836059402512067
-0.001860746942142897 0.6550144328936538 1672.1094692703123 0.033754051016841986
-0.0018301346977930473 0.36230256015718354 1673.1714966123827 0.0168446667070347
-0.0035947289458431674 0.5538463010513182 1672.732882033869 0.020349803812177984
0.00496143280256319 0.4908130378848228 1673.3481572853113 0.012566491585093818
0.00266390201033137 0.29085188580734633 1673.1001069237761 0.01860608488337308
0.008942357687513064 0.616739194832419 1672.5540432767991 0.018693153825882675
-0.001027751533534448 0.27439040066615544 1673.3155674308662 0.018320367226430965
-0.003922056946919356 0.6186262631108947 1672.9764373563432 0.01939299432068882
-0.0014468914259029267 0.3518908370888943 1673.3747223825817 0.01261888847165654
0.004525628277116148 0.4048086507195956 1672.7395754096385 0.03223032031361317
-0.002528778880771705 0.5323715213883187 1673.3884998730277 0.020339417828424477
0.004926625180753489 0.19481341186295875 1673.4497032151808 0.0198092329794665
-0.001722176586637098 0.4056275081537246 1672.9469704190265 0.014928007910462388
0.007056806731469923 0.36992341121244526 1673.1309978064987 0.018738146355220236
-0.0037111420415978347 0.5865659345668828 1672.5375785877036 0.01893195233490821
0.0026504559585077987 0.3037582631312177 1673.1763090777274 0.030882982735521272
-0.0037408073908290684 0.5093858831816872 1673.6213184564258 0.02128193552672647
0.0004323125928574201 0.5469489941387117 1672.816250631986 0.01647506385285117
0.0019387642338711854 0.5458896943894997 1673.425654545467 0.018115293691241666
-0.002459292899117732 0.31417174277054505 1673.1019203809033 0.021654400154338727
-0.0016185594407274449 0.5876961830763936 1672.6264432613336 0.024084441837928475
0.005434622540735801 0.13997804073540238 1673.49049500125 0.012328668485162527
-0.004573243124917092 0.6345746280052146 1672.8984881325578 0.02631693599638073
-0.0029739265197087023 0.5600970821183962 1672.7226233734789 0.018686831791712436
0.0006205637129942713 0.541185114005838 1673.2319237606127 0.014072863760206947
0.0017302681503025756 0.5082146545485997 1672.8518294998323 0.012785570956814948
-0.005445131945058209 0.44295436334209204 1673.0801951935928 0.00912252384341576
0.003649362309948988 0.5287304287042506 1673.0161577454396 0.01745022943132764
-0.016101783050435237 0.6246258380342322 1672.8732199304557 0.013430982916867524
-0.001406136424435034 0.3186994440193927 1673.172691373134 0.020461147218361043
-0.005192494872016418 0.15870467125329402 1673.4515986221281 0.019318942448798233
-0.002612638022534725 0.6496153451555362 1672.6098217915464 0.025868095723622087
0.0015169177811050812 0.3661021003132418 1673.6239140271696 0.0383081953186455
-0.006036252792489862 0.32310845827489654 1673.082498226544 0.017709049018668148
0.0008930820179662945 0.6026963812634801 1673.4661346749847 0.024500181456531312
-0.007259043058850611 0.5104071754773103 1673.5122927233901 0.012183326901763644
0.00042964963958497964 0.2784126047093074 1673.288266984984 0.022246247109722613
0.0019103087811469153 0.531028664520877 1672.433329961246 0.034608635894428905
-0.003877029855897097 0.6172371410087893 1672.111001581129 0.024743198468366187
0.0010595290475017946 0.6288660500815663 1672.1224868231022 0.01963885265177053
0.002368821000204671 0.4958590939271537 1673.415811485692 0.028453690616597235
0.0027618186433487754 0.4679232586686975 1673.269191015488 0.02023936115245218
-0.001450236023309711 0.6117357092182897 1672.3988179231642 0.019881007809391452
0.007818376765558493 0.49245239424068066 1673.4689353955425 0.020303709133732323
-0.001260166205323448 0.5915110292164715 1673.0925465405292 0.015130895433901732
0.007093342006028992 0.6125773446542501 1672.4088439627574 0.011306519122449937
2.7994551759720717e-05 0.4774834178161775 1672.7208806544456 0.03345235653309981
0.0017017963992201689 0.5029226954621486 1672.8503909942453 0.019403610243965093
-0.008610507320371299 0.6044200767761241 1673.5318276566693 0.015021803019480412
0.005190825356489149 0.5267692675696404 1673.329437451751 0.017433026911537145
-0.0008849494606030867 0.5461141619929554 1672.9687381225797 0.01656947445315866
0.001508879419849404 0.25422248226792 1673.3577723746484 0.017078854192273327
0.003198713340867118 0.5510273835884979 1672.3198462790863 0.02001216335119303
0.0011931400557411488 0.32158796792891986 1673.219715439653 0.021784039897699316
-0.0025948806155456313 0.5520173838560605 1672.448492030703 0.029691326549179373
0.007032919493225673 0.6507432149482014 1672.304914192285 0.014640203005698406
0.0034166593801981207 0.17234336846730702 1673.4373731637108 0.014131966946343472
