x y z curv
2.184738218203251 0.24213664646382924 0.24342440136135665 0.17039893237513495
2.0622312652519725 0.35835491758087823 0.7542529032020528 0.048365496367955216
2.1285889697153504 0.29011962642595135 0.47884395473248365 0.012074425863930753
2.1086665621911496 0.2945935555839064 0.5207924956223132 0.009127830259893702
2.156927028694672 0.2570201906311411 0.3577875010029069 0.02585258193988944
2.0680828746698063 0.3610381088069325 0.7362660947377271 0.0583356230412338
2.182424285651924 0.22979417888018058 0.236512785738156 0.11938540362338172
2.1670439421106162 0.22820465490519096 0.2595262409450193 0.1485275968280979
2.2073751173142377 0.20023639012882363 0.04011563896188653 0.088107029874475
2.1345860579688516 0.27426846797755705 0.41880238668103265 0.08138610703336564
2.2268130548024976 0.19277047236517109 0.07509344671084124 0.06420336380813171
2.220417568738684 0.20041774461399514 0.09120603258769883 0.03841105590983702
2.218020868088042 0.2157855835248153 0.11373024459039588 0.10988774672463691
2.1635835787984963 0.23941973270822564 0.29429455110562447 0.029350201481723494
2.1458140521604023 0.26850812848687433 0.267242319444567 0.09511819481395051
2.1721168803155457 0.24047188652065787 0.17494477805924571 0.09696470293102895
2.099883320702114 0.3412236730930923 0.5432661734721856 0.05290904071473285
2.183674135332931 0.2698284953021079 0.22955241712096341 0.07298557678020239
2.09430386467725 0.35786222021720876 0.5795934031751631 0.01693201538615099
2.1205367635312484 0.32556492409932214 0.431704400857654 0.12372840017383333
2.0626084401388107 0.38862409752709764 0.6809167651663722 0.011729098885469228
2.121204122292913 0.34046204418302944 0.4812234302434828 0.06674783925384682
2.089569104099642 0.3698735763940025 0.5830880485189532 0.009839904779321633
2.0991406620013655 0.35461426463706325 0.5523857704527588 0.03574765545963278
2.129777100428028 0.3236113374681373 0.4040460704249988 0.19317320908193528
2.1564137020327547 0.28362837231938953 0.27991399287536284 0.09042317947197183
2.1666258138248677 0.2808383994961056 0.2780231357425232 0.08895601647258691
2.148669449135667 0.29933269189933737 0.34102701336565683 0.0642140829875628
2.120288359504907 0.33355389971830096 0.47267489615787006 0.12884564539351961
2.1520367380977006 0.29204496210748754 0.34758366000615304 0.1028758713450748
2.144937163173037 0.31711784712578955 0.3958061447153818 0.02163630610838317
2.152550072468232 0.3100040854652878 0.3772870472460331 0.029609754152053643
2.0602474294385793 0.3807712405701699 0.7195241262058969 0.019972123192819703
2.1650877056544355 0.29198665411371044 0.3131368054854993 0.08019849741526822
2.1314491683098744 0.31973333695968953 0.4513021394622738 0.0902525187407026
2.0813847409614397 0.36380644746763774 0.6062740113365257 0.007316108050627785
2.1016427224554377 0.33269853221867934 0.5589339147185898 0.03921406245793357
2.087196609663748 0.3599364609886073 0.6262963879831007 0.01847376217615078
2.071805581207543 0.3729175003767541 0.681687142177341 0.015588575568261888
2.1311296212356194 0.3171257668061248 0.41602563595024217 0.15703782074264952
2.0843421896857826 0.3729770802674396 0.6590357508676765 0.015365331279499763
2.055882475786497 0.3879606024680973 0.7046526663537267 0.011889609999884511
2.108549283353965 0.34140862534709876 0.5302323852630231 0.12168875800910706
2.1557373094534573 0.28622050800719556 0.34127201073323865 0.14122263368995921
2.218442570791392 0.22411193658062445 0.10675192192857562 0.07867370741449856
2.1863427790432994 0.24949426019854967 0.188155996242549 0.09348617447753618
2.1695410668017527 0.27327265769862685 0.3359153483261404 0.029521989488508343
2.188307670200885 0.2464146127244811 0.20352904731299212 0.1239666579460028
2.226777760792166 0.20983151968915037 0.08718260460319592 0.04355060023010665
2.2163085456232765 0.22019150624334657 0.0936388396350778 0.03385291250247177
2.1387852038936943 0.297681003024345 0.4138643702012511 0.11175621132018332
2.106631978685476 0.34625576080843684 0.5744962089876569 0.02955606122935555
2.199414836098512 0.22781798406729675 0.16115946084635235 0.05276689153124426
2.174700406086898 0.26192131565461146 0.31874760231663474 0.05034868632345843
2.0903892129542467 0.35239823041475205 0.6052398406368124 0.021884244168635398
2.1812395046624604 0.2680922116582156 0.26147601388972486 0.06341175208530381
2.1841559853947055 0.24910249255236003 0.21630818763644336 0.11883077162028001
2.239906754318073 0.19569209939347168 0.013145015792707576 0.04218603738753091
2.2269938174402326 0.20808578263992736 0.05297076247063025 0.06796799736507007
2.199334302233513 0.2353431545030916 0.1596437005007309 0.052894449361784654
2.2110861825451735 0.23373349806746535 0.1269457206887184 0.07830657205069884
2.2074743683551055 0.2242861521585893 0.13917563961045284 0.08664677724110689
2.165680495432954 0.27923004222099357 0.2832766838480483 0.0923356042815478
2.128166760419098 0.3115825904110119 0.46798798496285215 0.09375078696797687
2.1743691347017355 0.26210010923432686 0.28227182765568626 0.0875696287586495
2.1255682119078876 0.3238302295941842 0.5128737000129119 0.04272030764781438
2.1790870811666365 0.26374272800959014 0.25603122500217224 0.1456566194481677
2.219777660935318 0.22217907529323228 0.13487443779604844 0.012233712747191332
2.214333996822682 0.2310465696188999 0.10377408986742497 0.07430312632757474
2.157900561984174 0.28861005029259734 0.357657049471676 0.09579900429848022
2.1437173781990304 0.30630868579363263 0.4287860633433871 0.03493591695175393
2.2410465753136766 0.18642002885865255 0.03147549277311436 0.06918025690880217
2.2005051424012616 0.22882114776858037 0.17326281770264326 0.07339269361168692
2.215116481238434 0.1977855356992258 0.02445694916242168 0.07322508937764668
2.180506105801348 0.21317524326100218 0.1221329796209066 0.0747550107053711
2.1177619525248716 0.3061283535041836 0.5667717233444113 0.07518716343257055
2.235589953256151 0.1853247325113309 0.06678172538552223 0.023277376318973107
2.086115335435711 0.3194383741780513 0.623975690264162 0.006342489304276172
2.2063988341501113 0.21302125523423102 0.16849822434047226 0.010676519388389764
2.2145991989444167 0.2195429550080717 0.18850438713295598 0.01514976495514308
2.2002178516886595 0.21455893878358986 0.2238931409634928 0.04488916145293698
2.1448475355740246 0.2789109433355119 0.44590924996692705 0.029249071758211894
2.2378482295323887 0.19794905739830285 0.07020360793950438 0.010243692299684967
2.230098186169051 0.19818847458547872 0.0757059346506023 0.049659040700440214
2.134435924775379 0.29611476772209205 0.4912310891759611 0.041744261028058775
2.1056492441193235 0.32381101650840544 0.6125644860637439 0.04798678078336868
2.1801860069190986 0.24905095259503313 0.3089439330752605 0.021543895759263673
2.128310994745454 0.296882321086724 0.5152004604352716 0.03088540189467134
2.1008677421793513 0.3137628431266257 0.5831889898267515 0.020237595681903753
2.12296435797762 0.30383956538761725 0.5374185952414925 0.03995698065958653
2.1637725068372275 0.2705379214179096 0.37743986492147713 0.031131456239028323
2.225444854456608 0.20864249147877578 0.13090756901291453 0.025867124964552703
2.256163594066878 0.1827936454379987 0.018015507579744027 0.015054599890121943
2.149624887816149 0.2748279143679679 0.4070325648736467 0.05002792357822504
2.161051027891361 0.26321853773496195 0.37008641399316233 0.03771789462662259
2.1387631433050243 0.2889690087681233 0.4719597072141174 0.02217483322119462
2.2199368898126104 0.21520181013371878 0.10948394608153214 0.07036804068416624
2.2168267078945147 0.2183518579392415 0.1523438331042129 0.021669451572535633
2.1643289429115793 0.2553879189962439 0.33423597861037396 0.0393312464827319
2.1437573440728097 0.284562271274786 0.44964306077868743 0.03823906934686672
2.179541577979703 0.2484826034260487 0.2728649621236714 0.11303626900961669
2.2368232142149616 0.19175112786006948 0.05281235197860442 0.08207042443393492
2.1201310626581185 0.3179924875650369 0.5701829845783677 0.03857649820973161
2.18183665810146 0.25350259246213425 0.2527775830282819 0.1536521603062946
2.117912915184981 0.3144334137895292 0.5440373457046985 0.08433098727145814
2.1762619048327063 0.2575977484834328 0.321915304665549 0.04604238831170037
2.1473617029978636 0.28177723047329845 0.42800340581305196 0.04673097740664594
2.096847583945103 0.3286288725284255 0.6479877480906364 0.04224907822654164
2.086666284146643 0.33483550153267966 0.67191211044259 0.022601799298227795
2.0608241491977135 0.3470627478360576 0.7440170336600626 0.04539582934107023
2.093758999485018 0.3345672582344135 0.6941336330496666 0.020385977655413685
2.0836771531427036 0.3494382017842056 0.686695531314825 0.02161029239521193
2.0795439702177103 0.34497480839010086 0.7143225216989355 0.02956240096845171
2.0669999008159254 0.3612683188121007 0.7449301492977561 0.04631997832607091
2.1041571776268726 0.3272843986632699 0.6017568722266259 0.04660778985995759
2.1734630449421846 0.2578206690971703 0.29598891460907534 0.04551796940932915
2.1382542008206156 0.3024439856589001 0.460998235473691 0.022742636548736362
2.0780076442529984 0.3710626150062407 0.7545407250216386 0.03521507185062099
2.100470175043383 0.32706930364136433 0.6162047296226231 0.0462590168729259
2.096148643123528 0.3389912509828516 0.6179011668438343 0.05385272143956211
2.159287145230119 0.2701542082603677 0.38809318775808516 0.03851292296297245
2.098028671600667 0.3496327800801073 0.650277716454001 0.01180105532476934
2.085594334685666 0.3559860911566316 0.6817850226044891 0.018437138830399095
2.080927540595507 0.35547125988594563 0.6640156956820559 0.022004553028821372
2.111518402208608 0.3232241978951688 0.5890381870614514 0.029009303837430694
2.092901540133232 0.3415511590538909 0.6447127401083337 0.031388944325028374
2.07348088255925 0.3599555744044203 0.7295157048039308 0.060695242561427484
2.0788365776772606 0.3562233030353075 0.6989088666973025 0.016622613991643297
2.154476821742486 0.2813564909529637 0.4064458490292841 0.0416891103557384
2.139585605176585 0.30835852615046566 0.4665515151766283 0.01994737059740945
2.0682736424716053 0.389363361083289 0.7461351001619644 0.037406097753171996
2.1672084970995193 0.29374386289881244 0.37306564414440185 0.006678458968582222
2.0818135730007015 0.3640320711479501 0.6707295809826239 0.02131090510872567
2.0842247113685843 0.36041709082171697 0.6796321816490071 0.014921366755113607
2.2390069509837613 0.19224907499554517 0.032835503293937134 0.07121774135826753
2.199878201844784 0.23183873833887006 0.217268043397863 0.03603624191541092
2.073813572895493 0.3600266403899856 0.6938684133249416 0.017364947703393235
2.1255061773331545 0.3069240921505826 0.49080161196552385 0.043273623029081276
2.1959627388090843 0.23469337491817127 0.22516978329988394 0.08413754463328227
2.1156366642936626 0.3161407106952457 0.5465150051973939 0.0759223028619172
2.1836486303891394 0.24997940241366828 0.24452675796905776 0.15712118986847434
2.070247666465073 0.37459700218795416 0.7318087550971114 0.05295269068959567
2.146252763622658 0.29333326760121264 0.43746763302397024 0.029699611101533907
2.0893666032906726 0.36225091011295585 0.653568463482787 0.02312518345249205
2.13981625385519 0.30170087257978356 0.4512356257992785 0.024468024575469188
2.1574135587427525 0.2804349777375923 0.39730089859766504 0.03207578731141312
2.1253733635156054 0.32886156467536076 0.5395556642674765 0.016623709697565336
2.1817151482363792 0.24929151799739063 0.26822050078945564 0.045591291881949235
2.094801546708293 0.35131923964104483 0.6194418101619984 0.035178438358535624
2.1941068380936346 0.238545853116182 0.1957769886682685 0.07303797696728044
2.073884840374301 0.36265535144653804 0.7055954202508735 0.012358379978720288
2.0751231171540185 0.3729335400336197 0.7284928771136044 0.055212706023288496
2.166855320965874 0.27427178522897455 0.32756946397409903 0.1306944744220684
2.1990908296391685 0.24089820818750615 0.2389017727277487 0.020052468642523052
2.1478924667153687 0.28991231645398596 0.415152224637994 0.04011497630749781
2.1638345623003366 0.2619193508399809 0.34289784395255646 0.042103979943366225
2.074069277052124 0.3793403296800346 0.6500193238313969 0.015436481173528593
2.0748641853997745 0.3780138005875105 0.6183387604121778 0.011119680860715101
2.062047451612051 0.37972809257152823 0.7066426081050489 0.016344987902810956
2.0576212241401324 0.3928249885898455 0.6955953799113553 0.011048917618234542
2.0491474558437157 0.39874720703736244 0.7323124586618877 0.01598751301933999
2.097104772062989 0.3633600117284196 0.5733194960670484 0.020630099692108703
2.0873391152938754 0.3393467676047528 0.8635776552827829 0.03384503485311035
2.046025436546107 0.39887737764474845 0.8376853434974684 0.029581855054553356
2.0744536125768684 0.37714145405610827 0.8714254941723593 0.005488969205541891
2.05778253675654 0.38798165403805457 0.8530519796337652 0.015462551891995243
2.0644952495951308 0.3838991831218238 0.8594398351223045 0.002697167732556152
2.1149632129997182 0.3179140483011771 0.890447414722769 
2.1020071175887973 0.3410933409594614 0.8770640176590685 0.022501903100173207
2.0836787852398695 0.3604675462971268 0.8527259301531241 0.021078286529834653
2.085890307441155 0.36405464249326247 0.8604605897226121 0.02394538292820925
2.05791238319675 0.3822037617338748 0.8335497344299779 0.017210697493617665
2.0872166271516446 0.3603487195387756 0.8807384874408064 0.037535486485182096
2.0883699317696505 0.3319370745730707 0.8575212872000084 0.038302400826631465
2.0877503480861734 0.35529482869463874 0.8604693671512935 0.02952484304193247
2.0788167879941626 0.3413402481324705 0.8443675956433996 0.01559562184118591
2.0822933771529093 0.34606910253363793 0.8284664815336518 0.015778887158687895
2.052242768934114 0.3888582205580632 0.8313626820036258 0.018414588353599784
2.0336105255677572 0.40713371350198285 0.8231703538027413 0.005135877992442337
2.25229716822614 0.17273950691581408 -0.00861357141362297 1.2388049966932922e-12
2.2129974003529966 0.19065319898068056 0.0004737549672275181 0.062467057447722865
2.225975683901786 0.19923766683177405 0.001834394271276556 0.04413223879008906
0.3578287216388127 0.63916221865938 0.7606332191311352 0.0579932128351141
0.3362818613553048 0.6873800266292419 0.781667031175176 0.027615551833022688
0.32902013527713775 0.6792015240466601 0.7934207550034823 0.036791636880292904
0.3360250839938607 0.6746624463712134 0.7637348846083497 0.04849782499042876
0.3450843123778273 0.6578948897431786 0.7661607683414374 0.05044800318812389
0.33596063086949507 0.6581496405065483 0.7542537779548684 0.015721181521476793
0.3234572208744628 0.7048102250802778 0.7597808894906112 0.07784415043003638
0.33306798435937457 0.6999454183282141 0.8202499003956315 0.10767008180726599
0.3325143885546844 0.702008348033224 0.8013362726784521 0.09888325506739866
0.33305688179992743 0.6759880101246993 0.8020901723620667 0.07121305259853247
0.35015492150438876 0.6481769179074977 0.7998825960699749 0.050125399423974204
0.3428628487354819 0.6593164758257564 0.7863368189341438 0.0485264153091093
0.33290763184478733 0.6825843296108144 0.8192962754575707 0.1632816386196737
0.33578991494173305 0.6552694909938542 0.8130005982431802 0.05728768129069921
0.34893240233649947 0.647395773497533 0.8216949685090102 0.022311815847879304
0.3577064738076351 0.5954909681945788 0.7660459778004505 0.02613703708916072
0.34748690004436766 0.6168358657571545 0.7691786463998957 0.06517124718950175
0.34428213219658677 0.5861425570243932 0.775185528705307 0.03851147136224839
0.3337800092671082 0.665978629467614 0.6657452218990986 0.1455664030549993
0.3335772499832721 0.6653331830773076 0.6296406142249567 0.06070695025542415
0.3623854197335232 0.6473911150490016 0.7262698729487541 0.020622763749796075
0.36132987709744374 0.6555520922760709 0.7097379031634514 0.15933174520133497
0.3321218321130499 0.6789341357524203 0.6095852419310615 0.15811362743755092
0.34567234852701023 0.708509535754335 0.5736836050219325 0.06083019276287524
0.301268586601673 0.7376210160446904 0.4733161965830793 0.19470116726359346
0.3727732802472804 0.6687380075225098 0.6936343552581253 0.1523173003151498
0.28512903299400755 0.7543457060362682 0.40175202104730084 0.15856840443399337
0.2054499194787462 0.8297972119623017 0.07001329602329771 0.1432554117753668
0.1997631966255969 0.8378620786922019 0.08235619174720796 0.16542992795487702
0.2535596847016305 0.7833394466715153 0.2881048799758037 0.12403344834177331
0.21702510470829958 0.8052208271337697 0.15103703001679034 0.13709070437113902
0.22703294394581683 0.8112616995144956 0.17314142373309313 0.11629532162079691
0.22186195151975746 0.8095287596092346 0.13933128185988358 0.14110332280864332
0.3153977031743617 0.7232325561387186 0.5307026581108967 0.18955595422305332
0.25952862401577753 0.7760502437462451 0.29167790416933614 0.0923602572595392
0.18113701846442548 0.855857572537445 0.029244028135206393 0.11186169005450544
0.30645639261520036 0.7287349508437005 0.45485701383416977 0.10073471935843692
0.2259466220070919 0.8116924530950078 0.18531905953096545 0.16710260969879304
0.2684538496889707 0.7738216044027633 0.3188579201914259 0.19420156289816856
0.21321039745847853 0.8349566320994096 0.10934771429238085 0.16472920119849907
0.2652291956343515 0.7515625407934178 0.35126102198160575 0.16881087009749215
0.245036247908103 0.7777700663275833 0.25801529022656455 0.08574374099890664
0.22417102892686935 0.7914988982723 0.19001276916596624 0.1306938986725359
0.24445025891993566 0.7592447454901711 0.3406828080125348 0.18644495063381775
0.2456690887472352 0.7761466763667781 0.2704598089925085 0.13057099461630853
0.29498492752429584 0.7072402705153105 0.49673758773910376 0.09839552503471831
0.2678821773354348 0.7554207692056037 0.33060883659944185 0.12315357647073659
0.2857899442888087 0.7167949516987566 0.4713940944927295 0.16907795608144716
0.31901588123147784 0.7003866182783574 0.5328532268384838 0.06827635046386979
0.2715582267379835 0.740055149292451 0.39823636776230903 0.16807600537386339
0.23521069863655944 0.7827031139637589 0.24168353251186503 0.12301889955695672
0.2412426063836565 0.7643797367520884 0.2959125684462939 0.18034926061596337
0.23855209819957718 0.7802010248124561 0.27246489740363367 0.11858566559919735
0.17593399166697127 0.8359143280250427 0.025602143402320057 0.13441078221426975
0.35549581250841245 0.6899142591908447 0.641558325728606 0.11265570839119009
0.31739503742346703 0.7260499948951306 0.5085411608053454 0.1686071162999042
0.34098882771123457 0.7069714033236095 0.5823401478279079 0.14244057101322413
0.30234579354789426 0.742390432108105 0.44644986423459715 0.1940270797545933
0.3691493895881684 0.6757479485288204 0.696975996316516 0.1875987474148205
0.3556301528814582 0.7056775634013394 0.6347574026874157 0.02580120244002242
0.35364297399045075 0.6926468779134518 0.6766711390343318 0.19662240252951424
0.32791765241168963 0.6762870493935587 0.6229618424286567 0.1977379445854141
0.31311542502458484 0.6888408899310474 0.558786480093024 0.13471029409892865
0.2705376968707655 0.7401203570707716 0.38787358981185727 0.15171935586652727
0.34579370377176377 0.6953604247498937 0.7353301622210258 0.11755847685776602
0.24736773632340636 0.7810621404739803 0.3613066179393933 0.11645658385687557
0.25959335354617596 0.7844315089101291 0.36855664761867085 0.1307492867004036
0.22885443641051725 0.8093156110751154 0.2766386792220417 0.08182260166477663
0.3333434635992683 0.6937725477011483 0.7113241133886778 0.14528215589739524
0.26759562329230396 0.7843368112270657 0.3871945000654968 0.08097033300615351
0.2627799157380984 0.7788090855024923 0.42491830661688834 0.1792819027745829
0.19395616457192266 0.835704004162878 0.13488340409181404 0.10350381062568986
0.2749760473373081 0.7527026490479465 0.45635586894963676 0.1271637235821495
0.33551032445186163 0.7164150448064144 0.6710510531095816 0.09003874746123663
0.3136954955883291 0.7234285208058926 0.5684203744737717 0.1773523166224643
0.34511084358716027 0.7061598454772655 0.6962007732606419 0.07677384364682353
0.20133263227017567 0.8303959475333592 0.19042992084812113 0.09359257961482242
0.31940141323417265 0.7231940452160295 0.6027966442547851 0.18365033485094054
0.29209476686027536 0.7562808888083167 0.5070390957487005 0.1038584692804223
0.3216280227767451 0.7237516877284408 0.6109788494860948 0.17504341612537289
0.32551188652899316 0.7123968254081846 0.627832628456817 0.19263352611941592
0.2980662625262838 0.7324345947799706 0.5463570406800742 0.19004100887334172
0.21991628934104457 0.8115111230346244 0.24220289674568637 0.10301670756523282
0.24399770261312465 0.8045193278799639 0.3256401526490406 0.06344752600290635
0.2795321254456059 0.7593863207518524 0.4446354270581114 0.1282428357775606
0.31799190516135317 0.7197318933207382 0.6448741503987082 0.14339220315472498
0.31976434345346966 0.7163255131102368 0.6558602727248808 0.11933823588753234
0.2473639424189788 0.7876536257539769 0.39445281099001306 0.08729310902990858
0.2960259153374956 0.7381019806458651 0.586298938108598 0.11028164298209571
0.3057300324058557 0.7338177603815609 0.5967344557989692 0.12323488160384372
0.230128591337804 0.7985759152074688 0.3071965589959346 0.1257647733611196
0.23037042560838905 0.7892937605264031 0.3417130205666983 0.11695192579939423
0.3091767858945566 0.7244520987246307 0.6261230433871205 0.1576592506806923
0.3414423138919236 0.698641172961161 0.7470803924353842 0.05716226832985321
0.26881684784108234 0.7687769926241964 0.4318057759981757 0.11869867860258014
0.2945047871633938 0.7386152797874638 0.5551369277688472 0.12191737291552425
0.1882258566179017 0.8331132540208661 0.15942265661157118 0.10825761334884017
0.21942957367979693 0.8133225111033519 0.23452517842475282 0.1554187787253161
0.21887898699718672 0.8313971237943253 0.13506346179180462 0.13869131558715722
0.1930569980575978 0.8524196339454279 0.037990217613476165 0.11618969431737089
0.24277193370278813 0.7971710566295706 0.27273914267606125 0.07135227096441998
0.3096135205676586 0.7252945802413417 0.5758472987168731 0.15935686285098036
0.17432404062545429 0.86118297345769 0.03343432245254923 0.10569302060580407
0.27945536757309164 0.7730942397222188 0.37479268224448137 0.1501889811707871
0.2884843752494518 0.7483147061379142 0.45769265574717377 0.16563564407176887
0.2691762380745727 0.7741223659877912 0.364216527662648 0.18531910361937637
0.24648378898981793 0.7939507228805776 0.3013889424003223 0.11997939020750686
0.17021917785433233 0.8680667126003663 0.01459902601737583 0.08653650223445702
0.20177102637536798 0.8437921667068641 0.11416798286630667 0.1306802397653144
0.3028387435727552 0.7426851925881955 0.5251253655551245 0.08646531324431411
0.2248814142255794 0.8123720402367256 0.2520453434823561 0.08737548856062918
0.2314896680638712 0.8004551843192428 0.2604734184439415 0.06794003582164229
0.2757369581236447 0.7581611208107478 0.42363734142795884 0.14634672026588386
0.22441930875721752 0.8159829399568184 0.20006369686926131 0.1223606636134589
0.21756158070305776 0.8178082676791147 0.18187195671169765 0.11135713777616969
0.1823905862377602 0.8513731383267023 0.0754560235378292 0.11418767923403703
0.3154032571757905 0.721281064722209 0.5586725767043572 0.1684391034207848
0.199689762285168 0.820781050673244 0.17022132720017383 0.08952999836134555
0.2406668949761245 0.7976021377443198 0.2851989183587128 0.09286398735247041
0.17989440007232294 0.8473435313778594 0.10768367037650167 0.13456055474600134
0.2987360789291591 0.7557288319396201 0.5006431910940513 0.0908368906785138
0.22561498183604195 0.8157595100775062 0.19122106338606448 0.1617392631986843
0.21101104390216371 0.8316256049189008 0.1499367655987927 0.09147078054635271
0.26183827718385105 0.785281167132605 0.3436689644353704 0.1610922632610623
0.1749795097771465 0.8569524258401423 0.06570084456435102 0.045450053884049685
0.21919228749283234 0.8220064848352808 0.20887975222201854 0.13429290803955188
0.1967759956253382 0.8584076441312437 0.054295720182421583 0.0406989434022201
0.2783827407994293 0.7765632125835951 0.3310597038428027 0.1922388654813159
0.32126796010290065 0.7221316793281961 0.550843370062919 0.17564473977202166
0.31318490593673043 0.7359246645820453 0.4931313751293069 0.19262810437296943
0.300866385273409 0.7514651875534446 0.4257688803457749 0.14048070667508358
0.33290338968798905 0.7291748712195073 0.530118049720981 0.06886188056421332
0.3604394809689415 0.7014251568571961 0.6538707562559275 0.013672404274531657
0.24443859482322614 0.7884184358389531 0.24789028261766297 0.10556723642676925
0.21706140844667787 0.8205205884749154 0.16837248252059056 0.09642900637649134
0.2959927675179356 0.747566402370622 0.4406969741622785 0.18152113460686042
0.2353631588202299 0.8022749237428244 0.23031420369716865 0.11097267462977964
0.29359890279393897 0.7524834553360688 0.422019533276489 0.1433505613222106
0.32152623177821965 0.7271720325478073 0.5242080567300362 0.1270580232838298
0.25818966445806135 0.7454425005862481 0.3802525659729369 0.1447753608139487
0.1951328792735407 0.8138116115649978 0.09387632160927456 0.19130811281330953
0.2003137576209064 0.8114309796148954 0.10841110224684791 0.13014265104066466
0.20375771474642562 0.8051788795366627 0.15734805339179678 0.0974155356910845
0.2652995674109829 0.7351758750982376 0.4313775880619316 0.19597509726976292
0.23426927635950018 0.7523394232805917 0.30976514289393775 0.05480404961948922
0.30935925460566105 0.6756826376340299 0.6403463900074648 0.02643237795973177
0.3250919767530786 0.6712379337425698 0.6888184087210555 0.18850859496089029
0.30601336572945137 0.7036094942219283 0.5696324375514918 0.1873435770207226
0.25056920810102296 0.7591300097254374 0.34596820642383347 0.16264322490253333
0.17592550406903562 0.8151057336732167 0.07270972246840908 0.09415653900516524
0.267370944414542 0.7429097906817724 0.4498478369556013 0.16808228824817212
0.21000413378996613 0.798537233835953 0.18847951601021576 0.1172092018780992
0.3135164873659091 0.6848808511514288 0.6116497838826785 0.16810477370439486
0.25697223520643614 0.7440686242882453 0.4065755494544825 0.19648273361495444
0.27706633783476853 0.7268428311261014 0.4414865505861464 0.159635184130066
0.3048859284662121 0.6962230678004341 0.6045005268921727 0.13620157588649007
0.29747606474985244 0.7042044373648245 0.5492209234049071 0.19518213958300984
0.21211010723495713 0.7967512095294205 0.2672272162188703 0.06077739045204972
0.2590511707120012 0.7413738514201071 0.41429278434669564 0.18938194802251687
0.3410639649839989 0.6739669611255007 0.7133628835394372 0.16183261765572138
0.19653486464012848 0.8093169374030765 0.20138864177485535 0.08663715964421906
0.2871790405901523 0.7258981756002251 0.5165170829537049 0.21446746980177375
0.23415144982937006 0.7755050474544001 0.3242741472442082 0.15082625499567143
0.25183070830885146 0.764302244485598 0.37484720417900724 0.13423675608343352
0.20827027725831146 0.8033637219220271 0.16733763128968399 0.09845151476805784
0.18112174743809045 0.8386215980478473 0.0957931518394119 0.1387441760647273
0.19591295977861017 0.823972063372091 0.13527686528178312 0.11343031449339938
0.18889486027882732 0.8392429518179187 0.09566262076495029 0.12707121565239846
0.22624826232069706 0.7825171862006339 0.290613376992706 0.10548992866928893
0.2101409242183255 0.8077799664375077 0.22483167288238357 0.15743021186726577
0.3021819250660908 0.6945572559403526 0.6235837217136073 0.14078697601210272
0.2423444913195277 0.7592052625198218 0.3201052112781636 0.16875796611746288
0.21704620105361638 0.7864863281725348 0.22396415720372004 0.12328133238901684
0.24631033495012838 0.7640745022278531 0.3350789147547085 0.16523610292259905
0.24524716081336634 0.7501195756376643 0.4007205226867682 0.08762061983038025
0.2310538721026909 0.7645739187246005 0.3104110391945537 0.18070621746780277
0.1636615202513401 0.8478845924443944 0.005013102310701461 0.10383939348349067
0.24685240107075265 0.7495126816530712 0.38806052399762964 0.03602186386344165
0.2777866943139838 0.7105300421469867 0.5307338759969994 0.07798329794172104
0.1672575866815329 0.8462599348292179 0.06760339163697737 0.11199078860274242
0.168072914291162 0.8533950634859238 0.06003497800911807 0.1072235150816374
0.20848758449319188 0.7874251835350291 0.21179218242703438 0.1812095050576511
0.212673200182874 0.8054367314944171 0.23363875057572744 0.14099559309775536
0.19791222702542174 0.8138389272223879 0.14460687042959963 0.10786412516922646
0.1671682571148718 0.8449486788547891 0.006281338641549367 0.10603854618255432
0.18201421152672603 0.8247760704713422 0.12778992052712415 0.11828746606391582
0.1888230570490322 0.8195082360981258 0.11541163133118787 0.13876297404074894
0.2650363140378967 0.7439051834710889 0.43484740043730025 0.17478748452484935
0.271143444037279 0.7308624496853279 0.47994889135907814 0.11829381992366875
0.2487900211435202 0.767310302740781 0.35317807949153623 0.16795288769840405
0.1910554267743601 0.8367974689402103 0.15417317533224717 0.11235487361841055
0.16366773780195573 0.84678095154569 0.02156797276277557 0.09022355543261357
0.28331878034964453 0.7176199741676839 0.49966672127051914 0.19257251821106022
0.1769023321478282 0.8386645172951669 0.11576148887555773 0.15439441047885002
0.16291269199727074 0.855915244440031 0.027100570250488495 0.08840515517871837
0.20309025047410345 0.8139881061115487 0.18027722319774095 0.09954809634002809
0.3459202913909398 0.6684957311350928 0.7230705503211525 0.13596342595748273
0.17220875901031887 0.8453433986799449 0.048095624043423185 0.16432245159896594
0.23979818904791236 0.7844855245291642 0.3437333018731304 0.17029179662500898
0.22383704484029004 0.7882567469992658 0.2662642424270287 0.07426242440349172
0.31126225969430954 0.693948006999354 0.5897727500710054 0.22601939995702197
0.22238192386589328 0.7884255001652247 0.23080483283337097 0.1368493607546188
0.30994282541722706 0.7024430715761912 0.580498951353216 0.23847797963020945
0.22057283189523788 0.7835048576275458 0.2167575655768864 0.15554458250518877
0.28145534242884096 0.7129757240597314 0.4525555567227788 0.14497915568220154
0.30603047416316126 0.7010693581292575 0.5421052718609648 0.17573870571261865
0.3346403308883546 0.6574601402806002 0.6926577319122466 0.13678379085518644
0.28588906926623914 0.7154318225889454 0.49877675031015734 0.15324431182424858
0.3133861154409008 0.7095294636473937 0.6943403963025646 0.08148291090831321
0.28771267988105687 0.7589049365319878 0.5367555106792509 0.11342961600239469
0.22047593032202287 0.8035203921825339 0.28356714199486804 0.1110093444182381
0.2460631800121445 0.7678983538299052 0.41492557020708937 0.12725541169540783
0.2471087219547619 0.7851734706108778 0.3758158467770163 0.16269094159783315
0.16734193136714498 0.866835135690901 0.046179156576550986 0.13365780700123617
0.1630339976396069 0.8603744448580853 0.061756998358128076 0.06880967628870041
0.28933379571884654 0.7401739354465549 0.5639775123652687 0.1343723400214993
0.24137246569324472 0.7951316461147742 0.3350121222248179 0.144976555028394
0.19564220134571314 0.8339409615001724 0.183945067215617 0.10888247221844718
0.27613540897502664 0.7629691249957554 0.4871363473248967 0.11502931069614429
0.27338569471433044 0.7579420293651968 0.5215713247216397 0.16799723823439022
0.20422080447085456 0.8225289951025561 0.22514579264088683 0.153777142177743
0.26268039122065956 0.7678677292389697 0.4603821188963216 0.121207494180066
0.3262718408238577 0.7082591866081623 0.7195410697590563 0.09014019093321303
0.2976839783065375 0.7387246785716934 0.5322998347153435 0.16348903915407303
0.2476467060890627 0.769950344261627 0.39877313662640734 0.18198746654597198
0.2928617495619891 0.743251943087066 0.5495156468603489 0.11374289019155347
0.3150692479583083 0.7097331615134436 0.6752335552686803 0.1331851170259379
0.29971530908548727 0.7290746118891999 0.6178917337156805 0.14745778087221884
0.1995408330404551 0.8204846427878084 0.21224451184222465 0.13970132167754937
0.18897314040971402 0.8437773202222084 0.1324942660515739 0.08486616896250627
0.22681671211385848 0.8081156737714295 0.3022810614768682 0.08093358744089339
0.25773437174346053 0.7714086633566749 0.4400600131746254 0.09442263936984176
0.19226444945298096 0.8301380245781377 0.1686008782831745 0.07866335395568276
0.1494376915270644 0.8770282444850352 0.007093027023564773 0.11633568949150519
0.2687341482797499 0.7498389908096132 0.481712758806061 0.14024581861692367
0.17903181087826722 0.8522103679851839 0.08885490158112712 0.05194570453053908
0.23408262789489093 0.7898167850944913 0.35243367179201934 0.1031478157687253
0.3019732261569413 0.7075239383872023 0.6722899580747296 0.11623703895069842
0.2563725746917356 0.7612917547098079 0.4621583422902775 0.09500817938171376
0.21654381143409734 0.8109247496904015 0.2942234700188484 0.11764734839318018
0.21225650215346975 0.8169253872594078 0.22999583107351154 0.1483098562522784
0.17256272314436705 0.8422107186479028 0.10655735798863883 0.1006762566746156
0.30253584931311134 0.7113083753088101 0.6146676821852934 0.1580674460364632
0.30783766465224677 0.7223365140259222 0.6348248507137972 0.175957459891362
0.2235908719634567 0.7925182746504214 0.323836701982352 0.1055778099659045
0.1658039306841336 0.870024657147669 0.028483147959354395 0.08875383865273702
0.2009253066553308 0.8158329473662489 0.14991021367347548 0.09475282816109766
0.34842929524738625 0.7065182802901018 0.6404925454722787 0.04373335530778294
0.3098436655390201 0.7359855599083313 0.4881318366043287 0.18880871630845272
0.2956982347501196 0.7485006208174686 0.4513211840828624 0.19814514733085534
0.19726946168476614 0.8364729607719293 0.07218196223275576 0.16183353359313035
0.34233935192959813 0.6999830736878342 0.6717189222943913 0.1667825016400611
0.33294571315578414 0.7186792624398177 0.581057181687181 0.1293648380708014
0.3330849624652345 0.7111708130995249 0.5912341320117505 0.18463652148615653
0.26002966176050935 0.783940057340564 0.3215221654068504 0.18499680396301146
0.23782265126332305 0.8104957654294278 0.21680353974516006 0.12026502690016465
0.3056593209187134 0.7399112729603036 0.5207733757644408 0.13762777046244715
0.3634297882790845 0.6892877027372508 0.7014237662373871 0.12349326191298649
0.29518110355736843 0.7441196950363134 0.4681188112162268 0.1916375255724169
0.32270597644731236 0.722316030526886 0.5442169628659329 0.1790330575577816
0.2803646930640157 0.7599007907342814 0.40812256848953016 0.20877452670702445
0.32911185786460356 0.7143124412245898 0.6147685678626607 0.21521525081023687
0.24399389971090926 0.7924845948045778 0.25973303080140386 0.08560105054361627
0.3218284491965085 0.7259702676940519 0.5713999030588385 0.15049275962019387
0.2840776725647951 0.768215136847299 0.4023270318912611 0.2330589552878262
0.35606300704613525 0.6922227234945174 0.7078463339899184 0.12263975617298893
0.3209295544548085 0.6958069137477212 0.7343028753122604 0.07803235513958219
0.3245001987832957 0.6965052629856358 0.7467944755538012 0.09562687927553641
0.3149820959884574 0.707348923612025 0.700600763356718 0.15000204881097723
0.2851871535180833 0.7288278769281329 0.5479229055674637 0.17331230658049837
0.2865041177689959 0.7381939249866151 0.574366092049739 0.12831668936748603
0.28697168218788066 0.7314208964127626 0.5369889272691827 0.159755750318975
0.2709779971548216 0.7522169809804079 0.5102779505013156 0.10203160180106884
0.3159207475074518 0.6934345561189963 0.7133708801529292 0.1153196040906754
0.26244176066963665 0.7464768317910978 0.4438754170344301 0.14807372240893235
0.2984890444253602 0.7183554760176935 0.6482086676126236 0.09648322025464524
0.28443999190654634 0.7374808557939523 0.5179608988942848 0.2046157142168921
0.3284413546852953 0.684844038869568 0.7472905409134057 0.0626372320727304
0.3243176911234878 0.6904518618915712 0.688860218699198 0.1968080934657444
0.2639671572449644 0.7642685624848813 0.47658671185698437 0.11497666682567205
0.300660695872845 0.6993497460939988 0.6298094184203973 0.12747168265892259
0.24415511131557585 0.7796470258039034 0.384789740096816 0.17155851120420243
0.3000481525246363 0.7245991592605653 0.6144545060035618 0.1373764247185499
0.3198979503387552 0.6952458761066981 0.7342183201239145 0.07656713130083036
0.23952055991340174 0.7835026187897316 0.3567025607371382 0.11032003977435764
0.3123577880808469 0.6990408785287501 0.6836661532429312 0.19047679818830707
0.2802962579651858 0.742063382060972 0.536943752159185 0.12764011192388827
0.24560434322883737 0.7673129764330167 0.40358036789512014 0.15848801978704213
0.25083819720961154 0.7647001654027897 0.42060451841648455 0.16040508595906594
0.29935555126958313 0.7169770777956679 0.5923312952561179 0.17310496475853449
0.26810525498789994 0.7490764629652611 0.4610703799686722 0.15952944854698453
0.19246820889196303 0.8338342157559497 0.18022635970960352 0.11201413630758113
0.27938134980224927 0.7310026655656658 0.5005293976684656 0.20121770448620374
0.29764591622832537 0.7091518245988957 0.5584186887688256 0.15494122118362863
0.22007386641670865 0.8064345273616119 0.2800723230492667 0.1071156626645413
0.1988889251551845 0.8142806114134846 0.19599726722718744 0.11819156648449917
0.31812802283384123 0.6837860049631249 0.6614310506999281 0.16182005665228394
0.23192546202684328 0.7851564415194712 0.3338652334914753 0.11559520762877536
0.2784762744617081 0.7413432837934624 0.48308114319243306 0.1546195932456195
0.29339461416465223 0.7194619840832007 0.587540696416665 0.11167645411839712
0.31175285098706684 0.7038129874406289 0.6394320450173459 0.1726270233669555
0.24105390278137157 0.7686241943172627 0.3686227825556794 0.14655874639170832
0.2530197599207231 0.7578018758251396 0.42590512552388055 0.10195007359609402
0.30629075119779814 0.7099908649831518 0.6033308315512133 0.15576886459976272
0.32529706858988633 0.6865052709178564 0.7043949469395273 0.17655749605701235
0.3299503554317106 0.695674137609446 0.7272586032630894 0.1179009188394598
0.29350598546987666 0.7150576989874702 0.5721907161463943 0.09903970467634579
0.306827620245851 0.6873710678528853 0.5725448268720328 0.07732801990550689
0.3434128492332105 0.662777390157653 0.7091688002573184 0.18583879700818512
0.3446871811350592 0.6489788569605768 0.7406941128842323 0.017399387784280657
0.3498093227008022 0.7034932928641845 0.6108465846445224 0.1383453102073395
0.3523974882283159 0.6987898941181413 0.6168626763775833 0.11945789705274105
0.35740223299779705 0.6869100964752094 0.6861123590159395 0.22187073245672453
0.3154992854196477 0.724252584247882 0.8724848629888527 0.0815172029772368
0.32797046420972564 0.7103758630013605 0.8553049660150448 0.1551571451989515
0.3214742538167061 0.7144824740680452 0.8600617971066771 0.1396067487306533
0.32735232246602863 0.7084047990916178 0.8427630938957482 0.13467636440116948
0.34738469998166943 0.6960293367920697 0.847430556054804 0.20452330043802697
0.30778206982752826 0.7239550180451495 0.8531149354032054 0.09957878109300958
0.289376846405912 0.7308112026182575 0.8840690205844526 0.09292804587550234
0.30718485119015543 0.721462577511421 0.8753009064021436 0.10096617163313437
0.2924975156597948 0.7218412093118272 0.8876987667372964 0.11875659784635205
0.32604697569836044 0.697461472273301 0.8430337641156143 0.21832031260423942
0.29503549636137966 0.7004917454174457 0.8844847492648953 0.026031328273875824
0.32553555318732036 0.6830896989257221 0.8402067752093084 0.2084098718676654
0.3156042287291892 0.6960426455818816 0.8609005312590319 0.19055993125659804
0.31475113984971737 0.6903666300379107 0.869526172622658 0.12001506001708359
0.3193895366267632 0.6819281098767255 0.8747177986829905 0.15325195645134954
0.33908275377424923 0.6608071658521065 0.8434474951729315 0.09701622768319565
0.34619120825101607 0.6511744356300508 0.8239328034236382 0.19798217424055414
0.3518973590277177 0.6965165512092465 0.8230188932112277 0.09725435850917492
0.33614410825883956 0.7081980517343646 0.8676327569881233 0.16810011131149605
0.3714552366060364 0.6818982175048292 0.8225021518549751 0.12338670179024046
0.3642978640516677 0.6879296944265418 0.844617753085459 0.2433548829725127
0.3550168705512789 0.692099869269661 0.8647727365503001 0.1619117709380951
0.36744944760650156 0.6770085716773224 0.8447811633539111 0.13859935010110377
0.3228425671106749 0.6654029395353184 0.8471519187390075 0.07685121859725577
0.31547967572035973 0.7141874572921512 0.8337634331663505 0.11489106185001927
0.3192133058801384 0.7177363783856174 0.8418446514384751 0.13623622290227155
0.3155535335173681 0.6917879815975995 0.8161417991407633 0.10689660486535131
0.38662923414227784 0.6611254934969222 0.8195819594069427 -2.927912851730298e-13
0.15527764154771034 0.8657605466920562 -0.005219400942934825 0.14786623236224544
0.16030945789048248 0.8556403766640523 0.0028090784168316296 0.10461683405204279
0.1763859539163412 0.8566669164748566 0.0014061977805333381 0.05963736100763443
0.34479896239359853 0.5535985805284911 0.7644114985581756 0.0106924649035124
2.00812010129979 0.3011020833065023 0.7858179738303045 0.023217142783764307
2.001366751604553 0.29292396852537933 0.7869549369570434 0.021252136428427187
1.9952302475438741 0.2769319677871619 0.7951160259676686 0.0037004554558279982
1.9880134428472993 0.2781780596842097 0.8062136255779805 0.026674417586681258
1.9611325153093109 0.2675406454305056 0.8016408337944766 0.0037328443060098845
1.9388301447303262 0.2578466733281228 0.7919277178843784 
0.455932360415517 0.2604953240351968 0.7829651732654349 
0.42306051439904496 0.26732477375592084 0.7950128575094515 0.0021744333773327145
0.3970702335878899 0.27719887714991204 0.7810624252789501 0.015408579830751773
0.39576560279997564 0.2993173928800556 0.785751511925047 0.010117555437551475
0.3856757081366292 0.324873016687127 0.7820265855343864 
0.35255717461420516 0.4100116719774338 0.7863646467051496 0.029327184988256032
0.34816164413361483 0.44530159961691285 0.7836128496150735 0.08839551267042443
0.3555536697436955 0.4155066587607701 0.7962174390344599 0.056345227251210675
0.3455553861411815 0.4453517304582121 0.7821059881237 0.06693013192150091
0.34203666664842297 0.42357906338722495 0.7885850881331821 0.01591489237633144
0.34499294138245634 0.46789627528116623 0.7947671081452213 0.08436310300772307
0.35279427262820184 0.4929030065144572 0.7940255794446595 0.08763355516640574
0.34773444774346546 0.5225789476945194 0.7855251179126342 0.05549238815119045
0.3458807449611086 0.5723386277967175 0.7865792162444095 0.0416857531895788
0.3415629075111202 0.5933648165411703 0.7816082332802038 0.059430330090258415
0.34283366859655645 0.5476188275016219 0.7882308217627663 0.040713752374365184
0.3411832056128236 0.5469962890594807 0.792963302882515 0.04344416648783818
0.3454982659938852 0.6049661266737347 0.7793016172390999 0.05990742058450559
0.34259073377757027 0.6193332923390503 0.7859457326512298 0.04802436951575082
0.3369472482670348 0.6280755960979781 0.7841592902108284 0.05158777302788306
0.35144067028599246 0.6227819382017784 0.7924382167045433 0.04651194067601043
0.390132691949713 0.7421056145862719 0.7960761994899216 0.1699602676910718
0.4144164071334346 0.7712768018009609 0.7798415237674151 0.1128013139326675
0.418594457539858 0.7721953311589176 0.7990372683602953 0.07725666355966193
0.42016269338980367 0.7838740172821016 0.7897572929179577 0.024418328834698716
0.43738951630154715 0.7883034232737657 0.7989007938858321 0.06513089276806851
0.5356767177215752 0.7801567407056968 0.7906784652545638 0.08297128766564425
0.4681496526611616 0.7878829854620475 0.7825712969798502 0.07757660659677859
0.5604261452136436 0.7832271996410228 0.7870005832045128 0.09018158461450733
0.6710960267632818 0.7971026256431758 0.7807010165278171 0.0755147839818253
0.6282938881572799 0.7931717248857718 0.7923957026389378 0.037834074473116805
0.49454693159045654 0.7773667555423318 0.7784388731232219 0.03132644180415627
0.5583904605760259 0.7807765680790916 0.7769789091994657 0.1005192688419907
0.6174699292727311 0.7915237284497062 0.7809080788687549 0.039011677257923344
0.5267446569911012 0.7801370081953783 0.7851194164730037 0.05424374765534202
0.7644843864967564 0.7982398978643706 0.7815002960166288 0.02697558412968584
0.708237599701505 0.7919278883756278 0.7862072288970825 0.07779763645415116
0.6459088078256002 0.7966218479486358 0.7843495109114812 0.09299428870459929
0.6034742704529718 0.7859696417953104 0.7774345258276526 0.036533419959423816
0.717901812524556 0.8017025316183698 0.7800550106872701 0.05745166492908923
0.5847875525910543 0.7911957634847122 0.7745213270996115 0.024543495644868244
0.5710944919362457 0.7855571956772402 0.7927758071660859 0.10805142458247954
0.5136382594059871 0.7912218574774782 0.802041581439753 0.019484658782370164
0.7370899818199239 0.8037500500263258 0.7926897900608114 0.06120126455716045
0.6531199255667429 0.7971615811845506 0.7918168810130923 0.06782495667872747
0.8086139129623529 0.8038809110791496 0.7844223027535397 0.14254037210158346
0.7292373263193409 0.8033659988327038 0.7867571502119527 0.0715346443315897
0.4511066480418991 0.7883571351528845 0.7980413423078282 0.05421529362400784
0.753156121803122 0.7907513548348758 0.7932089168550821 0.06292280419000669
0.7103651878800201 0.7851622380855902 0.795307216115817 0.08204153748370999
0.5518818084972975 0.7861836926636885 0.8024872571478278 0.13561390497508455
0.6733863089744867 0.8043581277028915 0.7850940931266682 0.05657782562364052
0.5251039747433971 0.7853214143188402 0.8042733326807457 0.06845532885989587
0.7879477860891364 0.7968629753662276 0.7893877418799017 0.05240135521203403
0.8910418787972747 0.8126935915665087 0.7982134950456233 0.04875995990321987
0.9955444178323 0.8139210353624841 0.7829426419034999 0.04935753658232697
1.098370038380257 0.8013926486848014 0.7738296449342239 0.07071501025724207
0.8721692247524835 0.8011856239645352 0.801873944089165 0.10490078171913586
0.8555434790678444 0.8066498358238071 0.7900918732373857 0.12290275197789977
0.9124557695512601 0.8022429114746531 0.7921018016166899 0.06821717337809008
0.9633775694727398 0.8060001993996689 0.7933050718864624 0.08133201758384241
0.8588601559771145 0.8104670182561045 0.7981673561048175 0.1193677419512245
1.022994734099274 0.8106035128306837 0.7848726538873624 0.07287980445086557
1.055381776056795 0.8066664396346603 0.7797727703910164 0.08562648198783315
0.8254531247825061 0.8080743367056418 0.7834762559257147 0.039656756375284916
1.069397227588508 0.8106435750774581 0.7872241109594809 0.058115368509878786
0.9275706690332134 0.80078689616317 0.7955319050223396 0.08187793495995933
1.006319491526951 0.8178024835879469 0.8062556904224344 0.003771768125746376
1.024061315773509 0.8046125841364417 0.7958844371060149 0.07465528023416988
1.037928298293841 0.8132304018002461 0.7904261260928364 0.06482137205127468
1.0880783260097395 0.8055449496870776 0.8022523130081751 0.0695857262460853
1.157647355415996 0.8083705958219342 0.7891715233388268 0.08157345445025871
1.1616152017942185 0.8057162587167217 0.7932255277050535 0.07973997693693623
0.9192380881487685 0.807800636977758 0.799098090737739 0.07841357677447273
1.0675722457061152 0.8067170549547891 0.7957674539897847 0.08726146145899195
1.0534190633730032 0.8053176141283691 0.7892251851942436 0.11935853113778205
1.1293559824885577 0.8114147548426227 0.7904709003819498 0.05938403719945814
1.1627759791252277 0.8052753239359333 0.7907719031407102 0.08047759181008164
1.097007100157399 0.8061557603628673 0.7949882740887544 0.08961933451133301
1.117493850042532 0.8083380372296182 0.8018491557058052 0.07095900324022844
1.2383166157178038 0.8096071464684377 0.7943027871915828 0.10344011054068201
1.299994829097009 0.81021834330925 0.7820052549690065 0.10704711797897011
1.1938110375385396 0.8147472663498342 0.7888848341934896 0.05445791794278109
1.3894562703086093 0.8026523678930496 0.7776144610605339 0.05886087062879444
1.4784621349134663 0.8051923999780637 0.7840685199264869 0.06502487570703983
1.442058980766971 0.8012908870954565 0.7856274338131592 0.06724222318452722
1.2077100755597974 0.8124190522510085 0.7982981732563281 0.05588344647302197
