x y z curv
1.1062298653315372 1.806097029481218 0.7079509427364384 0.11872357029230961
1.3814317922922639 1.7993609991377981 0.6943957208636473 0.13547164830690522
1.3424935356691186 1.7989625970018066 0.6848862144558 0.025364067316740666
0.9630346379897954 1.792498245109245 0.6929481217154672 0.06794868399817545
1.949517613335904 1.8030609238329918 0.6940103460189754 0.023246233896387185
1.2614959093713907 1.801156198176273 0.6862210414199622 0.02610538352236225
1.071212172778171 1.794264562632271 0.7028631972336828 0.11150515331997601
1.2372671615819693 1.8002681927982542 0.6958823011703301 0.033007848864303586
1.2302419109483327 1.801769882585845 0.6936101367526597 0.04718359772397559
1.1624398673617435 1.801836172969316 0.6923334391121643 0.07223653979802382
1.0929866210582921 1.8053048753649026 0.7032227367991801 0.07759875670958435
1.9304976238322409 1.802930969232735 0.6863855780722069 0.011982368252078318
1.381950042726082 1.7976456503048195 0.6839143463426565 0.041890217374313
1.5390033749418002 1.788740311869063 0.6869358534357524 0.02839084049474835
1.5450591766726176 0.0004138474786966414 0.7226434938018712 0.06640929946210139
1.3892040501421163 0.0005435678013783417 0.7202580021589675 0.058913807969762706
1.4952155873872917 -0.0103148458462633 0.7100907876775465 0.12025434948761556
1.8423056245165654 -0.0031307384811989462 0.7153677903059349 0.13551237724585966
1.0846907923068867 0.004522305630395068 0.7185754007122624 0.07250763668071857
1.111929917272783 0.0012607229260605459 0.728035310511197 0.05385693121603294
0.984039828170887 0.0005165716582735948 0.7207892455819515 0.0771078694705548
0.9524010793496092 -0.005219290226943236 0.7116232081857031 0.053219821918792716
1.4809194338233438 -0.0061670949325651914 0.7216020511418668 0.03786836752645245
1.4362231688794957 -0.0006810550893726746 0.7173432783853335 0.07192998002709883
1.673658009848531 -0.007747265499762215 0.7231938112259613 0.0368650849205057
1.561051336828209 -0.003017751988850203 0.7196024983029115 0.04184424085569047
1.8094099938849197 -0.001693154001878067 0.7288658051870811 0.048150764037467396
1.584703744788515 0.001153175839259868 0.7247198004162694 0.09337922909856003
1.8794139635937352 0.002326043778925524 0.7115648903382079 0.05355965201273356
1.6839186883029127 0.0040636782098779954 0.7180966030402688 0.10813260846618625
1.7508354028222446 2.7547685901456385e-06 0.7153595928219365 0.07178489219541108
1.3511481443027555 -0.004861427134756063 0.7110101924106584 0.056544708989556214
1.3088898171752432 0.0025634861445692665 0.7260292786139189 0.03290424927329061
0.9627578395010176 0.005863069874956578 0.7091546300254145 0.07586198802660721
0.9276873461494105 -0.0011399766148955113 0.7138937172632407 0.09894209615030897
1.8002893373119515 0.014860715645119857 0.7178537936139853 0.13390459156403905
1.4128768142185646 0.0006070810752282098 0.71548829692355 0.056834324168779524
1.1501714189688386 0.0023846135284819906 0.705249971440532 0.03679927176811525
1.7103069395478478 0.00031561011558001856 0.7069656925265061 0.0776428302683379
1.8764761364931009 -0.0003616337700094629 0.6901613121377058 0.0475392663312238
1.7376680788233283 -0.0005277629527208019 0.7136183886609386 0.07423622892014237
1.38802653891277 0.0018136713722958758 0.7019968151941169 0.044361836289411545
1.1291879720112588 0.0029042616891584608 0.7126752144812023 0.04031493647145043
1.8198366965325785 0.002888401081679979 0.7038754983959865 0.056612309798587175
1.956638407252549 0.002921683384029576 0.7138694168567449 0.07946014809097833
1.377140377444908 -0.0028255818147856215 0.7089353774059983 0.050316320174755125
1.6288689292572314 0.0027274229721111183 0.7100147810051796 0.10416936362885416
1.0458432339742605 -0.008114670830412623 0.7076654130608732 0.04821959085249893
1.6218453114997047 -0.002335201829665492 0.7208522112355565 0.03753310120195127
1.8563888223737903 -0.0017834549597621266 0.7009310813803221 0.02884168173518339
1.9736026808042955 0.0014958857546940024 0.7097195242911312 0.07863743811384193
1.6871109927064727 -0.0003626626809156748 0.7058533887433048 0.13665613973588775
1.4247067740737955 0.0031106543921114943 0.7092085515702552 0.0766590029165783
1.7750921875193824 0.002064264181307501 0.6877189459260467 0.030678096290622386
1.1743855738069815 -0.0005826454390077527 0.7117222959371282 0.05963216376171754
1.2372084629422249 0.002525066483897409 0.7057478289965934 0.022076752016117553
1.3281314222820626 0.006029256606108455 0.7064248487753563 0.1302728444147724
1.8996822510950198 0.006281789804744272 0.7092553954103676 0.06050937320593866
1.2187860464914553 0.0038444356840588107 0.7085960288444352 0.08542991711843705
1.7725401534760503 0.006203345306418929 0.7115592190440236 0.09174253548862797
1.482988347792115 0.002092023879533385 0.704430823316326 0.10649270404989113
1.5278782813727934 -0.0008154876053468728 0.7083756195207872 0.08323674081342865
1.934843209869252 0.009706354119993814 0.7039306240717434 0.11071600184412314
1.6697634677702762 -0.007162857108193734 0.7001590461671872 0.053704309364508616
1.5783298049343046 0.00224830841229367 0.7085232197983206 0.06891724157291991
1.717896345856643 0.003369235759829058 0.7139412852791087 0.08625344277508241
1.6447813307816042 -0.0020295701058522632 0.7144500946986747 0.060549700384474485
1.696650670401755 0.006522737725422562 0.7021971167422357 0.11014386949397136
1.5102628592250367 -0.005498126279158568 0.7104908163392742 0.09620030111517974
1.2615692691182563 0.005527582605147351 0.7082327125122865 0.0726441887252412
1.8931572936639267 0.0021969809377258083 0.6987952134868212 0.07527072503739038
1.995629000402442 0.008097682165996637 0.7086840057115787 0.11852718870992614
1.4475784446593871 -0.0033070059812222523 0.7145421504009677 0.07389484904887661
1.8401674835697832 0.0007247573897796965 0.7132453168624108 0.14209267777065018
1.8224943246345087 0.0027307026108447465 0.7096717038600286 0.05622946412030789
1.904960127459143 0.01172408106195205 0.695849943002292 0.06641806781102833
1.7446173454079261 0.005938671317228243 0.7050407542242099 0.07779673539814554
1.1690487068519904 0.003507139755908088 0.7106478836860476 0.06627656535874987
2.06888484298909 0.001287173992064926 0.7015035407856042 0.09120886122019084
1.4405377796323582 -0.003161950519483519 0.7089985461472723 0.07807792726740222
2.0391342114898188 -0.007374692489861374 0.691480466131471 0.08361514934823382
1.9163726266430041 -0.00805389279230252 0.7149508928556071 0.050443363596859234
1.8316867512717412 0.0036205905373348783 0.7042064865707631 0.1071034187581432
1.7533733051977431 -0.00026825294125716625 0.6927926336646888 0.04397684517724233
1.606733625827416 -0.002904340977494656 0.7034396530781847 0.04301425863936655
1.9867982276996787 -0.0029205826426538916 0.7015243423038662 0.03335348105730919
1.7954431967942204 0.007643711091594347 0.7096095953118828 0.11688433950242937
1.8658525480357493 0.0037332952014579156 0.7156037245367933 0.09239636224982896
2.0180198011470822 -0.003752944601499948 0.7110240178608438 0.07372748565032831
1.5596205201074866 0.0022769042989367817 0.6875067593568849 0.018222300163288508
1.6577033682281053 -0.00782096456308052 0.6997992975559189 0.06830691190177549
1.9464218537427154 0.0029665022639463507 0.6854106887100859 0.060204110894014916
1.9579332270456908 -0.004921555484904393 0.6898986620088478 0.047983045239983924
2.0226901991891078 0.0041540352088612975 0.6850015437362558 0.11326938728322218
1.3566650393068564 -0.00017466057876239943 0.7022083294049765 0.05970505945027052
1.3312907510470362 -0.00017276475697426973 0.6954055079545242 0.03819112615928404
2.0156781313405054 -0.006146375330560169 0.7008960864068001 0.07209202180431881
2.0893298564980016 0.00022913159789305035 0.7107041500599531 0.05964308829160883
1.0744665200009624 0.004193105171691112 0.6988832662132276 0.06012799324901361
0.9469549870151229 -0.0024763296285391927 0.6889802607459121 0.06891780972415154
1.6281157985246038 -0.00022959487895354386 0.6958175033580349 0.11716363990456594
1.287488875746067 -0.0037235095810242637 0.6999417361065843 0.09866249631295039
1.1831973163311527 0.0005104266899287927 0.685202481232767 0.0568404754525727
0.989650522044564 0.0009813977446770145 0.6811901404326317 0.03861427244773269
1.528961117708743 0.002137876060553989 0.687351682070827 0.04823874309364719
1.2540032180374883 0.0013147785556505763 0.6988569307412529 0.05263949477154268
0.9273837849790835 -0.0022415749060725864 0.7041158057307527 0.07264262975945067
1.281038652722204 -0.0021522431088445916 0.7084954547971076 0.0880148156064051
1.847344713041694 0.0005045367851947338 0.6929859419772111 0.024913221356514244
1.4323522102976831 0.004508678916138979 0.6951368239640566 0.0810080103623746
1.563828129725073 0.010167607537346761 0.7025955569653105 0.042066717795320716
1.578268582697525 0.00697258730612573 0.6849150493340109 0.03302553912178843
1.1535075393815777 0.001661147838313229 0.693561411824909 0.03874070252471143
1.7204509642299521 0.0014397231338045076 0.6918216269331269 0.03569316719312295
1.411365299292002 0.0011791200008974241 0.6984305787618744 0.08165783244372875
1.3525374449673653 0.005932249315172381 0.686204801225866 0.021476828915445452
1.6521113943584627 -0.009360919699280086 0.6882704573605576 0.03729487335152959
1.036115657000613 0.0030720069723620437 0.7093167012461803 0.06004668300496559
1.3344923597584701 0.003177705539962477 0.6953691794832099 0.06462551573833458
0.9840855167043544 0.010499074449255108 0.7035226643686131 0.08948306658701037
1.5413560114197618 -0.0023246323746405955 0.6960767583897829 0.035568748630916226
1.2703733639477053 -0.005412239695082844 0.6938219751926135 0.03958760149440369
1.4647704868702016 0.0012942016604356285 0.7039229331592197 0.11007788728605233
1.2235705436997555 0.002068594199977527 0.6973695963715622 0.030421186350958328
1.7896399646124683 -0.0021069721878891347 0.6908462598748332 0.03360091016783371
1.2365430420047814 0.0054073410228541105 0.6852987069710996 0.018091049144864542
1.0135456450788543 -0.0029837558709970924 0.7120468827412725 0.09676812582986816
1.3163503575968516 -0.005079361288232233 0.6987976847896914 0.025493255165071213
1.9846856455807882 -0.003294852051633213 0.6952611359066421 0.03770480178877311
1.8016545719495636 0.003062545223905164 0.7013125933455597 0.06715677556244874
1.139502376645566 0.0036579204002718936 0.6984151302740125 0.042272681221134735
1.210122835820904 0.007004574977475002 0.7032245037833913 0.08873432859439641
1.018766499067854 -0.007738768574311255 0.6963600295420258 0.03478754769359071
0.9227885779954282 -0.004932095683042894 0.6963561598503304 0.016300469419747377
1.1843071128135456 -0.007946637097651778 0.7081874529695427 0.04080818524364567
1.5456749803125478 0.002473683469652536 0.6922337408419565 0.043305547248782925
1.0526506732614875 -0.004796468627519684 0.7066502360418923 0.03720256553223137
1.2659001433146457 -0.0019616723306091076 0.7038378360101414 0.06968496030930474
1.447947448000503 -0.002338312699656815 0.696728116591984 0.07371118490421558
1.014683010496605 -2.176381990831372e-05 0.7055668689919539 0.10331777769477592
1.6827425299917662 -8.077845421420381e-05 0.6823271479347068 0.05222834931952015
1.6087322267579962 0.006185894414788752 0.6937901742912947 0.045272654829060906
1.0956104054280482 0.006504958309614529 0.7035599964573328 0.07699282358359698
1.0938903718504074 0.006039058977745716 0.7023805164709819 0.07721371200129228
1.0877194381679753 0.002247227277655405 0.6907017479193701 0.029472486905843243
0.9263270018393889 -0.0014080383399337345 0.7114410409240413 0.08666169754745298
0.8965617230586053 1.795347062275087 0.7075473732554576 0.06895520033512545
0.010817910571626128 0.9015143316624977 0.7118864869535312 0.09902020017393895
0.8826607065403094 -0.003851985177545113 0.6913567282488158 0.023461420268723856
0.9069481266424176 1.3080868870516527 0.7253097199981441 0.0026211399528110143
0.8995698017856941 0.37242975643052445 0.7258868542307108 0.0019925290209502093
0.8980102002831054 0.44203874899850143 0.7274240062441029 3.847037451326756e-05
0.8867335792454557 0.005072027214931938 0.7088460690379811 0.06269280370109269
0.8517457083176811 0.0012147198353703904 0.7049235429213947 0.06967922242585411
0.8668163751458859 0.000636371110125271 0.6891213996803853 0.024482957800399288
0.8473099001768283 0.011533801069651373 0.6819289702148028 0.05383868875850075
0.7827672521604135 0.01082765072463482 0.6886517269873389 0.08560448004124813
0.7892857989627449 0.007968615930788094 0.6944855289623995 0.06338209161108595
0.7658065509280575 0.01565717265938285 0.7019525452040776 0.12974048531035381
0.7595028509920606 0.0029885546335066213 0.6886228697836715 0.06576258658394092
0.6585717601766596 0.02873737108605217 0.6932480274277568 0.011473747577106076
0.6712447843802415 0.02591223763835413 0.7092254455919396 0.0574893532091205
0.6395158287229313 0.03521804622147878 0.6981583014351369 0.016008278063151995
0.6239694260193616 0.04067434799175275 0.7089029500018063 0.022988183080729852
0.7159891207039638 0.016269256280929307 0.7100905890501592 0.06917270825576022
0.7273013601910941 0.015509090362799413 0.6884691589217137 0.03894995877937128
0.8303412258068383 0.01086271038010262 0.7034634299436177 0.05319724196668005
0.8182461763021291 -0.0074175754563997704 0.7001815424603942 0.02713386616972028
0.690841314640753 0.01599686994471266 0.7021145873403996 0.027872007743605355
0.6995760903252118 0.022511195356708365 0.7016778439471806 0.07172245632223166
0.5923723565400837 0.05189568781094724 0.6974840666850339 0.02461257004566369
0.5983498702201061 0.050641469150554105 0.7056475249241676 0.047109322970359364
0.5077027688138249 0.07944556466415799 0.7113545923540469 0.046673029261477865
0.51907330272497 0.08299413683874204 0.692771128114948 0.05357185693197989
0.4565109999432563 0.1098659204785796 0.6974057189125134 0.055387868309697746
0.3919027800716728 0.16127553985385412 0.6916444026624151 0.0099707296158461
0.3867877293392049 0.1544302007090236 0.7031252711597273 0.0247581631406052
0.34586207367688315 0.18146371828704885 0.6918117195422142 0.016101984320413
0.40986843725228966 0.1408630325673886 0.7173722225615999 0.08050954723089021
0.42903331711059034 0.12790554967405396 0.6973409676424753 0.06281485230488824
0.1861374500880352 0.3507098552111562 0.7029743443118758 0.11687236431630826
0.19142237942449555 0.3384363489528342 0.7044589295853023 0.09678361665200158
0.18515913042388268 0.354379881612285 0.6916888461399652 0.05011934932253526
0.16012440982050327 0.38401688245002336 0.6871069327560936 0.02220393925538579
0.15143413122318988 0.40775024802924636 0.6801487235693398 0.015268100920900127
0.21533834745960193 0.3052198256282263 0.698480806363137 0.03429234659958444
0.31402435087253666 0.21349806254667153 0.7005461901662653 0.020695915472177695
0.31814734282253687 0.21161767119366662 0.6977712513235469 0.027734786125176047
0.33390657542138574 0.20346892317589865 0.6881314442269919 0.04241806602859103
0.10958336788838771 0.4715394825302221 0.7047657163276806 0.09769740203991259
0.11141760149483243 0.44884128544581764 0.6896145770489212 0.04909247664801864
0.0999535673861923 0.4799489006552536 0.696914742123797 0.0680952194219926
0.08593677303589499 0.5057521214489554 0.7031070652530977 0.03526696881419349
0.08395664742983609 0.5247001358429021 0.6922282060114426 0.022912614554627796
0.09218964455200529 0.5078624247936372 0.7086987254520781 0.078372362023941
0.09332371160584663 0.5026701682901665 0.6959450817854332 0.06080741323887376
0.05440058973346031 0.5952156740627751 0.7045117020175308 0.04915979093756524
0.06193077587150051 0.572417473051447 0.6900512294205472 0.09940181649544455
0.04604028308358794 0.6284147096740508 0.7166594450949284 0.07336364481158476
0.034837550844674506 0.6431839071816546 0.6911828344963341 0.05327892009903319
0.047117981751550304 0.6160571809667512 0.6894517613388622 0.030803190939886725
0.07132117166480913 0.5545549058870322 0.6941633877689486 0.06063304315367859
0.06414336190932357 0.5427314125029984 0.7098297809933485 0.048648633784020075
0.013644630042870878 0.7345534245078515 0.7012388028459684 0.034311155497248606
0.019238864629106366 0.7180670756176849 0.6996406996640657 0.05298959601377165
0.009581297223874196 0.7575931895256429 0.7103815439504475 0.09980357560905388
0.012621582561397195 0.7653519665053711 0.6941208436814941 0.08004083661668024
0.01005561534613901 0.7639578968890371 0.6964082449773891 0.07599375320931843
0.006128690243872421 0.8410673577131121 0.7051296071096166 0.056368341296658804
-0.0014556137780589147 0.8475197225200941 0.7098456384485576 0.059590394537387334
0.0005047462759045409 0.8721741235191045 0.7085219597147304 0.06033732556339559
0.001786272197584432 0.8646843659995834 0.7021044406427317 0.05371917483167324
0.0020653655426316735 0.8576480684297069 0.6951110218114862 0.06190463079320804
0.006795047935216108 0.8072726807000044 0.6923328924966532 0.026069088987756124
0.0006529556654820429 0.8033926292561349 0.707590417813679 0.05701872395155772
0.005696236385510789 0.7864542579910876 0.7139193389839896 0.15515035977311883
0.028450139345930305 0.666339764576361 0.6977899935722136 0.08665667312154722
0.028685200595430234 0.6758989675978 0.6899488522176619 0.08985434661837716
0.02824296021995653 0.6675736423195031 0.6874355452203912 0.10257878046377782
0.13313876956608528 0.42357298847907093 0.7105866602961325 0.04060081900091894
0.12494476268951671 0.43172920982356217 0.7027380223156237 0.06235535610129083
0.5466657045742872 0.06518579616043325 0.6938940005899084 0.02435749401006558
0.5691984171117825 0.06537501454324118 0.6860348603155438 0.024498444321339716
0.5721609281467334 0.05404650794382269 0.7101026866165366 0.03828827392730759
0.5249274571366139 0.08341727590260357 0.7161494382449971 0.06169954507230236
0.5301895954537421 0.07342185502967792 0.7135001087213253 0.0543997198425702
0.4409166625586538 0.11417034526043367 0.7072673215541478 0.02730598323944379
0.44812336470630065 0.12159897642721285 0.6868101480717558 0.08838333817007561
0.4379373111643842 0.129538643404752 0.722316379894327 0.06310075745573678
0.3647509781061473 0.17183911878608557 0.7174479387910782 0.036387978322177196
0.4029481154648529 0.1350439139481662 0.7112260570539702 0.06573369868698528
0.34687641520896034 0.19186159417691326 0.7184032935510078 0.06825899337463359
0.31993900488322574 0.20357977821735848 0.7092662925028361 0.07530677934659134
0.31946532934209326 0.20836848883911574 0.7134107323298199 0.07473034807596124
0.29344505445543834 0.23506757666806655 0.7061480250859845 0.05695031893009466
0.29521586851609294 0.2303769197749872 0.7120382499909705 0.01736553828518415
0.26494259069458925 0.2597577033728145 0.6927739129517713 -9.566676090159882e-14
0.2361155209034315 0.2760673890966671 0.7190902155015164 0.019587346239125634
0.23373821462816496 0.29078737575784674 0.7128053933057328 0.06827824131416411
0.19029497435327103 0.3474671019318981 0.7096095733596586 0.10644417820183166
0.1726051533592998 0.3748198102221528 0.693343436290221 0.03702356041820832
0.1561476350145437 0.38608019044901654 0.7207552150604993 0.04745579841411591
0.36454588995007436 0.16778516380614525 0.6919521926095582 0.021994654390229462
0.36215955073413564 0.17526301333145988 0.7164488542999974 0.014362109410269192
0.12651955263456602 0.44586048393306027 0.7092905558489978 0.08897581611697176
0.12179830626094527 0.4390061366382346 0.6871549817930019 0.083645302841513
0.10684597033042137 0.48019987824147325 0.7126922104649398 0.10227225915053519
0.11420803948534874 0.45258518651121676 0.7054918833150329 0.054677350380457956
0.11999252618624726 0.45886562485741417 0.7169287970574848 0.06433804017427426
0.075774577646361 0.5514123542877624 0.7244282996762273 0.09841452776097503
0.06021879746893945 0.5642568209595004 0.7133202545546032 0.07960671381473935
0.054709559470555925 0.6050183849857587 0.7239262324377607 0.07459396394772061
0.0380344435144255 0.6152569501454827 0.7002030572687866 0.023748114770491782
0.001468397331840564 0.8097782049846567 0.7263121004652464 0.03794948282139951
-0.0005966943933231657 0.8254931795112079 0.7072795781867781 0.04193520426025122
0.010996610018829725 0.7767805037954516 0.7140875091560225 0.12489746648210799
0.01357841185957895 0.7794168232576422 0.7180478520134159 0.135083677466124
0.02953219356444184 0.6414553740956962 0.7076932160531132 0.05895731379035462
-0.0007800862872327714 0.9234035531985454 0.7029414293046516 0.0668148787126493
-0.009752170745557462 0.9533654101815754 0.6887168093564175 0.008644453544585595
0.004731564028041855 0.9756056735839028 0.6944406107565964 0.05417173413106841
-0.00013772983532714302 0.9142238705919343 0.7180844126056025 0.08007593594350017
-4.064383453773919e-05 0.9898205739613394 0.7052987476369215 0.07228123026800592
0.002892783614455411 0.9983482185588929 0.6984491363572642 0.04517361327363159
0.004711156963749859 1.0190233463342295 0.6867372064079351 0.04440714220215446
0.01489278937185276 1.0296477399817527 0.6852681434218232 0.08691750586165771
0.012649873336765352 1.0380028311142933 0.6953258527186343 0.11966630375603796
0.02122139653023045 1.0577490555523135 0.7022803255232294 0.07892711281440552
0.019170414499541554 1.0922516800992559 0.6972246142553644 0.04242521149734325
0.016502839775976174 1.0983857621999895 0.7060548083391323 0.0652610770937853
0.011700400406275308 1.077355830481194 0.6822174231529231 0.023464171202935983
0.0403231122006503 1.1527687226205479 0.6987820831833114 0.09663699880606207
0.03644574782933117 1.1857810590225781 0.6902600280722303 0.018972665428569693
0.044785126247477824 1.170767758704589 0.6974014209889001 0.0770045404219703
0.0315801421851411 1.120567373859737 0.7112099965637789 0.07796069971543038
0.03197760646831292 1.138946802210301 0.7029120639016875 0.12152117331580535
0.05412207218371487 1.2169972933062496 0.7005890822590057 0.016845439502706613
0.050637489927144085 1.1945999157062581 0.7077027508724731 0.11183369082034879
-0.0026447013074400415 0.9799506624795208 0.7201051169691919 0.08102746863195924
0.010882343348556861 1.0163269129954438 0.6953756010177563 0.06906110044338587
0.004519284200369833 1.0349516331200794 0.7167117178634702 0.08594448040149597
0.0041193214634558115 0.9866969200641281 0.6891489905846978 0.049283452424787474
0.01591063105214606 1.0661678780074797 0.7173109112886613 0.06865650680746828
0.019166479887765694 1.067331297232113 0.7030293403698348 0.06568743297121611
0.05064888917659186 1.182543263336146 0.7077207841038815 0.08446985074918448
0.025601402029741597 1.1099927287734792 0.7005272442492475 0.05952595112123537
0.05742096620010611 1.2390824166625658 0.6945548787807475 0.039662017094897785
0.06845472624598321 1.2485060986786727 0.6918314278188842 0.037702117670303105
0.11145620993991204 1.3413052134991232 0.6867568041609413 0.03237535692932466
0.10516923414373718 1.3353449146078318 0.7118150617235974 0.07177433734903578
0.12192046425983327 1.35646174309684 0.6912741544674865 0.015920291259101632
0.1271449299352445 1.371662143732465 0.7006560790477622 0.052850044719464175
0.138924876124367 1.3885982692588947 0.6985846862970069 0.04787749229126936
0.20576820899074272 1.47108020463149 0.6923471171675074 0.05065761380610587
0.22797795972638804 1.493651040736289 0.6971218909757135 0.03328116768442526
0.20604074800626018 1.4713350619846737 0.6928233309001526 0.05034415326780576
0.1666033046418439 1.4170609944692338 0.6938929805476354 0.051573967874451385
0.15015670024913655 1.4008663451488967 0.6862419182734744 0.03227440984918277
0.2629247434855319 1.5395603900609651 0.6934506497984667 0.025951910411380053
0.28464827040745416 1.5601614031115467 0.7124612922214316 0.09767180422264563
0.28757985696042454 1.5575899372407327 0.6987030569521203 0.07696160052362065
0.3200696909278981 1.590206806573178 0.7023465873188247 0.08488511575764723
0.31485621384032286 1.5844317064915785 0.6981363398347668 0.06536370607413643
0.38360061447754606 1.6448627994674168 0.7166124216308125 0.028851125315177337
0.3751001565112679 1.638897595570225 0.690894296235056 0.025765122077613094
0.4315362812380847 1.664328293874071 0.6985337494767064 0.028729448398588677
0.4297024008130081 1.6642600206320404 0.6949709811175768 0.024627989929254857
0.34871404498495273 1.6155187215540994 0.6861088812682431 0.014387630507921285
0.25696436858161986 1.5292182835818156 0.6843412251505169 0.002332209911204876
0.25043091247339383 1.528415884169216 0.6931719891736026 0.035771538422039645
0.5149885080711083 1.714371997946854 0.711993830533827 0.01710033084187891
0.49416512557323145 1.7069743012189575 0.702739349527 0.031817669365140584
0.545302112337354 1.7320665923947025 0.6895874952051037 0.023841776149527934
0.5385393990915144 1.7203766808672272 0.7147652886156596 0.011768936994185629
0.6255770034739437 1.7588153371173543 0.6967300505006034 0.07160857762603284
0.6267023480738216 1.7611846838788376 0.7174748837602096 0.035386279520474
0.6416598313669467 1.771700584094725 0.6968057800645435 0.02614941550284823
0.6906313134620723 1.7761814562684455 0.7087569224642161 0.08734660052005587
0.6583442801852234 1.7661379016040815 0.7012576412857893 0.07690972856599497
0.5935869883054334 1.7512358361156544 0.7108568657484479 0.1045611703881189
0.5932290532267733 1.750752706936546 0.69596689265693 0.041756144017802845
0.7565356088649691 1.7871269255269535 0.705334284263261 0.0656315001408663
0.7558944684969839 1.7867316205933714 0.6912674869539033 0.06398395843941483
0.764245369000572 1.77953057184265 0.7193364179892758 0.08818582847145345
0.7802772269216992 1.7872957050270042 0.687573331514951 0.12647140386457764
0.7981772386278407 1.8034528315337215 0.699323819135897 0.08829561754764495
0.8743357420817194 1.7957238356502894 0.7033045827969931 0.06618486030724229
0.8624008442296415 1.796303148551769 0.7098300679569667 0.06812783577042589
0.8401155550258762 1.7959587624291866 0.6960492523087698 0.06077438219213635
0.8241689665411905 1.792544221669664 0.6999395099444762 0.0650371047550223
0.7140297059558731 1.7753548295060118 0.6902738772108414 0.08955943690675398
0.7324801962648796 1.7874576055053284 0.6949009079881852 0.08340899060442328
0.715813213676401 1.7840752675525737 0.7060233854500896 0.11748938375387093
0.47704021997171714 1.702017691308924 0.7016886262285897 0.030917686788370202
0.4521505789661488 1.682109194429438 0.686010544786753 0.0032349029949696488
0.48678402627590683 1.694863233538257 0.7196188172447198 0.032525598120399124
0.460881396030821 1.6860816034924173 0.7094788529332058 0.03272368597903547
0.08608560993869438 1.2830727072622787 0.6939566302078766 0.04806579197568226
0.09592822425577795 1.302273800908238 0.6983867651104977 0.10404826243717306
0.08947318069869209 1.2945891950778283 0.6938237526255675 0.07879669002644103
0.0913045175265643 1.299292355461684 0.7134156136150627 0.0633126537668657
0.0631137992384713 1.2148236727744914 0.7095304271302837 0.06743057989975207
0.08922800024667578 1.284431843259457 0.7125623602284853 0.08022776801344589
0.07577009762414261 1.273552949099761 0.7150383185040916 0.0452237206655046
0.07903279981015005 1.2588415506998496 0.7059761852873351 0.052942805892992995
0.1770464297152873 1.4241471573279012 0.7215979597458245 0.18705824267104854
0.13723655817107397 1.394889745711397 0.7142068421310616 0.08969636501777435
0.1054725019621737 1.327104069285176 0.7190756745951566 0.1731257832926099
0.09664451500219078 1.3262877225972887 0.7008567258204704 0.08751995096562847
0.20993593348663536 1.4735541243268846 0.7195422948459085 0.05614297869491529
0.258576483197246 1.5398779008729377 0.7232912812451773 0.06196302502397682
0.25852494580063956 1.5367148722264645 0.6938035953935167 0.025300293197824703
0.22764822743150234 1.501964720465218 0.7181296340716247 0.028168306382025488
0.30505821710371134 1.5774037734728292 0.7118047238142154 0.0920282678954206
0.29374514481330677 1.5668826698696328 0.7033709781793744 0.11560814426961893
0.35755145184507375 1.6090261997510467 0.7192662508916792 0.03603961836170045
0.33368555200481415 1.6058796951776233 0.7045504569768789 0.025434528727822352
0.3678231138393 1.637196601926435 0.695190669609084 0.014595823204965547
0.1625072723530237 1.4408158988689501 0.7222554359472338 0.002064430478637341
0.1769840238607179 1.4265037290732114 0.7110588946823798 0.10027483155872867
0.39922127319528 1.6568594408724164 0.7014733340821945 0.027827002256821658
0.4109179557329482 1.6541282974543607 0.7012377816310694 0.04697106125216804
0.44914181915385326 1.6767049384238133 0.7009264411664101 0.04536160811778275
0.4330512775041205 1.667957030531279 0.7163182906590106 0.06191624255661693
0.48564304835575756 1.7002275049560895 0.71173370592346 0.032827927868035116
0.5265048645964938 1.7254589305835877 0.7086159591000784 0.016669968816792738
0.5689109657064506 1.739114693215647 0.7136483787307392 0.07835323753076036
0.5299829506525566 1.7162498361757375 0.7200394723328608 0.024275135749179028
0.7267087316579449 1.7812334327300963 0.7128196547947628 0.09044280505509339
0.7375049807553158 1.7863042774387452 0.7040865506513525 0.06483957406398197
0.708892435225811 1.774691015039132 0.6970198399469856 0.09231722269802389
0.7090491464913536 1.7852292541789285 0.719045427195024 0.09341012414307026
0.8085101778182515 1.7951029399529146 0.7121838377251909 0.07966190191792093
0.829599389418018 1.7958032595435522 0.7226055382816104 0.04942613146784012
0.6509688349461786 1.7594751412140057 0.7046672483472535 0.034869205681657786
0.8881143273224968 1.3713279201680029 0.7264090307492661 0.0019393677487437857
0.8981984248557653 0.1782979930925548 0.7249802506342317 0.00028469979402182466
0.898528979733855 0.41544100250533167 0.7263306310631693 0.000506109125748653
0.8811156454902704 0.18843045962439922 0.7272521178921881 0.0004201079455161629
0.8776227314006568 0.39298309828096367 0.7226443429604626 0.002632491269763824
0.8863437242299116 0.7094986839187308 0.7266704018289588 
0.8737311234667559 0.09190617951598277 0.7263831328859399 0.0019984125161541344
0.8930981667446086 0.016749906152432256 0.7235419452681491 0.08122874814935344
0.883158247908955 0.26195868946425066 0.7249871202991458 0.0017973025585940167
0.9020461134561881 0.3342219049798629 0.725332968038604 0.0009315339019022529
0.873075140961689 0.30018752584599134 0.7216984652198372 0.0019002210435010065
0.8726965050297136 0.3316285798366123 0.7192702151459459 0.0025145110790865564
0.8832271973363184 0.06995329558440516 0.7225510089580226 0.0006847305039357976
0.8888904430638732 0.42853346819496707 0.7258845820009521 0.0011463807631311737
0.8905302852655432 1.2871747277655663 0.7306748908550936 0.0018725473764068079
0.8896627588354289 1.0828863341084558 0.7257352350241975 
0.90331723337479 1.437064242511001 0.7272628712525946 0.0020011009448554283
0.8820588833029419 0.9419476097748362 0.7229056637097043 
0.9029213078925478 0.9749930568679875 0.7346890545956319 -6.443699226997842e-14
0.8933746656897036 0.668371679799807 0.7261835237655606 
0.8734083577627194 0.5965183068174321 0.724607910710543 -1.6384024826348898e-13
0.8604513506445814 0.03560995425043779 0.7257076892388156 0.023066481339208054
0.8880432255217297 0.5173651593485077 0.7237057467783216 0.00012420771663777106
0.8778228566050104 0.6406916931798181 0.7276845025839589 -2.1757920742609224e-13
0.8809807186835876 0.5715601436849864 0.72313576847633 -1.8117299436154827e-14
0.8787983843344142 0.024381226062055752 0.7201076854327361 0.04035959286854942
0.8849767845311572 0.2353923925809769 0.7235608375892318 0.0016838662323997344
0.8856806279276739 0.04616662087098774 0.7229486183798055 0.004092714043195393
0.897118798075786 1.324726725835813 0.7249750748636412 0.0021655587320183233
0.8693405960770435 0.01348145891564594 0.7194701725366647 0.10869620343149644
0.8941257000246857 1.2677548480358105 0.7281548529162989 
0.8849868579578112 1.5038892702486026 0.7235791881332209 0.0010043930699676462
0.8646261902098271 0.4149514364920611 0.7252280431811252 0.0005372811294954465
0.8353800694620027 0.3122545496106805 0.7277926022709651 0.00047568526160517437
0.8732776952273789 1.1642829108348283 0.7283675719924589 
0.8276378944379554 0.0767494573544049 0.7252711492415728 0.0009667778029175149
0.8547120254185575 0.004051782203759114 0.7128506984716023 0.10302010444973062
0.8636793521776293 0.3936617784473249 0.7231431383916354 0.0012495034989993491
0.8763427997420374 1.030337951242228 0.7253021211692077 -2.630984738116464e-13
0.8675379972974767 0.46153730749714694 0.7258917227976316 0.0002128339342707327
0.8896719884814209 1.6387831172157021 0.725111782015364 7.370250405067638e-05
0.8434240323758517 0.22900238408476029 0.7244476180400473 0.0016377583741755408
0.8748224131282405 0.9924102795340122 0.7266266134864267 0.006190200599167186
0.866224106956495 0.4498847488990205 0.7265220771726847 0.0005186071082773164
0.8594029563579009 0.7903123477405747 0.7315564958086244 
0.8559574688782702 0.010739012023965499 0.7257443442683933 0.10529950580827861
0.8836737719018988 1.1480576395172364 0.7300045625956233 -1.9461832510095135e-13
0.8598029376680556 0.1805464072984266 0.7290570677519015 0.0024000995824633975
0.8606401052725666 0.36918808486089416 0.7184221282949658 0.0019275912654340575
0.8555101297879603 0.0740408744439151 0.7259261581664168 0.002707354118145582
0.8880465013969788 1.585557989423265 0.7289962958917713 0.00021083105815907966
0.8202064910560495 0.06455722981495535 0.7231750869902249 0.0015006943973489202
0.8779411744619572 0.8350353566208317 0.7261117575195973 
0.8375513460414747 0.13802036333398046 0.7290577286352823 -1.3464815055772343e-13
0.8534045594235281 0.29408527280645913 0.7233511138046362 0.001785914801693413
0.8747202413337531 0.17292480235694116 0.7291204307980961 0.0032818508136337847
0.8515486374285637 0.5202812264477413 0.7305011718585284 
0.8536930608877064 0.5973684144783081 0.7268831683099573 2.883421576274374e-05
0.8673658829052886 1.078998547538529 0.7287650205310694 0.006207203446534966
0.8319644139744675 0.10546901313896229 0.7291589730325241 0.00039610010632308844
0.8527122797725509 0.2567566008976467 0.7240333628433226 0.0013005812198561993
0.8549309106844839 0.42508777617788673 0.7262711813235062 0.0014254087382241816
0.8603304169978343 0.6454235417591063 0.7285051107520445 4.1179924359057824e-14
0.8430600345237598 0.16579901104487524 0.7311844761379188 0.0037470453240099747
0.8421715541113897 0.28585447952713194 0.724077350588618 0.001368294230667609
0.8588061373603999 0.30642606317064547 0.7249782196527415 0.002605566185413494
0.8612578845185683 0.1509531118178065 0.7250736839903178 0.0009778978033930267
0.8418344950435823 -0.00041247369709800693 0.7221418409502931 0.04862251197961302
0.8565021072879079 0.2310223770842695 0.7264452156762534 0.000562513570072416
0.8641428906033903 0.24375986484645015 0.7226515586639458 0.0019570914980046867
0.8703660600270544 0.7519841935529377 0.7231384825707147 
0.8664060649263916 1.0394914959145358 0.7286846664391992 3.1432140974422174e-14
0.8242640549711772 0.3831854241924266 0.7241603211399286 0.0008399287562905454
0.8285098270689113 0.22030223134589805 0.7258702878814078 5.873836923343005e-14
0.8395002137866489 0.605865211357343 0.7230786587939454 3.8328755611950456e-13
0.8963219074056117 1.6923809178347193 0.7317928077654268 0.0009754543687406061
0.8827536106299586 1.2747195552055708 0.7314686112690727 
0.8296339306458915 0.6061899587428486 0.7229213369049102 6.279071464720183e-14
0.8438900310473569 0.7302855401820455 0.7257138072640366 5.183032376429673e-05
0.8211449562229942 0.2705103319860893 0.7263390568420156 7.638067475128123e-14
0.7924102304852618 0.16929476667786167 0.7251358162449137 1.276978398201473e-13
0.8247333024994219 0.04913613123661033 0.7231161508377999 0.0015563845342215783
0.8660925952105897 0.8876967429894067 0.7283843090618444 -2.1889527094948842e-13
0.821702141565889 0.3150203648595614 0.726104297942964 0.0011227718491131744
0.8275417265971536 0.3808345210664682 0.7233857486421873 0.002278783296402898
0.8277273841455807 0.6567449317843733 0.7213842616529045 0.0044388887867912
0.8234459254907822 0.4554950292593787 0.7266193999252019 2.6157094558468246e-13
0.7870811325420611 0.003909932998772707 0.7268742969281571 0.15655013129064202
0.8211348564276466 0.4412293134693925 0.7297606511442915 0.00046218497657161804
0.8340540232269827 0.39333566001404396 0.7221801069026137 0.0007468917173671997
0.8554344901444166 0.8739588386803149 0.7255341478324522 0.0019972232597427683
0.8028072289745664 0.0642703443580808 0.7207195629394576 0.001351882028795203
0.832658886398716 0.45858718293595135 0.7270602120242062 0.0003388504452856019
0.8775039015469928 1.2104252934501656 0.725698391479596 0.000485239993810437
0.8039282589906951 0.01058103240591956 0.7105451153116278 0.12197332951304082
0.8070430178745049 0.09932917694434322 0.7271583208620559 0.0008753883375602644
0.8173695697330856 0.4030708334821496 0.7272441152281021 0.0010029335322284106
0.8067850700224756 0.23779565152044196 0.7273116258670981 0.0001381404806924825
0.8408970190335132 0.6967719905402282 0.7263943007204953 0.0004508316177169539
0.8511214796086393 0.6607082878418328 0.7309349935871157 0.0014853504503637169
0.8574658989007904 0.7680458708613814 0.7244206180478607 -1.3593684854452356e-13
0.8313303515704744 0.8978789314765552 0.7235237957090717 0.0011255996713553692
0.7752962466767028 0.5700635670188562 0.7249079418624608 -1.801273826528315e-13
0.7146987767686299 0.08297005372150855 0.7250849099848449 0.0012360045400831097
0.7143735768146627 0.3664781747800342 0.7245725469661102 0.000450781625981566
0.6657892295911247 0.1180038956153646 0.7249817462186764 0.0006436381129488271
0.8024481245458538 1.0196972739090369 0.7277477349290763 3.742458228242973e-14
0.7814095990599266 0.305306988551583 0.7225929723250091 -1.759478558939601e-13
0.7759272514381929 0.7596366928871837 0.7253781477236232 3.42784533294727e-05
0.8713468083835468 1.4840552907306241 0.723089427778357 0.004926743896720662
0.8098971469713655 0.41723279791449874 0.7273603839798952 0.0032288773157555404
0.7754806247140738 0.4258796909541313 0.7241495187535145 6.246555695616382e-14
0.7740160118871983 0.1426845382519776 0.7232026815336925 0.0016561910055455289
0.7802946728840154 0.9331461721622742 0.725270062588642 5.11610575532775e-14
0.7018498425699586 0.11087069880748578 0.7242713350169798 0.00043405370875798026
0.8505440399559296 1.0666175146276273 0.7253673764987408 -8.830285978290634e-14
0.6713174450940677 0.06885612388522548 0.728320559990575 0.0017495646301124042
0.8476241214908918 0.9728372777673718 0.724460563987974 1.2979335423270918e-13
0.8010395581870814 0.5806454741559072 0.7265327474644571 7.15519733950461e-14
0.8408373794179268 0.9936198638156344 0.7266169018539826 -1.4825347351501278e-13
0.8417430685302686 1.3341884420732444 0.7283709560260214 0.0011212698968990369
0.8300382120292881 0.8484060178618626 0.7260809370223961 0.0028861979392346402
0.8445712334558879 1.212713617581786 0.7283046877051529 0.003491041127507672
0.7230979472486005 0.3302090652456348 0.7303089685153619 0.004932423664406651
0.7444784412290729 0.223331835487894 0.7296074931671748 -2.1019347122208315e-13
0.7018277844175818 0.2856526668235082 0.7237862279470433 0.0035857270184956333
0.7850020771584237 0.5329607678781332 0.7227977559536363 0.002813408152509631
0.7402838353240022 0.18786217166413033 0.7255981943217601 0.0006135851458608534
0.8569268779560351 1.3303289072982016 0.7282485603181296 0.001436742069961111
0.8096409901254666 0.9193988524622264 0.7263495107305387 0.0019472548040139477
0.711591207997177 0.04709690112739789 0.7245910037781726 0.04545829511661782
0.8212069799310421 0.6973021662957593 0.723528955990276 0.00022121204813664157
0.7540342706530537 0.07685067565360805 0.7314148954926085 0.0032321880256063126
0.7629563661922053 0.7537709279184047 0.7244369270185187 0.0008958530966972166
0.7848645722431036 0.08746906979883991 0.7233478231227077 0.0061457578086072245
0.7862029508809817 0.6746884386405618 0.7294848889329895 1.614869240006417e-13
0.7879747045269745 0.8087944236784055 0.724554987620775 3.7689824816260176e-06
0.7730719538615641 0.6410851499371144 0.7235626351915959 0.0025164055529813185
0.850871205967659 1.2419291834450505 0.7255214579270626 -1.9035594457439207e-13
0.737712286380126 0.01885921011685207 0.7231189205699471 0.114135184998499
0.7606207802920794 0.31826731198871805 0.7247138492868487 0.0036263255065292098
0.8305765209272369 0.6857284445984958 0.7250463084141163 0.0037543980833348676
0.8324767492064084 1.3094880048683726 0.7283235860566736 0.0003649816135701384
0.744373190037272 0.662035768614353 0.7239685439137566 1.8448428553554479e-13
0.7816263825592903 0.9075198707775236 0.7300357154569722 
0.7990123483861917 0.7802305956303877 0.7237007761441254 0.0003218332312265954
0.6977449964267979 0.030793284875049398 0.7256093250967868 0.09217184717184115
0.7252682293394722 0.34349610388053514 0.7311627540349286 
0.8030497581993215 0.3467708684415929 0.7278567371182156 
0.8742904934308212 1.495609844301222 0.7231200736877461 0.0015114373629660275
0.7076524597448776 0.10825565225402449 0.72315891198223 0.0001266142408796443
0.8450675719345697 1.3727784086483623 0.7290432584155604 0.0009791190503755875
0.8325369627898088 0.8061882681008439 0.7258303178425275 
0.7551361519491424 0.6120675855692083 0.7268224956142257 0.00012086864418368602
0.846379630423014 1.5067963808258698 0.7197702650277082 0.003004915586210562
0.8750598332258815 1.4169823349304929 0.7331159374292816 1.210141031495914e-13
0.6929305584016627 0.05211872697736857 0.7252865487253216 0.05206308731933002
0.7925211000337865 0.6494366062694092 0.726717348787853 0.006794658663523939
0.8053793014158792 0.6767159890093507 0.7207054035184055 0.0016948141881316255
0.8759941546214292 1.3699642145975597 0.7321830216099503 
0.8281657237175496 0.7023592353791817 0.7254467392337622 0.0001263378917875254
0.7522964872957495 0.26170907185433073 0.7265966607717772 0.0011133851334224295
0.7808217053098246 0.4996688835085054 0.7268785147427322 
0.8095154494198687 0.4669486208582788 0.7250770681942766 0.00011566158206385915
0.8104160159930575 1.0350690482884548 0.726386815680952 
0.8130556291904075 0.9671532527899311 0.7291554271707248 1.047411079181144e-13
0.7647000514674048 0.640653566469313 0.7245944623964262 0.0015011135688811322
0.710392821067056 0.032637614683886276 0.7242590531604227 0.12388872760828104
0.7402368496424536 0.10960637552864569 0.723858512018349 0.0011351213970601905
0.7608687404224093 0.7478289786409484 0.7244986198734878 0.0004066404133035065
0.6806149417139769 0.041122691985217195 0.7290308689795646 0.058753289817705334
0.7509993525110626 0.534432173163628 0.7305466985499973 1.8429866537718255e-05
0.7941938318911066 0.19024772652256244 0.7290806986293108 
0.773357157514796 0.04233361188004507 0.7253298089344759 0.04628285497978431
0.8601122849687105 1.2249762570966884 0.7297347530416873 -1.550436826231971e-13
0.8286618792392579 1.126326284562849 0.727495204356842 
0.8241720657082541 0.921832504833186 0.7243843546326606 
0.7946232225102468 1.0026021104795027 0.7274077191027404 0.00017309749213518605
0.7952527228290679 0.7658175597691662 0.723424240815002 0.0004207950305916741
0.7287930133046048 0.49553513816962136 0.7303033810759922 -1.2229173614201803e-13
0.7176378795453502 0.027421365087484675 0.7200208564317301 0.11479799812427917
0.6965377879856133 0.21446037176596858 0.7283948073284323 0.00027776680885995675
0.7633598988051805 0.5459207287450256 0.7247082006434876 0.004383343083386123
0.742392368451487 0.06523948529627341 0.7284713115007317 0.005507035094338112
0.7274763457929333 0.3946979711922027 0.7278105196252052 5.839528586260163e-13
0.8502121872921135 1.1643631194416038 0.7264218294750068 2.082071097431692e-14
0.6859386398120462 0.136935245562181 0.7248317565469822 0.0005246530240457533
0.7227701320581575 0.2205938966661994 0.7308923608089816 2.120090929475094e-05
0.8493235147787749 1.3029795476190296 0.726144725855824 1.810551570827064e-13
0.7797387209103559 0.4640771908525936 0.723614934965153 1.0055576160658724e-13
0.7139476133526337 0.0627760194469788 0.7239768756560092 0.005349896961406034
0.6831280643712286 0.17139749585952652 0.7225203664544043 0.0005176987792911849
0.7161736581713177 0.191301056962705 0.7261954999456232 0.00026423189323462355
0.7249485154835067 0.10741293166287393 0.7246641982955679 0.00040230926303059107
0.7484014436113827 0.05575367095005939 0.7236440906793608 0.00495687134977518
0.8467726251868146 0.8550256705451726 0.724485385421473 0.0024979338223947074
0.7692673087995554 0.06179682050599501 0.7247297081952913 0.0056569298025611345
0.8214778133161865 0.753757936924872 0.7231744070980479 5.141244691766032e-05
0.766980777157256 0.41951605527288344 0.7247765159470784 
0.7838549113267745 0.2144324695514949 0.7307085978609814 5.99060621939877e-14
0.7879279300154178 0.2481575548828843 0.7288291777653191 2.333265555268692e-06
0.7290008314790103 0.3002866875228672 0.7237003203778724 0.0033466489751978836
0.8073003855489383 1.162661714584754 0.7281128681859802 -1.359649856274803e-13
0.7047120783889615 0.1750482074617494 0.7235363306911708 0.00020411794391291498
0.7545587286632423 0.17232089241562268 0.7251632802091952 0.0015255308072829878
0.7775723205249288 0.01049377417433597 0.7247318782250155 0.13320433885268043
0.7450196492192195 0.13351250628167602 0.7238240935140197 0.0015713611742011228
0.7343887732618769 0.5936292043829764 0.7315385705135788 
0.733489855909855 0.14695065490068843 0.7236129405964361 3.194695967176171e-05
0.7925021082446359 0.33323290111516346 0.725722541308135 0.0004678572508261508
0.7646459319215263 0.2930676594631063 0.7268411923133774 0.0009260507079338182
0.7320159988418524 0.45822824712484184 0.7231636434383234 
0.7866843594032964 0.03927188115382843 0.7237273307803336 0.054454906272859926
0.7753826579142207 0.08486042791418111 0.7241063231356812 0.004130466342041788
0.8369255505758182 1.081628453304067 0.73197534259671 
0.756714206202347 0.14747942022533594 0.7266927134849229 0.00030875260288829975
0.8648130700508696 1.4448850421510004 0.721934760746594 0.004342911540885452
0.8225055965897995 1.1868564927040965 0.7270644429028342 0.0008775824339266901
0.6943917901402209 0.19206654094093226 0.7248880203073375 0.00026403268464640113
0.7719104760657901 0.2606960696858694 0.7258982664529406 4.703638944730618e-14
0.8168679046007031 0.8347872083302142 0.7275452046351106 0.0005821847925923453
0.7909136503023643 0.7714565481767982 0.7235809878134207 0.00027653329504410577
0.7687819010613043 0.776983716879292 0.7253025068534202 0.00036282357229500936
0.8262072337128713 0.8598078084359644 0.7235388615106801 0.0007578922828185799
0.7693502012812939 0.37341378188903074 0.7261863189409039 
0.7655589232776141 0.02338725321286768 0.7217523001604871 0.135421843775514
0.7953152614244043 0.09637449425990215 0.7246936953862432 0.0005994667793239414
0.8158449944528703 0.5450089370944016 0.7256095905726331 
0.7616035820875755 0.010456591383431154 0.7212646752917852 0.140333847014241
0.4560558402023451 0.1678040273663456 0.7242102945040683 0.0035696344684409084
0.4615077774091555 0.24392843093449276 0.7301607739200296 0.0025099987208626446
0.5205769004503338 0.6598024164784907 0.7236892192217356 0.0011043479617988982
0.5433211363363347 0.5530198672722356 0.7220754078433089 0.001407113377319361
0.4589011880590529 0.12829552125609794 0.7231385580880952 0.08772222596609933
0.47511756625384405 0.9210612716155647 0.7259551162107882 0.00454429627234556
0.5277065580793405 0.3537999370244883 0.7254822988338241 0.0002497985230868888
0.4912691773793652 0.8967086242216573 0.7288313097815191 0.001687202514589379
0.49155890754826687 0.8344385287377097 0.7254151762246278 0.0008569680312772981
0.5811196212909114 0.408226059045075 0.7261303815560483 0.0012456515153411376
0.6011093311084661 0.4033843872542615 0.7328997731124011 0.0016225213915494526
0.6189688934407732 0.14054988893151008 0.723346244877303 0.0027571042176972897
0.5572701797919285 0.49041569337322904 0.7244707278584566 
