x y z curv
0.35489208724385296 -0.001950709135415544 0.5458521616908288 0.011823203291029646
0.40313807965873094 -4.090835258949555e-05 0.5853545784218978 0.017835103138388125
0.36623729689416745 -0.00686937623648173 0.5650012927631558 0.010696269939630333
0.2587068456664929 0.0003111570797405084 0.5822306807346623 0.01618060765989213
0.23102269033789902 -0.001262753158481501 0.5821751650891345 0.01398869730800313
0.20495873150025917 0.0037770303555417495 0.5771326493919543 0.012107827392090993
0.19607272394550032 0.0004949312607207948 0.5917846120870639 0.014593773612291796
0.1703731031519401 0.003167460120032076 0.594661202298568 0.024097479013031716
0.1449588892061367 -0.0024788857503297403 0.6017511558943089 0.017246105772991266
0.38532132446092976 -0.0073987672763035405 0.5981092428881092 0.027601826967140385
0.3758762764153156 0.0017148390529182936 0.5755198453259412 0.017221294695981552
0.30807067318550874 -0.0032327825843711574 0.5815091839517356 0.008670392592145018
0.31753891953151075 0.00043393242455259506 0.5966207988392196 0.011242364522004483
0.25281482066265526 -0.0016780674810517456 0.5723753302279995 0.009975471165618791
0.25289471182101875 4.1164611270964063e-05 0.6106724089819144 0.018170961659783373
0.2691794253507104 0.0004945196414788517 0.5633520743869046 0.00824201413740899
0.14578871463654908 0.0008899954662322999 0.5966169731820699 0.021501550233901635
0.3428575176779793 0.0008049808362354086 0.5575345938262622 0.00862960156145914
0.27759345353562725 0.0006208167324436602 0.5543264547924163 0.00750834911623254
0.2340761005410126 -0.00031818604038578123 0.5832990619661946 0.014045387241795862
0.307900813005294 -0.00016286847377895244 0.5672563481697258 0.011062946450757402
0.33401996704829334 -0.007372311035859998 0.5652191142222632 0.007185977285562934
0.3204210316991133 0.002484476505123629 0.5884707112933222 0.009166025217475263
0.2740459011533571 -0.0069159329564159305 0.5958425527231613 0.018492357515225308
0.22475576147822346 0.002084270359893962 0.570535914963476 0.010411356387021632
0.1724971861633294 0.0012821943993583207 0.5883394173996146 0.013645405312767226
0.20577368565829948 0.003680509130042542 0.5854427661168513 0.012723170125494046
0.3959681179126595 0.0014214101030961 0.5835812148754536 0.021219287805955545
0.13428911541432903 0.0018737655168192943 0.6032445002521726 0.014987893727814255
0.30256648113724205 -0.004486410304800255 0.5623546411148559 0.010401908317344631
0.30138905023830975 -0.0016543245288460915 0.5664726783105761 0.01160511327268892
0.3865933861178127 -0.0139699973122752 0.60573599368619 0.009751831989509374
0.25537726061625987 -0.002713506455816789 0.5588371486406419 0.007916283608243407
0.3637046400907073 -0.00043324601544858634 0.5975284599964131 0.02069294380537887
0.33090817222942953 -0.0008692458753666769 0.606262319975189 0.008444986870347584
0.3050565482515747 0.0006098790660711748 0.546854377676466 0.011082107099718354
0.11054482202149309 -0.003424822976330629 0.5963075787458729 0.009873179201514213
0.08713358523798376 0.00241056022346979 0.59881692544386 0.005516068611131485
0.2752960829776595 -0.006394775879305169 0.5941788613770436 0.017987878413581657
0.3695404377386831 -0.002714543210749105 0.5532875488747659 0.012633076040996108
0.2871792967219659 0.0015199162742222678 0.5415261833175562 0.008806424291985452
0.2514691980454501 0.0011789194709821479 0.5922320208344345 0.019229911273353183
0.2899615210168985 -0.0012212665083448193 0.5904779024315143 0.01592125286104607
0.21516856200111728 0.0038164903969116763 0.5754785794246265 0.012540741017387273
0.334160347066609 0.0007732278044143086 0.5464435361089123 0.009543143165779595
0.2743632088744191 -0.006773929746788388 0.5748705401675167 0.007328658164789072
0.2256740320853278 -0.003923050245388034 0.6061110692718863 0.009023341932782722
0.4168316433841663 0.00693533739031194 0.5889589030406647 0.028616804879392766
0.40540406047359395 -0.003949058454236075 0.5976320978792009 0.017127825360591247
0.24595887336540312 -0.010456451397361238 0.6175946208088499 0.012277509285836919
0.06757769741677337 -0.0064175421969636035 0.607336158675904 0.006773633940954621
0.13916394419219208 0.009386192394617887 0.6158335034944514 0.008651946730414216
0.23601614454312236 -0.008311495424037684 0.6437482224052604 0.016316715978405272
0.35442934482288646 0.00345711199860802 0.6177364274465906 0.009026086312790933
0.29582121602698885 -0.006911130431236634 0.6204208920647016 0.012522754238669078
0.09973616682577349 0.0001118872793183991 0.6160541299378093 0.006247514346169416
0.3761444884844205 -0.000885254734149286 0.6475573528321692 0.014994828493207811
0.08847148305691432 0.001097792721513409 0.6118731566268335 0.0066249339952430914
0.2914737685895555 -0.0007702838242557786 0.6565553384347568 0.014097837183209689
0.2687613366260502 0.005521927459496279 0.6146611274914833 0.016250365805965346
0.27324001860454344 0.003780960398624405 0.6503422900945971 0.012489629148913212
0.31742447327894724 -0.007129686775665727 0.6511615420174713 0.011060487782982641
0.4209069294041162 -0.009978573170742702 0.6225301413536105 0.03439817760405381
0.3486047594809673 -0.0032482118235364894 0.6407444512933193 0.01243105258229528
0.2626732532642862 -0.0004431269229734969 0.6325783066036547 0.02108800255914807
0.37638752821988114 -0.0046449405018382664 0.6458979204614366 0.014630411756475652
0.39488483002731295 -0.007299751954838991 0.6267162337217859 0.03305952492830538
0.3436440995094058 0.002347682231272867 0.6624648658721244 0.016920620878445074
0.29973100509338113 -0.0034924368591041505 0.6676633418864173 0.020015856019957066
0.3312120591769909 0.007500600413827623 0.6698843800076575 0.015924623872712075
0.1538230726260193 -0.0029051757959926133 0.6157072662872427 0.029714050601131938
0.340640509776217 0.003899947123226717 0.6434716598375987 0.01196268007445828
0.3226372380009979 0.0016310522830413304 0.6511155579584059 0.014191380931703195
0.21996888125383743 -0.006568386263317301 0.629762928886756 0.02050692993627161
0.25234587870839104 -0.004872816019813553 0.6543794908623256 0.009426324937481665
0.28719883020129167 -0.0024874795306788736 0.642511899794367 0.016139927874769817
0.24755645262725207 -0.0031463968075488096 0.6495217319014541 0.016693140518927976
0.40055469328796667 -0.006537749082412934 0.6126025558107135 0.034769895806171805
0.3222062581976614 0.0012926937133334708 0.6386320711578785 0.011629368225211883
0.3812720390866901 -0.003605915453056171 0.6297234328822441 0.01608413245464136
0.21050132374791064 0.0019416577929288418 0.6466566510222181 0.02004707977671008
0.2542601767703707 -0.0033790665591185666 0.6513317468248706 0.012184171303596239
0.3236940561458133 0.00430809747381253 0.6180139353538759 0.007807170141750366
0.30909148703149697 -0.0009763824809305001 0.6455981399020123 0.01635640324999619
0.1899857328131357 0.0025362259043204484 0.6066006563316206 0.02064913051282849
0.35147666948550915 0.0006638959200007974 0.6274840739434273 0.005168063026729763
0.308775429468343 0.004222353241151771 0.659109555189068 0.014447924959724249
0.2854812129149782 -0.004332060010261658 0.6386188576245528 0.013287451828904817
0.39265900449750507 -0.0005521876006614147 0.6406457337115213 0.023660699177712546
0.1107410251190588 0.00024822221911893885 0.629213855015115 0.007216223185066449
0.371688655973778 -0.002427641433324033 0.6393850454271993 0.019233141301509143
0.20040756255428976 0.0034233169195589538 0.6277942860264367 0.019425039540581224
0.18253630054313852 -0.008442797191605718 0.629990075325198 0.017782694565706497
0.3650355876373149 0.0003452167683326961 0.6234734826536706 0.010777567798734886
0.29165330996377065 -0.004756791695623035 0.6321953471644649 0.0183488487873999
0.4360987172794705 -0.011202399267279393 0.6254752717345144 0.02715602788815894
0.2068436173876101 -0.0009033459419338562 0.6188218093719745 0.01988301433227796
0.3080079375672773 -0.0016345819615422963 0.6268493858944768 0.01098586261947416
0.3528412461395484 0.002188897711826476 0.6666429964192282 0.02302577727065879
0.3229682209824434 0.001073163163575905 0.6261984067755842 0.01217798733101913
0.25993078595898533 -0.0017865034481630135 0.623260308737862 0.02019428811516847
0.16094031149570065 -0.00532546267655586 0.6150837788145863 0.030928158150684452
0.20972087744046078 -0.010362164902300632 0.6667420856370395 0.012630426592408149
0.07446711367634262 -0.004354184423023021 0.6299690131466863 0.009227529148990174
0.2934629258135839 -0.003992612988594007 0.68471883814702 0.011257510619486837
0.2010810047367758 -0.0011590676667379252 0.6749072464122816 0.015057488603554287
0.17561184524415688 0.004507019320942236 0.6660189552242273 0.021365640205303706
0.10702349077723074 0.0022978914102355767 0.631770323356436 0.008361147846987011
0.12084143796546251 0.0007247077431663756 0.6412434169288469 0.017584027036747683
0.11651254117975185 0.002110089355653579 0.6542312763912901 0.004962082812572354
0.23515851133287174 -0.0034202596547393133 0.66154684863249 0.01177372930474125
0.15778559953399046 -0.007846397530366945 0.6488051556738131 0.01710706209403806
0.1686508470669254 -0.004319633628979519 0.6788235100961066 0.026256956471151085
0.08474780804658275 -0.0003245096525764548 0.63142134697861 0.0064438305278313335
0.21071087627121865 -0.0008464839215801075 0.6535718273495265 0.015925710795046333
0.18886270367092164 0.002110213831862893 0.6526780818694934 0.026160266718636804
0.14684722997488467 0.0033496178234935607 0.6365992231103078 0.02129585609380735
0.17435629593209856 0.00528602221095067 0.6471123761899044 0.01700916830499678
0.27201881308968123 -0.005164217618761112 0.6817780158140416 0.009055389204820335
0.25033878636231915 -0.005918786882342482 0.6676619112150304 0.007742953818041741
0.23729326097341805 -0.002002678921016102 0.6833508430582463 0.0101088522273387
0.15755622788191354 -0.0017288555839878286 0.6769323256542393 0.02629678983135702
0.14097871934668604 0.0038367276263172136 0.6632155628350408 0.020679667719591024
0.14754262508698004 0.0031538723232042466 0.5260722280398161 0.017508651880130677
0.11406513494600007 -0.0071332359116344805 0.5162625162686402 0.00787168427354146
0.07893660924599749 -0.0021206152585510653 0.506018507386643 0.009268178608712256
0.06004244662920039 -0.0015434057376052632 0.5902996080619327 0.009366226105930088
0.10728720338087258 -0.0014728947927694334 0.5637005326756971 0.008398933446213284
0.08812984991710315 -0.004478697144951705 0.4887102209724099 0.012544191992699434
0.057309631383592324 0.002583581588567951 0.5442536529852704 0.012422796454877686
0.06178220197738049 0.005150827508783603 0.554644971402962 0.00857368407690922
0.051727429685067126 -0.0040347648109590704 0.5218981311323978 0.0109222273843163
0.07965978319846373 -0.00035941075626086573 0.564072283901674 0.0072021185090592335
0.16087257692710047 -0.0006014346708023751 0.538801779917591 0.018523107497152514
0.13954292100131582 -0.004668640457578319 0.5193522913857925 0.009903767252284779
0.14003311245818992 0.00042916640872146827 0.5275266280327638 0.015066922436758634
0.09337576486822684 -0.002261415374663387 0.5441277928477203 0.0091799170075363
0.13727765835507513 -0.005293001733415692 0.5007235866628513 0.009671432126708221
0.05728154675275904 0.001996844816186338 0.5393196118193332 0.011787452314584031
0.10771023659343056 -0.0011732109110302207 0.5257531507072235 0.007007358112891051
0.07508221787879549 -0.0023701220766682326 0.5811288572448376 0.00855952912039031
0.048938097544105046 -0.0036036168994540607 0.5956180112889746 0.006521930793167773
0.08123636625590754 0.0013581103376497984 0.5382551932252566 0.010026333762817391
0.07654298004156217 -0.004584471252197448 0.48204356052372754 0.018288778948765818
0.1145857059308329 -0.0027562580666368806 0.5010937094204512 0.011921764062517796
0.08424659495047648 0.004824161998294415 0.522488267646421 0.004681807345267782
0.1157128345230635 0.0038802020102018508 0.5713487535212767 0.009394307550858636
0.05796355228211699 -0.004560944777045798 0.5148152108371279 0.007379869545099792
0.11089412400984539 -6.141095907605876e-05 0.545418572667812 0.010837175270517488
0.0727698249182001 0.0019696381559220363 0.5275990211116933 0.010476677613152473
0.08094366133717616 0.0032104834629083944 0.5542562409904089 0.008083128103456556
0.06179359718629003 -0.001303102337236152 0.49566756346496343 0.011981863315244359
0.06600993484218566 -0.001794447748343681 0.5715034855564185 0.011276306452092032
0.12135613858754324 -0.004911294374917619 0.5253756880536876 0.01548154864450174
0.12917807380388666 0.0017791208115927287 0.5436934237367164 0.01286944174976036
0.19348233669552994 -0.0011350901417650024 0.5536703829026005 0.013950519701952564
0.18441176491124306 0.0015140328985782819 0.5513082863888705 0.016781423864815494
0.21411643175432507 -0.0033843251712393926 0.5438401990593805 0.022115366404626493
0.28038241021043614 -0.004116572907887763 0.5372201565702789 0.010081932222028906
0.2408086465662595 -0.002220803565094916 0.5478449105966313 0.0063793962711023115
0.11042700688966395 -0.002051966659053756 0.5851699061002089 0.008580498185961334
0.15228690947380105 0.0006130909356307515 0.5499447062119777 0.01697103600422203
0.23906723220051543 -0.005210934523995549 0.5558282318962587 0.005114257780671563
0.16301248403904195 -0.002299238586065974 0.5690042812279721 0.015544573313363348
0.2683174785775216 -0.002926679205787944 0.5361084629800343 0.009840487007385107
0.13880619982685208 -0.0070101478133998444 0.5595534023385187 0.007822269789655216
0.1255928104331269 0.0010790570354200332 0.568429583212007 0.011333222258153251
0.20482539785155912 -0.0028868849181469124 0.5503421447032903 0.020008247283357636
0.13239190477808918 -0.0023444845748730007 0.5806432147562214 0.019459948968478562
0.08982145311421254 -0.005699191330189467 0.5864955453641921 0.007826989434641494
0.19221004164289207 -0.008632254778491189 0.569476092800091 0.007138245395902858
0.25624149788573275 -0.0026168720447775746 0.548936527533284 0.009283901396486856
0.1677364705619315 -0.005923098708323447 0.5594101626837227 0.019528592669528156
0.22343349011630745 0.002033309694223545 0.5321078377041734 0.017692644304030686
0.14837652936567994 -0.006229401380806097 0.5735425044685312 0.010426411187285245
0.12610968171349168 -0.0008581639665744575 0.5946502684505454 0.01565848281934828
0.33118084340191034 -0.000798363973315546 0.5308594836661258 0.013587111204589346
0.3903481972570614 -0.0043489110814911944 0.37848935260427063 0.011110488084076603
0.41156235051674894 -0.0011168386766502586 0.3901210344120745 0.007332860381977199
0.40894140198584567 -0.0048420044208778565 0.39553254883711697 0.007032834207333239
0.4460571137148605 -0.006784763047814742 0.3401844524991652 0.026373725837856642
0.4269861454800212 -0.008002437502495977 0.40966956260480947 0.011802482405526947
0.3527900782224131 -0.006256018460144332 0.3962772374081184 0.008789581188869544
0.4115505292822369 -0.002230102923204144 0.3397353389582918 0.011803150738919709
0.34767828666207806 -0.007958135273866662 0.36838701976172344 0.006418479051885432
0.44595720665740485 -0.002565175689052177 0.44320840229711467 0.040296178469344746
0.3788282436494339 -0.005953566977550659 0.4038239738005663 0.010206811154357513
0.4282694204650734 0.003151989577477863 0.3800668999748431 0.021266868599690746
0.45868042079099236 0.009688214048277168 0.4502504417457911 0.08443366973399988
0.4382437983799752 -0.008200942361490228 0.34580095777656716 0.027776851353454205
0.4068258639362724 -0.0015728448862660238 0.3709739939642891 0.01000221485889576
0.44114052788092906 0.00352851309713029 0.38612898948304936 0.03795012043308584
0.4264789087858119 -0.0026165022479119012 0.369152171529456 0.010070668269738185
0.3778649554181557 -0.006843012923287962 0.37552180287353 0.0075340604433632745
0.42829749893553226 -0.003781478414220961 0.43602828910269703 0.027922204677254245
0.4312816117721705 -0.002195889755406351 0.35175258163635553 0.02549551884340979
0.4063492149426466 -0.002041924076185638 0.3584714434124958 0.009007241373777867
0.3882934767992476 -0.006525416104841766 0.3585617971417733 0.00842534328614004
0.42992373171320897 -0.006627423248676263 0.3434452607913628 0.02766500289441022
0.4519241097168783 -0.005599964448633886 0.362122926728072 0.05214030945682316
0.3709839240032987 8.061528444603574e-05 0.36515646767921406 0.0054526788365762925
0.44311895031573484 -0.003908198520665219 0.4145574193082257 0.028123404716726037
0.38088426006498177 -0.008611840830593832 0.3938428098584347 0.006726647916487349
0.4581090995436432 0.002554008253582721 0.3802214442716437 0.06318752319929208
0.21089335162436426 0.0022570826338138804 0.4323811258859754 0.007682966282805321
0.33140454091745647 -0.006152399425008804 0.3986637416930224 0.007710014241775689
0.2556123195663363 0.0006995493259142549 0.40915130303329816 0.011363708614640878
0.40157741044235995 -0.004690406194888719 0.424403676364886 0.02106166740465243
0.34251994442092604 -0.0034179575597171963 0.44645528375870114 0.013635736905059209
0.3597554352822023 -0.005632469609401103 0.44870943298524624 0.012662069608842256
0.15325435968809514 -0.005086343860215531 0.4458491748906045 0.00974528460224758
0.11346568585498287 0.001350366392921662 0.4541988905405126 0.020965405709265753
0.28025413023414275 -0.002217373575766255 0.4404879135432527 0.014959974543776436
0.19224960138740368 -0.001045708438036753 0.44124857832431574 0.00826305758359469
0.11364455302961556 -0.003358628528580574 0.4331464006949148 0.0255902448839192
0.30128104650052284 2.9160194202434087e-05 0.43678372560419115 0.004813496263334801
0.3687257260278016 -0.004396366372631465 0.4541239440925195 0.013803045507430852
0.23049341941376103 -0.004103953876203978 0.43048094745670573 0.010702750919629304
0.28306935469499606 -0.0010710973623021672 0.4252172200686815 0.008348663265576747
0.17639446527464628 -0.006119764607331014 0.43471781351477407 0.009532936515918012
0.2530927812265168 0.00173251124548187 0.4390471008241276 0.01240869249798026
0.3351851610573879 -0.004985844701930631 0.4325478076928789 0.00756576582961743
0.2602107936085879 0.0011319826551584393 0.4338578711031211 0.011651817005146982
0.40671423935733486 -0.005156984665537914 0.43828537810435697 0.035035744822229556
0.1726549946226351 -0.0007570524259342067 0.45117210362656573 0.008327016291068379
0.3293746370053628 -0.00028595071482891826 0.4557090805772746 0.007603666166167934
0.3011117960006363 -0.009835493547396016 0.40184445153863996 0.010293394765111657
0.09763485601236625 0.000151135778673239 0.4517338950775157 0.024394081585851865
0.2441816725548426 -0.0030559909692874586 0.4156633844637163 0.007444671715378307
0.3090306690442702 -0.004797099718856604 0.4241266824863809 0.007036290955000896
0.32804218931163054 -0.0011544246173394131 0.44103444421179555 0.006757014736545894
0.32076105276702993 -0.0024151061169865842 0.4087332070810843 0.008134055410026968
0.42036805720758574 0.0006364049568366588 0.43606691542339304 0.029321231411470534
0.36568680728891007 -0.009796816724846792 0.4343650823562195 0.003512874489156277
0.1903159738984335 -0.001619607507231239 0.4247339579387733 0.007911058959717741
0.3892423170969874 0.001050069722469246 0.4358736118526138 0.02218328286038382
0.2896400633204243 -0.004113510687238376 0.43617645263407895 0.008990611281304219
0.22688314393166845 0.0006391310997952901 0.4554570532546883 0.0119443972034968
0.1543748063952261 -0.006623180079612688 0.4310228391005597 0.006488585043550711
0.2814523165900511 -0.01082351843763071 0.39432358599192385 0.009270378396672023
0.30851225100637614 -0.007791038307066765 0.41825335012712717 0.007430456976046444
0.396076225956639 -0.004000512259286363 0.45128424261307193 0.018155861647662558
0.163516216616951 -0.004280116383597063 0.425663928807925 0.006564312227419524
0.258075805123308 0.0026208242985059737 0.4370918090717458 0.010237937054101786
0.35770739461321116 -0.0019188964550633724 0.42158758948689734 0.007959471313454147
0.33330652029003793 -0.0014137370497058622 0.41578829030909487 0.011408712036124109
0.26781645389157993 -0.006187592636575553 0.42487710707661275 0.0103408587117991
0.07931031997693028 0.004099441773755668 0.4476697733845021 0.026764274087649143
0.20764283427803062 -1.1112512187254316e-05 0.4265998223575787 0.00891320028651633
0.3417413130685587 -0.0025243696421735702 0.4104628158561151 0.007807064188014768
0.2002267948623013 0.0007591567184960975 0.4456363080665399 0.010030701674430703
0.405229580901349 -0.0012132036364764511 0.48171960286092325 0.02372515770990249
0.3451128516049482 0.007662584542622513 0.4806710353154979 0.014116262811445872
0.2792380745586232 -0.007457326094155463 0.4782410303988373 0.008059333276856226
0.31493431937704475 0.0011510484372498596 0.4996024618356157 0.020597193507895257
0.3921147795814866 -0.001468692314036256 0.4701704081299437 0.024372662727168842
0.17567801650264311 -0.005663379889694072 0.4783639583281362 0.012235135997679503
0.2660875541215657 -0.004292786004576483 0.48217745521955785 0.010548495594700506
0.24331329142310745 -0.002246746650558495 0.49595896142957674 0.005691502795971653
0.3893260427874941 -0.004498806784301322 0.4647264662943257 0.020943833840327285
0.1405277480475779 -0.00911885538229875 0.46367954572840125 0.005812068254558939
0.24674301147502914 -0.009418173947679747 0.45999405859282627 0.005798803111513664
0.38033128192999666 0.0035987333655684724 0.4879478180838606 0.02498969491709151
0.3288928027121083 -0.007942043294650097 0.517220627883189 0.007346961029617786
0.33600455436944404 -0.0026026408948246122 0.4737765045363632 0.017222623274147413
0.13037075650896138 0.00011627875896532261 0.4720684893258822 0.005300174885345869
0.22948397978202645 0.002239031024716023 0.5005672712212974 0.015468883110871303
0.18800098333521836 0.0010540765564505485 0.4494924007530744 0.005780960990784735
0.4382930521514708 -0.0006855244651133466 0.46611542975476267 0.04398951533982585
0.27382770069724727 -0.007422965868286998 0.5037468333644883 0.008892820783022939
0.15675359480938994 -0.0029275503774396595 0.4662148878943916 0.010593903795456246
0.2931799242044446 0.0020607975071196285 0.47847257451980163 0.010531848167979998
0.22039336347145694 -0.001129485092278492 0.48209274559280496 0.02948671049082347
0.20286069719862954 -0.004786640800083154 0.47948058155124235 0.019403986585333256
0.27079240453602155 -0.0036696794248119212 0.511883598533089 0.009600465192987476
0.2927724225855466 -0.004348605469504328 0.5082671927230061 0.017076639230743446
0.2948747101493987 -0.0004638703851657558 0.5232661206519901 0.013487533381312646
0.36390229233500276 0.007195841563771521 0.4877667229186925 0.01766962730655963
0.17917675410801603 0.0004958548412849185 0.49245909690944273 0.016011412340439853
0.306182007270543 0.004218511825651781 0.4822039172050984 0.014964756012209092
0.39409443857928944 0.001458675136245855 0.4913500429819933 0.01804965034146492
0.36297389924413015 -0.0035996276990428095 0.47123463815810224 0.0070596452764238055
0.27377595822280354 -0.0031101093462277993 0.45819037645626803 0.014851452449281044
0.1994514238012796 -0.007689891547575836 0.4850006642342751 0.0259376715743828
0.2008156512209109 -0.007241027580010831 0.4631856361730816 0.010455550535712468
0.30143995936386275 -0.0019974379250881904 0.4953931565395328 0.01847212272850895
0.21625629370928953 -0.002825575135002687 0.461178775426339 0.013283165117041829
0.21597306976181904 0.0024561071762417455 0.49254073126751624 0.014297061487746706
0.15315193469732416 -0.0023032139753144465 0.4546339629123649 0.01129723710621481
0.22533470550821869 -0.005915658700368978 0.4754701971635965 0.01706040069798661
0.30239827347677833 -0.007009923062829014 0.5097162883568618 0.018513096613225453
0.35123155844037757 -0.0017208709670887452 0.5159740528941795 0.01587644824297598
0.32983862778063533 -0.006703750922885613 0.49985726769096667 0.013784617259462688
0.2477554706105801 -0.004685050183042114 0.4742765212460769 0.011306925448264626
0.3582980095762445 0.0023382874978489883 0.4994577844356615 0.017106333358045116
0.31796461052814884 -0.004157525468826619 0.5263737447532572 0.012436118060376705
0.3181003220610899 -0.00232250349235909 0.4679287994758363 0.013277157467646915
0.41119735989192474 0.00817025901720841 0.46318732823916775 0.026028685755591943
0.2585331545644109 -0.002565415463380738 0.49597246067106665 0.010658468565254138
0.27954437074456234 -0.0021342845629188666 0.4590556425461754 0.013629721266546685
0.060843776836187906 -0.005661316325862702 0.37735385743161387 0.0252084763291169
0.11360866601883174 -0.009988857107511729 0.3490352149574391 0.006404438107219395
0.11450107915293575 -0.0012172189936978462 0.4115368603369199 0.016619020128849294
0.05192226924337633 -0.004059869352339111 0.4190371151902935 0.0314254105293004
0.09467857203208929 -0.002187606072638075 0.35186879613619887 0.009365091644525966
0.10200789294095754 -0.004349855082028269 0.4163239714544236 0.024123214686852853
0.05657381316515158 -0.012596478379894858 0.3810488557943715 0.01824187381394737
0.10961540219727099 -0.002555564694886686 0.36707684476941477 0.012942264430621516
0.14303501802294638 -0.0078430475273233 0.3756046174587278 0.011394485868720926
0.07808758579108434 0.0029180769336025238 0.3228563920193181 0.00772321886015295
0.08989780958990617 0.0008251724536452038 0.39153540156120714 0.022701525572326003
0.08403355902025914 -0.004661103008638943 0.3863143872586692 0.022440118890568406
0.06953822033327405 -9.874260558360465e-05 0.3414567072027267 0.009889076097737357
0.09642078551408606 -0.003460805609465434 0.37207711685164435 0.011258274644066662
0.13672769814352526 -0.0029243233918153527 0.4067594170475977 0.017161005760453093
0.1250891929973563 -0.002872460515150069 0.39783581739412516 0.013489297364785892
0.1596398620696753 -0.004110056126518274 0.3975954166584823 0.006359310741859973
0.12552373627721158 -0.001089717347727528 0.41590903736502005 0.01397049549177435
0.08621396483570817 -0.0027697116453610764 0.3430645224321036 0.007726889420706568
0.09762602878018414 -0.001864743577185025 0.36003763586315085 0.00836434075285859
0.07117123658439684 0.007820035550191418 0.4005692443478469 0.02096431206158333
0.08896640064647124 0.0014720590847763601 0.41000011549789284 0.027229913400281556
0.05934772900721187 0.002900605687377624 0.3471013509907316 0.009962698721535974
0.07778044155769376 -0.009824805405211483 0.4343196082959278 0.03694604837924946
0.1487110440423973 0.0002195493791925825 0.3947482176092806 0.006884177645136829
0.1065293752173491 0.002533740660255027 0.3969731935963483 0.016258161840651646
0.0717696468735767 -0.0012538615769285516 0.35973907235201663 0.01479847219247885
0.07678344076721079 -0.0016335362204614463 0.3677287022671734 0.027515993358079492
0.10480201763311896 -0.011155999290167511 0.4274064045789728 0.02105283417711651
0.29337409255277247 -0.002747733562607191 0.3902889440649916 0.011537273780597265
0.2577214760459434 -0.002809646788250862 0.39747878736996634 0.01052787110731418
0.2224834976047617 -0.0024164103752917585 0.4058696226212006 0.005721295094779095
0.1395122299536969 -0.001124509640912365 0.40495179604306253 0.00944827297523589
0.13014486580918427 0.0011799705121682872 0.4288264020792354 0.013080259455954174
0.11551500613513765 0.0007250699805536285 0.4375951252056182 0.020665056625986316
0.19528012237376519 -0.004624224871523996 0.40889447296603404 0.006013168488618498
0.16439684112143502 0.0009538064789954011 0.4086489532007497 0.004918482410378348
0.20634519316294456 -0.0023145769380996935 0.4011576367885704 0.005841905514221471
0.1814082346315792 -0.0019338912587899598 0.4199701009254852 0.007957403115778432
0.19652874493850436 -0.008633651094784154 0.3893240153072656 0.005394989778094462
0.1361283910996738 -0.002100102459469048 0.4238737253207657 0.012563157794805995
0.25031794309931676 0.0006939819856524195 0.3847134963445897 0.011942510948494838
0.18965463790611403 -0.0062688004126343535 0.39782463606056345 0.005716693137506559
0.2745368561303161 -0.003705378195416325 0.3970016206327229 0.014573553827474934
0.0927281215818268 -0.009452753647258012 0.43562647947264055 0.03494099159762597
0.22655927139148277 -0.00561958210422027 0.38628576108325724 0.009581652467332065
0.20645532212287968 -0.0014044029618273733 0.5311051485156144 0.02134819369755333
0.11487248755992914 -0.0026237644497764845 0.4769711333949566 0.0074896248435851265
0.19751096828024092 -0.003450930172133499 0.4952609868448935 0.017721257471674672
0.19224993394555862 -0.005767416345576282 0.5259199535951119 0.022380830767354146
0.12322052074870134 -0.007198675278291393 0.49135599315747036 0.00756158699509605
0.2077035620324943 -0.013448379161878361 0.5157474962995592 0.009320316158871801
0.23993054281471246 -0.0014730469186448752 0.5225465590678864 0.014894949231261854
0.24443889177015043 -0.0018060843375845353 0.5173236043761013 0.019550717381999132
0.10862925838677148 -0.0057887369297782995 0.4840357586793209 0.007535338080008799
0.16829296503618563 -0.002234693477106989 0.48874695854937694 0.010637708180231891
0.2520077252601721 -0.0041874414388301025 0.5251030430973057 0.008975961488118293
0.0924485102368181 0.0001291116225365891 0.4776473851063238 0.006349279089715047
0.16052570549119982 -0.006991512228231062 0.49619587294536427 0.012673371925720388
0.1753828150894029 -0.008692084875959833 0.5256890261653653 0.013150111229623925
0.15874226587487392 0.0008971537009535564 0.5270046084851407 0.014240220347660095
0.07774227305335281 -0.0008691173332485877 0.4777968258313139 0.026549641182805818
0.3356044888934775 -0.002284803634669527 0.37304763774482186 0.01227999390124291
0.39086413700411976 -0.0005315986951695059 0.26842813023603257 0.013726364203997529
0.41178031224190964 0.003291774357538809 0.2340005687499588 0.009053388403420638
0.39638618493075123 0.0007079999116257698 0.2041969900441587 0.020576727664504527
0.44710607402507724 -0.0012352324266044303 0.30099845437262945 0.02266711685116556
0.3986265242853908 0.00103181096089008 0.2605740119785353 0.013807997063983815
0.3787983049308195 0.003603027714398263 0.19652087311967933 0.023490454669137347
0.45409331715856555 -0.00255985119834628 0.1999144920342431 0.07914245841579272
0.38561610415123804 0.0030293648299144532 0.22769224078695718 0.01752642693996777
0.44834101069373294 -0.0012808525950128188 0.23279915149616323 0.0653855570974173
0.44883641437734373 -0.000422076195524066 0.2858747427882909 0.0250203410134926
0.3486060744598538 -0.00736100079468125 0.22304936074985574 0.022916687534827482
0.3735420383122661 -0.0033841693247864614 0.24350870507210373 0.011736986453883495
0.44107889039918385 -0.003632440269494785 0.23926032708698472 0.037470043198613544
0.38517589136446234 0.0018566582962046153 0.2510145334962818 0.013861231313101378
0.4020936976858375 0.0018727548161145003 0.2264112044505399 0.013320863999917892
0.427174497367741 -0.007057807019863528 0.2528926844071922 0.02310276422946522
0.4138342006602621 -0.0012542696647029146 0.2657538750431739 0.01025312844769562
0.4246144367828929 -0.00030021003621146186 0.19876086567887613 0.010710739493711095
0.45697848777015465 -0.005976821172354453 0.22563282323140843 0.02970142224957113
0.44508687215808346 -0.008540869911312837 0.21447981801298704 0.06903019629276315
0.40501859383533007 -0.005010036274567396 0.22125895802977427 0.010919711360970167
0.3683237639464304 -0.0035253339255638173 0.2384156813051611 0.004863561002082253
0.4060005123791107 0.0054702079901005505 0.23952243471242377 0.010516556154087964
0.4441208337463156 -0.006181239249278004 0.18254552823464956 0.04647641721705104
0.4187419676867426 0.0011523105236033412 0.21147360530174442 0.008147597134920742
0.4130131007775489 -0.0001337560323179947 0.19949446005473792 0.008114547913995043
0.4357422380197766 -0.0029913223671125173 0.25657013673659995 0.026666367901062995
0.45503616525691415 0.00796778542209008 0.264859989249894 0.05036261715401305
0.41157680107163486 0.0021018481790035823 0.18029300358253852 0.008774195206484443
0.40188153218622635 -0.006218798952209971 0.2925147534490201 0.005845293220823573
0.40142905149570346 0.002193470132377742 0.27516995631691454 0.011961203964605075
0.20564245870784212 -0.0023420256350494997 0.27839892128559285 0.012522804328466891
0.2722066994153926 -0.009734855286667206 0.30134441042683136 0.004650756119686516
0.188478150779753 -0.00450754586369121 0.2763230211596424 0.0073604361472859705
0.17298118358805545 -0.000385884654028416 0.2792790219121694 0.01052856605839507
0.23085034061003468 -0.0007591369015849653 0.2734931463242002 0.006639435736504095
0.16874876126684607 -0.0021156769680457654 0.29463653514193294 0.013260060689027638
0.1866115746913042 0.0011272593894102586 0.298597292539018 0.01669248165262867
0.34720349832671094 0.0012466260221570358 0.27579154791021804 0.012883710414686306
0.30911458870307545 -0.002044591486655982 0.2795039547669377 0.008374662646265926
0.3412316064564358 -0.0018939197939047633 0.2852612409062711 0.022511906724269025
0.3171650071263949 -0.0055240114082886005 0.23524005945276438 0.014552370254909948
0.24800662083852298 -0.003436956192731957 0.2862862131630341 0.01599022990251614
0.3382230416958584 -0.00022397573641292346 0.267933023086693 0.013785424679989689
0.2227634576669372 -0.004243511000024445 0.303987995873907 0.008076587288092518
0.3589644616195916 -0.005561617580935242 0.26698942076002213 0.012765780948176443
0.2732841093880707 -0.0032546199257661866 0.25084113219266885 0.015163366703879973
0.3043501439487492 -0.007449621922175596 0.24709495865254227 0.011633865945224815
0.27949574850834785 -0.006158870577151642 0.2682107143157017 0.015813217483745284
0.2570436379513595 0.0010106190478832869 0.2657659623095032 0.014597587721431368
0.4364221337353878 -0.0023067742214022947 0.2979355393229375 0.01868481509333596
0.3263307263144372 -0.002071570632423662 0.2824173284575788 0.010341526142202727
0.37020909341413266 -0.0066192625993560595 0.2637011252668924 0.009983337912361029
0.18432409492823085 -0.0004164918288872458 0.2951033300305771 0.014279659843788785
0.20065365582710712 -0.003024053483829288 0.28208957431975057 0.016869369342917512
0.2631080162317837 0.00014994985978613717 0.27008697241789714 0.012341451726367478
0.38163336943932114 -0.004961051872194668 0.2802718827958128 0.01321320328187179
0.35250661292764507 0.0009915694720286996 0.28243861778062845 0.028127829894659187
0.2898608468662949 -0.00371014562310544 0.2528976643699268 0.00940520346966506
0.2419442301994245 -0.009048724013356572 0.2735809579017585 0.004839673299185291
0.3113223465035207 -0.003938413473495673 0.30954832799353343 0.015568259495146373
0.4250173828989189 -0.0024003445524992963 0.2884025032826468 0.014091511779397251
0.3695214815854063 0.002521053272299931 0.2788656547853166 0.012471327196502797
0.29736334752174526 -0.005498167672007773 0.28771373777390064 0.008722496032633118
0.3376693638032928 -0.003513316264403485 0.23889992043474104 0.010300694511488144
0.4198207058465628 -0.004532895585457617 0.2987001835851522 0.007298791119600242
0.24561206513280387 -0.0019504628490392545 0.28959649373328056 0.013177631655429631
0.12909138399863243 -0.0003032023383946982 0.2935186425274196 0.018667902595496295
0.2574357970312629 0.0009678695762775942 0.25260754810164276 0.010454945260324347
0.13364858589510192 0.0027422228625697377 0.282496828522206 0.012980341911276649
0.3283257803452692 -0.010677004359831797 0.25858572678824243 0.004621057523863502
0.34138429633120854 0.004118452542821956 0.3315195727900353 0.023528203774141318
0.2509141361174071 -0.006706497710352528 0.32740528901563104 0.011737519602101244
0.3168284621463953 0.0013507856813288863 0.347526943936734 0.02406702588802336
0.19464624535071415 0.0036282836190830443 0.32483701691591166 0.02363937297767905
0.2410060130284328 -0.0048367198385702165 0.34022810049200714 0.02315068594449382
0.12230970169915902 -0.0015842829054952177 0.3165221224349069 0.018291778597369
0.07300744592868023 0.0012709265788842985 0.3113435173947789 0.008718316028948186
0.3402534065763373 0.0013174742058656402 0.31873818521426467 0.02356539721628553
0.333961986046964 -0.006203788167488277 0.3639885776566676 0.011149037984781323
0.30204572522216 0.004845814156602639 0.3614788779574814 0.015061847726457191
0.18131382474387528 0.0006874300358844547 0.31298545390098587 0.02464645713645374
0.2962574104734577 -0.0045025613285953735 0.3378640515400743 0.020373727969845132
0.24467023227209486 -0.007860273148837665 0.3542701207711311 0.013224376137132563
0.1163697033130841 -0.0021336293209946637 0.3102510317602288 0.024453796965673347
0.3107570233325506 -0.014008554540131245 0.3302885787677024 0.010465040934440917
0.2428262288691975 -0.007848540262993416 0.34546706622728135 0.019015361548133176
0.323004461344589 -0.00282054608756594 0.36894702372279503 0.008587863106595456
0.36222065490130556 -0.00107574795155024 0.3681829498253927 0.005637223174906531
0.24466883472894954 -0.0024143327095704228 0.31613507522503087 0.008979618691395231
0.4520361739766979 -0.005881796551425161 0.31411656077929895 0.017089260498979263
0.13390437843573527 -0.0020003365412231923 0.31478530197764426 0.024165598374053934
0.19184450290393765 0.006621560078501267 0.30980201279295333 0.025909570527574897
0.2716594660422164 -0.003959997377438409 0.3676921929068172 0.013461516195118869
0.3834631851335579 -0.005114670333709635 0.342420652343715 0.009532560777606952
0.3903442273604574 -0.007428303134180798 0.32487379901258107 0.013077507791998073
0.38789535762127136 -0.007506748691816024 0.30899847234868744 0.01529755590207707
0.22561113182351403 -0.002438269208045345 0.3422997387115225 0.0130354412065995
0.37039629824374426 -0.0010652565829288817 0.3434736789209629 0.01869071171373805
0.2220631547981889 0.0001997225433770512 0.3283755439156732 0.013684389814413748
0.40931104714417116 -0.008675071212653682 0.32782087742930044 0.010612783028415508
0.2918107327711683 0.0010884099652280755 0.3553593819661491 0.023102070742028486
0.3686357046810384 -0.004051340941297993 0.32621285799147703 0.01863411136948016
0.21273756920467093 -0.007660576692844082 0.3484923338266393 0.008506416581903813
0.41758001466342093 -0.01157300228143586 0.3204507935289656 0.007444410716113804
0.12945084971564233 -0.002849964594415757 0.3084430962351281 0.02528505847344069
0.3283708488814677 -0.004739940555526397 0.35128664977639384 0.02962960191136965
0.17371602873154912 -0.0029607292157508938 0.30892416534043954 0.02982058950929616
0.2817562165287923 -0.003108540659076828 0.33391533794952966 0.018571847229107385
0.23120925460874173 0.0003979770179645088 0.33227729655502486 0.01342210178489205
0.3687901031556116 -0.005922603791901717 0.33072235384158527 0.015500264473500367
0.2864791816830914 -0.0016631143723798718 0.35309514462561437 0.019748503056043625
0.43825253536866027 0.0011196476759800795 0.3116299244001049 0.023707666449312697
0.3554888252615619 -0.012633320884065139 0.31718443490906084 0.006311018993693961
0.25667961319712973 -0.005768621268166123 0.33395213630342824 0.012199238203543539
0.2737908665136418 -0.0017125869039635788 0.31286895864119524 0.0050759578875442
0.1195309418891071 -0.000881976999743303 0.3262367779280968 0.015384867865418548
0.21280667375426113 -0.006981651132449077 0.37488061752261737 0.009942176010686652
0.12806121259817088 -0.0038176347621788754 0.32499131514169843 0.007627746599396995
0.17190671566409546 0.0011945336760224483 0.34927706910705536 0.030859068170490302
0.2524519066344966 -0.007827589283888593 0.3620880346263939 0.011179091324677167
0.1859116628854836 0.0005105410397982647 0.3527702269147581 0.028415223720197023
0.09429752588502273 -0.005136221018816889 0.32262454369949845 0.025529299616631973
0.0965460976549076 -0.00591856434578539 0.34465603202171236 0.006221071682907498
0.2846973177059851 -0.00010381382778695369 0.37397923400032135 0.016769885778170467
0.17216133735523234 -0.01414369275935591 0.3338804199921637 0.009796733015873185
0.22688031221189509 0.0022429996190465183 0.35433611699109596 0.013325480074240139
0.14454850497560304 0.0025776798957792345 0.3486804370996939 0.019826112102280104
0.17378137827713094 -0.004267522950621631 0.36984120960542116 0.020565444393926373
0.1530168461054638 0.0027220074560589482 0.3542790720721368 0.031414236676370354
0.2009701130268262 7.557394083885423e-05 0.34449809294424777 0.024697678011392235
0.1436400382742066 -0.0023213340661848336 0.3401670672909351 0.029030564159341833
0.18733779577642107 -0.0018515966550962876 0.3623467027879825 0.025605791638037168
0.1565259994256972 -0.000947771840266452 0.3355612479123564 0.016543278901488566
0.10532612738033356 -0.006784032270190765 0.25796319553379465 0.030393473907604333
0.058945653612387724 -0.004601134410269463 0.21581180076839024 0.010017628075655519
0.1252084349063977 -0.0027285020033889825 0.26336215574309374 0.016316703020012355
0.053951332226992194 -0.0008473458899908387 0.2986143209369731 0.022908965327255684
0.07681755685312165 -0.006230596727929233 0.21406807793694474 0.01669491874393132
0.09060258971371395 -0.011847703646750118 0.24969591882209333 0.012829529446287177
0.1368422700209173 -0.005780331688637578 0.24072423331897042 0.009291277980142327
0.12857676593586892 -0.0028392523024959627 0.22100792412709133 0.012515478168316165
0.08190638561909792 -0.011074912747823752 0.1811272131967573 0.011156356898985071
0.13569731879835414 -0.004070624985358641 0.22949410814351173 0.012333936387223866
0.09939435242900771 -0.009068865390948233 0.2608474185179765 0.0329721335290226
0.09963858850223062 -0.0010170326844364096 0.20489832715441142 0.012504993829832056
0.05079963575178901 -0.0004173136376095867 0.1939692735460373 0.013455597478296822
0.11621679967330122 -0.007109495119459345 0.2433912360502998 0.007512385706423391
0.08796412102620198 -0.006649541930805831 0.1717271853997382 0.01855258322510202
0.11502319340434179 -0.0033236890242041486 0.21075250310232332 0.019639342334371816
0.05656345569053891 -0.009805403443243245 0.26022782234406544 0.013733601630054087
0.07954087463477438 -0.0010561815925435052 0.27391789824628415 0.017613879198387215
0.10411858918268638 -0.005802021676694492 0.22668466332233128 0.006748821794183493
0.08778794409264326 -0.007434124011410284 0.2628818076388268 0.020282459246147782
0.05606417359763722 -0.002153375713468488 0.1650379953530312 0.008695134254210356
0.0662314878252425 0.0012473903187027488 0.23411205515024414 0.006946825458790718
0.05743706986832312 -0.005030583832879429 0.28103092038947314 0.01606514783582829
0.11584662938507935 -0.006173603087057157 0.26957497716872436 0.027198119582007792
0.29836861390358504 -0.00019511334591540224 0.2312430571466045 0.009097277639722845
0.24625279596193622 -0.003094479463507201 0.23942725850238486 0.013053477706679119
0.2237350114879085 0.0004997295144405199 0.23993270332120872 0.007565137628528003
0.13543879609104312 -0.00014445973957611917 0.26611902081235084 0.00722846338403604
0.19973390773545796 -0.0007300933967187795 0.2403630407557505 0.005855226725491202
0.1590206700994324 -0.0013710172476666886 0.27246634425201244 0.009336167748626905
0.18172099507816902 0.0029989675458460658 0.25997603626038746 0.005124281003158148
0.15428743810679532 -0.006791451276842754 0.24975163770011888 0.008650820546045315
0.14891047435769525 -0.0062638834053731565 0.26898649602310604 0.01073004954195602
0.10604419603115386 -0.016705764605226624 0.29254871316108105 0.0065975507462143
0.19043908785291142 -0.003306492601760937 0.23371654366420053 0.006397901119357
0.27344233949567004 -0.007962217003975083 0.23692261411398116 0.008021502226108522
0.2086806746181813 -0.0025034858577335194 0.24272702027801976 0.006134208880151019
0.15886812124146169 -0.0024674460465480383 0.26520375134444407 0.012384795921965938
0.15217139528462226 -0.006315457305325554 0.2738299109038062 0.009144457327485382
0.20097353645962207 -0.00027400242567570657 0.25754551581757246 0.0058408789921019786
0.165982993228758 -0.0015479865290464558 0.2436975896806605 0.006659090072898012
0.16606809743932296 -0.004832846618149975 0.3754380683411362 0.011190270345489335
0.38181743990632044 0.0041094988487872346 0.19789069474116652 0.018706232043290333
0.4472707419732912 -4.0924044015882e-05 0.15626417516676328 0.07093087453677419
0.4301169953303588 -0.004682108984437082 0.06523554341483624 0.010860627691927766
0.45626047950898585 -0.006858547998969601 0.13796903050506798 0.0719902341099166
0.4429868820363747 -0.008357537783152095 0.0927419971400778 0.056948394456229866
0.43797793315726763 -0.00020475816553022422 0.03491908686451051 0.01688376078448222
0.411471659393457 -0.00286049890772199 0.09875422822859674 0.013135445199304369
0.36112587074986874 -0.001168745049008919 0.08496619923933932 0.007869712135895402
0.4245878803888913 -0.005453090228792296 0.07195841443604882 0.010861958733369695
0.4474170828913593 0.006453388670493244 0.023254168214054457 0.046667434596475765
0.3821916311164249 -0.001748675965178663 0.09986172479640254 0.01292068944412437
0.33654562772460384 -0.004336226802837901 0.08862620314585712 0.0096369717597065
0.38172930621953305 -0.0010797278382740558 0.0791837520513983 0.012130147287584814
0.3719208863487798 -0.0017828693365448535 0.07738520718271145 0.011180581433681653
0.4270651903782061 -0.009514692889381548 0.04316376095930089 0.014068564660968657
0.44433564449259044 -0.000282807666855706 0.05443615921657802 0.042338134545152714
0.4409636997538246 -0.0019520989824782199 0.11312209886503007 0.04587894374649329
0.45906339783026534 -0.010179200907235921 0.11290674411993504 0.06204356428246434
0.455580187820775 0.0011864193382804358 0.08355618363389354 0.04926667751506887
0.40203883691815356 -0.0009850940426827666 0.06398994215314413 0.00892585189258223
0.3954688448710187 -0.010806180511194679 0.09936741516984758 0.009354691951045536
0.4098791915596136 -0.002468878242979934 0.04083771734324743 0.008979726651911516
0.42053663079125125 -0.00562925363905247 0.09237542730482412 0.015022068372587075
0.39088171356291557 -0.0056210874481003705 0.06609636519664051 0.006466656918688417
0.3754729721014788 -0.0032462649186694443 0.05982778778654066 0.0070849744930873365
0.4289421098292604 0.0017975920827710227 0.12362135358325706 0.03718307214958295
0.4125845408500532 0.0030081991667699143 0.11213574673832274 0.011808515846884736
0.4485768045066045 -0.0015717554990845278 0.0835268648634529 0.04948652816860138
0.42777766378484305 0.0042939687159571855 0.12842419777105213 0.011039602403903493
0.35807767873423973 -0.004769845219968579 0.1331634279088681 0.008288413852192403
0.3325253716800454 -0.0018021886474057485 0.09990575247061019 0.007516709274425569
0.3074090648139464 -0.0068181218874007726 0.11788296949512242 0.013596473197984953
0.15473770684615662 -0.0008649834487417489 0.14571022984663504 0.013813758224116705
0.16622601000635503 -0.001961204688656295 0.11863828096122703 0.007204605590930212
0.35971190148654913 -0.001921603049301373 0.10360917253830283 0.00841657411010055
0.4111549975086993 0.0015904003605490822 0.13415123851403443 0.011153114629990241
0.20609493031679535 0.0012915468520762227 0.1185551754095409 0.008613461385309973
0.18309885576974672 -0.004683481764085603 0.12701755953816812 0.009904564526037708
0.3223067275872675 -0.0010355949932674526 0.09943209258831259 0.008215073271579283
0.36958302088307954 -0.006702534371158595 0.12949553668924113 0.009272991548510362
0.3910922251749956 -0.0018947203075823222 0.1434382484997746 0.008047750295805952
0.13642245060233432 -0.0020114817352248097 0.15480433943847463 0.014846931751956392
0.23704402477257103 0.0031480728399933024 0.14819553821128753 0.01746876613916423
0.377224214243384 -0.006189388164860761 0.14011245718447407 0.010291268367994823
0.2686563099238355 -0.007643928667990444 0.1324180079429007 0.01048165336975546
0.29613372811039057 -4.124244586706515e-05 0.09797116287449938 0.01206452991033099
0.3085271728622123 -0.005850596178173553 0.12066520686447299 0.010627126836162397
0.3533976523932388 -0.002870633050678734 0.11694059999142839 0.0050274233413554045
