x y z curv
0.9896815479680942 0.20481283208053053 0.3067139413950724 0.07838084921729344
0.9939620049333314 0.2302267754457812 0.15921885697871627 0.039082261499866724
0.995479929057389 0.23224670302098652 0.5267005898922297 0.043637655814766696
0.9924529404071883 0.22114030014356406 0.07846367044482172 0.06332893026269674
0.9964149079921034 0.22266102434075663 0.057178611635842556 0.031771852811437726
0.9920918289301278 0.221851015582329 0.11363341480881035 0.045249132705340124
0.9988830087514201 0.2356414994135853 0.13998687195619766 0.017820088479429796
0.993526168555144 0.23731443228459007 0.35287264623813475 0.0525821758876718
0.9999826205457114 0.22605933832217612 0.01583298678956524 0.06694155013314913
0.9969583560485786 0.23399464921885568 0.23137901622938845 0.03473879880754527
0.9932204044676138 0.23430893236091876 0.33117134774306095 0.06500333454933889
0.9981567855772987 0.22407360953331967 0.49512745152057736 0.03961530572850367
0.9946737736760142 0.22745890667714416 0.4403464801688145 0.07387700938604555
1.0060019018488766 0.2259839828137137 0.2201222768282336 0.017635989316653868
0.9958372141526136 0.21461014301690473 0.25081386190243155 0.050454538470211266
0.992554254833427 0.22897976596191544 0.5652344418898165 0.03176057850647371
0.9896788249246693 0.23449533343574536 0.09448573515888373 0.03578796433975951
0.997744453180259 0.2282215080568798 0.03848102935545405 0.07459464421753725
0.9942938337632553 0.235181751853789 0.055026846347230304 0.00878855123485416
0.9817536500146462 0.2411372865343789 0.41546741066428033 0.07765333389251203
0.9905270383140853 0.2392657162066154 0.579669625165319 0.033015652740797354
0.9950342951592851 0.22663641461382023 0.10859728984262623 0.07532131348806999
0.9953483518754583 0.22043523268092807 0.270519100134599 0.06457695175607953
0.9911437451804366 0.23398069051437667 0.37961619614449926 0.03856636380231742
0.9903613649342781 0.23341595378011024 0.4997538724481207 0.05110404842646349
1.0022547716010783 0.22617740144759507 0.3021748513742093 0.022468110792772195
0.9941312464383498 0.23274898607116667 0.29073142828296333 0.05116214693085413
0.9936158138669317 0.2355032959239442 0.5884015762682773 0.05106837002337504
0.9968116900756235 0.23787990434564904 0.12916707234065683 0.019347003237124714
0.9955724789218384 0.23917050571437937 0.3378218041469306 0.052932693604444546
1.0025151664982968 0.22351914890369182 0.6204369378486132 -1.8550067635989796e-13
0.9890526413344685 0.2365035382740978 0.4508844268276318 0.0776871343139258
1.0033338030684886 0.24132830077963957 0.19574677495365564 0.06478504797925283
0.9867509655745507 0.24668512531713535 0.07522188089397824 0.018966338486989167
0.9853413292579823 0.2481604933709961 0.0859383240726222 0.021525635209895252
0.9892071900978554 0.23792052519620965 0.46191080078207175 0.04029812857625752
0.9900518360523033 0.2408035647670405 0.28439369891681343 0.05528615753506796
0.9869475574689509 0.24643716908664134 0.11092742505882737 0.09461998320699626
0.9881169977826271 0.23754209822748457 0.3132752820594566 0.057944692021142004
0.9917704894324574 0.24753419299387983 0.18739253747250467 0.10614056550663986
0.9813462597782033 0.24009730727643455 0.429053663198109 0.08792284184641644
0.9808093171478341 0.24701879507659755 0.04845148358182703 0.012041289857294022
0.9922583581776783 0.2466597537266014 0.23029709881142835 0.05867431828285359
0.9982200416890086 0.24213642927350565 0.5557790373093606 0.0131663725005175
0.9842837976948121 0.24535384525544832 0.44554788813133317 0.03964172214100641
0.9860500494826847 0.2419874315048377 0.15111623075115005 0.07322838960736644
0.9950280035625089 0.23755043527910338 0.26550389027794813 0.059678609430403075
0.9882163466182632 0.2450340743776283 0.32224280796564714 0.0254364738515168
0.9960001535992452 0.2423775000647354 0.18206315385553623 0.09699281332642572
0.9899517499352434 0.23731680084873027 0.4761417402242212 0.016878779231845362
0.9887433713814093 0.23408775123332973 0.4233949792524521 0.07086589569732997
0.9877699011437207 0.23638622145542426 0.39934259422528706 0.14486915485943333
0.9916582305695271 0.24074630868080896 0.3694937915806581 0.07653738380919088
0.9859773611172986 0.24126356759199877 0.5295780748942597 0.03483396104348109
0.9606108357591376 0.24840513072598877 0.4040864289176787 0.002170277701154288
0.9672185684381761 0.2456143686442867 0.43978399213470143 0.011362870482314283
0.9771674056141343 0.24996339301905288 0.26788365149357063 0.010880524317930256
0.9855867557373305 0.24560602372198362 0.4580858158223923 0.04229655462685611
0.9889108730938374 0.23905178378673111 0.3220385962523677 0.05555250458421757
0.9884124243787678 0.2530787177081923 0.5021149829920981 0.04409450251068586
0.9852879377229035 0.2062249843808145 0.4070834319229827 0.07995124361762519
0.9817435548864836 0.20622223610439663 0.5258670224015519 0.058078646042894685
0.9937004523766765 0.22090758622436515 0.4793062833141997 0.03480372992689337
0.9886566987938871 0.20788147465894355 0.11494539234994709 0.07164061311687732
0.9804998005778378 0.20165092295115616 0.5752028444457287 0.02771580847728001
0.9870606376676362 0.20599780453949898 0.1712676218386929 0.041115363287005165
0.9829398210741012 0.2044846315893247 0.36245271483644015 0.029223603572916423
0.9884417178977799 0.19897120419560224 0.5466229905467693 0.02830720423768391
0.9845985508384445 0.20690743099414466 0.27682399308396416 0.04584580736997244
0.9761850761522404 0.1938424081106467 0.09684875390064383 0.027370229498425238
0.9802859819777773 0.2013668045993755 0.3855094844426029 0.02532336451364167
0.9867757270520208 0.20298496776768724 0.45589255946158774 0.03180863501597141
0.9856901418691262 0.2055655670863443 0.2338370255934218 0.025455636686393408
0.9802114721543199 0.20086652171731523 0.17903664606872804 0.02229202529759941
0.9848446681936106 0.20201797355098206 0.2599847982916647 0.04840747168979537
0.9782785293892082 0.1995466523046232 0.4940060851996459 0.015609611970629026
0.983638446453134 0.20519447902195273 0.35981106964164095 0.029360746974497285
0.9809399826259342 0.2071360969595638 0.43338012325657793 0.08372974258415421
0.987713018460554 0.20181446191207628 0.03202634814078157 0.012059531418363542
0.9749944683173523 0.20112425784430626 0.40166662892954746 0.0670521300253909
0.9548994698587763 0.9764452070551095 0.2667949671885306 0.1668469769064703
0.94717241336008 0.9712349038165625 0.12690223503383602 0.07524994237169619
0.9540668264825157 0.9700230209641217 0.2013663657659344 0.16983407957648453
0.9472162936071548 0.9744822682778783 0.45846091604274064 0.09069215766527032
0.9496695790545754 0.9730859924243357 0.23903856895791636 0.007753475927417011
0.9448128174589173 0.9734373814228021 0.15806823183498625 0.029953924857633266
0.955355317443217 0.9741902779680097 0.27219838460168894 0.13515122931830945
0.9547144042269816 0.9794309224175554 0.3464277412464729 0.21331491890213997
0.9503033178853997 0.9757806035966565 0.5540557121063558 0.15221981585372132
0.9588612883529956 0.9813000426260292 0.3750618172290597 0.19076923373158988
0.9483124206491714 0.9779733505594509 0.40672031904898087 0.0224967249845504
0.9580620674470846 0.980985917279367 0.48299390529176456 0.13176598223341146
0.9484738665997984 0.9757886217975172 0.5461704353730772 0.1225382161304218
0.9548840655846407 0.9917503014665884 0.04099306115222586 0.01452481926305554
0.9489851709497867 0.9881348394427203 0.12799969196045874 0.013738472522048418
0.9500362076923089 0.983376450222282 0.06377222816105041 0.0038892120654241296
0.9531734938782623 0.9825639140699918 0.13742051408230413 0.17587616322715338
0.9566982555932828 0.9838518700310083 0.1685187473760207 0.19258816644863216
0.9562587294593587 0.9830115083745862 0.19050947997784412 0.19711197097440145
0.9566063940341036 0.9814519694283128 0.33375618813526314 0.2058161318681481
0.9510029374834218 0.9815077407137807 0.5373255567868328 0.0889841594839245
0.9594346368709208 0.9862196239459328 0.22812575604073576 0.0660310387558764
0.9605733792763324 0.9724169525008733 0.49554158981069407 0.09549301295003966
0.9605150967940642 0.9897113223319329 0.4725891610548595 0.13727063375901596
0.9613595483082723 0.984043283736257 0.30620943157103375 0.22634035881130915
0.9497752365147474 0.9837832300956807 0.10099374472780231 0.12047490583571842
0.9567515494533196 0.9874534384450876 0.4046334419561775 0.06025483178678468
0.9522624933419149 0.9877366697110866 0.4507685549509789 0.01840711552950764
0.9644815389276986 0.9881922553244843 0.10917417072521421 0.18855878470130788
0.967989944458748 0.9949863102783858 0.544085211721991 0.21872891104791453
0.9764754322949286 0.9987243664125576 0.5158994521445843 0.11997337765193763
0.9702284995785386 0.9978554689623161 0.4756046693966617 0.10861959753979179
0.9578826650627719 0.9861360308522013 0.47147483561363446 0.13856714181942478
0.969495687293825 0.9990874389381462 0.5333443583965539 0.10665194706562489
0.9560990265978064 0.9891587704572247 0.12468446853139042 0.050673188372189065
0.9687236498906999 0.9894885275314838 0.4974647440442781 0.16255403296689275
0.9678068633629215 0.9980010882284697 0.3229956641277069 0.06783995785892268
0.9626848981163789 0.9967842544294432 0.45899123549434057 0.03563217256366277
0.9602813358796695 0.9923938053147721 0.3939426644852864 0.036609600299392815
0.9648754565944911 1.0033666534938754 0.4495971021580184 0.049614217085723285
0.9658691832589245 1.004154301526289 0.1714965125815855 0.08716830271652867
0.9599127101706905 0.9873331555094894 0.4210081613701783 0.08054885525756932
0.9603719891931003 0.9921056944410149 0.569394554273699 0.07509752115252576
0.9546505657755595 0.9705354756129432 0.3275103007537543 0.1236056887958905
0.9551590507991116 0.9625524006245694 0.3514895887925616 0.10894841103679824
0.9548542559757455 0.9569946225592213 0.5025589012018536 0.06880846587542339
0.9503242477852303 0.9736835390404708 0.46801917451124986 0.06944146923017341
0.9541826308177326 0.9698444789485381 0.21464507315277176 0.15960186330863674
0.9669048165934069 0.9525536899927276 0.16876083198448685 0.05289213974118756
0.9671373357862771 0.9516296317991066 0.10426296617388488 0.09987316937667666
0.9669453397356768 0.9516497185236005 0.2867118248918729 0.06492483349256599
1.0008544806918782 0.9668386594712677 0.42896759100928256 0.019473431123376215
0.9909183176806992 0.9702229387137283 0.030447502873362675 0.16033478687213049
0.9957282344310207 0.9649511073412732 0.057528203161562395 0.020505062420108272
0.9949744523281333 0.9693213908299025 0.38323652090186056 0.16737495650308118
0.9926218568294053 0.9624302299100529 0.2640335919636912 0.19559508160129396
1.0004104789982584 0.9669792407006159 0.4831795071931295 0.09018779452756422
0.9974765763640466 0.9646085844838947 0.08444358134460103 0.10186250625537845
0.9933977239319135 0.9605352596269459 0.10919101948012613 0.06835560680534589
0.9924946265216977 0.9639578329489281 0.1695475720515512 0.06155770754888704
0.9939160184017818 0.9681038738850085 0.5362803955649923 0.13779678943013937
0.9965104296130198 0.9621611976618484 0.29384799217571744 0.046495184052909914
0.990299426012355 0.9648101784548948 0.2056028839721542 0.20133499580696315
0.9905524288395834 0.9653866053688812 0.3498822022344233 0.21716551156453442
0.989049907299085 0.9632037878571285 0.591721166388923 0.038742631566787436
0.9934004220321141 0.9572160661279909 0.3915733980181183 0.02688649113686927
0.9906068187992351 0.9661423484294356 0.4014747746792199 0.09557491560541904
0.9882045376476234 0.9569939153778394 0.5035750481766523 0.1411603455681503
0.9844117134718849 0.9549654375722509 0.4503648756265195 0.06985298740247166
0.9925625360137331 0.9645029525267799 0.13100649207738707 0.07562352029404318
0.982723055352667 0.9583397733952862 0.3139320707983221 0.17017692190649406
0.9944768244200527 0.9680362195780868 0.2206431912402493 0.04624866232342124
0.9851371190597442 0.9607553609704182 0.5543490201462805 0.2608672213829569
0.9904699721075407 0.956472687630173 0.335657053065518 0.14925238296970653
0.9903433265986407 0.9643660465814273 0.3686414166879411 0.17697497143977595
0.9965573158886917 0.9537555627134786 0.11810069105604745 0.0489303395514048
0.9813943847160644 0.9519301279222163 0.35775960867697676 0.17319077006228592
0.9882757826758434 0.9501525718513509 0.04144993826087177 0.037927958470339924
0.991924420224927 0.955866028569341 0.22637869129568156 0.027374514518234444
0.9917379512728038 0.9666092686442096 0.1826474595212928 0.18694003068285237
0.9895051482065589 0.9530576185290345 0.09732465322065552 0.11415356231900826
0.9799602025404417 0.9554327072976252 0.5378393191907933 0.1521773153927572
0.99020179531672 0.9583907965534565 0.14888617239081248 0.05184344200510433
0.9910915735806515 0.9557408155703002 0.46198146171711146 0.10518366251178995
0.9965900976005656 0.9574937994811002 0.46171076346398665 0.09558319018126044
0.9830570948268709 0.9543168409388644 0.49085374406947013 0.17192660593348008
0.9773717085155109 0.952853218205469 0.5559630411748867 0.11547462316189036
0.9760809239129529 0.9498492650769368 0.3464892653019102 0.1847589627181195
0.9827190118371308 0.9491542905060677 0.21945274187806008 0.13769795770892487
0.9835002394370274 0.9508330501066209 0.2532771594422738 0.03087862606288761
0.9914886750425498 0.9566670098896196 0.19513230417171676 0.06022555365793865
0.9887254688049729 0.9627868815013327 0.5359705067150223 0.11874211689795115
0.9795682589197354 0.9506957512318825 0.0847387850880351 0.0763463024764682
0.9806038513610661 0.9544542259365449 0.28726865852714367 0.18442746702127363
0.9810576460382482 0.9562158008606388 0.13723293948582596 0.2237991615759247
0.9906540181921705 0.9537323802477362 0.027495146537047137 0.0979497630369877
0.9765341991533024 0.948453673210334 0.3889024437057273 0.07774966692715558
0.9780638967434246 0.9433190187112129 0.26494027071787496 0.15946459235438076
0.998710586101219 0.9638994752943058 0.16200821163559836 0.059145247110226624
0.9932889096234866 0.9831304162679083 0.12202412615244396 0.1062239353474086
0.9953547918858114 0.9745645169190239 0.26110395352616833 0.13269875843162046
0.9952664350273183 0.980641210510938 0.14394198373692743 0.03551760389637905
0.99455988267668 0.986838276432278 0.5304180968210426 0.12064015728997772
0.9976835360728897 0.9667937725555295 0.23834449765972396 0.028153671896629803
0.9964923219289953 0.9774409511432878 0.4256046451679175 0.1302793904901554
0.9963155447053692 0.983995212992391 0.40459968133977775 0.08949248244011791
0.9977261879518431 0.9699346840354356 0.05578646100600081 0.024466628534071413
1.004344872414933 0.9729114951694746 0.510778979339224 0.08711844294311379
0.9956398634119039 0.9792192397126942 0.44062786908242535 0.07527868820086143
0.9916188663285074 0.9758631590325687 0.3143059353879957 0.15710383706649456
0.9990859505807557 0.979703035405226 0.5422874909078783 0.1356294675458394
0.9950587595367466 0.9771390632550797 0.5494305750765265 0.14365401215465387
0.989360871049372 0.9770418017036905 0.17952629206123608 0.17726704492825737
0.9940444809887194 0.9655926618609704 0.32937849707585615 0.11710415278518735
0.9917808702947494 0.9787028387851247 0.5674931172276975 0.14055439677461748
0.991838996956025 0.98669834932436 0.22146088475820447 0.09837202244409535
0.9874035725173993 0.9901431804909685 0.23575974478160802 0.06829056566143969
0.9917939454888177 0.9891960285079311 0.34976192210920115 0.11240453065861956
0.9896836079263642 0.988668748436976 0.31761904945163477 0.11766723313804021
0.9928736794297942 0.9776080206648965 0.09027654169301218 0.12064100535632548
0.9941145222147009 0.9886746818168416 0.17129261526843975 0.09833518766565895
0.9906869626298108 0.9882724665595066 0.02313781941465603 0.17046865244600562
0.9900509183187322 0.9845227422315848 0.3411783274795085 0.14450846785217694
0.9913938958660938 0.9869769858662498 0.11193505084738967 0.08723822538555147
0.9966733737868337 0.9853088978101029 0.5941751483958777 0.03314386031988462
1.0043404767989002 0.9759544339061517 0.4655243882455867 0.04311076822898871
1.0011731904485204 0.979469026267884 0.47388065675322677 0.09424549524934811
0.9930637706172372 0.9841130525997029 0.06807976803326084 0.08573691654083707
0.9994658932407361 0.9741632726844184 0.39251161620800207 0.07026688315555596
0.9959722086716013 0.9822967591367687 0.367289576721283 0.12194412536046696
1.0016967195271897 0.9794107567721516 0.28240743934044604 0.027823614032683602
0.9816767927091532 0.9955795000697993 0.13458786730375977 0.14823256024961234
0.9855813754279922 1.0006721522636366 0.5459255389379534 0.13951843211994172
0.9799386123578231 1.0041606273494723 0.17337706037453962 0.07233944725707794
0.9858968470558613 1.0029279005623264 0.564198831695455 0.04546468018108609
0.9827191578850819 0.9917391231817831 0.3272240549530798 0.16550777079953177
0.9748793698137413 0.9973827148907592 0.5817927202010105 0.13335401806952069
0.977341123567817 1.0048456547025102 0.603808428428436 -7.896697774900325e-13
0.9918101028294285 0.9922468585963331 0.5089680516459727 0.11927300226484257
0.9740007467828674 0.9948053658552644 0.49677330374352346 0.11409779180048639
0.971920115553408 0.9933077521227244 0.35345212374955964 0.16988406377004597
0.9901213441766673 0.9965075090881305 0.47703807307939505 0.11383010915991168
0.990264902855675 0.988585889617077 0.15529800572075872 0.0994349807240919
0.9756940334548345 0.9960812190708631 0.1031565572190755 0.06069996853984805
0.9921619076160887 0.9859983201484792 0.4324126232071415 0.1209010078003863
0.989735231474685 0.9849264217704541 0.1958956684849636 0.14952087999731592
0.9956718565928875 0.990650998548335 0.035137033111507954 0.06185480952735444
0.9787713972721628 0.997532087392663 0.1264584731429645 0.08112824211612218
0.9851458673403255 0.9894712722151141 0.3100818583281997 0.1664436057449911
0.9837173118392443 0.9930308273634446 0.26278699677405465 0.12518244114217347
0.9731659689715664 0.947473814504974 0.34293918829685305 0.09851044695000334
0.9695725481263856 0.9524111024503322 0.46441308048607804 0.07286846381603396
0.9775334471104131 0.9528668272311848 0.5173725980293662 0.054111530824974684
0.9785127101493595 0.9537672741464828 0.5364224955262796 0.1671117241160769
0.9718456384177072 0.9921580172758343 0.3611146610847745 0.137213640432604
0.9717972739894147 0.9958287724826609 0.03677041413462338 0.08579395868518486
0.9711977608908957 0.9937789047201282 0.4148518447694206 0.12664673076698363
0.9777324696968922 0.9973777167191767 0.09475148608857437 0.10763199694598244
0.9730840180239125 0.9932642446779525 0.20840866503636077 0.1423656193645231
0.9654108068231744 0.9979762565890282 0.2953252709022568 0.0686020998569398
0.977315376047788 0.9916839017896211 0.013416249939386836 0.127014884456978
0.9779717206085 1.0005808008470314 0.42958636110461873 0.06441525990198813
0.972035455287887 0.9950090858053684 0.25362186764266265 0.11159110487411664
0.9758262794031854 1.001524676339611 0.4902160000026872 0.10101411187550427
0.9641225281615797 0.9889820762847251 0.2384629823666721 0.06744110479134503
0.9735077976539435 0.993195482963196 0.3746934775573061 0.07320846168743383
0.9700526121398451 1.0003485019392895 0.2621003752317366 0.08794652554578343
0.982299336498758 1.0060419476039284 0.06470522916117016 0.041601112149395485
0.989260780954615 0.9859191009422823 0.311061197530607 0.11107227126114574
0.9903570294042894 0.9884684016381854 0.5848004502685125 0.13000382718735845
0.9857127758365971 0.9900113661567169 0.17976669571971632 0.1136872456828519
0.9966649547419241 0.9915748738454385 0.5536512666152561 0.12366216657264463
0.9921220829143838 0.9910823349638014 0.3978308391959228 0.0996221177982906
0.9886004172276206 0.9831428920832737 0.2492192880395713 0.15567642837286086
0.9905446262899841 0.9955112417963039 0.46134877324610607 0.10440712263054254
0.9946074859412227 0.9821644853251115 0.13077362345174606 0.11530359369708842
0.9886793437532204 0.9964773841304194 0.4935026125303197 0.12271300094094563
0.9889000395848552 1.001861081907993 0.41062481669510303 0.08240988592073424
0.9617013244007625 0.9933672944464833 0.08987308415125103 0.08347029447738168
0.9603366162468928 0.9924285314472726 0.21861874719951396 0.04781174888599765
0.9543292747097936 0.9856801297959641 0.03478828550738429 0.18324088168702585
0.9529825975624651 0.980685249948187 0.548561247681489 0.17070601080477724
0.9662791239062934 0.9956456285627802 0.32286772780039436 0.07169361667635057
0.9608888585434603 0.984334518866975 0.2635476552827458 0.1580410229859959
0.9616399063329186 0.9881174479031102 0.29146407184671747 0.12849590089762422
0.9616033477522873 0.9884557328149375 0.35626575359375645 0.1694581885812134
0.9677235818922717 0.9862896237276264 0.01928786000641054 0.1759931997881387
0.19896861701302543 0.22348500923534007 0.2668801419417397 0.036473807177213574
0.20496764963700492 0.22835058088485183 0.02725706002257372 0.044706057195235
0.19971759950283355 0.23548730853585634 0.39448961218435963 0.01709041338403924
0.20750197229155984 0.23727065913502032 0.12801649342993712 0.04946356479660139
0.202957020033872 0.23197264966376313 0.10479441889757103 0.06320789547552112
0.20357450037653976 0.2378662116194158 0.44609792864334713 0.03661563416703973
0.2038454206001017 0.23689887729320774 0.3450115179035607 0.10071929152889422
0.2057865423149992 0.24093362794576112 0.06262194865090917 0.06842451834208942
0.19486556563126647 0.23744092775136902 0.0529869501755613 0.029362740813142107
0.20369022257771757 0.22799722362068411 0.46495495724666175 0.04976710986944597
0.20574747870689028 0.2292414037848137 0.32381380471216586 0.0946818930057197
0.2068861503096755 0.23770936523391212 0.17139727106822877 0.04587089992071361
0.20305710757505113 0.229206462231858 0.48149072563464984 0.09735407086748125
0.19912042304529814 0.24263711517562278 0.5844891903523993 
0.21333254527240597 0.24437578645573735 0.3097139140806815 0.041823499431024654
0.1999176059743995 0.23611332442527905 0.5091857625120846 0.026797345857415583
0.206086019074127 0.23988712337399715 0.33990587958658375 0.06200300696726132
0.21121946154505292 0.23536153383215938 0.42176630272349547 0.12438518471208444
0.20928035262730194 0.24039444962897602 0.539205498774376 0.08933613746768164
0.2107629527175099 0.23784517651833767 0.2810754982180746 0.031133812828443987
0.21512104338609622 0.23927758516360653 0.2513422642428945 0.06511681185646613
0.2099334361026409 0.23816519009477513 0.11180542247660132 0.02874916378947344
0.2066122323840448 0.23168651616065286 0.37500225153161 0.13002468279238316
0.21151277539873112 0.24218735828339402 0.2647777421559707 0.02522877991157875
0.20846015392039435 0.2322521556246383 0.3010451707715839 0.023792020680849617
0.21765413580214715 0.24850441064239773 0.16159917135027013 0.008694503804397216
0.2109213563054898 0.23970402371134372 0.42919924858031405 0.09659992538134597
0.20349250773795102 0.23583362922188697 0.2142677568730215 0.06112633939003134
0.20779534434433852 0.24066476252644897 0.19256608128739588 0.041833701751078554
0.20514330923800256 0.23875359645513575 0.45305164759003763 0.03386803629003012
0.21302994206898102 0.2453541856436777 0.27603676092741497 0.03183075662132831
0.21070304764794745 0.24104669332387074 0.14257757537524196 0.0625214423143863
0.22685716389319455 0.248485760077882 0.23376031708486952 0.038380385481359754
0.217051774190296 0.24762776476401754 0.0524194016509404 0.06863169840995131
0.2273222856831496 0.24646153347425165 0.08674913028667709 0.02432718688922894
0.21925127271387534 0.25152084452191725 0.11585221916310626 0.014778381128272126
0.22258011532841301 0.2472072864289736 0.2165330409863363 0.020622555648945048
0.20458797068732565 0.22950241249669817 0.19277150299812826 0.04848183262469814
0.19209991180041727 0.23051783258948624 0.5675478818005076 4.126895139053683e-05
0.20608970733107357 0.2326998755207962 0.45776358860066896 0.053742155692245
0.20139187214844356 0.23208682144900994 0.2782179639618493 0.023571272586686183
0.20247133954798346 0.2248965174756869 0.36607731310462016 0.12261951488983772
0.20669379265285948 0.22641439240278158 0.19756006084159364 0.06218843732742922
0.20776783897308573 0.2306002086866901 0.515393962730926 0.08364249556415461
0.20471047289866948 0.22347146154618172 0.3836260694261251 0.124280038778274
0.20366567866768814 0.21794597746621192 0.1571202190797281 0.05949001711088796
0.20410839660375138 0.22411365650886103 0.28923729710248375 0.034524195753618744
0.20417498906881704 0.22488239550152717 0.09004562329958941 0.08462410284462002
0.20452770293596664 0.23255635587625806 0.06839449051676681 0.10706731190231306
0.20312018677273955 0.2184903884636328 0.22127717880400624 0.05985183867943521
0.19791262811611574 0.22772650367381653 0.1732043183909899 0.03132160628831389
0.2010976077363366 0.22106184165325174 0.14431750450819247 0.06873499132726882
0.20650961395956977 0.22385286952944736 0.10394301762905345 0.08118389587446916
0.20351785492100677 0.2252150206992008 0.24026020381465232 0.07381422182130215
0.20128719325837302 0.2101024713794862 0.051994593526887595 0.014553671561757426
0.20828647970317807 0.20879030158122916 0.10462464212876064 0.038192769876999044
0.21171148003476284 0.20967281391099188 0.3784070220918224 0.038442157532063564
0.2054350004766304 0.21135592274921566 0.03215808788189134 0.04095420679662792
0.21076296694776966 0.22056608037030248 0.509273689483246 0.08412482343634177
0.203844718591025 0.21754997531017334 0.24144618895327868 0.08495884570990508
0.2029714514401219 0.2184274407915299 0.40944813972705824 0.03258234772366381
0.20971454200598422 0.21593965422743194 0.07317749148940722 0.09115276370545326
0.20651521791577135 0.21853752652257627 0.35585938884930124 0.03131920555227618
0.20660788984489728 0.20605504819702658 0.190307259253339 0.02717785763778215
0.1994048353112039 0.2114651214008351 0.12560809177070736 0.030205890622489646
0.20781602483454953 0.21553503104035662 0.3975459742502674 0.04038856630523305
0.20361314211691345 0.22324076952370023 0.47744201582820117 0.03673077019972236
0.20636029734170164 0.21972564511572928 0.5298572361970284 0.1185160948008689
0.2062024250417381 0.2244049156192689 0.49831947253094283 0.09256999898663751
0.20234894234297315 0.21138269577393567 0.5309982006437713 0.05602349576591355
0.20211295220955988 0.22155211250569187 0.43137533591074834 0.039716344468912076
0.19323996806219623 0.21465178060421441 0.5785293901044543 8.78500660432572e-15
0.20348159764610482 0.20908515775908143 0.2740585074405132 0.043360365428469536
0.21157968061931653 0.19732831477547996 0.28393854203870905 0.0034620351733973156
0.22037141444580222 0.2013750914188049 0.22186306311357068 0.029372268147084813
0.22484379851513261 0.20345439530868542 0.5013721639882324 0.022118190244204448
0.22183373842130408 0.20252452771175972 0.36217299270247233 0.018423666938555107
0.22134956720834453 0.20661406285419695 0.3401755329084258 0.017958900005308552
0.21704990946264663 0.2012711006199054 0.24100115427451582 0.07714782660688725
0.21697152281214735 0.20311363882222727 0.4528232956627894 0.02756819840126812
0.21578912757620844 0.2006462931365204 0.43379223181633114 0.028030542007375054
0.21675151154055639 0.20236143463101305 0.0775172420112633 0.021097476243547367
0.21889805368055157 0.205744541550676 0.141079622771146 0.05438851447403176
0.21398107211413092 0.20827917398208232 0.1614023960049987 0.05229416596129794
0.22425939533327516 0.18957230013957746 0.028870581324149748 0.00016305987631436988
0.22284560120532726 0.20048764904224664 0.22709543751416503 0.01395983972972966
0.21996830902221312 0.19845468428633806 0.10347779764500421 0.030034512959319356
0.22324105469843503 0.20097715463052143 0.3763887965310124 0.016444837851683224
0.22687744335006457 0.19633960880525625 0.3194413195823325 0.01327893375630495
0.23719883827928293 0.25255078173727347 0.24033588022313523 0.006546236266051425
0.23469298118138335 0.2531120608805952 0.48172020109107994 -6.995314827216889e-15
0.235019765390507 0.24395706612385687 0.3685742804157084 0.018103441043197485
0.23875477044602444 0.24492449071098854 0.41938001689984405 0.055231318746127286
0.21166566135383744 0.24501204583101088 0.5364688661920605 0.07212715247668149
0.2143333442086154 0.25115598236064085 0.45985690625909503 0.02827850920490552
0.21862059848674975 0.24400228656878628 0.24397265678277413 0.02255923449086158
0.21085549719225286 0.24350638826536694 0.41508449619970955 0.05808451817117803
0.21174982613083004 0.24876240780504183 0.4901996628376817 0.031660407020842274
0.21839009310619745 0.24258868845346968 0.4308668544953821 0.07384331880006116
0.21253582189075876 0.24314323595647236 0.3755510240294875 0.09699667211778772
0.2296607921673572 0.25431810039064745 0.3312175295305065 0.0284128190251433
0.22588483692469466 0.24596827298741353 0.5203376682767629 0.0301156946752068
0.20983954874382754 0.2007349669434583 0.5348213337866102 0.05246695799712517
0.21255260314241528 0.2035458489611964 0.6197250777186842 
0.2202760776268522 0.2015693638072728 0.5122424023815958 0.025104384737658927
0.2207884886337548 0.20289936645650689 0.4722904556459901 0.009933954397916249
0.21199970642861682 0.21014801018494444 0.6089004341724307 
0.20927163136841884 0.21127510481493467 0.32907830808000066 0.023554598479420777
0.20622368762851248 0.21128777105664412 0.4491150554362543 0.04052270050170894
0.21063090574039484 0.2149599716681649 0.29916988350576224 0.047659196252713615
0.9852244682390868 0.9911911703257574 0.02665260951375751 0.13640925955930883
0.2107388111610969 0.24026579159318318 0.015136080241254991 0.15736412739189776
0.20533896013993164 0.22070549920689675 0.016777378688348284 0.07334698655158046
0.21167639875879013 0.9563255030045289 0.014642620369115731 0.11603245929536081
0.43248965492599123 0.016629911264762893 0.7242082938040575 
0.2390957163446813 0.12215778471194871 0.7190714275521548 0.06526437064405445
0.22114322219874244 0.1366650978372762 0.6902093456846605 0.024500980041321153
0.173647979928028 0.17836961283323963 0.7190226412539357 0.038239172352383215
0.12941360352867204 0.2340803434315472 0.6961177514802104 0.015365304909780832
0.07876845846188121 0.30939647287679967 0.6920489773209157 0.02464372825156134
0.10112963038764482 0.28077880469872185 0.7288811313954952 0.03667779998841589
0.0748279129029594 0.3139838215782738 0.698536877086154 0.02837667599009065
0.06824498101765725 0.31382558516023884 0.6836049291879364 0.007605772069866379
0.043755971412551206 0.3630410127317926 0.7138648869649158 0.03596580135817749
0.04187750150753497 0.3928462024318814 0.6908102842574403 0.022476708972522474
0.04123036204964352 0.38626771204986254 0.7022407376885019 0.04267455154171481
0.04377048582546928 0.39154369542059464 0.7064642791136854 0.04101906369132956
0.030075570959103463 0.4085687910592035 0.7062795015661614 0.01675344915873301
0.019887915985108376 0.4661018591708178 0.7188137697671176 0.043722653148068974
0.030990489898674287 0.4527624194453006 0.7236127393844739 0.1504898740303947
-0.00541148794891291 0.5509546507132853 0.7210792787376277 0.06218967432449116
-0.008194755121203174 0.5279967628986745 0.703261770914369 0.022418836227673558
-0.006085818477332955 0.5597645296311233 0.6946567938438946 0.031298584067536286
0.005250514406925659 0.569507133103485 0.7037817418087461 0.15572488268724768
-6.807698129841929e-05 0.5960629391932419 0.6929938832239187 0.026784543126391662
-0.006722936136641583 0.5919049895712989 0.7178352902829606 0.03450377768389931
0.01165667886881559 0.6956027355553074 0.6998816023925862 0.08151462383806715
-0.00736086130518609 0.6656736669325641 0.7085548150081332 0.018225521887170894
0.011208991870927987 0.7030553641342463 0.6879222198464585 0.018792194851280215
0.013571475867669321 0.7151890087259973 0.6950070053994034 0.026981223086897096
0.01662902546359123 0.7493964877014015 0.7082421434126306 0.06912650728679592
0.023047508029265647 0.7568292765353103 0.6979310728740591 0.08402952609540146
0.08395939498452479 0.8741923857911901 0.729187195070734 0.031824731877358466
0.10682593259115984 0.956707342828245 0.7088771103795578 0.012102304019356944
0.10631556582435858 0.9295437150746864 0.7105679848654745 0.04826462493154704
0.12877549988142534 0.9738917804493235 0.704231078065185 0.0331164733430082
0.14996530059655414 1.0006766205581017 0.7163742384356397 0.06786279598877532
0.16030803566228685 1.0180086744086512 0.7171996668336382 0.07777998710382701
0.22806032815341815 1.0726561214795296 0.6971056597405821 0.011412207948841973
0.2341894779570522 1.0722992389199668 0.7069327941900597 0.1287392719549647
0.259006168189797 1.0942967230577019 0.7113158693662479 0.038207405482726414
0.2664166476251041 1.1080921796519432 0.6994163122698502 0.029970675685490326
0.3049764406091516 1.118723857937242 0.6884252556783687 0.04364973027160111
0.27137407656751117 1.1100033942164371 0.6920661322113446 0.031268520406645496
0.3367138258979039 1.1446586970808303 0.7003972643916491 0.0150225679592307
0.3713765020381138 1.150701158363924 0.6800359162373206 0.0019196630253904355
0.41452936440051447 1.1744273021565141 0.703689455062016 0.06765651783433858
0.4233116622411852 1.17597279226472 0.7028913341196589 0.07001349525783049
0.4525007603712199 1.1726069938489279 0.686300980068941 0.04263072667241011
0.48255693548581335 1.1882283875424864 0.6947341739119507 0.06076914555425715
0.48119570066332645 1.1867291224550574 0.6998189585559335 0.04661254059529167
0.4860811019717006 1.1850197815621617 0.7228653749911491 0.04399511669044705
0.5000073955604307 1.1924676740400646 0.698795119447206 0.037329341099234525
0.5499115504698565 1.199008733085434 0.7094487117888525 0.1134147016631726
0.5716130320732667 1.2022282150132866 0.6956846788132584 0.09440990352302125
0.6185284300889582 1.2030543213349216 0.7194494048509263 0.031171493971573903
0.6345336806715782 1.1961073641805204 0.6900815443037345 0.03585467120418777
0.6594039997505798 1.1964566084202077 0.709425624760748 0.02999787635951209
0.6490409582172735 1.2013090623939218 0.695970495774556 0.045983404798370466
0.6692926208826483 1.202678483903099 0.7192550077471196 0.023533065785399643
0.6969838950793878 1.1947431310358365 0.6978326956891776 0.02325662154239848
0.6945933622734068 1.197880587533917 0.7119455331803027 0.018126440861821712
0.7248004737477923 1.18571139822123 0.6989575894676127 0.10456344052547377
0.7928826035063125 1.1697538447716869 0.7077488714988301 0.037002714918818784
0.8192746157801785 1.1527949602482965 0.7205827433396089 0.06268535237096345
0.8848450809492957 1.1346715423304 0.6968378923943273 0.011235172951214237
0.9118472179469511 1.1158476865004043 0.7168914621607937 0.04013987149332863
0.9244495894627485 1.1007137328787837 0.7150346253221813 0.05228089037520162
0.9820060378262154 1.065913188978916 0.7176976720700073 0.056023326665503984
0.9897108718026637 1.057454290802335 0.6903785211837716 0.03505136088231528
1.0491758486867133 0.9953429153437664 0.7125246125872833 0.030162462052767444
1.0879344041006132 0.9555009616191807 0.6925507254366399 0.016256507583049345
1.102469941122725 0.9345979804602578 0.6916959270772541 0.057648937690448994
0.8511122472324432 0.050029209273209786 0.7158662217827054 0.02101382582852189
0.8976367837695602 0.07347672626449127 0.6946295710976335 0.0017300885993257534
0.9187645171723253 0.08686735102699684 0.7037500842239321 0.006438661002796153
0.9995436160636612 0.14047252254331857 0.6924363696467796 0.01938947860811826
1.0186773339709716 0.16468583706136894 0.6893664863962519 0.018687690673374318
1.0168698924602695 0.16433297002806335 0.705676420918224 0.06382818330108221
1.0482897217939902 0.19700216002256404 0.7117535093118632 0.044882531053045946
1.0826334265939908 0.24783737994112925 0.6851571887145936 0.0040371048933011315
1.1048617974138573 0.2637752244966671 0.71269773820718 0.021394670727162134
1.1101658822691463 0.28470989353790843 0.6886521035519051 0.02563934702237957
1.0993719226056708 0.2673007148629676 0.6901282384396967 0.03099612697532375
1.1216777330855392 0.30897609552843325 0.6839128806096588 0.015744246937342398
1.1345532141671009 0.3465476028040458 0.7244304679439846 0.08183137136982135
1.1427598619781973 0.33607120798525114 0.6845518822422642 0.01807907965114191
1.1695971861702117 0.4135228030803257 0.729055498909122 0.022196890216835633
1.1714126690693143 0.42080176454773927 0.6940830001353373 0.05572060397252666
1.1853782991172968 0.4468782580211788 0.7041063249763636 0.06292408689928128
1.1884836908206262 0.504090494657081 0.7168870267158827 0.052799413907528604
1.197672626344514 0.5247063905455671 0.7026939882061871 0.03185781503729349
1.1899080369702313 0.5013228386889971 0.6895677584960378 0.03386416941460295
1.1978575439061505 0.5734492348328015 0.7067594107267521 0.08149393025370641
1.1910240564060546 0.7011462989525139 0.708711028101068 0.05272717899577221
1.1980019218918083 0.6497827098353371 0.7208769913343196 0.0395604507210575
1.191438362079816 0.7150558409626521 0.7240669006208048 0.07680413221523309
1.1818139840394044 0.727006256943017 0.7111667798840552 0.11588264052449938
1.1865648279193903 0.7414975677763532 0.7179686573204271 0.05689037915291771
1.1579927143403765 0.8148275800125853 0.6897623659132597 0.028545299390118486
1.1693621598158759 0.7842452016445317 0.6983635413259021 0.019427886752020746
1.1368876266836414 0.8682951220264364 0.685644069835734 0.01479421069192527
1.1414616747347084 0.8625469454580382 0.7011768975931587 0.02023514515005853
0.3589389901628272 1.1413755609896197 0.7247394585614872 0.020040225876249883
0.03126797985195293 0.8171163423347799 0.6903930293489469 0.031223216871929704
0.024784989240253547 0.7656454490378436 0.6840248988044487 0.0515816745389828
0.8626404670837858 0.05758100102492364 0.7012999512509299 0.029510784789710028
0.9166085622215183 0.08589400067240308 0.6894762454522148 0.005932909162360421
0.9342462355439679 0.10240742421625175 0.7107085884078607 0.022473943856201058
0.9400182865426391 0.11031140854035633 0.7222534064903952 0.03528126352460635
0.9758707653602638 0.1242960717918287 0.7116738228372808 0.010500218052036362
0.7592930262756272 0.010496611313926223 0.6886327935331927 
0.7589126214070445 0.027082066092775674 0.7238561023059594 6.38661424889599e-14
0.7327819896017682 0.006030241786376737 0.7101522498204915 -4.331107353041985e-14
1.0445478301016589 0.18330642011321246 0.701335786471972 0.007677792155762893
1.0667268409353827 0.2205623733455486 0.7038434272358182 0.06575108152799741
1.0550467165693864 0.20417069385870898 0.7000808613056717 0.03088625149075394
1.0775626450344773 0.23161811805508092 0.7156301662167129 0.07750213070476829
1.1121861096782502 0.28072134971210233 0.7043280368033452 0.022693625192194304
1.1235071169543829 0.3071470334380889 0.7055168625906516 0.02040616625994274
1.1293314667079843 0.32375007424268626 0.7132420935264044 0.01368949813358027
1.1367517683537927 0.3458213660256006 0.7119371046366259 0.029310089727938377
1.149842844991434 0.3671536240196014 0.6947237253222518 0.03780090728348089
1.1499832712912759 0.35783606865505757 0.6994567040552151 0.026910439874179168
1.1544866352077958 0.37684129215215656 0.6880017461280302 0.01822869056322702
1.1612551306803804 0.39524319982867157 0.7065834210620404 0.030813101979297448
1.1793500545495859 0.4311534360183731 0.704910630054414 0.09544087775010016
1.1868315033338597 0.4683820377314346 0.7016527692963198 0.028454902469404568
1.1975321246952293 0.5605687833236187 0.7225567692621746 0.009490842230416296
1.2005977801183438 0.5544266027551576 0.6951457179993407 0.033603692999659124
0.5427752449641089 0.00011679100890915964 0.7194031112462161 0.006054562088807166
0.3372026912084765 0.05055057415019498 0.6949375451465445 0.01087862109472558
0.3203776725652977 0.05701640410996606 0.7031315400172201 0.03330802157480671
0.2866692046393562 0.07866355967546634 0.6927679564497773 
0.15760755609184404 0.18531581746841594 0.7148794047304772 0.05219877701023232
0.14997973627165243 0.19224799192062036 0.7001597780524592 0.023957834346171908
0.15236522206453304 0.18993304747893788 0.7134458850780719 0.03131770747082882
0.15482343295956563 0.1985628644703084 0.7182045036388156 0.034247159332109915
0.13074222678635272 0.2231507305063623 0.705197927380575 0.012849393535831111
0.1285553306489907 0.23627276424689866 0.7210677568623288 0.016846132729208898
0.10462243590114034 0.2619070694070143 0.679122644081968 0.01444319021362699
0.10419456052287436 0.25868646042747606 0.7066539901183722 0.0033224909741109625
0.0933237306549801 0.29110383043894916 0.6885177344523414 0.015643677305124417
0.05533451776105445 0.3356671494495135 0.6951372625658049 0.043904558869016376
0.06439014565455735 0.3312186332537813 0.7166963953464155 0.06572964786687076
0.060368131213451366 0.33592695445265197 0.7236524086324436 0.06754504724813323
0.040400242204675696 0.3822568946174214 0.724270854162656 0.14736014040405082
0.021353478266416634 0.4251463937498184 0.693610771031044 0.014433302765832849
0.022356741339150044 0.43926795265160484 0.7157381881163951 0.03407030066377387
0.028510439087302775 0.44046245020900293 0.6924615812909164 0.04373974282374889
0.019174039636972545 0.46712261761341484 0.6939204457362378 0.039794806847742045
0.023099156062077235 0.4510527788942695 0.7046285987317555 0.05467007572796903
0.01729885249518546 0.4624718936276147 0.7106923679845258 0.04349306027113199
0.006487686869359005 0.48285716651543814 0.692993513146108 0.04879966650358432
0.0013837293788625188 0.4968494267620122 0.7032554751143555 0.035586986322745026
0.000597863541065142 0.5116456705306875 0.7026455495347679 0.054055866013826635
0.010174427608473084 0.5318894422181968 0.7200338426700578 0.03928857605578645
-0.000371904225397427 0.5833343995415221 0.7096974921801283 0.06829514598554498
1.1977445856283484 0.582463181959244 0.7128925723657854 0.07734039513497118
1.2087618931284299 0.6257786592023752 0.7152818533721756 0.11685191770964193
1.1902070913230522 0.6603725525567905 0.6987326074979451 0.05791520609807736
1.1947156144930386 0.6524015402579424 0.6962402277886393 0.04618688338099093
1.1891553132797945 0.6924641026168958 0.7064297222168899 0.05345062237080897
1.1850943911870948 0.7159814271161972 0.703323801583283 0.012841556524450966
1.1873285808209308 0.745815009331247 0.6994984083041413 0.07268330945838386
1.1686556014371978 0.7803107198171881 0.7105026447541867 0.02777406261277027
1.172988795827264 0.7658756215762973 0.7315215834876846 0.09015374765814037
1.1761737773649674 0.7595631437721067 0.7140459629981861 0.09104136762666325
1.1744135916214953 0.7702267447070161 0.7104163162857222 0.07378480693218419
1.156142094727689 0.8342929318516624 0.6987996464638488 0.012310907840999608
1.1476605806229991 0.8465169445890618 0.7009026394572326 0.012544629819101512
1.1305902341075746 0.9020256541360749 0.7136207113458113 0.03663598590178437
1.133684609502551 0.8800928830212585 0.7036629111574396 0.038363963020479855
1.121473124942879 0.9058128756598043 0.6904139903256061 0.020571604660190777
1.1154967263994853 0.9202878301926533 0.7161224253519218 0.07308334034856982
1.0907412972175579 0.9525715643218408 0.7025894537691999 0.028776359603259777
1.0721718213698461 0.9762873926054976 0.7168732333411948 0.013513876995719518
1.0647492200731812 0.9885849201317418 0.6978637945672143 0.031131506386306098
0.7685755849960096 1.1728980003020406 0.695761383940221 0.08219152050332025
0.7529911688482106 1.182576900609497 0.6901124105087902 0.023571727779506214
0.7630191703072149 1.1788268669179673 0.7238790044172486 0.06737556869636098
0.7943126149557734 1.1668489281884014 0.7014157071039661 0.06513272294461007
0.7819945065051372 1.17451587633063 0.7052560102005002 0.08755938904787441
0.7995402970132034 1.167156954872152 0.6887466696047004 0.021696710077276925
0.8049889064549066 1.1611623302637732 0.7239945740435993 0.060584243073851296
0.8501956976867916 1.143486327610467 0.6925900243044508 0.014566250468186468
0.8275598240766949 1.1549928883476612 0.7117385957983193 0.05411286133141921
0.8319714037866238 1.149683986547734 0.7174031301424403 0.07583286178785884
0.7478203930257631 1.183055168809987 0.7067129571940806 0.0650880452124633
0.7439385772196919 1.1855046190190295 0.6930675579354759 0.037249500281800844
0.7035434155730971 1.1882146203550985 0.7102555619457088 0.05615056733815299
0.8467545835461856 1.1460581083522554 0.7056539767854901 0.0651397254795045
0.8676776614549592 1.1443443005093497 0.692589275519302 0.011308108210434707
0.8656747992244626 1.1330726891863823 0.7077117780482703 0.06979500351945747
0.8771111395314459 1.1314933125084057 0.719211129642539 0.04116176894513486
0.9155844003924574 1.1226634300395948 0.6976494659127831 0.0035224310462181347
0.9496990556960689 1.0980989936633268 0.7076043454296129 0.017800537453831786
0.9660100691327967 1.07613922271918 0.7182955468776832 0.07981150637781227
0.9535056808792924 1.0730628921936833 0.7185072578951032 0.08978462969296638
0.9669236422724146 1.074202507495687 0.6984131556368471 0.06184845964457706
0.9891026058512035 1.061181253483189 0.699096455566502 0.026428960626739516
1.021733938114764 1.0245812121954265 0.6951123032392404 0.02544080977802614
0.998955688216886 1.0384850587034813 0.7210336808887401 0.054077999403401585
1.0211592434258197 1.0283724771949279 0.7054092516506857 0.055592832884779446
1.0296649976390049 1.017291807174579 0.6871010488339887 0.0014202883497502288
0.3069302120290428 1.1293407264759314 0.6972751418310622 0.0494054373767062
0.330675673713167 1.124929365709636 0.7214743539979748 0.07904931462010621
0.31235507956664627 1.1302728354406093 0.7118988465081552 0.03610984863972373
0.3735149031324591 1.1545298709057195 0.7008985941471918 0.05796985960491222
0.35713291352293 1.1491467013083736 0.7005704638641109 0.055259961605779055
0.3837087575991761 1.1644739403193376 0.7069730331831238 0.03689231304851838
0.29174718108726455 1.1109845240494767 0.7065664768283814 0.07988691830706104
0.27763786768000104 1.102144058155857 0.7053604357380632 0.05505480751835014
0.28131263236825965 1.1152031951225931 0.6955302759884529 0.041506134843306876
0.22295018673723196 1.0702314812509315 0.7214563198747271 0.0840380772955665
0.2036953813106466 1.0476388515845116 0.6882858469162797 0.0027300612884792906
0.41343931239512877 1.1709522421397642 0.6917040260006059 0.08053445917306198
0.438664963968094 1.1802025337126942 0.7099343785305882 0.06691443029567776
0.43553379480895693 1.1873007598959324 0.7083952486306783 0.02868977039729044
0.4620479297005068 1.178883897601492 0.695911929442125 0.04465105980042694
0.4689897777006933 1.183627217862562 0.7237704872379831 0.05691560455051458
0.4935560845844829 1.1869518851374425 0.69340182679663 0.05520232095033993
0.47706704227935776 1.1850859532286013 0.7057594872824218 0.049603554579964966
0.47774457287478295 1.1898553038181028 0.7211725405856639 0.033989827922426115
0.5126484151434085 1.1964708609065624 0.6897690396283856 0.040366464051440586
0.5393975811985497 1.205834043654269 0.7133424608825665 0.04278694598283081
0.5572133599901908 1.19583468265463 0.6912527610452007 0.08836119317372539
0.5575592556384226 1.1993700850712052 0.7015764962808412 0.12057900447106987
0.5630389074749924 1.1995212651541334 0.7114580749412768 0.10885769020792445
0.027900836979124197 0.7791449329977104 0.6929967482852222 0.09489600832005056
0.026806964999688775 0.7938633458731678 0.6968919274666487 0.02521962099813571
0.03871070734652087 0.8063149923355778 0.7173399355265878 0.03518797284887967
0.044237392255007044 0.8314974958337438 0.7045885898908116 0.027424429045038754
0.02074553000810732 0.7482582987444603 0.7132767302547661 0.06434643101373043
0.01601778833184047 0.722980338341713 0.7153105619361951 0.059138112611082136
0.010485677846550375 0.7036764788188998 0.7101335335560114 0.08617859443420064
0.0039885873033899686 0.6543185735771715 0.7053656760964541 0.04964705560279457
0.0003449206438106598 0.6318402525311771 0.6998828511390885 0.037859205059493195
-0.0017005429669803796 0.6593073678890222 0.6895308328385398 0.04002371190697559
