x y z curv
1.1494732406255974 0.7840993418478721 0.7258868113410702 0.06805216661536986
1.1546898286453624 0.7169721143705953 0.7384345514149167 -3.517687417099884e-13
0.7975669633583224 0.7536409666038536 0.7342131552634029 0.0027870435676763034
1.364639615512353 0.530171975146408 0.7375049029055656 -1.301228342327495e-13
1.0464114708393486 0.7647655441318021 0.7390222304419147 0.06622428830341534
1.375867587519949 0.66033853403099 0.7383998143713603 
1.382016827023773 0.7121440934267046 0.7373624208841661 0.00043069141526434713
0.8998372446497681 0.7602786711608367 0.7371336169391153 0.0055651959618889715
1.3361439897229241 0.6751784512680877 0.7373522629440131 
0.8379323054592904 0.7449213585674768 0.731156913980446 0.007663862652543063
1.3923060304109347 0.6048589105789888 0.7369916215456478 2.1428705630263244e-05
0.7675697806577442 0.7688830243718131 0.7377019923334475 0.016042408437532952
1.046211233958727 0.7425798691469047 0.7435415188701993 
1.0200420049674588 0.7906293494617848 0.7293306661104414 0.08669971721322443
1.3359839485451466 0.7893058652553071 0.7355543897155647 0.07303974339976405
1.1474828353470614 0.771858077454375 0.7329950709936482 0.04190260781057772
0.8902093294700333 0.7727978274862193 0.7310139157905492 0.03995378748991471
1.1913861826397754 0.5711126238679635 0.7373933183671071 0.011650157385085524
1.2707680496121554 0.7997584373057766 0.7407318704399072 0.10292689589306647
0.0834503608135438 0.08121573705336589 0.7343075970236576 0.0005061666198586029
0.5790516183405685 0.009033165423767245 0.728682888543849 0.1199751846374756
0.011890831315099867 0.36205634843017903 0.74058539296015 0.0409828438771715
0.027274347343188024 0.20770035880702042 0.7354329070725011 0.058213089202806184
0.38584141272246897 0.10769437375405909 0.733313362140054 7.118722505721043e-06
0.41503791689677844 0.06974575923044302 0.7350066696996502 0.0035043583178909796
0.14027126284326508 0.13208719045991957 0.7363876419171653 2.3723580378682063e-13
0.3694475022443865 0.16680526555901365 0.7347904913995276 
0.181141993556065 0.28435962561115274 0.7364723546657238 0.00032900697844944106
0.19519312055908092 0.12841063881402354 0.7409056165347879 2.4612497312593576e-06
0.06361906932665085 0.08056248730741014 0.7368489204725881 -5.609480246907279e-14
0.19135816243754508 0.06806188000329032 0.7335680847545474 0.002651651992268537
0.39273665343364345 0.13206425657261583 0.7343306914418248 0.0013065641063701192
0.6071774595843851 -0.0006095663310676101 0.7287959191645693 0.05516992472267446
0.2438148347710912 0.07896670145567224 0.7324894501032916 2.2518286160617164e-13
0.060078582182311505 0.02473869945829608 0.7388595684084382 0.03802158552616569
0.23323482895146702 0.013447783834858373 0.7368427607559326 0.044845790339479524
0.3187635933596054 0.12634513955750507 0.7364476897569489 -1.4058956248076776e-13
0.032119926438276235 0.30207292015358284 0.739363796160019 0.00279080019432979
0.48978224269724413 0.035687787637931935 0.7339110564461458 0.002002099585358309
0.3815319581978535 0.009716374728418119 0.736600442598606 0.04300002309546752
0.04692980109066139 0.2148005509177371 0.7347505956656343 0.0015345158637399827
0.20154688650699007 0.26390855553531467 0.7345131075664486 0.00022183324131548444
0.09383659754819583 0.09776889790455995 0.7364888675736423 0.00046227513727444133
0.010898498763858358 0.0523307360709109 0.729096624983128 0.04606242498336254
0.5433516070975356 0.04434920126000564 0.7403433614702457 0.000600040173200864
0.07198256117079627 0.18336972711454277 0.7330299199097304 0.0008144582618379711
0.6602885568368783 0.003961988553132824 0.7390753948435516 0.028690674211995226
0.052748971163641724 0.13162423984914218 0.7347244209704689 2.004353269550197e-13
0.1247011374947336 0.1951260173758175 0.7334976869553848 0.0008538134315525635
0.47667226813387387 0.04052125576192633 0.7375583926523968 0.0006781557453067746
0.040968405715379755 0.08787426906496164 0.7354321266160977 0.013220140573000215
0.24530796664868204 0.17619585290117568 0.7334797413821055 0.0024922930513399913
0.12473752784739986 0.08296245272293212 0.7333202300146322 7.258428752062022e-05
0.15551284734084708 0.14394167853871825 0.736621240369252 2.43802786514271e-13
0.35684936602286654 0.05647201734863426 0.7359623140653131 
0.04755859083910189 0.014334543755089801 0.736558072098468 0.02818025997665171
0.04360696619844254 0.2409297523915055 0.7365245869342203 0.0011925730147797284
0.2959223429850144 0.21445684193778708 0.74144568078525 0.007102076788040237
0.0018963656443997453 0.13256252314381922 0.7321952217409297 0.026642390032565386
0.36804408862693994 0.10048363270107445 0.7364066320347216 
0.09897152954700182 0.22886108071049494 0.7355919633137358 0.0021305045220950587
0.25365217402840934 0.15739678759385964 0.7379060309074348 
0.13602476265552008 0.24004100191820543 0.7335649283574033 0.0014491494699807063
0.4054462363364902 0.12484320189114066 0.7350393278842652 0.00017130398635637368
0.10845508538412205 0.1670001820387868 0.7367087418351833 
0.4829854548840087 0.05032549237085938 0.7362128744275259 0.002865733320609625
0.27293957799756496 0.22301091062189796 0.7364556599620659 0.0074900016797805075
0.4706818861446153 0.029857659677984223 0.7349686314690238 0.0035677930334496732
0.5185490315066731 0.003104555179662026 0.7324909860528649 0.06160844355084112
0.3960275518854646 0.14398693769504284 0.7336916451833361 0.0005084655983365039
0.32477851532390345 0.028763700213657976 0.7372776368211124 0.01726044620192766
0.1607052024771348 0.07419057011467715 0.7320787686759561 0.002149348730977389
0.2755619080437301 0.011518015082145488 0.7350530477642848 0.08955478280210738
0.6293546621363555 0.008838135654520001 0.7410475160160137 0.04150447530542219
0.25937989013023 0.2003874146037423 0.7389371488293354 0.0003772622998591753
0.46719382295842726 0.017002328493240362 0.7335268637051272 0.08501414099991707
0.20315274673807618 0.17302316748315233 0.733904140085534 0.0004630287199206343
0.612203001845132 0.04274402555522665 0.7364732128673213 1.2846270215593626e-14
0.014104300757975365 0.09644184825466023 0.7392993677144536 0.06834329653718194
0.3431069084044967 0.01249048478896677 0.7361292903376709 0.023800137913613174
0.46492389973868764 0.05361802279797202 0.7358858543130032 0.002338827887123903
0.1833852569311771 0.25265307812345134 0.733994309033591 9.82686585509333e-06
0.13082294540160525 0.30831857843418753 0.7358467929738682 2.113580632543634e-06
0.21266179081340159 0.15374656709507534 0.7383466229267729 0.000915125409162271
0.295455989058959 0.17281631102889375 0.7368239562653072 
0.4409062125823224 0.050180370102983485 0.7372602746517478 0.0005363256852628884
0.4518193327623789 0.10169262090062395 0.738810258470556 -2.054230971291203e-13
0.14785025932588253 0.11919933325040691 0.7341373684543213 0.00016264790875867788
0.02821297599483334 0.15844587586160785 0.734890958635422 0.025483671631530837
0.5016646494235955 0.06270615868758861 0.734365223252029 0.0023545097669100666
0.07053648675338181 0.3394256861445009 0.7326597656570919 -1.6597962698766008e-13
0.22231054658713265 0.13168963191440872 0.736289084070454 0.004635090493546915
0.3504312780831034 0.041064476392804306 0.7389716425356775 0.00018616514449174395
0.11355099529726863 0.06786451702131664 0.7319247790217581 -6.8465392741292825e-15
0.21784333624691085 0.054020307746213296 0.7337029929738694 0.007933223666085926
0.5859136808489639 0.05160977664426207 0.7358666744657869 -4.177160956500883e-14
0.2298315489290663 0.02369270294656133 0.7442886300808536 0.04947641107834467
0.08322991499770256 0.2176775045513823 0.7359230479865403 0.00020728139878345873
0.0074914306936708815 0.09565613736538103 0.7354582282073634 0.059611111230028595
0.03961471775193395 0.19384615726674054 0.7321447080364542 0.019135969216860615
0.11052465620264364 0.10846912408473598 0.738692695981986 0.00027224291819940053
0.3909963100882236 0.050747673849288986 0.7379622666077532 2.2779187056773653e-14
0.1576157210696034 0.034373684080590015 0.7332528347699659 0.008135960353536505
0.17029352644584042 -0.0005475495640155127 0.7287812475200909 0.09807282027209473
0.4343462404068369 0.06908178603072733 0.7350537284322796 0.0009530171198829202
0.3426843073579196 0.19700873280543452 0.7375728518326518 3.9110949036740095e-14
0.5210469799308399 0.09370391729124736 0.738253711028961 0.000395047142072945
0.018883560141865388 0.1682293945252443 0.73495850646012 0.03381831281278528
0.19412907323462528 0.22796615222558456 0.7316902389017341 1.2129252035930676e-05
0.012691170581809616 0.021510270861917154 0.7337546436467338 0.05160448383787209
0.004313324851686534 0.2761816674605749 0.7250011913067401 0.05905224727311747
0.16580994651642778 0.2533679556712032 0.7337872279337336 3.354662447154104e-05
0.06224942614538107 0.006820052995440401 0.7334200275336763 0.025615828518356615
0.5776358767833943 0.026056945619068732 0.7407399507966648 0.026370897074232243
0.6838078308416695 0.00523975367254512 0.7334967283002353 0.11760218739940541
0.2765119994740217 0.017360816498864402 0.7350745332141965 0.09592822858459485
0.36036469775028096 0.14130306539724208 0.735699852631212 2.3789369652883393e-06
0.15865613186008626 0.05359582330003681 0.7344313743450872 0.003568170167056045
0.24485823266198792 0.13470964273183447 0.7373196680936644 0.00018624541558244463
0.17699206316592522 0.16970798863815464 0.7358966969469838 0.00023135560052945956
0.060495914074989714 0.35353138709306386 0.7342419137471334 -7.812410641389905e-14
0.0029470375443968024 0.016491795799572596 0.7290358593805178 0.08119979762472142
0.09478437326764513 0.20892319979050397 0.7352383249192118 0.00025373598140730535
0.025347467359489246 0.2852020388165599 0.7324510719793063 0.043177104260506166
0.056866778349856664 0.17881818189753798 0.7322946516480943 0.0013075934397610677
0.41843568111471535 0.04795168621869069 0.7346435397762777 0.0041770207156851345
0.057370967849424005 0.25899417541576514 0.7338296550328053 
0.009944078618094182 0.21881616645319094 0.732156960415881 0.06460329879296883
0.07449785991118203 -0.008794342549426298 0.7227442077990088 0.051658065881065945
0.07266600762635081 0.023240272526221118 0.7397822699714759 0.015238377828069522
0.3119837456335672 0.10511742170456237 0.7331535942229842 -2.27492732992283e-13
0.004157115391393159 0.1779299961905941 0.7269244339328141 0.03404794791090099
0.2548012433902261 0.09906952234862605 0.7356857947888039 0.0004944676418781568
0.008259410119455982 0.15683677985630382 0.7319483353546573 0.030083365510279007
0.04396675989908789 0.27704184829136563 0.7345958355837335 0.007127717258339096
0.009309658232425713 0.3297057211853027 0.7338320916387873 0.07630581630976317
0.5075305755374887 0.05283550552783071 0.7352468965556084 0.003215037539213912
0.17851162696266246 0.03952849974279741 0.7377783789694585 0.003723038869637333
0.179546190113733 0.0667688105575289 0.732428494674132 0.00227633354447644
0.19743252772171851 0.1088072007176118 0.7347224519328849 0.004051044832657186
0.6827447113511098 0.006181155272338318 0.7279641398865263 0.12143761483474384
0.0709763860192632 0.3120745923830222 0.732113319413648 
0.01725269608519289 0.2363975528455239 0.7318213958524883 0.10829457065076184
0.15485222753009145 0.20856250304262527 0.7337689226960591 5.924900783727741e-06
0.25211092718059297 0.21040235636979912 0.7347154447438735 0.00349040997962398
0.018642387104039437 0.028512987306628674 0.7312445064271479 0.0745952872132074
0.07720004520572006 0.19397424454684287 0.7349010238218316 0.0001370227511640642
0.19787237705911934 0.08811415816583071 0.7336447362374713 0.00019414192450349098
0.005288163169722937 0.38101619533927183 0.7264401975535468 0.03248740058427945
0.2746880607011375 0.24684834666519556 0.7445342311991447 0.0027918559440349845
0.04806365168138658 0.3018993254694144 0.7380263866069915 0.011008020114381224
0.009623286444631915 0.1415702258348036 0.7329332060807648 0.026774577921659864
0.30829132699824213 0.0071162565177740065 0.7249717592145242 0.01055697508465291
0.12853495968519438 0.19344565627897684 0.7331175120345258 0.0005940852932708123
0.15384490757194508 0.010831197397581555 0.7347975592712779 0.09463854861052785
0.17832388701633828 0.1058529693873195 0.7349563654432022 0.002160300330704419
0.10994147057502303 0.24657381334058737 0.736863979020412 0.00039223199275865647
0.3002820395860733 0.0047211522201173846 0.7223836112907625 0.040320825674749504
0.3605406966984653 0.0004251182431174536 0.7290999774964271 0.05697781632714787
0.2611996669206293 0.062192537620402985 0.7304211478381257 2.051394748439797e-05
0.14450037250855677 -0.000444598969992974 0.728935780369992 0.12120651607844991
0.2120726578685001 0.21231250672867696 0.7312884992181206 
0.009811184017459581 0.2522911255131283 0.7341245613942635 0.11600533711517212
0.5544749628937937 0.00907319517881695 0.7356752241905422 0.10100706308871743
0.049565237924452686 0.15909513802400163 0.7341548843292189 0.0004006938073483127
0.008789187898346608 0.07898618753045375 0.7306327939743975 0.06949182170411318
0.29610598393600723 0.12111466675332389 0.7367298218190546 -1.409415275228174e-13
0.15339765201886008 0.2802883623306334 0.73598965965538 0.0003140414895416879
0.20603079050578235 0.018489146983529697 0.7337775974417007 0.07780603304368632
0.46992107341616735 0.12385391554520411 0.7332886552736484 -4.5553574019705694e-14
0.24267260622777795 0.2404494537128676 0.7375357874604014 0.01764411553075202
0.2976615472996708 0.016644646671313393 0.7333193974441109 0.029361795419515065
0.5169523268842244 0.018289915194523134 0.7348220654958605 0.07669454136233501
0.4920401643060711 0.08509997186993655 0.7337825477022681 0.0028488404272645432
0.4907112188280775 0.10777581975880907 0.7326514888804768 0.008298177625964333
0.03166782895474338 0.11858026510721761 0.7343196725078349 0.06304104074005482
0.09184671365732336 0.3540533855434477 0.7367614659431838 0.0004352048262312191
0.18570470236893122 0.015385202170316553 0.7289455221981418 0.08371123666605228
0.4813395933282647 0.015114822166227197 0.7319464800896114 0.13241054871440028
0.2161042472147626 0.18690490744904598 0.7334422430853949 0.0013024557455122987
0.32875632202765986 0.16216398436439178 0.7373257722321358 8.566665861839119e-05
0.11634705703198182 0.2445843374593842 0.7387583858187238 4.56159403865692e-13
0.535558918799936 0.0805673037424947 0.7375602087818445 0.0031512525311380695
0.03536625307013554 0.04752796943030743 0.7429143314135314 0.006387554701203012
0.01668038548641827 0.19630199984113159 0.7330010670856819 0.055557695153469776
0.35542039508165985 0.008929815301741507 0.7342950255368073 0.06115577380387958
0.17557911827687397 0.1891185233985376 0.7312354680545115 1.2602050044525878e-13
0.19089282128041643 0.029297746510494556 0.7353869602115405 0.006720872433865386
0.42116567695997387 0.009295379747641726 0.730884289762963 0.15425701143519424
0.4384096355924664 0.0076041138795092935 0.7375775839697026 0.09008905294215486
0.12351803506532236 0.0066077003611070065 0.7350427050812908 0.04652707308492219
0.5753155720376856 0.08129276967079015 0.7379848485003523 0.0031887030922637333
0.2906537689598276 0.08499566455610723 0.737202115312847 2.8493653241980392e-05
0.02018681158022405 0.3401405855047836 0.7344087141549723 0.06805392291911017
0.27453716203731254 0.04723187748945801 0.7323118147300035 0.00012237032561844793
0.013963157162229229 0.11660004283167637 0.7308108723650542 0.05714410612727433
0.06758666442507484 0.7891673999402243 0.7353507411190561 0.07760070930970248
0.07517173666996618 0.7431077252746303 0.7360731711867081 0.003692236355623453
0.3026061351220583 0.5986367782471408 0.7386403767985076 0.00010633826401791267
0.1637090877303008 0.6306613184612946 0.7384557848109342 
0.2907562760000581 0.6326331225627498 0.7348204182048772 0.0002992570409908105
0.2621450125183851 0.629802354492433 0.7342481687160439 7.9254103017121e-05
0.40960627652319426 0.6578709805052576 0.7337919317685507 
0.34633633178054957 0.6698798468203219 0.7327957293560603 0.0017233240077357272
0.2530882121956046 0.7772735856477367 0.7379742733361367 0.11675998904001202
0.28675931720625497 0.7013815228769464 0.733942000330033 
0.21914149377785636 0.6989204160441889 0.7349009292515649 0.0035158937744599085
0.3100046058647264 0.6846141706511757 0.7364982728816839 0.003173077125096094
0.30019691364463225 0.7877171162999332 0.735054157362272 0.12371102331497744
0.02252404408513203 0.7793732935728913 0.7355998726921926 0.06697325630334924
0.01778521095599996 0.4324146452978688 0.7409985136435708 0.02382446943117835
0.618706778154914 0.7939670649468519 0.7323439861227571 0.07743804652021424
0.23976244897369467 0.7708942443849309 0.7341397645609645 0.10299492420294985
0.1793690911158416 0.7547749943404342 0.7386402747026785 0.0008454165439484387
0.1375356618113524 0.6800741109294711 0.734857090229076 
0.1155039415194953 0.55760421134828 0.7367539804089525 
0.39813452223999446 0.7822819990905933 0.7378438393148125 0.03148434216898284
0.39946301633471154 0.7421016617518669 0.7374358211976331 5.1000510310025234e-05
0.3341399375796593 0.6522555002193258 0.7347764492718702 0.00010016627408188012
0.4601464912274366 0.6804705476736539 0.7402817477603242 0.004989275135614982
0.10599119620276376 0.7523908158879462 0.7393272422821754 0.008794643727465403
0.15896728230709464 0.5623469243694617 0.7400870032693606 -1.8954518578557595e-13
0.00840776772699936 0.43493827766450627 0.7280839876302451 0.10616632712202079
0.03236168706536875 0.7479944807113422 0.7331734955155798 0.02718453683441808
0.013660488194764741 0.6685196185346669 0.7327481467687887 0.08847182574093469
0.33112888429497506 0.7240810869467676 0.7374012674368633 -1.0604522294257e-14
0.5760633788418622 0.7891784418303167 0.7381802205296356 0.08798966231532962
0.03372887918732875 0.43412888313011994 0.7372194347187886 0.03037314454478116
0.058526665780927724 0.7253335451437418 0.7374910889889474 0.0055390665289797815
0.1735622463581561 0.5813127456375526 0.7334657133290602 
0.03303190809030996 0.7068911201458653 0.731230514404013 0.04258707760745083
0.35550451827072505 0.6649229043472848 0.7329535954648614 0.00044280265909735477
0.05189902248695727 0.6774910995377893 0.7327423683198833 0.001966739994399311
0.00784626348543176 0.5141506223464626 0.7308803140915257 0.16029249277822719
0.5171409468159488 0.71906911388285 0.7321311365008197 0.0009026516635239324
0.022686019995943073 0.6316278983845115 0.7342140712497544 0.09172451965482692
0.30825014696480946 0.6088318251949107 0.7365012430330803 0.0030954681978567337
0.2365225033315338 0.7987721624037114 0.7271640519135439 0.09649850747721453
0.37568640274426834 0.7429447456841736 0.733969832552474 0.0006661366309188806
0.04255659034507528 0.47356147979805446 0.7317174691704503 0.002707709460810197
0.07800581106370016 0.4667994729873858 0.7327059783311067 0.0016386603865469666
0.5982425004207715 0.7767256041745969 0.7341138226264421 0.1387331827525164
0.2557324834192074 0.7169437879795595 0.7353683878634943 1.6707627596444474e-08
0.21658580831479238 0.7821772513811238 0.7390027314216142 0.08118955143558354
0.3155105254358427 0.7682958771890691 0.7336920260691611 0.021541314446192308
0.21950383835747084 0.7893154737682889 0.7350247127137727 0.11711515384310472
0.21275279339541403 0.5269835535411782 0.7346499510609492 0.0006621382682025078
0.06346816388293394 0.7054689297479677 0.7340146547907411 0.0018461642689725267
0.14464701497327584 0.6268404615297304 0.737462658513963 
0.16452392383303988 0.7757075560182299 0.7319588122722267 0.01532670247910364
0.1889340711236732 0.7179437611393685 0.7367315505311643 0.0023883752686797368
0.1485261761495279 0.7840437796338098 0.734201236736171 0.033201213535853154
0.5783251778780734 0.776641650113393 0.7352568342341146 0.1009081745038114
0.37198968213226735 0.7981632262675309 0.7312290984984257 0.14867278853769447
0.2622088955289571 0.6633647570373353 0.7337212982598348 -4.2319313707476715e-13
0.017790866421636055 0.4597313036603161 0.7288746562409723 0.15100913602790964
0.012232416076531824 0.5751884736565097 0.7384915287041578 0.08643639305984004
0.04145446698065337 0.6630896035812742 0.7333384783554018 0.002306423289447712
0.25279435886042523 0.7522132565561483 0.7369125647741193 0.0007150736266007577
0.18474502653370534 0.6949570285406734 0.7399913180607529 4.3468806113913197e-13
0.4213865022268842 0.7772833019943419 0.7320732330351831 0.04100205768905818
0.6179401410866923 0.7911143436161147 0.7371506945996997 0.07009538836121507
0.18994830046099617 0.7801940853483404 0.7332428192239042 0.017260658116270533
0.28010787026040457 0.7929384107764785 0.7384709219306168 0.04786540671313186
0.6196333791222863 0.7509253787891308 0.7388569701445785 2.9909241539407003e-05
0.10564060983161291 0.6941975188152779 0.7371323862096574 0.0033735570076844036
0.44446364909792385 0.7410016784858963 0.7353857119792484 1.4939459959421362e-05
0.022015169344155892 0.6673152228368745 0.7359310953347006 0.08949545725362879
0.38905775059094716 0.6205886443726855 0.7360341665681057 
0.1955330873459327 0.6210741546719686 0.7362115767165714 
0.367427584682928 0.7568745988460349 0.7339794006146266 0.0003225590754712014
0.08409266155090439 0.6498365992293827 0.7389838291074706 -3.688539611889632e-14
0.12056979765162017 0.7449520357201795 0.7419426394254756 0.0004996963045705123
0.5452240750632713 0.7624312487093563 0.7328383000118632 0.005094630330939192
0.3998724310936124 0.6413187171852761 0.735040522443669 0.0005447674997999816
0.175663059424391 0.5373148704491765 0.7365137265524482 0.0025438243382324014
0.038075364123606584 0.6006165036246196 0.7378490808115542 0.011438051975280644
0.2377951529638382 0.7270354770145747 0.7342742285112671 0.0002307112884664404
0.12053057624694295 0.7873325939420082 0.7346465349300894 0.050685700690380586
0.5383412108734874 0.7218239910999432 0.7349838236850101 6.8107985859224e-13
0.00041687318242903965 0.45626401367500524 0.7257485447367795 0.10014013025916217
0.370420946829658 0.646266421418398 0.7340394693682151 0.00016875409110125083
0.13699650080914114 0.7896807205125007 0.733870364247438 0.017351842863282015
0.4459540270373401 0.7110867540896179 0.74195350526643 -7.454440448543294e-15
0.06791714798655643 0.47728080172971804 0.7330861324995391 0.0035786893088376823
0.35612483636982917 0.7640023412663307 0.733227743286503 0.0002203287876961575
0.014812958764953813 0.6553780100734874 0.7358291410123224 0.11328036257288433
0.5144476331903813 0.6865444998492464 0.7355246913649026 0.0019983820271878804
0.5511799391982802 0.7307756535091028 0.7380755649825985 0.0019776683978182516
0.006153019689690697 0.4044738427548185 0.7356657344553832 0.026152877038783353
0.11787409580450994 0.594147670863626 0.7365868280559222 
0.2520209178046922 0.7991890919110857 0.7271481434596274 0.0896316718690501
0.5368894545105402 0.787731235474997 0.7269794181143029 0.1278435871080588
0.09136639963182235 0.6037182646420908 0.7417244933429037 
0.005328398642777605 0.6521422865823907 0.7369361615076182 0.08694440646431431
0.5935254534982979 0.7933756143298841 0.7300655269274465 0.06890497208376561
0.3024356442420679 0.6561524835096877 0.7331649433636903 0.0013624831142150832
0.009002871270723646 0.7251009870689531 0.7348616593169591 0.09334495061713377
0.001355457947902079 0.6927693114978835 0.7260113771218735 0.08877770692639995
0.29260008809827776 0.7422309336260825 0.733359042547634 
0.09148792188840427 0.7554058338367337 0.7383945693499452 0.008595065705498985
0.275875910799373 0.5900828896588609 0.7337869568837678 0.0021824946051585505
0.18534103865593773 0.5144658846689426 0.7342880336139466 0.00021058815659806015
0.15043691707858634 0.7740430793823004 0.7334471150734118 0.015065709217713741
0.013762128132754587 0.7657781900916043 0.7344089780275104 0.05632076261442321
0.48238922847711896 0.755115853452503 0.7387954205229178 0.0036931960095841656
0.017606657938880645 0.7156406393958498 0.7341203968603223 0.0964742996203916
0.20494639468582337 0.551574725776417 0.7383808907884465 0.0011106407094393456
0.02153843398566744 0.5955914839349763 0.7335484350751287 0.13053183884402306
0.05022461053041743 0.5295769598602149 0.7371049602636338 -1.090253430164836e-13
0.4060229364814862 0.7312429315999837 0.739478402542695 0.001846889366896796
0.09517697746724572 0.7802167793179281 0.7346169851850235 0.10420365747213377
0.04654390623908411 0.45427136279227753 0.7341898258101286 0.003983227032120114
0.3197950019635966 0.6602871562840305 0.7332198483949305 0.002369780986147743
0.2481222013105749 0.6527836639124359 0.7323573051846767 3.0558100970546837e-13
0.3150069695021884 0.7859032849340067 0.7342631410872233 0.14083965225041895
0.0019726377092340723 0.48331510088622703 0.735655052070002 0.09677750456381692
0.47739748234020263 0.6898941635098688 0.7334421000169232 0.0005113363520430751
0.2582936499426385 0.5908771157936366 0.7338298692585342 -8.257925850506856e-14
0.0752031795922715 0.508017454797377 0.7346474300115097 0.00043733990042327394
0.11107507501470187 0.7166370033470856 0.7321901973808383 0.010438970869546513
0.054403161606051145 0.5652918097641018 0.742243894980254 
0.5268428647868767 0.7737442168650107 0.7339892274006686 0.006686621402560216
0.3498201845785712 0.6423370159369823 0.734534542849843 0.000487880378326977
0.11961639928930169 0.5164079699794695 0.7368335810757611 4.0788750381379677e-14
0.014809924501003107 0.6259093123141584 0.7347469799848539 0.10352885252800748
0.03939784218069913 0.7382998224846659 0.7386833506292242 0.01092186632533714
0.2260315667389563 0.6649071140121625 0.7375603463023896 7.838526209811639e-05
0.012262449621723879 0.7149758379979557 0.7319333391251296 0.08465476844573373
0.16117124301189636 0.4978200896648686 0.735307891097943 
0.008851825644750032 0.7569401125280184 0.7316590631125678 0.057497781046543725
0.0531001898369135 0.7922716392250215 0.7337602845504378 0.11986006460595025
0.4299296872078744 0.6631855258744977 0.7361093367261785 0.0011733394562140162
0.18793916021288362 0.5649936465727553 0.7358926281218431 0.00627340212721788
0.525682446473909 0.7192916065292222 0.7355032645131488 0.0006135712261077602
0.0997027053873959 0.5381161381554511 0.7352629516302527 5.8300497697929704e-05
-0.0014866560901246892 0.5419066996814491 0.7383001082866174 0.04460290755090696
0.1976597460615367 0.6815319159921642 0.7341515725642809 8.585785383651302e-06
0.4838451978599553 0.7817694789040868 0.7306567325925025 0.11216684508163542
0.06637768171362009 0.6659437827554039 0.7330619664885727 0.00018073218793977078
0.1609197528505491 0.748171573586663 0.7327178731146423 0.006816576600331245
0.33817564571218933 0.7951442962463804 0.730848441909897 0.10246225535929719
0.2998884587416104 0.7395031797600454 0.7326634518269396 -2.78750772633294e-13
0.2467241071344861 0.7363062594184396 0.7353624055811243 0.0007418775362594515
0.31067956172697914 0.7929027291617855 0.7316652525618753 0.1236938546664335
0.34541161697143286 0.7113536927098216 0.7321362249672851 
0.4720775068794534 0.7914132745637039 0.7327868445837714 0.110314086635295
0.10351029467004656 0.47868143229885607 0.735033367792733 0.0014996272379606235
0.1101780205716627 0.6760769853471928 0.7396484032534617 1.4362851660691914e-13
0.3268266327277025 0.7014977503251557 0.7392260993352924 0.0019875838360917607
0.2678336254120263 0.5649266855314996 0.7336897841050514 8.208322795287072e-14
0.6085404722429577 0.7972970194992127 0.7338990897533758 0.06822559666809938
0.10094391122602583 0.5032131951176829 0.7353081418917704 0.0021950588472112354
0.07469782627774244 0.7682091487687226 0.7349879765646726 0.027908356688117923
0.6388620680031536 0.7730228783371059 0.7356425089316081 0.03211470885329864
0.05551613709315509 0.7042789077909122 0.7326181935188432 0.002165519381154666
0.34188957411121007 0.7689395820864184 0.733335860022892 0.008460394739821788
0.4527603157008118 0.7769564722288138 0.7304363532900002 0.09619116115703052
0.010586600328302023 0.611584173786439 0.7274434279742286 0.1218852596152419
0.044922040368283414 0.5058902372989249 0.7353598941765003 0.0019228698649007545
0.021988853154459902 0.49332701056431083 0.7343476855995326 0.1498915634603483
0.16155135177361918 0.8013973164145469 0.7210306544215757 0.04115223787143438
0.36709539646112244 0.6605304524580016 0.7340337101611866 0.00022816206835447875
0.21739710666503514 0.5777237947446208 0.7386720296416326 -2.0075337478608648e-13
0.1052820886144155 0.7891264913084354 0.7330067079869834 0.06194551929224013
-0.001441066009353605 0.7099428935187652 0.7282329165963095 0.10390710907006122
0.21479021442683655 0.5913530860945874 0.7327070870714797 1.384102332348767e-13
0.40415631179741124 0.7678568518565747 0.7423068582550166 0.007732022236142562
0.45397664347551 0.768428366992138 0.7322308077674531 0.018604393302122393
0.12062039077970865 0.49479798998325475 0.7398290336686851 2.4566734441671856e-07
0.11439768933465073 0.7311472663176969 0.7344465224280945 0.009634278348098217
0.06577003984350277 0.6311127927057707 0.7378771891549917 1.3052072817120766e-13
1.0565743794948073 0.8024012829003766 0.7400773338997397 0.05913099353818202
1.3920812976005097 0.7969061998623073 0.7038894044368669 0.057218089524368444
0.6737668927440408 0.8005061195244884 0.7354589049109699 0.048795467054210145
0.947848921243187 0.7884110776703197 0.7278458165412813 0.061199242654327655
0.5592391109109502 0.8015115281213806 0.7365402149001015 0.05211890245929549
0.3990595780646804 0.8030698445669855 0.7249425156291347 0.10810554768670261
0.512514570021555 0.7929898807789773 0.7321983411356561 0.08570271969653316
1.1255332017375177 0.7951555536013986 0.7306739230802247 0.06087624103148726
0.864884263716078 0.7990142709194192 0.7247550807868401 0.056903534385157876
0.34558736049685823 0.8055788567461908 0.722386984177093 0.09266679863819337
1.2911584806052823 0.8049299712198451 0.7289797361464919 0.040339350563821784
0.41947975863946546 0.798285542502305 0.7323336468585494 0.040353882879446475
0.32855472345019116 0.802783277110533 0.7214100085730882 0.10179335688260381
1.143660322551709 0.7938486883063636 0.7154116377423477 0.05975971860683382
0.6887744907002229 0.7920839621807154 0.730822850335821 0.08024261468134217
1.3591118241335982 0.8061247123295672 0.7301085787621423 0.06350111874373128
1.382418397021494 0.8007852597741213 0.730756132870101 0.08019593879303395
0.9610427335117823 0.7991386722798729 0.7232283779105331 0.07721515096630933
1.225606571800472 0.8055468118754475 0.7295889971317425 0.058134346056205974
0.932329883952113 0.8005061704004182 0.7290391938182262 0.03930117582149303
0.5005997301243742 0.8066842251776157 0.7319058602906665 0.03466133961501823
0.7143648613610594 0.7973036014323768 0.7263339204419521 0.029901541446117345
1.091768431636597 0.7998944039652642 0.7284784333887931 0.07972572532626432
1.4018093819541002 0.4309270058963534 0.7336591217237536 -7.989072469090197e-14
1.4040065957664627 0.5498174774903813 0.7375477415109926 
1.397025671539874 0.7685131660171773 0.7336049348564584 0.020267315393484107
1.4010796781157473 0.7968195767318352 0.7268914910358681 0.10858587533528213
1.3963481366437196 0.13292987338738602 0.7288385786841443 -2.5758153325655085e-12
1.064078179445703 0.7959217595844446 0.6953983565776742 0.027497658381285407
1.1600835689285414 0.7967364672313343 0.7006521745949483 0.04359087308834274
1.3128477036950665 0.7962049656511669 0.7008635453789397 0.021147969900726607
0.7623276785398844 0.7935909700619083 0.7001247441995496 0.03553953989739629
1.2459073372782998 0.8019688410439895 0.7010121387077516 0.07354863307316954
1.146267398624663 0.7992600843837429 0.7091408136208102 0.0660617273897711
1.1255804083760146 0.8018926807004073 0.7079587987515701 0.043348891628877756
0.7225158657555539 0.7937240201727908 0.7066770141450948 0.02077120698788785
1.0769182269925395 0.7948898889307454 0.708616599341778 0.02317097964987885
1.1903265736370692 0.7902996237023677 0.7035659011251919 0.013389145271345455
1.2636896583390302 0.794458644043602 0.7020068306104935 0.08835890373506262
1.2938985771488334 0.7985529956145795 0.7043370091045275 0.04184291744638984
0.926572703205617 0.803556600155946 0.7024096594640884 0.039070697016942255
0.7755674963254661 0.7981189562135618 0.702745133004361 0.04590661721055012
0.9896013610721207 0.7916571739167542 0.6990679561492551 0.028047628931776977
1.2117838569062125 0.7977870695031771 0.7083290212081237 0.060925332178268815
0.9901215055563829 0.0032503344566964013 0.7042559899731239 0.06368537358296233
1.0991237295527494 0.004757517337322391 0.7071862829792652 0.0952673658338297
1.0234004000762424 0.004604444156085735 0.6990063557350734 0.02867966859916888
1.0685140430187896 0.019084047815082793 0.6944798228717803 0.03576825627600191
1.1001832057882224 0.015334080825639654 0.6937725315925303 0.15599971914061195
0.9160113903000819 0.000920659063357347 0.7084664008464062 0.05114031492546075
0.8862454569419344 0.0001796973501853802 0.7070235905790884 0.06430925182077739
0.90853997950016 0.013362294461828895 0.6909928160300098 0.007243990236855824
1.1788059196228573 -0.0005403563035137181 0.7068814972796181 0.07672000319171447
1.086371598952492 0.0015535059077677448 0.7081632791933106 0.05159734827116951
1.170589926891376 -0.0031527301829795303 0.7158731660266026 0.0913358169309087
1.1429100990834993 0.0015170557100080539 0.7076917257724092 0.0675234912165464
1.1655943446816108 0.01582996079947918 0.6971354965091956 0.13666600714911678
0.008062891108057378 0.7011045641994316 0.7061426228455844 0.09416885195785213
0.35934533187302964 0.7982020242803657 0.6978044051967446 0.06144926188207523
0.2819784556714224 0.8010732538906647 0.7134748791235304 0.055738013511121065
0.0014447147710756393 0.5631652691832899 0.7145711221181879 0.025597358732538766
0.0034032142594237146 0.6711941661224625 0.7028942150322923 0.07938505143512971
0.01411042399932147 0.6124058983248871 0.7006462607069479 0.07915835664506048
0.6565435707966816 0.7895294627015284 0.7125064288497497 0.13867041519647283
0.006699576506401418 0.49295822082508856 0.6999532268589692 0.07378261760015561
0.09976870420732126 0.794198112049033 0.7059738001537683 0.041475272215175885
0.29258114602102464 0.788446024818403 0.7033795669631876 0.07625642317770587
0.020664247368616828 0.4484959141284688 0.6947802277655191 0.046750793556262944
0.006839895492025929 0.5250261159690371 0.7068732165659248 0.02265943762680209
0.4218123598962111 0.8021818409869301 0.7057488289119621 0.06119390018954132
0.5565782880333991 0.79464410084266 0.7027118617880528 0.024908926821198534
0.4924292856998361 0.8012829443972801 0.7005802587108183 0.08567009669623905
0.319151728063572 0.7905874856245477 0.7000311810051596 0.06871537191410067
0.00029047377779976846 0.4171082387174349 0.6962860129821822 0.08718586184686675
0.23490517944900413 0.7913505526569781 0.7132089925258539 0.17837927084082328
0.010259399373474658 0.5928404236302424 0.7025458361858666 0.07944261876177963
0.23833766184858896 0.7913630733349436 0.7051594776031693 0.19373979000365008
0.08769519364234785 0.7966502189868226 0.7073992161617517 0.045545521038734944
0.46696465322536573 0.7909299038264922 0.6966985704019746 0.055416215996975715
0.21746882499749323 0.7819484056335088 0.6935451857446799 -1.0483819299431873e-13
0.6733988550011523 0.7895705354737022 0.6965798829455244 0.0220460803973195
0.008797244615253452 0.6349496925815603 0.695083566586623 0.0245169365286856
0.5347643335429998 0.8002601871198645 0.7026829027889494 0.04499837010073527
0.001209756916871003 0.5697609665384283 0.7016121954456336 0.03754181491637998
0.3831014940152598 0.7805342199071494 0.6986727719357334 0.009433619066030158
0.4818340967333964 0.0023896583144113765 0.7074284906388472 0.07446107924451904
0.545986832320772 0.007061021787290648 0.7001874574903123 0.044235012816347494
0.29698694227859973 -0.0022612217719044786 0.715408136217592 0.03519437820816682
-8.32075942763244e-05 0.06116732204853263 0.7058141363988488 0.02321947968547434
0.6638820235813612 0.005468813922334311 0.7023392484860466 0.012752110518176001
0.4989765018270182 0.013481910892015943 0.6983878929517251 0.03052629174917665
0.005566932100692255 0.3352553879600486 0.6994928972372888 0.03834002027206668
0.13882479954967672 0.0003293312882447826 0.6967624809209327 0.010941399820125819
0.3969957014968568 0.0055186639729903585 0.7033376545587239 0.07466524219416186
-0.005076504552890768 0.1362576760555027 0.7083142644634483 0.01893799367406763
0.6850242087507391 0.005120293359385972 0.7087223681202272 0.10214047614642949
0.4671501990961268 0.005863852287654047 0.6994656272487444 0.10164707940390028
0.21664718070889374 -0.00035082036443205133 0.7034590232144917 0.026766465963219126
0.0063072779522962575 0.36822376265401857 0.7006739698961572 0.025335084392904737
0.0052206438546374264 0.19781516948400346 0.7041148376022599 0.0464035138638043
0.16242372737009386 0.006086793180590509 0.7000505341887064 0.06790795859398263
-0.00042141843878756857 0.2952312841122315 0.7021180466617566 0.008659991357782216
0.5774953758336647 0.012128017890700487 0.7005418875096177 0.06952770763985387
0.6193951708804685 0.01586416416791888 0.6946761684154311 0.02165465101970309
0.23306148255265333 0.001945548121910303 0.7085256952494159 0.027258593618110203
0.017731452068391745 0.2467008057948985 0.6983746636627356 0.03301181014385837
0.12585066592351982 0.004836583591220609 0.695579038517009 0.026019347762887206
0.5808746279743081 0.010587235511294524 0.7030179271863068 0.05562706725173884
0.5212215389960138 0.003085849041331178 0.7037971607536329 0.07039296848870454
0.09324131299248672 -0.003849849175640169 0.6994878355170567 0.010296266271046925
0.9051278276257215 0.8110214894123011 0.7045676862407236 0.03365385621116991
0.6718684917023113 0.8036138638782352 0.7048003038708449 0.033032218380010164
0.8466556873945613 0.800690800671868 0.7056341754207153 0.013372314885748053
0.6175441697025149 0.8039330192257375 0.7074670936986053 0.023218512970846303
0.5946442819310498 0.7998057096253844 0.6966279945743359 0.017641461075997945
0.7521056847070805 0.8005533579755428 0.7142416749632532 0.027200205496545338
0.4492193776799806 0.7996966294426916 0.7041953616814886 0.09757141716023318
1.1615227188793815 0.7997714170540652 0.7059013357443166 0.04472893738434516
0.9640611971763327 0.8054505042248102 0.7043732126599872 0.03245806377308509
1.2217903659226936 0.809108195479916 0.6995822917059609 0.017672661756546033
1.0033527392095483 0.8018325515550423 0.7071884858012641 0.02725993335883306
0.3643101779400141 0.7986862870922949 0.7117611547420929 0.054434042808824606
0.0015491744598145217 0.7918388751082398 0.7098684275559757 0.07683470599262325
0.005752188657683911 0.7497516261911145 0.7179716578140483 0.05697303510618402
0.0016063990722098766 0.06387369104130713 0.7347654429412536 0.013461687832398234
-0.0023141926457813764 0.49225551964691167 0.7335666127264586 0.09218884839204493
0.0032651967683580132 -0.003621380786633809 0.7216637403028942 0.08272064004358591
0.0026758139839170234 0.5898154682505422 0.7283145867677769 0.10745632519150787
0.001605402095530886 0.634166133961796 0.7323525819007907 0.07291753663979762
0.004587936088147702 0.5585934643792042 0.7282826364836569 0.02236040411409192
0.0011921932492318236 0.006271493740872713 0.7278781043392514 0.10888018216436933
-0.0007846849392737327 0.20692999767736547 0.7213906809179816 0.05274992037892209
-0.004199380297132223 0.2944399318609508 0.7303383070305767 0.0338077178163509
0.006770248025866728 0.7764537081836461 0.7299484585257818 0.09094427225192349
-0.004601582061621458 0.7862917598766627 0.7297363814442692 0.050306853065145755
0.41655471171961855 -0.00012301045402124053 0.7253502094550125 0.041424037800106915
1.1401875489781215 -0.00210651685216314 0.7242071791912312 0.07265147925632734
0.9664412085116513 -0.0005560546035557775 0.7263711084131229 0.06611573565604427
0.4792596471797437 -0.005198783544606078 0.7281693832819028 0.10491677375002328
0.4417463446742816 0.0011428976862532397 0.7317900083975368 0.0716581559284514
0.5451994446116736 -0.0077185288349122735 0.736483607424973 0.04837928125506299
0.04845143212767915 0.0003637489191352578 0.7275312312435835 0.06749886062983478
0.9712912230868405 -0.0034594013735537547 0.7299982349147744 0.05833787728769893
0.2522979830970398 0.00018931071898644855 0.7348582326378265 0.04669959838631724
1.086693871215018 -0.011649389786817035 0.7383305797397126 0.04695866962328374
0.5059468304183333 -0.00011182566008763025 0.732435152960918 0.16984340546482865
0.01853878242268003 -0.0013569026728518872 0.7307928730427977 0.07324545517281134
1.0626922761258721 0.0028919449407564654 0.7227019002286059 0.19232474859297538
0.729481092808356 0.0015005672506194657 0.7325394999244735 0.08467423056129307
0.8500096805437446 0.005127937561073066 0.7277935784992264 0.05262731669893824
1.2940507717757008 0.003908383024321957 0.72360426116246 0.03866766962844705
1.104645521906344 0.0026106325073032505 0.7331788006293669 0.10476665118993163
1.1677089092081854 -0.006022028440665084 0.7261302362469584 0.06683390569644533
1.3044556148856512 0.0038954259312157244 0.7265602817166035 0.06537403897771958
1.2859734954142772 -0.0026226437416679736 0.7067059959014409 0.03335118993014747
0.7028210812164581 0.0028364138580235006 0.6952859225806977 0.024740964858273942
0.7241780641311061 0.0027671522318631777 0.7072863043112344 0.0937791798144207
0.8128971411759648 -0.00831914044121526 0.7051189043600096 0.08650528230836449
0.3874181239025253 0.00526193223591764 0.7021532030275524 0.04382460895732638
0.759381337066222 -0.0053291951636236425 0.7042718150362337 0.014779316108708111
0.3482949572125994 -0.0019576076967220473 0.6984714659554039 0.036199480996740314
0.6065749570907086 -0.006036608234150781 0.7102300374060604 0.018151906077412787
0.011736932876727535 -0.0008811620618462242 0.6951785722844356 0.05149232392775096
1.3078969851904494 -0.00037522937501356483 0.7012824956009257 0.05852498318074102
1.123429644280075 0.0014835590735616886 0.7016448340354563 0.0833800784096645
0.4483441805508979 -0.0005452104014323293 0.7037200620049225 0.07397576111332738
1.2668265559421954 -0.008066403738480197 0.7091384609470629 0.013038736108244959
0.8957131927392088 0.001436049978823553 0.7141022979618543 0.06898601100974568
1.2500300558069433 -0.0030696008936753364 0.7161292629775098 0.013135079557723658
1.217077982481089 -0.007992701883081956 0.7106142814563635 0.010018847703576979
0.40492339514280246 0.0030490213369467867 0.7093702984264318 0.06060714048425533
0.753551011976752 0.0020472878598972568 0.6972245316359091 0.006766604690379167
0.3087299466957556 -0.007557537451481728 0.7155330771996031 0.008515990211348261
0.9775407509597902 0.00017232223424704744 0.7012291147079597 0.10807605258796302
0.779914194787431 -0.004564097653858207 0.7052767937075697 0.023445616046923776
0.8499704254269332 -0.001923817582182612 0.7025883768867216 0.050335487033069316
0.0007127877722045465 0.5084593896099048 0.7025756147286009 0.023742712088338884
0.005983488402888886 0.45513123018198537 0.7080150850947784 0.08987467575758017
0.004096521289330558 0.5426278994512925 0.7049285551987678 0.030752380861874075
-0.007984905452015805 0.3200403276333257 0.7081578343389361 0.05645828975630116
0.004868238948420748 0.48165572122348227 0.7054220715729229 0.10346348210590925
0.0020311389466889825 0.03996488453396968 0.7141282813656313 0.037072206506283054
-0.00044580998317743196 0.3987086955303782 0.6996412811957008 0.03069718219937788
1.35141976772033 0.8018505026564553 0.7246263409541737 0.0735986555466926
1.2521373907306077 0.8080756039581556 0.7301662743566062 0.08013044944150183
1.2010317479470416 0.7959760434285135 0.7238455839287226 0.060009487461308235
0.7867013004955855 0.8062932689487561 0.7282507072142301 0.02078369075443146
1.3135553476892352 0.793715457425447 0.7304358948288974 0.08782078989259295
0.8883902656075383 0.8067197352825209 0.7294158049432045 0.033143407051573245
1.170155571967662 0.7974911335768595 0.7250908100347991 0.07625632746001916
1.1131849196095784 0.813399318961032 0.7253420965849593 0.03898387479360828
1.1833644464841522 0.7984401113738545 0.7148490543307141 0.03050951585121725
1.3360746282213902 0.7987553267213414 0.7134174799475546 0.06507856225573165
1.044947840522287 0.801859905849406 0.7314931601382073 0.09879430611342736
1.0137701698256558 0.8019285192165508 0.7134707581038721 0.024444681148051473
1.035259085178604 0.7933201249127795 0.7161920401943154 0.09438683377948232
0.8301837125464665 0.7962800331060633 0.7175889214207033 0.019722421563105903
1.0629465574573005 0.793705844083264 0.7157440181103368 0.020981614333039415
0.9845066588778019 0.7977168416042971 0.7075468167796164 0.05168130189907593
0.9244899963574414 0.8056707485901459 0.7246309827516403 0.031828774039645055
0.7647772533244991 0.7961591459869839 0.7081846110056215 0.03336718991466279
0.8207805428068097 0.8017614363734387 0.7087444890805646 0.05841730744555856
1.285341388537581 0.804929292503318 0.7174970217228857 0.03647828050186425
0.8821393876963541 0.8047041485288893 0.7135725902239045 0.06912533197253212
0.8459892702908097 0.7998717594424689 0.7192296564940031 0.02157746331327923
0.9564974477346043 0.79554758732599 0.7156892754121232 0.08442880907863598
0.7883432436788932 0.7975659825922277 0.7025526846192933 0.039865273300546795
1.1060744850001507 0.8035162835812392 0.7205267372925275 0.07883170404460507
1.0526001741534703 0.8020749958406156 0.7193726683193957 0.028074103610082054
0.7662309827828198 0.7997086631340319 0.7218812549851129 0.06536935313304654
0.9361126858969094 0.8005420902284809 0.7106606766742397 0.04964777020334707
0.8086861185416834 0.8021865956542249 0.7173474845874632 0.04796847540667949
0.6982307101585025 0.8039030090347444 0.708724456540005 0.044590321855535055
0.7464285651518477 0.7988231425419013 0.7119470761693749 0.028193761837597094
0.7121923566250343 0.7994561373688532 0.7091786960781301 0.03776985335929918
1.0002744258829992 0.7987291238318535 0.720024562016329 0.034818392124396254
0.8695171417601635 0.8024972828805457 0.7187553342344658 0.04573207142710279
0.7307847379438747 0.7989816922288281 0.716301702007423 0.02954454914867412
0.7966130535262314 0.7980074918098183 0.7091502665365111 0.031073251281303577
1.169750127392062 0.80033448286319 0.7222213562846632 0.04822585430537256
0.09323876892199544 0.7977616075305733 0.7158576344507653 0.10660230703488131
0.25601672803221304 0.8032111412990247 0.7111977023107308 0.07583613889744131
0.6517268361458525 0.7918179198025914 0.7208517953946464 0.08771093081879448
0.5462587333797125 0.803251249330914 0.7253294832295115 0.060085660816347225
0.2094894598163771 0.7991783795191427 0.7191675736679914 0.11404206414823809
0.5847464449526256 0.7983432356416377 0.7270586174451424 0.056808016865316155
0.47531746200635233 0.8030877148916883 0.7158607452420674 0.07569159751717616
0.3027856193422365 0.7986192144510118 0.7088349010178379 0.08884178764518644
0.4627710994823571 0.7993040500119668 0.7277822557701003 0.10678705668253405
0.41023650015141827 0.8044589596660207 0.7248013569385133 0.03617442480303058
0.6831691907724257 0.7988427144446006 0.7242907740539539 0.08040476810328642
0.5653624158101193 0.8003453567492068 0.7082539312902664 0.048969835441241866
0.5091611538465984 0.8082056256936982 0.7087318980869202 0.026362043672973384
0.62823293034091 0.8046878313543014 0.72018480282224 0.053441544426779015
0.17877842993446486 0.803725353168214 0.7205826460192181 0.05507942621121915
0.5255391849301844 0.7996198400535119 0.7247948024547436 0.1009206699163225
0.5928923308721972 0.7935808568158343 0.7189083656206431 0.05933762141824421
0.04552173886263288 0.8029085053943645 0.7228639842761729 0.06447798091017831
0.2915977013533319 0.8030452861462084 0.7159994871741882 0.06777379006992988
0.6629785352427459 0.7970841631963153 0.7200763639691883 0.11011836961405118
0.6410682851391019 0.7991868829697969 0.732009631793202 0.08346418341063838
0.15766290359473042 0.804202425407356 0.7243463942134188 0.04501671794361843
