x y z curv
2.098641247154888 -0.009014780154377584 0.7914212889619288 0.01673023081664853
2.1519768677338624 -0.0058076009850738354 0.7979153366981235 0.021979043990683286
2.076503270876631 -0.008248131519763335 0.7953133637274786 0.012157365091434218
2.043923442052121 -0.003960990504258964 0.7968398786265568 0.0334854898621509
2.094862257870223 -0.004467566582306564 0.794769886124319 0.015225121338272371
2.0164813657893594 -0.009817484194432175 0.7980077531418303 0.025061282101776508
2.0239485581428265 -0.024145530933482665 0.7859591130237167 0.007167992596415012
2.077498561348555 -0.0016371030770281668 0.8446479414775148 0.014716069697403331
2.1285469221738498 -0.009149831735658817 0.8491398248809451 0.014803451631945764
2.1342047745296795 -0.003945839305012704 0.861497738289302 0.01183867015362252
2.059676054817362 -0.0028723749900177818 0.8343151384039641 0.01834826027133852
2.098400294373315 -0.002222743708035782 0.8460071305263817 0.016844338393106388
2.045012014596496 -0.008270526851421135 0.842767784275433 0.018417709712318323
2.113585402927497 -0.0017304668814172803 0.8380299418337004 0.013524173899831723
2.0534155471954647 -0.0022988609880313067 0.8116417326870995 0.022718871628731433
2.150601354304467 -0.005687763900169213 0.8386901986352094 0.015936799643547724
2.0957171275906097 -0.002202239279830303 0.8386469912298753 0.014325163954846539
2.1446262111383545 0.0029944203728942175 0.8229735173160189 0.026083528979239507
2.102921767285338 -0.006746324041670528 0.8656732610270209 0.015003877226812418
1.9979892981491791 -0.005011241399881432 0.8239676131690092 0.016035058326854184
2.008343242122648 -0.001861176630759734 0.8541445784318913 0.019948035346288747
2.0174973708003003 0.0036328399311375747 0.8289564500695694 0.014795742909143624
2.0288789160290106 0.005620819860664648 0.8291451265306232 0.013614601453277766
2.0085839251461453 -0.001834187142147769 0.8115372167659899 0.02675199259684181
2.0250802334815643 0.0018639232883700518 0.8589066814015504 0.02062194051982315
2.034915519871235 -0.004048965815786333 0.8497774736194742 0.022231933121578888
2.031584630274334 -0.00047667591617646995 0.8112076937049181 0.035607197232574314
2.0579124586388544 0.0020057416106346697 0.8147831538115209 0.02099891613001526
2.0631720656785437 -0.003655828468375134 0.8714382619852654 0.014555831205132168
2.0671406161209966 0.00604925941650051 0.8506111267115212 0.009977315719218229
2.0682507843133644 -0.005366989444786052 0.8183627191239567 0.014597955826272156
2.096062733246021 -0.004892636227808847 0.8197858059817772 0.009295849248234926
2.1180294462848277 -0.007819662913133834 0.8005705649134811 0.015832457390471972
2.1183466758108414 -0.00472706068896751 0.8533368207458405 0.011286663887640807
2.134128449741286 -0.010177659258985198 0.8387718673673669 0.011102139948351214
2.1476089210209324 -0.0019297259994723631 0.8555793042411297 0.014747190465885959
2.141714985401908 -0.004235177607989566 0.8286149227351778 0.020134942805338202
2.1646421303293013 0.0012444620082080974 0.8300317878484408 0.019721354378142934
2.159412269932209 0.002835614086655702 0.8597365230015577 0.011581628137139829
2.169518047221415 -0.0005300307906851397 0.8626509541434307 0.013178115043422275
2.172709732911795 -0.0032402357191764174 0.8556988553098398 0.014251451785737295
2.173231640212542 -0.006311816128398928 0.7982327595339932 0.016483796758142853
2.157955205252232 0.001654507624400967 0.8172296441236431 0.029232362832045156
2.138910288668312 0.005516191250288387 0.8184404557822662 0.019071974554329747
2.1335475041204126 0.0027673507269659206 0.7958999804258189 0.016088577472269522
2.1359312208678607 -0.0014553015759976211 0.8245444622827798 0.02247919858831292
2.124275117574645 -0.0027253366639245088 0.8635986356981268 0.012365154009098118
2.1046620868774 -0.0008417476584545412 0.8187818788470104 0.01617055068615051
2.093828825359358 -0.009275538148462053 0.8621055243012202 0.012777064482491397
2.079162114182742 -0.005425633717254751 0.8276742488486404 0.01675045879901198
2.0838732447099986 -0.0046053043296839175 0.8204146618064425 0.009422955077670577
2.084937236657816 0.0014041681749709387 0.8103653195545769 0.006016410446653644
2.041906188264735 -0.00633054328518013 0.8351204301840444 0.017793499530974075
2.0226534553888635 0.00494470151687597 0.8662580229798789 0.013810980902254088
1.8217298475806687 -0.007079282233773186 0.8534578089091733 0.014160897931785309
1.8431652592549155 -0.0024655234936965167 0.8392487849106163 0.008387037320796462
1.8539406402417389 -0.0061229493649181945 0.8290564792126442 0.017154287522631147
1.8598567824453105 -0.010032654715781724 0.853970640676668 0.008875086392118736
1.864117571915194 -0.004113528476413357 0.8334210031727751 0.014726522302603103
1.8833204778913655 0.006480874378729696 0.8289945071407957 0.010305340139175695
1.8957293647673252 -0.00363693718665159 0.8171849452898152 0.01701454365248154
1.903671986531869 -0.003578711618578459 0.8179248804179442 0.012233962546543744
1.9180826007130487 -0.00668381030398063 0.8166799845148183 0.01771491845665975
1.9270871435352503 -0.003159057500036436 0.8421564368411696 0.01735341743510335
1.945333788278736 0.004472337802063499 0.8553220681842248 0.015180704127509643
1.9332538831282275 -0.002354787223482418 0.8025504430037993 0.01475778824773492
1.9557316125190185 0.0020765736329111913 0.7973686432897884 0.012849625510422064
1.972290177398078 0.001402835409600599 0.8071722000406426 0.007457690351825497
1.9705642832447197 -0.003916971807753801 0.8235103460005763 0.010774327516765785
1.9658604224410101 -0.002999392157457584 0.8701052535522302 0.026873635465889393
1.9822691072338843 -0.004418331459136427 0.8403955278526914 0.0136677219091993
1.9883805676567234 -0.001166045006172168 0.828052478881454 0.014121143401353052
1.9799015406130356 -0.0034986754744037963 0.8643188329720087 0.021712279860769935
1.9902710870547689 -0.001424577733069051 0.8314069650009858 0.01582514926581585
1.9976292470529826 -0.004070096821986037 0.8434106894836391 0.01302398371168761
1.9829873326234715 -0.00596982417387714 0.8061399948163739 0.00865021073544009
1.947610739738921 0.0050924938408019515 0.8299582414192177 0.011696501932114186
1.9359305587715219 0.002143814119187115 0.853906617982431 0.015354981836594355
1.9296021536899624 -0.00789760349455315 0.8295999611997315 0.008940566115727225
1.9195271285638593 -0.007761016005023579 0.8302710023264325 0.017707670271147266
1.9098667482289602 -0.0004047545215511367 0.8089102903229681 0.013044710596980865
1.9247148650129347 -0.003771988609765675 0.8050280440528496 0.014711005731596623
1.9072560325207457 -0.003896024503685136 0.848937727565671 0.01828967303035402
1.9051762772603422 -0.005627464155168307 0.8390295302010753 0.01925268329794181
1.8856279375160703 0.002063847363938107 0.8481400238395442 0.014827662599644003
1.8866770608954084 0.0018098237618717579 0.8034533384457203 0.015283133402285884
1.8795574996719522 0.0004812092597563742 0.8092280442439173 0.01635421213100694
1.865761576256462 -0.003848584094750771 0.8623892409851992 0.019999131104282208
1.8649734741136792 -0.003022059130295789 0.8182292093485921 0.020704254994278425
1.8470934603736548 -0.002228799230300004 0.8177393997046603 0.024828392108592324
1.8493920360782026 -0.005344817472885907 0.8286329599870117 0.01386754700614437
1.8461777333148706 -0.009216602255739594 0.7999756014693122 0.01794656858203977
1.8406149112368877 -0.0017588189517787154 0.8565999968136802 0.007375030324481476
1.8340465147915304 -0.00018483288924497042 0.8141807641700337 0.01716475460480723
1.8233982779821079 -0.00733001459594471 0.8551376288800651 0.014059926584315588
1.9953181126291493 -0.008452327316128747 0.7939428566835598 0.027206677742639858
1.8300063740812924 -0.008557836370120303 0.7897467759668378 0.028259422243521848
1.8285707967397515 -0.004406051408696593 0.8355343409091337 0.011339149507476328
1.9406355486489206 0.00019585230329859527 0.7944412243068241 0.01395640856252814
1.8693665540484365 -0.0015911264717463056 0.796851061814064 0.02459767728242534
1.840354552044642 -0.002190905769165899 0.7906646806628073 0.02487241038888126
1.9133833334475483 -0.0028051356219848255 0.7927322480126158 0.00194426560231246
1.8645257910302537 -0.005783034262246969 0.8062818309632857 0.021321843389881107
1.8310196604710431 0.0018272993100320167 0.802380852415039 0.01960315660588964
1.941059613565435 -0.0010342564731088705 0.8006356393488098 0.013811439343073354
1.9823955620792246 -0.0070272244989962205 0.7887908956958293 0.012419457390607184
1.9751276634252897 -0.0006465017597080524 0.7836261552021744 0.007458436269462252
1.856147932275539 -0.007469556085337793 0.7910031897505605 0.020235061826860634
2.0014734754611565 -0.007006869155239575 0.8011796229970591 0.030318926766298562
1.8686747858906387 -0.008455558771817622 0.8407315994803105 0.01413735879707523
1.9029288308916341 0.0048534100088037276 0.872803367090731 0.031663467263192226
1.922909004448081 -0.003961552990787449 0.8573078166872137 0.02162477223336661
1.981923678641974 -0.007783142855391757 0.8471544982001414 0.01124322267862086
1.9694342650255148 -0.0008253046751504779 0.8333030015553439 0.006628489042154346
1.968798672060231 -0.0012688326803809635 0.8426281598133607 0.010993628136527954
1.8865016808246307 -0.0006088353490933292 0.8152662389611512 0.01438256578613457
1.856260340807341 -0.004913126226147981 0.8672655312794189 0.01754490074990683
1.9861663604467268 0.0037044781238527464 0.8713778564103957 0.03116874938737535
1.9103262451399268 -0.00276170215084758 0.8860513886300038 0.09079750343654822
1.955858611891388 0.004711587927414423 0.8809949566071453 0.027030063906539854
1.9793115361590174 -0.007231733113443207 0.8769525037191575 0.07137361913941412
1.9324626285274984 -0.0018623149295450342 0.8777127210573974 0.023493824714578004
1.6404906606591432 0.0038848626550989787 0.8477484051592188 0.011034543518956405
1.6493466564203343 -0.004182495396900612 0.8275009132874234 0.024115010595471213
1.6533615617167823 -0.000168075048727785 0.8061961223933035 0.02943531438189765
1.6706942936377198 0.00310967944920631 0.8073756495323079 0.019911859037992113
1.6774746522877129 -0.00046285967727196804 0.8550875453577237 0.015016017626370119
1.688698185786033 -0.008519096202679665 0.8233223406979367 0.02799442662087599
1.689982648658844 -0.00970596156406687 0.8272051464117135 0.022262414193515226
1.6962198087124083 0.0003493533790079077 0.8091785915847463 0.044684076828763686
1.7060696891297773 0.0006546609566806189 0.810582284874198 0.04240472595089197
1.7079790484371826 -0.0034418445462794057 0.8327791561374148 0.02162721750306916
1.7245799329885125 -0.003934582463611699 0.8564849903135717 0.014450842234435407
1.752697648730651 0.0010851198614437486 0.8238177751867347 0.022584089582220003
1.7566251522737264 -0.002843748796695954 0.8079483616304642 0.03709029953574159
1.7705331542152913 0.002048240203567288 0.8277217389976677 0.017622296391004474
1.7796063205548172 -0.0007472604053370734 0.8111001394055115 0.031262968830936176
1.8157695892482317 0.006970649750830881 0.8063654923059486 0.01232214673936351
1.794264936491726 0.0059538215846075245 0.832997646747933 0.012390914771497872
1.7990287295126468 -0.001461767865107851 0.8423540058618249 0.016915590602271182
1.7871891485949074 0.0029877865464560662 0.8553059202453447 0.019355259722231833
1.7821648817139402 -0.0034142839913063276 0.8397071103827584 0.013777563625686091
1.7759084921313735 -0.00014478364801395142 0.8055326736293862 0.03548892959352914
1.7670999004334984 -0.001701759878725327 0.8617788844726415 0.01612101834205033
1.7637046039800879 -0.004138873113462396 0.8654519806872362 0.016826190470301303
1.74697857975827 0.0028516652893859065 0.8510530261719949 0.013216680869195972
1.7256240024975242 0.008102230839943936 0.8265836382718237 0.013388105685884936
1.718774645210031 0.003255697847439565 0.838794369194181 0.01446877298855569
1.712240364960206 -0.0028770478743654917 0.8069027062137505 0.03734728904031556
1.7143319170670441 -0.001683658699250256 0.8545636640120201 0.020942503475921997
1.690806083298808 0.001442180224384481 0.8549403596149984 0.01419925635703775
1.6950204650772231 -0.004802973789733346 0.8012095344346359 0.05129699828592449
1.6798195479584355 -0.008570368599175222 0.8310381308579639 0.01808152812749878
1.6674814156274982 -0.003962817431319369 0.8457831283596438 0.01877020074978049
1.6500399426089203 -0.00697826000601163 0.869418851351089 0.019853038455016923
1.6480650020867285 -0.005879444533475442 0.8115878895485903 0.024535648185962
1.6388459296673374 0.0015944988064707719 0.8341497083795875 0.019194852051486716
1.7906063738167708 -0.00017287951884057459 0.8748107115067745 0.02710937436708909
1.7794702321391327 0.0020250978622915966 0.8752259366021018 0.026405463932223695
1.8139854577273586 -0.00452010117796645 0.8485053976373971 0.015586312794762455
1.8177350656636284 -0.001990855461521805 0.8181069781812628 0.016860114994753882
1.6512338543331362 -0.007487231702724757 0.7900286615567792 0.03451564907412668
1.6787587034698142 -0.0023699173153780536 0.7953733000317444 0.039100686409675116
1.6968171894187711 -0.008356487657060048 0.7960903548686996 0.042494168970571226
1.8083219967230553 -0.004766990509016543 0.7931424427657733 0.021318399814144004
1.7716516180521642 -0.01622246676350084 0.7896633325136241 0.009294046468727184
1.782175573876363 -0.0011446291816194693 0.7963700562196879 0.018600906085774308
1.6645930470387116 -0.002127336689836417 0.7921396981299856 0.0374796393459014
1.7695572363157395 -0.00029771888295673614 0.7977500105921372 0.02620250986111802
1.8105186118942689 -0.006797689885090623 0.7915685518878184 0.01783535635933198
1.735583652353437 -0.005629850138435281 0.8011534681871982 0.02028048432317028
1.72424585913261 -0.005647686519384285 0.7922254150756063 0.003458745883188762
1.7496132883441093 -0.009219947032650864 0.7965030898779623 0.021490521344455234
1.667097832138828 -0.00012134436161628619 0.8335160103264079 0.018657799080937135
1.6985828822904228 0.00040575858628581676 0.8770191871453009 0.026461614826689274
1.7005259183897823 -0.006363058488979116 0.8286637608641674 0.02327996464663344
1.7583833028816118 -0.003363750411530324 0.8285109601755557 0.02126018848839086
1.7451251310189448 0.004167486157868101 0.8127051325595416 0.010823449543316752
1.7844692866095513 0.0023602067846431284 0.8080311069387122 0.030062655126580965
1.7253702982452788 0.0012084070060901413 0.8141205711949593 0.023504174475783273
1.7738507738501081 -0.007311164658611174 0.8399449114674192 0.009156785306297863
1.6792541663791132 -0.004768669074464229 0.8736098102028469 0.028060761914197905
2.111247204217616 -0.5410998052811276 0.7964529122136045 0.018617201592417212
2.018237433669352 -0.5396223624635355 0.7878583030626054 0.018579411137734612
2.0393894131656407 -0.5418385447921787 0.7875451068584447 0.01609812084216498
2.1596131683614903 -0.5440280293490428 0.7849647315948719 0.01858256877411509
2.133890283452057 -0.5433325986275013 0.7990961139209175 0.016564860188109185
2.0131900215545038 -0.5470578009116706 0.8017661139836153 0.016429181725436597
2.066238872147998 -0.545934797601143 0.7964680836466312 0.01852707949237122
2.1362023042173726 -0.5437563217018752 0.7951668745711152 0.02013207896104514
2.1495944658179416 -0.5485181702978461 0.7975103388151714 0.02161387291529281
2.132007398605993 -0.5437276659272835 0.8063652506133848 0.012734879477841937
2.163709264852857 -0.5496409325960487 0.7949181832154535 0.0158830423368538
2.0742052678919207 -0.5371563323708116 0.7864237524959303 0.01183820430347567
2.0455143252053696 -0.5463291660637998 0.8526855646955823 0.008797996114461628
2.1272899699507377 -0.546568842834182 0.8450801551186344 0.007564462398825407
2.1030162028384076 -0.5439434800740515 0.8468072599864501 0.008230801617835319
2.058001578937875 -0.5480953706859852 0.8163199353605893 0.01581344263372385
2.06632033838848 -0.5406708591675404 0.8378653487540663 0.005453366158091402
2.1684940466932425 -0.551819655338507 0.8442172491461337 0.023112438696560544
2.1578927912999437 -0.5430825900968312 0.8367339353096709 0.02184445871260967
2.1607504429617013 -0.5433375963979611 0.8416218195310815 0.020030074468421075
2.060038505521716 -0.5441824948716181 0.8738364011723663 0.01727191902540333
2.0802586404913206 -0.5476022288024798 0.8766399187803078 0.019469506681500097
2.0102906908204616 -0.5491021641787048 0.8641447778206932 0.015858372860229016
2.1805562838280945 -0.5552823760624517 0.8678814392692638 0.01691547247056868
2.16290714229267 -0.5469956374347555 0.8800855493612628 0.023716982449234834
2.0887075959147086 -0.5444405847888374 0.8810445951454827 0.015688214251090956
2.1249932978916926 -0.5464386834401178 0.873079513111542 0.015307491156329414
2.0153902758154496 -0.5481791429507915 0.8661897317558979 0.017311923073160398
2.0086797669192817 -0.5514569065177297 0.8502623822063731 0.012846886936788393
2.0098238002946336 -0.5477807968394786 0.8358548684655865 0.008006757826212529
2.0286574528059726 -0.5507208052710504 0.8548654052543178 0.006015911518069084
2.012857883595351 -0.5431893911750542 0.8093558095207725 0.014644489458605945
2.021409413647294 -0.5442829771341583 0.8379063257522408 0.008391274159914686
2.0294354989463677 -0.5429514847056474 0.8057965101313787 0.011242247947899891
2.035296169382261 -0.5451816841609349 0.8082266589193221 0.012908583056050403
2.0370196237395692 -0.5437860523228111 0.81965741579453 0.012734280184021242
2.0473154717841897 -0.5500843299913251 0.8174614322599109 0.00896632773496616
2.0385793298152257 -0.5423508352486802 0.834996678872356 0.01245814887857579
2.046653534318501 -0.5484421513243084 0.8287073169360631 0.008985182993809432
2.0469426631706416 -0.5493503204158299 0.8008782290691725 0.017098288917627158
2.0545704169004746 -0.5431432426272997 0.874553953095307 0.020285428922403967
2.0502108099521723 -0.5472328624038955 0.8588759096274589 0.010777809158620285
2.077585054506376 -0.5477560136049079 0.8500657240545981 0.006895788230762235
2.085557278513786 -0.5473510311849575 0.8440916619263658 0.007866736799378627
2.083033854685995 -0.5524063048180348 0.8120163506315558 0.01369592218662185
2.092669084607079 -0.551731987436382 0.8007341680033621 0.012126226837109573
2.1049575746347093 -0.5445168000265947 0.8442479637548609 0.01096493105370529
2.10771472597073 -0.5446738609095024 0.8259092194054389 0.011312028916096294
2.1171979641533 -0.5461323870000067 0.8142840227468386 0.015774022307806914
2.1091801866287576 -0.549407393729696 0.8339300752929443 0.0115020379329593
2.1199388227460725 -0.54467282578246 0.864200772667648 0.008842064695017934
2.127389713311176 -0.5476352341897294 0.8581870345860161 0.008802049948227673
2.122555784944475 -0.5457172490064047 0.829491789671763 0.008039559652601962
2.125552785554467 -0.5476507568383432 0.8400458122662529 0.007419135798972948
2.132035027817845 -0.5457893154349613 0.8165174461579102 0.011224403606683434
2.1359128194512236 -0.5529551257869438 0.829863294823261 0.007097122363882831
2.1570554375263944 -0.5425012207872707 0.8251954527602613 0.017134683371178315
2.150155510859299 -0.5437727569116289 0.867147049294498 0.01640665575322283
2.1544610934390085 -0.5422092752770138 0.8562357379940007 0.020000436098508916
2.181137970046526 -0.5551357280336857 0.8303922493364394 0.014427060755692117
2.1754173738660607 -0.5533468616342117 0.8130787723080126 0.01834319774918492
2.170275268598261 -0.5502496623842651 0.7941897755339277 0.017220335810217507
2.1599546036222845 -0.541719908939588 0.8573118448659581 0.020981371014361625
2.1575460473024415 -0.5427156595208827 0.8161523812105096 0.018388091221852042
2.1573984737129868 -0.542323053603847 0.8076389631707187 0.022923492203956057
2.137058546043444 -0.5428281005635419 0.8498714425643257 0.010675010940026425
2.0989553312838507 -0.5468186843130692 0.8364053841723444 0.011777489030506223
2.0966800953982268 -0.5519106349280066 0.8663331738648131 0.006267347333279556
2.078767910598974 -0.5478490995829084 0.8280558044948158 0.0076126275439258075
2.065588915288986 -0.5498480118909023 0.8107248354314246 0.020673072600578758
2.072875386633869 -0.547422652730854 0.8575246201502864 0.006747637712153507
2.055014316187258 -0.544753428240451 0.8535179790773954 0.008492524155932766
2.051299006955609 -0.5491247362362076 0.8077193838852642 0.01875406379270903
2.0410732517324366 -0.5474845591284161 0.863402238492051 0.01153443400996892
2.0329053885073582 -0.5428061612961288 0.8326375660645902 0.009558334534757282
2.0182350136199014 -0.5418908011043718 0.822225548451715 0.014224691949474637
1.9658358283505508 -0.5535212728201103 0.8039416304246338 0.010984227579364209
1.832209454649973 -0.550005914044941 0.8626227783681746 0.01099635426093918
1.8289359531488525 -0.5531827781023 0.8286619854398969 0.01117698359875532
1.8478625267488116 -0.5499665463106191 0.8122824362015145 0.015090822487959284
1.8718782128781308 -0.5431991122042245 0.8234948000800346 0.0070615539328051456
1.862490099596848 -0.5432209707596367 0.8430503667943785 0.006396441405392741
1.8890863445236037 -0.543652176782555 0.8374352790888516 0.01005837699644158
1.8910904154416106 -0.5479605991412807 0.8034464908101113 0.011726713412997634
1.8914340371783536 -0.5485785510057011 0.8565659670816758 0.006991243741884331
1.8901884137394465 -0.5470683634165839 0.809736046935505 0.010564342545252656
1.900059162596414 -0.5460240959370485 0.8455740727863174 0.008088166491489131
1.9030565172648743 -0.5518853334534394 0.8689756165625252 0.009025201923022384
1.920512949720801 -0.5446428078558261 0.8162982290421125 0.0062715615604372376
1.9127995440516299 -0.5505883331914718 0.8672430976620675 0.01270182405123788
1.9196105494549198 -0.5466664475316878 0.8400621955569728 0.01004569024591005
1.9211568500096812 -0.5479660955770687 0.8540215356401432 0.01096072815911189
1.9310181958079387 -0.5475229504822514 0.8383376841378603 0.012454476200458923
1.944398214996 -0.5501078059482485 0.8166979062157392 0.015304412275307135
1.9580736655929245 -0.5427510732259665 0.8322419718012708 0.01519654460143124
1.9498921152554667 -0.5452677151414221 0.8308448340139635 0.013618226750873206
1.942991472530028 -0.5562037925703194 0.8527416324162322 0.004573181441069241
1.9675051451107577 -0.5450750050098603 0.8108789359145852 0.01288232037141774
1.975606896376155 -0.5479354029172272 0.8366823807780144 0.019978774954196487
1.9787960647885794 -0.5434618036487997 0.8181302584875284 0.01437852185942969
2.0006915216931302 -0.5465829660944408 0.8075568655258992 0.009876880855390149
1.987957748546559 -0.5556534175366332 0.8540173313053461 0.005415269869821542
1.9966740916726258 -0.5478647548240715 0.8410396963680967 0.012977242557501873
1.9283974715363783 -0.5447400069600146 0.8046084909333702 0.00998936427365568
1.911163285497764 -0.5498705203864709 0.8439763305309668 0.010774830355972358
1.9102050012196239 -0.5487352643159917 0.8223323024715624 0.005150633290600667
1.8867353583086999 -0.5492673507381441 0.8239949838080952 0.007505695198522191
1.8821893113915047 -0.54617975298386 0.856202756216597 0.009089304820002515
1.8743993916132966 -0.5457580963063752 0.85452983556726 0.010669845686997114
1.8697116408401997 -0.5532456813103606 0.8109210965592152 0.009657731136286948
1.8521299600601906 -0.5507894652546388 0.8478776565561184 0.006599329661332521
1.8363915739220524 -0.5506820513903891 0.8662082886627696 0.010563783420162032
1.8371061525687502 -0.551095890108668 0.8155570047324382 0.01556325204305724
1.835717362837838 -0.5545837266156463 0.847940954528447 0.008359175426150584
1.9231978159818377 -0.5467953034541165 0.8816078165644485 0.025525562486563715
1.9900500851838494 -0.5419713974254938 0.871237868607189 0.03238524026799066
1.950595767174653 -0.5450874726269711 0.8858077468197092 0.03384911737712249
1.8513897694367092 -0.5451156827064927 0.880278347596913 0.018956881103541722
1.8183790462705403 -0.5498189032655516 0.8717995791508567 0.018348437189181187
1.8167998752446148 -0.5457388766103715 0.8271844073723399 0.009585152330493231
1.8226912458056654 -0.5414093154721716 0.7947384544356068 0.018093422151049685
1.9508307170321513 -0.5440076284476796 0.8218620805330196 0.01456591818487776
1.8486690403498782 -0.5449941701763149 0.787517672843421 0.0072730961557331665
1.880053725226221 -0.5481918832142697 0.7929210532750405 0.013430895590414781
1.831039236628305 -0.5429331712305332 0.7947823051826433 0.019017201172167982
1.9155871514264684 -0.5420975248103279 0.7916676307370114 0.008056416783196617
1.966914005517629 -0.5457770176605207 0.793083501785316 0.02077596856709819
1.9531207203878551 -0.5427885531579326 0.7945306036944156 0.015140038861178014
1.9872655983523615 -0.5530651043710788 0.7999647629749834 0.011717350321579759
1.9410985012064152 -0.5494220122124148 0.799332016602593 0.016048004057612895
1.863473188958841 -0.5462712394718164 0.8017310309251766 0.01428171343576462
1.9743839336528866 -0.5466706488195145 0.7899190815349617 0.020501062357367466
1.8902484469007286 -0.5439460004446132 0.7957443069334635 0.012158018760502074
1.9363004435411806 -0.5497274782601035 0.7951396980005191 0.015129455343585159
1.8944514280571425 -0.5466932289162241 0.8420881278293973 0.006644357410609775
1.902403451706661 -0.5503652618174678 0.8729514746498261 0.00970122539631531
1.8635540913825344 -0.5502469926941932 0.870890606568828 0.010528070451543919
1.8913035007677779 -0.5453802039441992 0.8619249485465208 0.009030544404233109
1.9383905855314585 -0.5497882033928071 0.8571759663213081 0.007893341615547281
1.8216368982124511 -0.5465175826840876 0.8141452822178823 0.015900089277750766
1.9951400460757647 -0.5451909423566891 0.8309686612227125 0.015359797920399664
1.9929870635409845 -0.5445229586599505 0.8157330673332172 0.01365895213220289
1.974687697466982 -0.5440707613277167 0.8563131618470177 0.0169371553662358
1.9619068007863516 -0.5457197016635261 0.8426046431011074 0.02220388799009829
1.8485255839880923 -0.5463194054461169 0.8644035791811367 0.0111539272231603
1.957453516404531 -0.5457236348939773 0.8696957005194597 0.028456672316356187
1.841578615639538 -0.5483912595034351 0.8780107257540212 0.01717759632740964
1.9496454676288126 -0.5434131164232681 0.8709881940632729 0.028195595457797182
1.8788461355584354 -0.5422023105760975 0.86871170074255 0.025450275520638752
1.930608386809364 -0.5433507932361449 0.8678998914259674 0.012858663409782568
1.9183178226121576 -0.5487600976451764 0.8745461426532913 0.011587861641221742
1.9638863299738394 -0.5446100417736455 0.8827008499829827 0.038540727109865426
1.8918847987555891 -0.5445214144587144 0.8917317024284279 0.03545883407382663
1.6440148318214483 -0.5408866160127769 0.8029466977377426 0.023504288975997246
1.6516771865337085 -0.5554731091017834 0.8350385521838397 0.016217172346168228
1.6434031902803523 -0.5488775289057471 0.84964198082222 0.014867109146070364
1.6631307586223092 -0.5472033090606757 0.8596498291814035 0.020301136856017383
1.6731461545737283 -0.5475084438598586 0.81818074204445 0.021875244067096802
1.6863432417339614 -0.5446507922764026 0.8490629257600347 0.011795217122427324
1.6874162707264035 -0.553571957219802 0.8350646906092806 0.00904640677951055
1.7335237710548064 -0.5456892798853015 0.8108099912966679 0.010500009916536976
1.7409537030200455 -0.5532418409419887 0.846905033529233 0.0136250935783887
1.7507218969145926 -0.5490003413208392 0.850720465169529 0.01635978712762889
1.7630710543084027 -0.5415806404747753 0.8058385205662325 0.013612831444865001
1.7674767998167187 -0.5531740392627312 0.8585588577320626 0.0129487474601587
1.773417769639439 -0.5438919415415803 0.8337942838323044 0.012138685624288673
1.7685361246410523 -0.5397046936522013 0.8177474607503588 0.008457602399460341
1.7730208023022689 -0.5411432173228933 0.8142351900490977 0.011590384533881342
1.7765425082165611 -0.5468827824925195 0.8481272670903984 0.012591113355488022
1.7798986334360725 -0.5470028142124755 0.8702901097711674 0.01155569114534675
1.7779374461134665 -0.5448259168867391 0.8341073724349112 0.00865976271413054
1.7951925679189449 -0.5461119644829835 0.8484883065263372 0.009605657668428177
1.7937625449745755 -0.5445868931363516 0.8633054387918363 0.011626401548976309
1.8035689266282895 -0.547175298910866 0.8104749739896985 0.01434862136329321
1.8145945005346202 -0.5443725326247559 0.8803394684980236 0.015278532806106727
1.815403643835293 -0.5449434086706684 0.8245793058200991 0.0112237381961123
1.8070862524174247 -0.552274802054369 0.8674715949218571 0.009284623018790216
1.8036050276256625 -0.5451041099271073 0.8341095352276607 0.006779851006809417
1.7958601043198612 -0.5463707417849207 0.8195120212959272 0.012484965187961347
1.7587244589071624 -0.5451204384001777 0.835469021339486 0.014005463488702791
1.7490448416455882 -0.5488340876560456 0.8354628927508561 0.013884320691267958
1.7431918127598975 -0.5439562947705766 0.8591584012431353 0.015379754809835878
1.730586821226724 -0.5427527584212167 0.8160642952480678 0.011941578235077006
1.7227698998827528 -0.5467626279939208 0.8057796857751652 0.013355740273990698
1.7047414674470376 -0.5474088132435628 0.8124242561341194 0.017854439460761852
1.7027792607711194 -0.541157923935856 0.8479564988680812 0.01988075997944231
1.7048653930713185 -0.54650262374095 0.8402425115627936 0.02217736721358918
1.698762326467243 -0.551501173133397 0.8176442935175928 0.012805014163313448
1.695607511063566 -0.5467895043804724 0.8799225286492945 0.031616270318881326
1.676439595058592 -0.541732253401656 0.7955107991849156 0.011292815724456779
1.6702828701558363 -0.5460595194636424 0.8438428199538541 0.013497309197873168
1.6595620951998118 -0.5507843181352131 0.819445556845681 0.016654168296459153
1.638852939279222 -0.5500929053749971 0.874916819707515 0.021783511552996532
1.7905607526560927 -0.5388288587151061 0.792270834037322 0.015360130404521706
1.7523388676470044 -0.5413545884764722 0.8153692275386909 0.014990748611103728
1.724218202644194 -0.5406723490177957 0.7836407809937274 0.027655917412214293
1.649377954137097 -0.5382182659090102 0.795170875425068 0.022557893036326517
1.728656992144923 -0.539080404567056 0.7916537170669439 0.011340995001620481
1.763404535066057 -0.5450915107986964 0.7997370753553912 0.013859082578124808
1.6832894875807864 -0.5476057405284468 0.7930142372381382 0.00995291681675847
1.7465957240250751 -0.5454741491790127 0.7999353909963353 0.014075268031305049
1.6652627742177344 -0.5448226658210527 0.7873614240283762 0.009374733059722029
1.7852825620510315 -0.5487913556767726 0.8017643740163549 0.01162997830776301
1.6980308003345455 -0.5476883217052277 0.8030763881076995 0.010816491081237643
1.8083386090519553 -0.551352289167438 0.8008335252286554 0.01631847475755693
1.7702123394133928 -0.5481368343357151 0.7925346462183311 0.021855837431245338
1.7058510542116982 -0.5433526789311649 0.7995586291312214 0.014630785711850714
1.8197507300044526 -0.5490129391311821 0.7998027953358043 0.017287143198765904
1.728749070398836 -0.5559395623274327 0.8508014052418384 0.010273676305300978
1.716402696916911 -0.5445672343065214 0.8585511737081644 0.020115107343538746
1.7616216700295197 -0.5453578220975523 0.8476873254889646 0.01580281718329798
1.6538578098135486 -0.5466426694641001 0.8629237687049641 0.015600709320807371
1.6967289596064308 -0.5408141849974054 0.8497727642155808 0.017080815099357403
1.7344158221950239 -0.5460958076707815 0.8683540832042925 0.021701377220654836
1.7799658285913595 -0.5446516253374117 0.8187586497084337 0.00982660941266736
1.7449970564990962 -0.545776678247695 0.8307485658332755 0.014012451187084104
1.71577461067345 -0.5461969649937454 0.8351644369491009 0.020920747592983492
1.7205612485718507 -0.5395270757174787 0.8219589696721613 0.020476011628874417
1.8153514706940421 -0.548601251320921 0.8355109801664491 0.005480118085358676
1.809337630957235 -0.5514436489839726 0.8574937019404726 0.009572190475830524
1.6879221538897227 -0.5454318892138064 0.872938993952239 0.024852676555508994
1.6632939319516271 -0.5495299637374322 0.8775213032208213 0.034720432554332194
1.7689207445192179 -0.5425827601090824 0.8718029369273398 0.027535705587345992
1.7899811284830163 -0.5540088433262519 0.8787008818145631 0.009816760880164456
2.2797979052783766 -0.5259625849300569 0.856430103566668 0.021315111420932
2.281107364219541 -0.48274870152207083 0.8666672787985067 0.021158763602920364
2.269596506386568 -0.47698590320079537 0.805309914298183 0.013132160753728323
2.2813769239926387 -0.48270090887408124 0.8586758643181865 0.013924681659157225
2.2737183398964014 -0.48585104801343143 0.8174649135666266 0.012443027532216197
2.275526550268792 -0.5269837437570818 0.8207304441465793 0.05279299908742639
2.2728282048624457 -0.5325294351589948 0.8016640315859144 0.08341683611145058
2.2507041290765613 -0.5506794132215528 0.861604364703347 0.02764358053947609
2.259475071281586 -0.5425064711993298 0.8118513361198044 0.0588913352867214
2.224072430080782 -0.5495354735408096 0.807623375638061 0.01366669496519155
2.1924843423404208 -0.5465426554864341 0.8316698982951998 0.015028579491490971
2.2788036785555135 -0.4708722852118674 0.7951268417546967 0.011341139187828832
2.2730105702944057 -0.5202687115457899 0.8084385678696234 0.07232896170145149
2.2722697734406534 -0.48732805870402207 0.8048023403876112 0.012527125338527687
2.271450849513488 -0.5258355842442091 0.7995022859212622 0.07410828888176114
2.2740970368832687 -0.49997102079755035 0.8022678770031316 0.014654973596625204
2.2746156587795587 -0.5375276551325572 0.8152580810217084 0.06195038693910082
2.271806792781713 -0.5362740147133946 0.8097965375667208 0.06868503485409963
2.2675090680003565 -0.5374862543160667 0.8729399931812049 0.06170598106300647
2.263296824202276 -0.5524448011327697 0.8424941421470697 0.025996176362830997
2.276801178245554 -0.5341791450312857 0.8301974370113786 0.05729709785744845
2.277055436319492 -0.49847010377661244 0.8775511840043315 0.03269851484996501
2.273228157407039 -0.48508161579501274 0.8788002881392968 0.030090141093628
2.2814704432554835 -0.4597298420772973 0.8599974931354353 0.01941061054114978
2.274406804847815 -0.4470924422532154 0.8299907334278982 0.0068468104221408544
2.267852601619941 -0.5214118687996097 0.7898383326969662 0.07105245874450727
2.2054471837070033 -0.5491945024036223 0.7998394340676993 0.008431177853632323
2.2440033580550525 -0.5436761977069756 0.7975184314633298 0.0437512619471664
2.2630241337602945 -0.5499068936064447 0.788551717087889 0.06103984320077407
2.2239189785084728 -0.5449752548600179 0.7935512383209692 0.016193829887912004
2.264007528392115 -0.5460019514092461 0.8462660226436985 0.041717905730003974
2.1831887743072644 -0.5519543624119975 0.8707897069731849 0.025412179795651225
2.254993110059745 -0.5533222258900403 0.8772857963194179 0.014738783618679675
2.2226404990104047 -0.5484655754363794 0.8056397566234478 0.012106312183039628
2.284798222732314 -0.4701592141217948 0.86863167265407 0.015957594162619354
2.2830004132561097 -0.514220803352655 0.8652356349236342 0.010271588178301037
2.2745665391666523 -0.4650589623200449 0.8334654631629482 0.00977874560347776
2.204169064274374 -0.5453630069408827 0.853086281099544 0.007858502067238026
2.2549261973113457 -0.5418703645068811 0.8154072727519242 0.060182862967054794
2.264625499363927 -0.5462240216699824 0.8265608528128151 0.04776622449201828
2.2403160140568574 -0.5474726215391014 0.8605293618177294 0.022555547789589635
2.2446164678848857 -0.5432203267374935 0.8205821240727358 0.04568227802470244
2.2771339088338443 -0.489933275977351 0.8417802421019025 0.012982260814219375
2.2748393588254165 -0.5031185151889982 0.8577209074743049 0.01627385993685275
2.2692123913629687 -0.47856764410363273 0.8174917961568868 0.0111720826106686
2.2755151319711184 -0.5239759802811917 0.814258478570295 0.06225933249178494
2.2749248563401063 -0.5339319230520246 0.8461033530386205 0.048228017416711025
2.2744612084740305 -0.5221875701477684 0.8406676956397451 0.038795604843447754
2.2317540924725785 -0.5536867036603605 0.8803387513490575 0.020165196337259016
2.2762965847666226 -0.4967787897948741 0.8800683662102193 0.032840344959363485
2.213205782356643 -0.5478279746500067 0.8714380656684474 0.01546653210645857
2.2668997726275286 -0.1493467220958354 0.7951252123143385 0.04251543891540682
2.2688484476480792 -0.25088533732040097 0.7882907133085535 0.02621900982748045
2.2700518442328423 -0.19350997957627514 0.7948210649122779 0.017299283291768663
2.2692637812996708 -0.16463365076381034 0.7921248126191202 0.05478081271881948
2.269300823991121 -0.2350559656704323 0.7869534704137103 0.027702694781342553
2.27308429408119 -0.2196749698035132 0.7980448579586266 0.021298714497405453
2.273355097285891 -0.22920680623747444 0.7946835039662784 0.025422539381066415
2.275155453932787 -0.20047993221200686 0.8021014769746815 0.017620405876551243
2.2797738891565698 -0.2453610193580042 0.7986187689321943 0.0216264034657733
2.2728431071644106 -0.09311424555710754 0.7928231284409731 0.01818305853995768
2.2713032042843997 -0.11010244159914859 0.792812436448471 0.031356138893856925
2.276903556539265 -0.18240830480463485 0.7964994808095814 0.010276956094094984
2.2636341202224775 -0.1328953651082469 0.7859202837439199 0.033985355960247814
2.275140022155859 -0.18133425497515063 0.7915727996827948 0.012755565142992779
2.278803705166853 -0.26895564018227847 0.8108577822527139 0.01666105635362818
2.2727998344987643 -0.1595863928095811 0.8050395522496041 0.051582313557330055
2.2747393429439238 -0.2378499715317759 0.8726582484321426 0.022625518605550184
2.2673358246201802 -0.16105738900486663 0.8147015237745943 0.028547323825579785
2.2760058336596707 -0.25533384727115904 0.8678426095613048 0.011629524046580988
2.2679645920476643 -0.25521335713333415 0.8367579299586542 0.012386944065261366
2.2711562045488907 -0.15072022821148853 0.8651582316026393 0.009914664082507933
2.2721131293944965 -0.27651326637680285 0.8328935725552912 0.015088495057056384
2.2742761892071153 -0.26583437285869765 0.832399539909856 0.011416080818807475
2.272584318793177 -0.15628168823468627 0.8569165489438291 0.010574676147011953
2.271841640066103 -0.2284304643719521 0.8148795072730629 0.017695889664596728
2.270151579190638 -0.10578945903101995 0.8100490971703427 0.02299724960395851
2.275167063444217 -0.1531053873018448 0.8482482985005193 0.011619803297025626
2.272222881319139 -0.20794418343210738 0.8710030491254529 0.021889035984062014
2.280173218562015 -0.1913270861085614 0.8718705401804236 0.021272045733804798
2.271663288140164 -0.12322282071964101 0.8790739359982043 0.00940286600851603
2.278921143698555 -0.22163202138530205 0.8820481991529462 0.018762292957712996
2.277186221516109 -0.16674565324553506 0.864600730289818 0.007302764802874349
2.273702735483461 -0.26670885125694777 0.8865240248698766 0.02909085720401135
2.2731982448431234 -0.15391782165275625 0.8634774274266451 0.01032834695710426
2.273269668114265 -0.27969786235452393 0.8496077741183081 0.011736368053464856
2.2763851178894012 -0.26435711947493146 0.8715067726737407 0.009333599243596795
2.273819724485411 -0.2588204918206227 0.85229083807625 0.010420300544597885
2.270985738315833 -0.23703632169532138 0.8240150798514001 0.017535984699613035
2.280113943849805 -0.23056992806273216 0.8467531990576832 0.01112900404446126
2.282399648411149 -0.2382890842559048 0.8116375224759466 0.017383483464105648
2.271194044296844 -0.2360307562346611 0.8290318519624492 0.012355177553307133
2.271518417063324 -0.21596054015978625 0.8268607043619642 0.012412229038291079
2.279398799592173 -0.20346520034262802 0.8199382651090324 0.013959361754649402
2.2741388259623587 -0.19836112407095477 0.8419867187727177 0.012929036267063617
2.2794442945837305 -0.20738865671035775 0.8172199920110922 0.014945573756850841
2.2800395800742224 -0.19515750841948376 0.8294396575633919 0.012968938204123254
2.2775486267527083 -0.1814906093042898 0.8310469462731529 0.010798782448997042
2.2798144721520046 -0.19343243641591454 0.8638177347989714 0.010325546592227619
2.2715174876925306 -0.17824978093329039 0.8190636378529889 0.013513924909570202
2.274982544658981 -0.1832074456357725 0.8437614676317947 0.012966921563555323
2.274836620572544 -0.17048331190982016 0.8337822294562405 0.009938873254089998
2.2762402137326756 -0.16762391166606744 0.8585133852315681 0.006816559658560802
2.274518884759166 -0.14336566280605162 0.8173747563306432 0.02079072523625449
2.2717201966946456 -0.1416769344280841 0.8561000615972169 0.009915477614957424
2.2681463965763786 -0.15826426071603505 0.8126947950777587 0.0324305196046578
2.273479483435912 -0.1368191176598393 0.8432304258644386 0.01685645028001148
2.2753412262784534 -0.13021177438565057 0.849057182988828 0.010025940728574656
2.276392997693875 -0.11457082038905073 0.8187529146330274 0.02314225730846207
2.2805221121321946 -0.12226588920975884 0.8427521813788682 0.015974037069649526
2.271740048435221 -0.11663813952982878 0.7977718664510585 0.03648749955835814
2.2801285016825257 -0.10655535649684045 0.8457775568003252 0.010233052580112307
2.279832886861829 -0.10798112456412207 0.831511509430939 0.018806035763346718
2.2754885130869407 -0.11694614092822295 0.8256541381121444 0.022650374070805297
2.270524952687273 -0.12593933546558686 0.865953876949368 0.007529491675076608
2.2744106824556436 -0.12242689249679822 0.8552312558468987 0.008371668041933275
2.277162688803938 -0.12707326722060178 0.8318945999415566 0.022478365679565366
2.2735781613497297 -0.1280282848791144 0.8563315244643411 0.00987092036892504
2.287497514697688 -0.13744022250859023 0.8100073477709786 0.008925766358068686
2.2693085375438184 -0.16026036713287004 0.8293151800527556 0.021149134287522374
2.272650003549267 -0.17447671704035594 0.8522628662377101 0.009327535450039112
2.269153512380822 -0.17677218529016117 0.8089099348518208 0.012823689419976735
2.2725809070668337 -0.18979871663245762 0.8464758514422257 0.013223423865877052
2.2778319150856112 -0.2046094373340461 0.8546665493654879 0.010673973265365951
2.2732279699069387 -0.21099919819084934 0.8448155540768593 0.012180512446469699
2.273021441933548 -0.2221622289893095 0.8632199791306991 0.008859710716993091
2.275214528480458 -0.23338853159806805 0.8531979254379485 0.006973868860937187
2.2722445890964362 -0.24532073666550222 0.8473290057013193 0.012498091133217044
2.2729039909119786 -0.2480368225975589 0.8658216515700845 0.013984289300155456
2.2745902975969527 -0.2506387781318559 0.8154185898782257 0.0170663975618145
2.2729288118451887 -0.2531379543785018 0.8212149671550881 0.015725558366462677
2.2732181424353186 -0.2613399736000315 0.8009036765973266 0.02022962910319369
2.271574404761167 -0.29116307079128945 0.8691915394109686 0.01719386484631791
2.279276715591058 -0.45990924605435574 0.8535955564472739 0.017854448755948875
2.2761242275237685 -0.45525439022035624 0.8329310409096021 0.006591333798399764
2.272435479844944 -0.44909292598494505 0.80669184657321 0.011169966282079016
2.278549326406504 -0.4385732068031884 0.843969671979745 0.014674725128769162
2.2733617435599496 -0.4383959917694938 0.8240103697475305 0.009994232995988969
2.2725854203501803 -0.39687305532247874 0.8078944013321097 0.020112554189494068
2.271259014158157 -0.3939398198888841 0.841336028888977 0.008881832637840818
2.271364122589398 -0.3803100109321426 0.8398097939534291 0.008831879574720359
2.278197426814024 -0.38213636680836055 0.8046045242648806 0.023526578238027687
2.2797646282076736 -0.3806669095791196 0.8153200417437676 0.016321826343988783
2.2739066554917233 -0.3817780360827492 0.864464597926629 0.01489341380644743
2.2721673958158117 -0.37318904106433876 0.831791296236325 0.011312477537584518
2.2748700842625356 -0.3691625497139797 0.8663685577644307 0.013032576956730116
2.2774218618299966 -0.3704007052070513 0.8495270757011566 0.007173472781900609
2.2713112901980383 -0.35376935002168447 0.8732017287410314 0.018372004344648623
2.2738826294653034 -0.3414455150522454 0.8334179107786408 0.01157416528326989
2.272254915777488 -0.3476785166058099 0.8062297070869392 0.016640561935118287
2.2752901976480997 -0.3343572874979444 0.858133253224068 0.014407353408333453
2.2756367518407683 -0.31973875750154257 0.8190243872200086 0.012462310280448537
2.2816655140387248 -0.3167119680028249 0.8535120862480581 0.01427914097485924
2.26984384443467 -0.3040923865776234 0.8153958808328385 0.016606690697744626
2.285450403122409 -0.2996571531159305 0.8512808036211257 0.011007596339443475
2.2731430021585157 -0.29827158012734667 0.8293263437597275 0.01178002975658412
2.279082387818839 -0.2817637161202928 0.859349449856808 0.015290947795702736
2.2755210568080892 -0.3203674428411065 0.8068624253347706 0.012982660733912936
2.273438160599925 -0.3267278854553626 0.8633058653991394 0.016819335856071933
2.2773226056350615 -0.3321357485506453 0.8155697135527022 0.012525012916444521
2.2752393173500747 -0.34435607355814335 0.8211244816264294 0.0136011645324002
2.2761027080101743 -0.3581050084303006 0.8120873704653004 0.01427351629802929
2.2741683257034295 -0.3689587731379446 0.8558218725392159 0.008746969697291322
2.2800797656604526 -0.3721015788392231 0.8132613556011846 0.016276523911749018
2.270832921104404 -0.3931484297836771 0.8717715219614244 0.014687191320971049
2.2725758741295015 -0.3992054150633951 0.8181433806179103 0.013667354709551416
2.2790797199617936 -0.4109322544946003 0.8408739319297085 0.007437485723739611
2.2790097618763245 -0.4124654278995152 0.8489350834457581 0.005363781886851614
2.2794792195517175 -0.4130358990667065 0.8074275784951666 0.014320076840774403
2.2768653892829596 -0.42323316871265315 0.8285590646945266 0.009286539657814325
2.2748963732667646 -0.42546334516849305 0.849274972097174 0.016494761776810845
2.27874188144868 -0.44142529303970246 0.8647480074131397 0.01908585523308485
2.272023643929435 -0.46106335575218216 0.806217274643748 0.012217304225440935
2.2700251652631005 -0.34593385184300374 0.8000125503228906 0.015481113324522252
2.2694136296440375 -0.406275551024931 0.7947150483109736 0.013236386873988792
2.268620859973957 -0.3602063734476733 0.7983036502143447 0.01819816445167311
2.268320841487924 -0.2714688021422032 0.7925658576459601 0.018661380865843017
2.274106426114161 -0.2989837901529035 0.7933594089980759 0.019075874126123063
2.269110978798514 -0.3289194681344907 0.7908804189889992 0.01815247979065847
2.2788154981708666 -0.4468336572473741 0.8020008622567247 0.01169947683893031
2.2796461235056897 -0.32108028897609436 0.7938519305070182 0.009258742229339022
2.2723288975706715 -0.40172042282445064 0.804398647283945 0.015708604792567256
2.2770393330092427 -0.27439453817490544 0.7983625222187349 0.01594479125569546
2.279878277052512 -0.3798828676612416 0.7940226539600133 0.02402855331492356
2.2675986468226306 -0.2903875992207196 0.7908473220531101 0.016945144025715002
2.2765993568512286 -0.37416459238112076 0.7919351507160579 0.02765305176810505
2.276015535591586 -0.421062471820308 0.8830515660378689 0.012657636872369062
2.26737001058608 -0.3683141628633772 0.8789362970658529 0.0489310048546641
2.271696351942629 -0.3220309421269256 0.8727119217574318 0.013227429115453318
2.268457890152978 -0.4344292060509051 0.7941150071712546 0.010805955920751885
2.276706197601273 -0.4081766323018436 0.861492941470446 0.010850927317741486
2.272428339740461 -0.41807942280319693 0.8232947455588555 0.011515268262446473
2.271144000227157 -0.430021457709724 0.8111548460101518 0.00911871722917661
2.275161162185157 -0.40502815217241306 0.8675079917089977 0.014922455995272891
2.2751790368027467 -0.4383987416836542 0.8162830420161863 0.010109617809851229
2.278060648156998 -0.3491247077665253 0.8468144115492487 0.009253431100806722
2.2739437582433704 -0.42651569435712333 0.8468474480046511 0.016347451553461415
2.2765895946843946 -0.43517288333677073 0.8647709424147793 0.020791079052935795
2.2810122010369454 -0.3276898563536808 0.8484005262976885 0.014993783605179983
2.2730093376579315 -0.28054148315215816 0.8121435081203275 0.014437497846228092
2.2736392078771765 -0.29783894218825874 0.8328592761389445 0.013080229918988103
2.2770670494691467 -0.36807920801837973 0.8196037226057441 0.014716295469527135
