x y z curv
1.333594963071662 0.6496387776043078 0.14838152530120458 0.0975592623056746
1.3242132238716897 0.6481864270692685 0.030338684736786213 0.17935549920553467
1.3255301211249968 0.6495410797788679 0.10428948881970342 0.19523703695810013
1.3330979316290181 0.6495324726905973 0.39478004390690097 0.22099130748569398
1.3296177078595695 0.6413730271945696 0.7165762719154539 0.0419985774544371
1.3284111512932266 0.6541141067677801 0.5137974956424138 0.1876127329550706
1.3325949923985645 0.6500004947643263 0.5657776091151707 0.2030112181698284
1.3343349571320324 0.6514740095101349 0.6975297480905465 0.08480178331376244
1.3254821630665263 0.6524592149992641 0.22325596839574063 0.19017989845705316
1.3249669713025318 0.646413486916155 0.5162423342268969 0.18745000051033084
1.316648792678384 0.6444566278525692 0.37376709784861967 0.13474746725206085
1.3281157656342857 0.6499371941192461 0.6105398629375826 0.14325832538114253
1.3268344561566423 0.6511964544427765 0.18377872090163783 0.20127102631952776
1.325067494905013 0.6440457470374024 0.2840716383297763 0.1902761228395313
1.3253689158957878 0.6500454731040235 0.31495871605671055 0.16994091093492858
1.3297912360232658 0.6444095843999972 0.45421684592361866 0.16007850100095433
1.3254205632648388 0.6509076373249606 0.5832611325893342 0.2173051114485203
1.3215253834004856 0.6453714119215332 0.5019019344010074 0.22556659822810599
1.3190324527294774 0.6483741021413401 0.5404343252860416 0.17898695528608577
1.3198860617858907 0.6438635663077623 0.33666258935777016 0.16956888469582
1.3228386131359013 0.6459297336282703 0.40850826076834973 0.23192671116098054
1.3170575283333106 0.6511631658578749 0.06784285723226297 0.1544811220274359
1.31699072601003 0.6423987533366514 0.3818442658570056 0.16242319523885573
1.3175712958497459 0.6479410106496619 0.4869479714828677 0.1848278451580027
1.3256529487845894 0.649844288277381 0.17903577747477853 0.19544703346171663
1.325455019034286 0.6430591099534941 0.1345147444398243 0.1677746991460076
1.3131430363863659 0.645959349563069 0.2215563420708172 0.15444256618018448
1.3078279948063334 0.6470318780202123 0.023927115333062993 0.22587178068522837
1.312135940340233 0.6408776924780358 0.6903853940927958 0.06329485977304775
1.318786335737443 0.6436008740598309 0.25475375712526355 0.11055265996985023
1.3187294869558173 0.646074550360599 0.5172197943055665 0.16409005530918724
1.3204246843212621 0.6418444430538627 0.14891755553902908 0.10062253826653096
1.3223410784777487 0.638587391946139 0.32272848621727707 0.11522427053767294
1.3073387843686712 0.6453238234692127 0.4698145784656131 0.18682633739690543
1.3189388065083618 0.6412424926406055 0.19183902951737988 0.11378749705204907
1.30498062071555 0.6510338998896386 0.06781868165817183 0.17939962785246288
1.3142853961310912 0.6445786430170884 0.034389410512134136 0.1635123517625375
1.3140627077283913 0.650336237603093 0.5877232271539454 0.18777904651936841
1.3073565028377616 0.64688520628175 0.5572818183143797 0.16522955945388865
1.302756730730183 0.6501982462645008 0.044277459414003975 0.11246373068175188
1.3060871546163553 0.6493461146036089 0.1717807981049286 0.14331662501443693
1.2956748361655341 0.660873798785546 0.5293859734635045 0.21438222605092688
1.3007578286729196 0.657589591141521 0.023942698390970747 0.1614914689536042
1.2988547937119665 0.6494807800112169 0.11459733841139705 0.13022724826635795
1.305397015091916 0.656634327542085 0.1933554782187128 0.1446284495772404
1.299970889970478 0.6538388498219222 0.5466732816687574 0.2357947230629512
1.2996405447985107 0.6605715825645425 0.18747573582317828 0.18112249147488296
1.2924911975468314 0.6545533607391597 0.37212969951681246 0.06425518322487031
1.2974525333213762 0.6625808448565045 0.48828607619092335 0.14345103305856413
1.2968735465191377 0.6682526273090548 0.015537369544075278 0.1516622500608836
1.2982123595942099 0.6638179986395725 0.5952775305710948 0.12037237142900896
1.2911972457844958 0.6596035811488753 0.33509873369430787 0.1430153963838241
1.2994346947353788 0.6624749874309582 0.23653075861513093 0.19851869769701344
1.2959275966214159 0.6551178807474074 0.5717192498587844 0.15991373907525225
1.2997917815385638 0.6618303215302743 0.12976576215306418 0.23305596115564703
1.2997528423193623 0.6657836003657992 0.38195497235589004 0.22637425309977074
1.2936571395276586 0.6666226013638378 0.1533823405909551 0.14874127769001402
1.2965556808404268 0.6659696041876154 0.2862717759684746 0.1738761548285072
1.2982847250108978 0.6648526955333518 0.13681254452396072 0.1807455427154658
1.3003449645427132 0.6629811858239728 0.060711348795889096 0.14933696192698495
1.297775052211802 0.660036051261134 0.461017864770974 0.1539480381474714
1.2926448442094964 0.6645675699815454 0.4449814337703109 0.09671956058474915
1.2900604190272156 0.6622046407040005 0.2883528783831917 0.09872702796687519
1.297671329661623 0.6715778992628741 0.3194355414753664 0.1497872871640814
1.3029086163616694 0.6639403021658732 0.050511858359217135 0.14966663105800007
1.3037212405791283 0.6711370682974641 0.5386923439024964 0.19751954672564734
1.2996000187586072 0.6634578370426973 0.3526719001894788 0.23570596710568062
1.3021043527097187 0.6707438045154517 0.4819015965175403 0.21439378760972083
1.3026121547324565 0.6711907129111142 0.4106742271461087 0.15669486888913886
1.303227846050235 0.6808030618655495 0.18074998291098948 0.24633747722997057
1.2965903870227087 0.6699832002661598 0.21913740073961752 0.13781517029479062
1.3011937942626202 0.6734516149967907 0.5728444357152418 0.24676628202082268
1.3024202966555938 0.66521274280382 0.10369542791403957 0.1783250278997391
1.3073459107337342 0.672253428011946 0.37788694837459696 0.2329993816817063
1.299130929262669 0.6723385960918784 0.3952761388253481 0.2087838296668618
1.3117709649372487 0.6829993823802698 0.4362464314871025 0.16166900028152223
1.3075288600966926 0.6780585930335692 0.11145211464677278 0.17211394473354447
1.3005468528699327 0.676628111351407 0.08861990346313989 0.12887518796099476
1.3049161042601243 0.6764898851700553 0.33725460586523104 0.20618227649441828
1.302548491142054 0.6721975917907513 0.5599547752486919 0.20523219992845157
1.2994394831296219 0.685684134243216 0.013721899169083448 0.03578904340896665
1.3117293364220155 0.6810774480489173 0.25260871467409474 0.15943456924922295
1.3093155625929136 0.6774237371396838 0.03577603349576155 0.22778753701171686
1.3013763755987318 0.6700500775745122 0.35148586065068826 0.18728654745274678
1.3093664137481895 0.6836384409664543 0.4756573134685868 0.16245084814649316
1.3080554999008442 0.6858498281174571 0.7000793293105336 0.049095914983631216
1.3044727178902427 0.6799847427622457 0.5080239406541533 0.18771871543591614
1.3029686171434935 0.6775134030657736 0.5824982597278372 0.2701967869664938
1.3023801333093412 0.6708014405336442 0.512830583037356 0.16110075576837396
1.2946813305285096 0.6725830306013935 0.27345121312919635 0.08388235110517567
1.3101425331187218 0.6825672559690705 0.2643370819996644 0.04862198745876872
1.304007467267806 0.6768764608649634 0.20049622597693387 0.1675440148420353
1.3144251142182881 0.6773291291289099 0.08154713760368498 0.1827294426628391
1.3103660800310921 0.6752444986962496 0.04130775702338353 0.2226320644953586
1.3198934721895168 0.6794336217133131 0.720372496347 0.07332315124892393
1.304410602695552 0.675531964856215 0.23163452085017022 0.19983112840287812
1.2992759969604026 0.6918421464840059 0.650208736746691 0.017338593346455572
1.3124269308123695 0.6787015957025786 0.10624737478417197 0.16796828628894192
1.3071994480368678 0.6794226948145932 0.3153769239107481 0.09016900299857791
1.3142003215674252 0.6847490458004063 0.3814459569329262 0.08354505481047565
1.309345722112144 0.6907531514693909 0.6727352906646884 0.014157225484141953
1.3083306721881216 0.6868173400131338 0.5662980610648465 0.07389131898951001
1.3136425610745088 0.6792891309918846 0.49752821257684804 0.20272250487620977
1.3066837415192525 0.672151515536804 0.37978401992972943 0.2108474524905026
1.318766273308551 0.6818359654839098 0.03539918715105117 0.21577868418628565
1.3233630694096752 0.6784863611030787 0.08300269024076726 0.19106985360003012
1.3114806601905158 0.6831611368144341 0.41937891717304926 0.06529075854692362
1.3127286986929905 0.6766222703945692 0.1367274452769753 0.19633398832696836
1.2996206377600936 0.6918475986589138 0.6275911115797033 0.012648826791862595
1.3194514618344162 0.6812645706636415 0.06114967893007947 0.1486017319556653
1.3173469702142144 0.68495503567411 0.6065526883650642 0.12480068170727114
1.314992319756029 0.6794777453400547 0.45694506437471255 0.17768210271216048
1.315173049718258 0.679317573461894 0.5962084610752272 0.1748626420772535
1.3224986713735343 0.6825676151741202 0.5089983428290206 0.13983780137838955
1.3155685084351856 0.6783082965068099 0.47174201948406486 0.16467806731684892
1.326116405226805 0.6801904692900209 0.5488855598829425 0.22429269772248517
1.3183208422061896 0.6819389252013262 0.575745086633968 0.18993965609979865
1.316751151548778 0.6832812031121889 0.06060354002062621 0.14400697931335388
1.3214154943252485 0.6840448544929122 0.15717345536387198 0.11641424438561283
1.319587136869157 0.6830603404589757 0.3219833952315772 0.13068614599333334
1.3241928241915213 0.6786715861634608 0.16812152458692572 0.1578108436063122
1.3159033341636155 0.6821288732222542 0.12455094710273004 0.1359689538829903
1.3186688819931676 0.6784531368415637 0.2751907265864692 0.13666343699359487
1.3199041681150687 0.6875563175491292 0.5305369153477728 0.10518143012281002
1.323238697101425 0.6793794811960641 0.6664874936360071 0.08106197034831153
1.324742215374883 0.6883101530243104 0.3575140521918298 0.08981324385800821
1.3253345058387744 0.6801708382560988 0.7162403633124714 0.0698195085050157
1.3217161693891266 0.6880801336142459 0.22612617467553592 0.14697165936260467
1.3163575742419782 0.6910831131742027 0.2255637219419092 0.2003311435563881
1.3261976903558814 0.6835157149386359 0.10518046608161798 0.12228228815667029
1.322463626205212 0.6815099117269401 0.39426206693654625 0.16060185628720952
1.3249052410735693 0.6813659715832107 0.187674559183348 0.21008473829288576
1.3291127626249093 0.6752810078528187 0.3139529018055899 0.14032248326228716
1.3248763414093159 0.6783326896883403 0.6929155656144799 0.1108694931342554
1.3281477889786857 0.6761470235338372 0.5608407018106996 0.21882644490492684
1.328061055230951 0.6786918362777008 0.29673469613044323 0.1398222152472245
1.3317568284524792 0.6729701594029561 0.25613246252753 0.1332012045534353
1.3327874550653795 0.6719782708636007 0.4840052325794589 0.1749106542662097
1.32883904730411 0.6914874716972235 0.6384515039309699 0.05220980281829383
1.333405296980786 0.6725152385627559 0.5818668653686737 0.148571576152473
1.3263142895562803 0.6806561594434473 0.6211828939218451 0.08774688797863407
1.336295135659924 0.6836853806209923 0.1176101013612288 0.08800543257092339
1.321699169592871 0.684793687013434 0.4205877798206477 0.06263381316571086
1.3279909813072808 0.677913731230791 0.5379083679838316 0.16925215125273496
1.3395372127554521 0.6792696988609308 0.19504386850084146 0.09230032030791752
1.3360627963094769 0.6801025840078315 0.09103102723473316 0.1124893573529437
1.3341752813645316 0.6708254546336878 0.319902133442859 0.17631766975252502
1.333921489378372 0.6772310341032354 0.13520721911578337 0.17419620579791245
1.32224317879676 0.6737418007347491 0.4560469786777146 0.17575284072810718
1.332285196681878 0.6806608169593933 0.43779509879850714 0.04322860589288427
1.3428271350971805 0.6755450009761732 0.6492085692437382 0.03902456073865722
1.3299054581758194 0.6761423256776806 0.38673888585461247 0.21693942771037283
1.3335996005828705 0.6647123308747297 0.15019027223645237 0.18213077116808266
1.3306887020396356 0.6708820900769082 0.3807740020746162 0.21346282758322754
1.3281021494965635 0.6819939266305498 0.23376975796152363 0.20001612628900947
1.3241068800155618 0.6837175774495416 0.5566694894711122 0.18591910755793511
1.3336310275221896 0.6837392628870338 0.04214887748290569 0.13757363270200498
1.3236204740564392 0.6781142222629771 0.34599818086656514 0.12616282008495489
1.330377499830688 0.6772023754162774 0.22744214504875984 0.21526737199054485
1.3374971691269506 0.6723379397210579 0.488979709361192 0.09728856432757396
1.3384319837905 0.6724258721387073 0.21073711212312377 0.09460147458299621
1.3332962963052566 0.6708448342770649 0.6010478514039185 0.1421939654913081
1.3325358068590594 0.6613163165959075 0.07825209228786249 0.21907425798776214
1.335320601368096 0.6618012080467751 0.11172354011158843 0.17214180170422483
1.3299473540367082 0.6742650850448296 0.26324036300927034 0.13459349606344415
1.3320057646138206 0.6670637329315592 0.276994081815025 0.16577272087296746
1.3382510069165432 0.6782172817455809 0.3995387623069 0.14619196931372355
1.3282403727647942 0.676627365326669 0.6735341688433198 0.06226764587743383
1.3319954331037573 0.6671980052319135 0.5412537637961281 0.19017659858683303
1.3332794118295352 0.6704371829496876 0.7178725015236476 0.06375964388281234
1.337913009909875 0.6629766213974874 0.6964371214457741 0.09084206284978906
1.33285671370274 0.6703957623077269 0.2961188461714011 0.1545648924137359
1.3192633869960342 0.6602380586994732 0.7200223357853304 0.1471745608419266
1.3089553897108142 0.6793971981491821 0.7232356052362819 0.12016029620475063
1.3299936396523204 0.03816194350952472 0.05056316376936803 0.22411727988032995
1.3332696478108894 0.02487538574491925 0.41101928165366874 0.19242482271013459
1.3316848725281138 0.03515113176653836 0.12610301462783813 0.16324739733177282
1.3304373978257198 0.03486378299821839 0.19701859428033355 0.1441119657414571
1.3396604556678056 0.02698874432396559 0.26282811932819106 0.09238235445572777
1.334462322509375 0.026170654616069138 0.03986421730977096 0.20329989914548965
1.3422446320589676 0.026757804395117223 0.284587711864244 0.08362120143879032
1.339974033453502 0.028441101787527075 0.7031703550653682 0.05842518547424858
1.3270554299630155 0.030419928039350792 0.49086538081935993 0.15954006876249505
1.341137785689555 0.026321019296355472 0.6089093278506654 0.09712796252387912
1.3354177316652736 0.03290257036880924 0.3792619968214702 0.1082616300058355
1.3333577190617445 0.026806259280433665 0.7200010444485538 0.10034852517968376
1.3317171231481582 0.02536771321188161 0.54473756920143 0.15497534889497072
1.3273581159533239 0.030471781374654255 0.056902309304225594 0.1938718859159982
1.3386528468925725 0.020223592821395023 0.09259945676391904 0.13015690938853802
1.3278561087329894 0.01797031773134788 0.5429385047447537 0.15671671654444355
1.3324216473540478 0.020788047966541323 0.4306756516318925 0.1376046514371978
1.3224404212966974 0.021434422513299294 0.5028094978685087 0.1478418865008804
1.3298770362474086 0.026655852004818893 0.5838081704557172 0.15255545592392414
1.3333608590720656 0.02991061411132441 0.04046273130180948 0.21131883015850322
1.3300472280839215 0.021494486658305723 0.1660808367269135 0.13953265685925492
1.3363527479334452 0.031260283768433025 0.3457516982598213 0.09206076893429974
1.3310513968234103 0.021510501767940112 0.14098696955777687 0.18327913722201317
1.3322184807560085 0.01684729193928273 0.12927308956061123 0.10814187944104904
1.3289128048857675 0.027312286751412305 0.32463744683690926 0.15844476097698107
1.3326769781604426 0.015877978637057928 0.6208901690818565 0.09646697494275688
1.3364836190780345 0.023960649531318632 0.5228539735425959 0.1311398662953072
1.3207880771196536 0.0242021618870974 0.5687565767422518 0.17158792013518973
1.3354048568379697 0.017340927544920576 0.6526016729281758 0.06224364004536982
1.3303770587955106 0.021954416906620044 0.4168284744599861 0.19586471122591045
1.3232675758928538 0.016183413055604917 0.7178045190309841 0.10431228258558033
1.3276851492584716 0.02560988545482334 0.22879476272407243 0.18574146109399245
1.3329371283633678 0.020758704307898026 0.1990596632179378 0.07081059153448302
1.333351029912301 0.02472313862986285 0.3713934970021999 0.12766816430901443
1.324100108417247 0.01833365473858476 0.3931714911342508 0.14075013303188885
1.3138787123483382 0.008334610426589877 0.4630653377766174 0.09885589061325624
1.3234637992862044 0.021081345731316235 0.26642159565894313 0.13346296131649538
1.3216664884235358 0.01562932043884602 0.4451004961709372 0.16382578482465798
1.3255335755532687 0.01573716162404675 0.4754978423788753 0.16722621503166415
1.3264300252071262 0.019850538131086337 0.09715184278971001 0.16988219091504994
1.325036865197926 0.021880907255285624 0.2532972410385245 0.16381748892585793
1.3182788286898435 0.019580392998458 0.07558028530671689 0.115842409615106
1.3218073564521864 0.02207271055716279 0.3166003474913861 0.1491211297072861
1.3181424265246973 0.018672900758139994 0.6677963104419582 0.13051844384869232
1.331709268452785 0.0185769734838016 0.051942189561411195 0.23835563696143724
1.3258298296316728 0.01726728083966304 0.5063304691859755 0.14761190474260502
1.3177887091741807 0.02084038037135779 0.3301058478820786 0.1252691838433771
1.3254611890817944 0.011927066831315038 0.36599001817087884 0.04683736137738071
1.3180917281212472 0.020042603395303064 0.5995547563999292 0.13752212188886503
1.324747582382617 0.01591513505098901 0.15740165040680695 0.11970113009602093
1.3270643817624357 0.01994648337191006 0.0722806348543475 0.12963167382917148
1.3153961477876317 0.0170496947915358 0.2842252341994791 0.14788409271695693
1.3205382970772803 0.012409932570649998 0.38336762875962954 0.0927713504632796
1.3170287383490396 0.022073825882401414 0.13502027143443965 0.16583387302831643
1.3116681070563432 0.02572562830784289 0.2213369191321042 0.15479383523273027
1.3190930484643513 0.023957287475773074 0.40893319598079675 0.22368108246738203
1.320375104428958 0.01668390165499527 0.1742701884729002 0.12093646128088266
1.31530758942819 0.016904150661786202 0.3464930029537952 0.05352116292643066
1.3197858432329932 0.020885574701060672 0.10486528593785073 0.18565147911105162
1.3187354037946257 0.019428922649211162 0.20838660832954128 0.18713696472696467
1.3064215232487515 0.02855016222323805 0.5416758924266247 0.19271156299537254
1.3201425238682585 0.01873698593194414 0.4340803194676793 0.19294246504035809
1.3079277840557755 0.014855664503518533 0.5793497366150067 0.07820729193903891
1.320376443783192 0.010531373481616318 0.4886531681384825 0.13659592504670595
1.3081254001566498 0.017431975428830994 0.6353941285084126 0.17578392166801027
1.315921780920795 0.020297572405816547 0.14786693818130878 0.2054900866803835
1.3130157308870898 0.022288348785140945 0.4218771816674758 0.20816551992173302
1.3211232793457384 0.01760152138910435 0.020721087493916608 0.06069221408407024
1.312767123027284 0.022714346622881944 0.5295978544456283 0.16024960230666832
1.3137771817372497 0.01904791217014789 0.2828383085229258 0.19370176876273978
1.3099900167582947 0.02124600773850903 0.24179049737328365 0.1521482171048592
1.3142116693308825 0.019254489122575685 0.36724775342943655 0.09224623386102775
1.3372155152661565 0.031363844528696276 0.6781114042912857 0.11471274998767494
1.3370984293557262 0.03823603621821296 0.6352643184820433 0.1902987562314244
1.3413297567446951 0.033567865028950275 0.658743132413166 0.09277184167690333
1.333702366459284 0.03363179187595286 0.5159547306809643 0.1479654034737799
1.331022167288862 0.04149243688380375 0.5002605472172407 0.15112849871548847
1.3345559565668161 0.03312390374939172 0.5619756120648447 0.13371468004248455
1.3397491797922882 0.03690129676854736 0.2910712997917203 0.1149487787762922
1.338474296170313 0.03242794249456961 0.4402089298702588 0.15689426392574582
1.3364398693414428 0.03109174840840057 0.1638787187292061 0.151950053716287
1.3347787474753785 0.03746526587279788 0.32945555843390933 0.1225397310816016
1.3345175123658188 0.03555500810947326 0.3931078703619824 0.1721434488836637
1.332970545015832 0.030481321059117494 0.5358152795231308 0.14451447519721955
1.3307197264598178 0.028560465258510324 0.13466156634071022 0.20266415424259115
1.3371826491057761 0.028482537335489156 0.5870401165841947 0.18055718690282727
1.342829204254989 0.032336395693769344 0.23006543308757568 0.09385289043374949
1.3353110530260126 0.03553470382934096 0.36900193879324006 0.1238698469324537
1.3388323921165879 0.03343377429727205 0.09980501181615822 0.15766784551843932
1.3391652866290942 0.03444960965052093 0.03462903271954227 0.17541485080562472
1.3430594900148531 0.04371845514226893 0.4326930214771623 0.14196378013060723
1.3337301732191018 0.041390765264039925 0.5926305081494261 0.1626777212604599
1.336748081099649 0.029347486363837653 0.0071949838223673256 0.18484619506888508
1.3302947831840102 0.0384378734049929 0.5033694847142338 0.15578162374264024
1.3368855538814204 0.042316245052968104 0.6954259644731806 0.05435093653965593
1.3340358019685687 0.033300229341719466 0.5454932188352488 0.17819298323428975
1.3311638228527651 0.038796982233687154 0.7086205060932932 0.08343770880468351
1.333912171754344 0.03385240045198917 0.3278017363490585 0.13656487154727695
1.3391184792917363 0.0416141030210607 0.4755775803885228 0.08313329124427209
1.3339705233420054 0.0398052248913485 0.6269011227530495 0.15586998627359425
1.336916241463761 0.048706022886437626 0.11321532243099448 0.1650726597865052
1.3385367572183613 0.046971849449480414 0.3808975346451013 0.08433192326005848
1.3312281767569267 0.03955024253925989 0.45375543368886007 0.1699159400114253
1.3330908102572785 0.03790599922061039 0.30144356080796175 0.16798046312255133
1.336347407130652 0.04148041403334495 0.6416438462894043 0.12921819321888303
1.3332888010651318 0.04395703443424364 0.2639849103496813 0.2053192959586325
1.332518071402161 0.04679428581109626 0.6803896548165211 0.08191596937036116
1.3361084251243578 0.0477188630350298 0.5766287057008082 0.10974846052177646
1.3439689495581357 0.04178406040724742 0.2310556354568709 0.10767429745754205
1.3409394591538653 0.05046837162196014 0.04155573966062771 0.0884480590334403
1.3372845292870756 0.044864408832571395 0.5872970546631756 0.17111696460264825
1.332980739403932 0.04982057886953663 0.3865914916517525 0.13063981143715592
1.3295460973215179 0.04827598064748764 0.5903207114913309 0.14694486297132914
1.33428638257229 0.044248407040731956 0.4906424052545994 0.1631377710859978
1.3257331676663002 0.05341925303851494 0.6872296775737825 0.014985190657898249
1.3383321243949682 0.05170165435911373 0.12419688873090898 0.15602490086064205
1.334668558674672 0.05240150521743987 0.1746394341763209 0.14721989794529006
1.3259406225986667 0.051700388095103425 0.29190919743481114 0.17731086075082794
1.3362233217007013 0.04359479999818917 0.14780214246690107 0.21459595947789817
1.3253967257139665 0.05419326774576518 0.20961288927001637 0.14346112592009952
1.3294217852895087 0.0424257030868123 0.18641241829910285 0.1502473798525243
1.331497009011812 0.045993763421046545 0.5235706412036487 0.19434189296095652
1.3296396498355048 0.052315371461231386 0.248817561810509 0.20706573266392117
1.3250223083483321 0.0483300518934488 0.5025191747090997 0.10232914014203094
1.334716180423401 0.04330901276686119 0.2733876610624936 0.2352558659183702
1.3233842283263886 0.029841877496923755 0.7286834198809528 0.10704013588128933
1.3205454601232778 0.018036777901068616 0.7189600651471129 0.07775143029184026
1.324253238821452 0.049277225836401935 0.7358078368838977 0.06774779053310297
1.3013743001623213 0.03096105180833216 0.5001520235353396 0.18176897849439666
1.317520211807083 0.014387429988600499 0.6520392671626355 0.08424180716312486
1.298193354639544 0.01799956651764782 0.6407241983952003 0.12880125495703848
1.306603504448664 0.026984091047364097 0.41489637636045046 0.1620702638923
1.2950252620674823 0.0200930850208353 0.14160227347652599 0.10799134862124268
1.307157324221263 0.015528710704746086 0.31711753102171536 0.09972676897851794
1.309024603227332 0.01577034060611103 0.6097294128291961 0.13747999140444914
1.306286842508305 0.021099622446946013 0.2991944886869651 0.20216501910136556
1.3049522715827602 0.021831658450464905 0.42723335734747964 0.15318419485765694
1.3143454346576886 0.021573763745930178 0.1933143928843389 0.14181533706155772
1.3000325286988943 0.0293800253160268 0.04374185522204783 0.18776493958431062
1.3079925706752333 0.02360384743675662 0.2101198906030528 0.18725819631079468
1.3024345287635921 0.027485968540420232 0.027086506615803297 0.18853901675347895
1.3001959833175136 0.024267668443852794 0.08290963981445097 0.17490457408303617
1.3145975231383351 0.02559405886866446 0.0422315506535595 0.1916341990582164
1.3129243606441952 0.024667164289810212 0.22972042781731816 0.1620487238921884
1.3070131503430678 0.021229105274796357 0.39498226621926275 0.19499845600537
1.307285917810578 0.01917089595929496 0.457796463895745 0.15664205926693184
1.3081358664535556 0.02259526117503892 0.26057036135122597 0.1679164053893522
1.2960094813577023 0.0319519222350952 0.0638721491009693 0.1813667323882017
1.3012408394232649 0.021218656879933382 0.37620171794985996 0.1240201994047311
1.3015706409671157 0.01886476980208907 0.34079440788795873 0.07170416274554763
1.311176672682749 0.02319856623192154 0.12637693962665242 0.19826024358595296
1.3021898472350366 0.029302568470689606 0.16406038096914952 0.17356758089624924
1.3045305983589945 0.026130952436114546 0.5176719212080835 0.14304148351273022
1.3029419316858581 0.032421844184980717 0.5488620095636448 0.20674999465865695
1.3045932099045627 0.021746328430047195 0.19364773140547253 0.12089632102571128
1.2996633454498787 0.02433401408293527 0.10002154534006126 0.12241828812526245
1.3065884842856088 0.025400117005427592 0.4824690222661885 0.1983806572685968
1.2951013966560443 0.02564532709938426 0.15486597609304995 0.1685659110416947
1.29428489552745 0.033947499979422945 0.5567284374856949 0.17542367166694794
1.303175888966008 0.024156618945192533 0.612391542118544 0.1966548760815059
1.3008945167083517 0.034942705532626336 0.14782206117282654 0.1780546956859406
1.3001148225782693 0.02944776157939022 0.3579696392306835 0.12038960637241355
1.2879400196932942 0.03468526040119258 0.21322697373628294 0.046934167633288025
1.3013593798147887 0.03410293928812092 0.5861680942413379 0.1678842319178413
1.299602378835187 0.034781822143644475 0.4795901028752058 0.16821619763730128
1.3012135112267267 0.03901383004984028 0.046704285934346584 0.19144550000776725
1.2947016789601988 0.03315945024572398 0.02183371224513146 0.1058051371411501
1.2923937649106565 0.026786000528433704 0.06956114620544734 0.16785598596334556
1.2995971495210241 0.03381979179109439 0.5292459894229472 0.17867737760283486
1.3022400699522065 0.03177430437465955 0.3069325556287469 0.12982242701668073
1.3033166380026384 0.028624933091022316 0.5043740817439841 0.16759598362173322
1.2965393754221233 0.029565204315397525 0.26489439259155906 0.12446748410084121
1.299635706261719 0.037995361929587086 0.4126686702827443 0.17887858694435468
1.2993782869563995 0.05054184477817873 0.393966532626748 0.12322195601846599
1.2970335110327575 0.04145864554602301 0.23815378952899252 0.18497960516302275
1.298264835988481 0.04031225129849759 0.30873636657718195 0.11061569170757406
1.3051031699739133 0.03981578027913224 0.1513138657771977 0.23323268247636644
1.3011272736829118 0.03843728316366096 0.27825353202631053 0.16284897399881101
1.2945454611931362 0.045792858251770444 0.5486772455799077 0.1515417223661592
1.327990408793865 0.05478054552203231 0.4524659775148799 0.08421240255241985
1.319892119927833 0.05956589682085429 0.01136715679326974 0.13006395695614792
1.322815825810254 0.04985131610521454 0.42874561550117457 0.21551029640306546
1.3342751858209647 0.05346386373018605 0.36810441913924796 0.11865682840154096
1.3321258138951062 0.05195101443697685 0.2643758536186985 0.18968594294769342
1.3150119880754716 0.05432376451760708 0.051667101977388705 0.2228691895910544
1.3360541915885522 0.04526614181473896 0.08658432778271767 0.11498980861192773
1.3318609321493688 0.05234710758244443 0.547316707222394 0.20530296868759726
1.3284713160967332 0.05611196398604315 0.349075534357966 0.10332695747462893
1.3273618493845558 0.053931408885305086 0.5467949198929098 0.18868576497032752
1.3257035971906572 0.0478804296758518 0.6249051738507273 0.1874822298282865
1.3291899046432167 0.04869927900498785 0.518824334352367 0.1795343425990731
1.3244086574124292 0.050149410749289705 0.607294900116294 0.21293086129973243
1.3317828646793286 0.054504468814767365 0.31445723956322086 0.18740597346984958
1.3158806537341663 0.05452466839159173 0.1377443847102629 0.1545015030321518
1.3210567230039896 0.05613519757317051 0.39212251727316955 0.13838589154096037
1.319410794804395 0.052293317596677984 0.06641151069416386 0.20473895155238875
1.313109744728868 0.05733085739406118 0.6787740905168934 0.02495659188643728
1.3223121248244523 0.0484681460136811 0.7160388751411665 0.08930009917237133
1.3236206469494658 0.05232956329277193 0.2891013682790647 0.14566299909520905
1.3129189599398194 0.05316766892305869 0.666516009689595 0.08616361791796387
1.3128123198077712 0.05263978382625497 0.4112734282074133 0.24876984551755177
1.3209166306005644 0.05233149162039885 0.47016362031019127 0.1556759137767182
1.3167369012291599 0.06009390558573474 0.11328955592778975 0.1766395673193935
1.3209028934909066 0.06048369750766519 0.6025039337956487 0.11142488835785472
1.3180645184513107 0.05809568057902118 0.3249269613575005 0.1365111845298086
1.320130142791382 0.05401942778785636 0.09712926382013608 0.23367698023232777
1.3071434684875156 0.05100043633221351 0.21056170030542856 0.1471807615523209
1.3136403434378903 0.05485010637088876 0.6230513291397021 0.12920465850377533
1.3161240929155729 0.05353577369488547 0.6914573516189418 0.023141993583764325
1.3177105989742042 0.05565151088946047 0.4681146182512035 0.10554033231137837
1.318195426021961 0.05665937250096706 0.5645322216492673 0.13174947505526477
1.3046109940692394 0.042783389895785465 0.43215795524767436 0.2111427398498562
1.308175724739526 0.04275271212865777 0.16624801454406626 0.13438013627918505
1.3134475914468338 0.0570094694930834 0.24814825171333008 0.1538664135826845
1.311872697345165 0.052913801288347974 0.6268199630758147 0.14160139633454366
1.3017557193166531 0.057222468388155034 0.022376262304439273 0.07632775034037287
1.2988754046861875 0.04337824984577053 0.7284805009460429 0.05815740111812737
1.2990236608547219 0.051455707166271465 0.5328298588527907 0.05165977324973152
1.30037175175867 0.04374698177511664 0.41794963595385226 0.20705178247526812
1.308174457810057 0.056808882993495596 0.28598262989786843 0.11631353098234676
1.3057360344674707 0.04983544517023667 0.07151263865400037 0.1372598980348238
1.3200841703686144 0.021252068369404506 0.00969202813618834 0.1767488945359513
1.3103576868388034 0.014763313035640241 0.0965628531869108 0.052754102905870084
1.3144974861366854 0.023610504342620013 0.3993960416640066 0.1733954272615269
1.3058389064072584 0.04601420713742575 0.130901647281934 0.1888278565316389
1.289896471887718 0.048494000374281504 0.5756199000847135 0.1555434704354311
1.29952210538059 0.036229107779382166 0.4688065971096872 0.13143144852995037
1.3046880486573575 0.04376437153427127 0.10912276601212695 0.17848027242360018
1.3309229610847333 0.05463561310081634 0.3228491655824715 0.198530635554267
1.3273099883986361 0.053620020269311196 0.03888522936092024 0.2152280274339288
1.2908657325608728 0.2172329381894117 0.7210568938010125 0.059425217562631215
0.9519564046765098 0.703599982617176 0.7126832682747666 0.06004831367093088
0.09930647135642273 0.7021678767768187 0.7077472024658628 0.03635122640779221
1.114114165370882 0.7038551685474193 0.7171174683221305 0.05720069279057137
0.23570898967302084 0.6906757259727306 0.7256690965418031 0.07297408248960462
0.620109178230584 0.7005845316331598 0.7144921609076798 0.06256113669016136
0.6620367890577549 0.7012569535595943 0.714093049792948 0.0425888423593369
1.0605358004035326 0.6931570654926296 0.7138296078023659 0.09842039499463325
1.285451791377136 0.34354554633674234 0.7089499668564802 0.09641260781032346
0.17356497029528217 0.6926054512929243 0.7162354678656893 0.0686993951030032
0.8945280038446981 0.6916756455755935 0.7161428102305836 0.055725742033058086
0.31343756273920553 0.6957418845301203 0.7224878880977099 0.05972811689397286
0.5933342687123611 0.6997815940252057 0.7168126141114987 0.1360857199877411
0.45593358157179303 -0.0007277851615950237 0.7160727055815367 0.029811178634534523
0.7064533737820321 0.05097483236541475 0.7291965799324682 0.00029403762362575334
0.9432180930594749 0.002366421402453918 0.7144711104915683 0.017702490563433967
0.11325510623855702 -0.0007755793133645663 0.7095108839079349 0.010817727022344382
0.47111644382442025 0.6985278906957708 0.7255781052622863 0.07082227038043395
0.6511950147243414 0.7084357060295241 0.727973538020149 0.028935530283306716
1.1136688363928708 0.7012817389013053 0.7214105927131175 0.08751755880945049
1.0335893343804559 0.6940374984979254 0.7237748774617768 0.03893699849833543
0.6118365123413672 0.7015764968190569 0.7265806950782954 0.12785381819074693
0.1776559585306712 0.6921319396341177 0.7309411937083053 0.046561379140252525
1.069225673003183 0.697833722687005 0.7222335330039865 0.06548887844858883
0.22080626001158188 0.6952388061605116 0.6962007029569839 0.07819198414514869
0.5314159469819899 0.7014011944892327 0.704911741457904 0.09545235051731439
0.3214574012619156 0.6988894298305081 0.7016246984113156 0.05793282252831579
0.0361725696857661 0.6946779928229759 0.7199481441878852 0.04040238577316154
0.20423381589565248 0.707711559165765 0.7003234125369552 0.02420587141323633
0.3649515171638452 0.7022846400572751 0.6922541760650772 0.03888680326479818
0.7643318851808377 0.7006150641116838 0.7048421526864425 0.08214182792370484
0.5781344393266249 0.7063296456397131 0.7044435404031071 0.04738935210653463
0.37377296773983404 0.7019519385655019 0.7082592357309488 0.04876427580394529
0.1256170530462226 0.6961844168896384 0.6973666609571498 0.011220126256765169
0.4778050869294156 0.7011715333748929 0.6989496724697252 0.07507879929246469
0.334123426292352 0.6986019116785473 0.6898867799598439 0.03197890191270103
1.0694913435860325 0.7001300889041617 0.6969864450590137 0.039829041478463785
0.5077858218810177 0.6961040893639996 0.69371993881742 0.07690851682418372
1.0073356640303448 0.6977884942255574 0.6969120404112567 0.023159489113330926
0.767670593041594 0.7001534298596381 0.6961455715303926 0.061579338799074776
0.9042390662551091 0.6930263860841743 0.7032854205236331 0.047672032177569774
1.2245963826992545 0.6953897253130357 0.683685835304646 0.007372415187227962
1.0297481082703432 0.6999554282693066 0.6811774034596478 0.01425188138070572
0.8581926498247285 0.7054052132780452 0.6936864666009311 0.01707759272531434
0.6005921685526785 0.694734222258817 0.6962686370023622 0.047565867741114785
0.9169436517441157 0.7013006299913375 0.6941207424891319 0.030053285113228325
0.20241248628561348 0.6974315772658602 0.6720673441954994 0.03846239240882297
0.6540934529706712 0.7001705375303364 0.7054111841778795 0.05045892847863749
1.2489397427803228 0.697259858331564 0.7079008088038521 0.040201949354865645
0.8982831270884037 0.7005488939355685 0.6949183931447991 0.029954582119467166
1.1920675681165793 0.6945897810498357 0.698614427212927 0.031707455601979115
1.1311029515218258 0.7003133531656653 0.676834273020927 0.005453168519181441
1.1066530795908822 0.6989009076686944 0.7090052035905675 0.041274226753782776
1.1641883748828503 0.6999316297264916 0.6959516268728482 0.026799198656615675
1.0974282377402755 0.6988607916539742 0.6990228495533918 0.043817805209535064
0.06669615982138195 -0.002637396544694905 0.7128412772651299 0.06323015998134275
0.10801759987827755 0.0014825932687891298 0.7284381270223165 0.08512178234299347
0.7788251058329982 -0.004542170799374492 0.7204053803409687 0.033571365713289475
0.6305637638112588 0.003507707724042268 0.7213083341668347 0.08344574878157973
0.7330684919175914 0.0031266305287178976 0.7260460808494399 0.03672362523411294
0.9912400935072098 -0.0018158193710875055 0.7311544552393714 0.055477824020219675
0.3786965480049121 -0.003311755671660175 0.7272754050801494 0.03245820868223434
0.7665719133862275 0.002110418459510859 0.7218558876069794 0.06312513787461471
0.7073962974103196 0.005743431916638722 0.7222444823930178 0.03640442443935339
0.9120668423004128 0.002150727634735453 0.6833398471749171 0.012355218504531387
1.1143973834503638 0.0008572498700377409 0.6892940670877691 0.038612833491228175
1.2730602904137902 -0.005132892512030114 0.6963256699500062 0.02428441774093667
0.3428759817758898 -0.005041967554306118 0.7038974525063606 0.01818798139928728
0.7770963363879925 0.0013380022041745007 0.69520329996849 0.039478632003891935
1.1330902926369157 0.0034039800686555127 0.711813621019913 0.07106172323372265
0.7336532768549188 0.0005451025034793658 0.7103139792778991 0.036396520081461665
1.0767843445806027 0.0038728072505649592 0.6919545444856302 0.014207132821788883
1.1459049827517598 0.0009662098201814408 0.6848176080664938 0.015880047662432274
0.2790380286504695 0.00020112990371245142 0.7153048875722454 0.027607256772179425
0.5430051670822063 0.0012299674285445065 0.6997506490232711 0.015695087926081708
0.8431548197835745 -0.004500913969472703 0.7080530715334624 0.024445302089926055
0.9666024882944622 0.00216072614144316 0.7043542349464756 0.02456105548964473
0.6517291206062592 -0.004120815087464234 0.7040740302526868 0.02939046237954984
0.9074043862619277 -0.0010118207528326162 0.7017878059304318 0.06505538179477349
1.1954789246210937 -0.0025756300411093475 0.7004721586552796 0.027682241546176593
0.8809516111939545 -0.00011892288830326388 0.7096712311330153 0.052552270953450136
0.8400457676745403 0.00047018283411414774 0.6893121834831573 0.017862494336717417
0.8801292571010741 0.0038631032346440673 0.6854107325431069 0.020245792847465936
0.3014700866472729 -0.005549286444529743 0.70281263732766 0.041291516700151965
0.1891890930955631 -0.00023582993763662406 0.7142119605355923 0.05059317632466975
0.5814367902810814 0.004780139332752245 0.6777439885032752 0.019547741715341297
0.4860086487224563 0.001165137672576498 0.6862921867581186 0.023740965733426336
0.4410196269157814 8.626205070461296e-05 0.6945793252248186 0.031642502487721796
0.30387240859130205 0.0009247409688642951 0.6770853027270051 0.0044580187577670126
0.7096387452522654 -0.005363840320811753 0.7019001961183218 0.031562485679928816
0.21746755345700491 0.005085791303423168 0.6852442936952021 0.008215844638243932
0.07545881280000055 0.004194962294056442 0.7001243024997398 0.006796270890159075
0.44860241497021247 0.001160611932189116 0.7024388046265106 0.044768956647317476
0.2792800895937028 0.0034482542363214463 0.6880191477961163 0.022828489600582362
0.050157121316728726 -0.004508088763967649 0.7084069206564111 0.022749359260848045
0.8275695668699627 -0.0018651176550136335 0.6834194239112968 0.02381117826944439
0.05211388510933527 -0.0019687488027026654 0.6902990958601334 0.03042391741489472
0.5751091873646215 -0.001449398818436632 0.6911833095137886 0.020748402094180555
0.961773388219468 0.00019207231717472068 0.6689192648367471 0.009801928150232965
0.870166079588496 0.0020135213592005863 0.679725101007772 0.021098680634055577
0.1474778675579165 -0.000556850442178992 0.707583183602487 0.017324875097856754
0.1621960813184991 -0.007150554923107018 0.6899875454354727 0.0065251782623439855
1.0729789956093503 0.07880616440180281 0.7300456839774767 -3.7019555529088715e-13
0.9768576581789324 0.009368403470958768 0.7316845392302949 0.04527479687755566
0.3440268078336724 0.3649413985012003 0.7311755639381087 0.0003338027260400526
0.23836952342368734 0.09397194527495757 0.7305743034898555 0.000739129474565675
0.7852195617783737 0.2698496714327031 0.7354073304852162 -6.048404326943858e-14
0.2256679125179983 0.3836285535582042 0.7326768898467484 -2.9492263766486307e-13
1.123646095892773 0.05614817873652948 0.7286912513614276 0.0025579625743157273
0.31565663270141914 0.012131395651748159 0.7325421665499156 0.09701804167174716
0.04688480925855944 0.5482163120329051 0.7317667407249745 1.2576495567350475e-05
0.20163434588247298 0.08110784389296223 0.7305599611404737 0.0008153966505668312
1.1363933993876203 0.004779304809007514 0.7239632964251562 0.07026304043361271
0.8194859895602669 0.07938458204392762 0.7315298591225197 -6.82206339502272e-14
0.7684207372127744 0.019848076725895218 0.7275501624053222 0.07391960840765241
0.2835025488339325 0.4510255809851646 0.7280440946300383 3.355631208018819e-13
0.16629832253735619 0.5816368840375847 0.7301176551423798 
0.56266469704927 0.2908528334608263 0.7430075651538741 
0.29368865075477935 0.13857044718175598 0.7284710385691243 0.001314457140218628
0.6478299429050687 0.034691056141958644 0.7319230074896718 0.0014800255911805982
0.13118983139248208 0.09769860659706467 0.7326283166891558 0.0006238951420203584
0.7308565967370447 0.06761489075758546 0.7308350444840309 
0.7358663888697231 0.1958142993345709 0.7312251054768002 
0.13236597798618416 0.35526739871609336 0.7351320515766278 
1.1941260338093966 0.007762765940815922 0.721661488119121 0.07940157368059063
0.28533156948432165 0.30239068407388786 0.7283561313818825 
0.8017235441380096 0.21996080195234294 0.7312417655593509 -8.21266068059677e-14
0.12095740877466335 0.047201665721907274 0.7302861204713398 0.0020981909555342583
0.30066660207130447 0.45644440844398226 0.7280858093738077 3.96638722139046e-05
0.8291111499422366 0.0009065833795397875 0.7259712558024498 0.08081743383428855
0.4088710201360638 0.22322946087949713 0.7353412087430088 2.3345659178948365e-13
0.29141141450588176 0.5251799150780904 0.7290860401142165 4.797828310831656e-05
0.4758614381860985 0.43999780959905144 0.7320530996095396 
0.32221060393192336 0.12432599390077748 0.730427260604981 0.0005947416195524192
1.035627891619041 0.125436838683279 0.7305802477510905 0.0010589259644466604
0.5960144515884936 0.38637404617737237 0.7331646450685145 
0.6931324089213905 0.3306879869294326 0.7278360158325631 
0.17152055200622585 0.09452755424973121 0.7338162213355716 0.0019316800517786832
0.10463862036346194 0.48527124653826914 0.7391613049897736 9.836156557034613e-13
0.695372797720297 0.18170294276284568 0.7289251040334849 1.2023012100196022e-13
0.9065799406905243 0.1869415427215536 0.7367682671436234 -5.184099519455265e-14
0.8488838779062342 0.11757072099091603 0.7306857496158807 -7.582295646421696e-13
0.29099406900529545 0.23311306868545537 0.7321552964757606 
0.04220931114749644 0.10649044132406033 0.7266324221248902 -3.5933490346671576e-13
0.4883672165301835 0.030794831952614933 0.7298723404350156 0.033145779897693704
0.9217020461301761 0.11789885098721535 0.726965625280725 0.004806134962545979
0.7977081101701887 0.010164635636666601 0.7286150765000718 0.07532442318401666
0.1412575852343093 0.14537016680556994 0.7310460687039703 4.7379283730213375e-14
0.42577104546985 0.3472813350944977 0.729239542949128 0.0006972600922670856
0.9050997225825558 0.029078704147585798 0.7256004805407493 0.04679369152085578
0.23839899233826764 0.03973541208477834 0.7334283490978032 0.00910788114415217
0.20512087745442015 0.4904808469228856 0.7342977195615936 
0.4694893689460605 0.04365668446350536 0.7294250861442162 0.0013623549562905178
0.34783193609285284 0.43334415003625726 0.7275643123003308 
0.5371780417364875 0.35507253006675443 0.7330771321407519 
0.3399875589672086 0.12402209910703071 0.7282281921187226 0.0004507352006597077
1.0877717790439037 0.05467127615285466 0.7338575329717277 0.0017986525000566905
0.8257378082135306 0.0375003123224998 0.7324146517851252 0.05434666401087733
0.060739657211750724 0.1318124611871922 0.732147205732944 5.73971588107389e-06
0.8785622110689859 0.08760183354037793 0.7355630590716611 0.002731412609099691
1.2740813731951617 0.005753392047562809 0.7322788359099092 0.03238728677079229
0.4109740377604607 0.3511755655315636 0.7285252507908715 0.001104097738389747
0.314762078055596 0.04114218481703738 0.7306200128344548 0.001530198709925399
0.22798847509605932 0.1774296747638011 0.7371569271966851 0.0016118492097537082
0.8417785898487327 0.11950808687131691 0.7304020267044787 0.0035061507840001872
0.545544641824958 -0.0010434842069868867 0.7276446855765385 0.012504495149316574
0.23161604564450297 0.02686781991765059 0.7296725140618129 0.012214126227156672
0.15190878901104346 0.061849561976492974 0.7300332070583002 0.0012113368372490838
0.5410396624700216 0.4006196682900426 0.728749622108607 
1.0488399501715027 0.004818058921798174 0.7363683181777628 0.0024061351850056282
0.13298988909984816 0.10521582768906934 0.7335086258734856 0.0006193410804022717
0.26341415821478853 0.41033505187368147 0.7358738916578067 
0.46156844389770996 0.048439638864764815 0.730374577927678 0.001638013734979511
0.10881456975766488 0.32042704151958146 0.7313111328380753 
0.28811061721215575 0.15563755049103944 0.7294791427021368 0.0031007214294378875
0.39141473973262525 0.044122653051546584 0.7327002844138621 7.549010386185468e-15
0.17351204185108243 0.028300846517479716 0.7274460376835475 0.030328797231670996
0.06423999654811624 0.5608379734826481 0.7294944386683162 0.00011862100399492788
0.07123915668757218 0.6665268124840615 0.731283555690053 0.002169086151383514
0.23891890891446416 0.4070572877226328 0.7338286952235795 0.00023247684047519382
0.27070968155316066 0.5444383470102038 0.7302598292373593 0.00041562448005789374
0.7145840984029915 0.19459317166357626 0.7289291673158027 -5.146802539160621e-14
0.09565147142084185 0.09698791794864446 0.7317774500996492 0.0012538089373182362
0.24387903664607402 0.16298695889393489 0.7382048545007908 0.0004875908822080383
0.7276987197752116 0.3044864444489104 0.7345893969982539 0.0021956004424989067
0.3218834966024254 0.05779320918251157 0.7304402106650885 0.0024836984909893164
0.5399394112008898 0.04691142160756085 0.7304126043137779 1.1897765306931956e-05
0.8757751064494369 0.053920964766093794 0.7274944577474782 8.830528285514846e-05
0.1278641101845306 0.2525525872112889 0.730611668267124 
0.11931176811368926 0.0053150555052083525 0.7293309478516398 0.0759439024528452
0.23374323608192932 0.3180466851825798 0.7334948862694083 
0.33879739079785737 0.38790319600915696 0.731836427660396 0.0014673567586764586
0.3293071571503753 0.17473616427612323 0.7302245073105238 0.00137508778407687
0.3712549028463829 0.2561352916890976 0.7311167633649233 -1.0956428114832159e-14
0.9961480103799437 0.05663132313481094 0.7349627663957771 0.0016933963467918379
0.8130053452493322 0.1808657653494488 0.7310218402335963 0.0019094793843843784
0.20294006283564012 0.28748524102198797 0.7317523365587163 
0.14045326210520237 0.3990510074006984 0.733514130172683 
0.8396609161373764 0.00014837013414323655 0.7223559759481135 0.05744038233249778
0.5566485691213141 0.15550431001651285 0.7332032530286541 0.0005249044403252769
1.1603971872650318 0.0320605622578745 0.7317175491133345 0.0028665414658563164
0.49052883551459486 0.0022295758863397678 0.7292107775202425 0.05096736052479244
0.5817497187115389 0.2617897224328501 0.7347969553537108 
0.6656484420863156 0.16943153223959218 0.7311588111673136 0.007388215549833967
0.628871761190942 0.1514698557971754 0.7271247410194213 0.0026550922141685292
0.8478587287427034 0.08937987466135536 0.7312671203799779 0.0014888787910558342
0.2259083083894517 0.14267115100703648 0.7325075244807214 0.0004832826898236758
0.3328122043844942 0.45079428325980664 0.727193738949973 0.001117302972434318
0.6986895563489286 0.3006425268490126 0.7285661087616341 -2.9529602953983715e-13
0.967597778544874 0.12573257244762706 0.7285208628784071 1.14014449387571e-05
0.6244709454676808 0.34353569280084956 0.7310419448112169 9.68308384995183e-08
0.29563971009045964 0.5571657412602973 0.7317027999532904 0.0007361283268380231
0.7517758768263328 0.29936558376831035 0.7331722123954282 -4.143092443751633e-13
0.655597855407107 0.02123749910159991 0.7281167507284091 0.07758421211665542
