x y z curv
0.670089196381178 0.10447227167275096 0.31364516651579016 0.0032848029851289167
0.6522598056138567 0.14758962090144231 0.32001969556863846 0.0004246459002579941
0.6887480594598696 0.07830706140457422 0.3130553885883292 0.04628064899607264
0.6900602802521126 0.09115953387980244 0.311904549158499 0.022901869817036232
0.6135389538809695 0.12018192509245046 0.31108527952598686 3.2497313092471936e-05
0.6398069777291854 0.10553113290366707 0.31280959305619893 0.0007917143442918007
0.6263504317633182 0.15223484224091255 0.3134881320993353 0.002527299975717831
0.6517642146036906 0.08419761102587794 0.3138279857749177 0.031363024078633665
0.6107496155858657 0.06485081790918039 0.31927328988902404 0.0001730248345566691
0.42394080346349217 0.19671068746125642 0.31233206319964824 -1.0108173526548026e-13
0.48039012938239384 0.19719949602487474 0.3113330692943028 0.004890345236282245
0.48034128502838636 0.2060620793930785 0.31271326518433123 0.005618063953616827
0.45300935687008087 0.18748008293541252 0.3157370486216403 0.0007720489859441595
0.4535173624422875 0.15251929599755976 0.31552710412768054 0.003146942808734276
0.5091135217465423 0.16382652317822252 0.30768365170263806 0.003563750806304208
0.5047758428619151 0.18118525219255358 0.3088357603510576 0.004155010062561882
0.5143150682383619 0.18575913900859714 0.31065438396345735 0.0027633399449214784
0.44667273532008955 0.150334425113819 0.31594287305116964 0.006548231591948773
0.47880926194066836 0.14467315778066153 0.31237608318717586 0.0019584095962400304
0.45014435337345415 0.16786542968814194 0.3161028333026952 0.0030087880189480043
0.49342918929247037 0.18576277952840906 0.307854918500927 0.00037763670506202324
0.41629657257902936 0.16862426795310526 0.31306674764597087 0.0015307343827195407
0.5806312116570088 0.16757990946758686 0.3123744957290539 0.0006083416244049993
0.5503024833183199 0.11181021197087025 0.30944359008269584 0.0013860879140588957
0.5572035149636905 0.15505877557895983 0.30901261631001237 0.008664150833445789
0.43610295358432666 0.12279592397575635 0.32033006826345767 0.0023951474475757076
0.5518724591360727 0.13581906403513144 0.3088335591919742 0.00560872015617582
0.5279446047614466 0.09864272512597434 0.31093632437807006 0.0020207265088759366
0.4934488939294474 0.10054435379443405 0.3142889510211138 0.0037925911235857607
0.4603310614230002 0.09031794753316007 0.3137575600895461 0.005348132836248291
0.5680806720601442 0.17123629944506594 0.3119192881032806 0.008849287393650382
0.5353741497632688 0.16174134774020815 0.31388676617501193 0.0011622888646467442
0.5256879505020122 0.07894047452719848 0.312137163010338 0.05217416346310853
0.5532921582731767 0.16971535199916898 0.3098897510570109 0.002874768237910016
0.5019615698913648 0.09982133058957768 0.31173214428214496 0.003345909302440024
0.5994248652919162 0.1642731912094992 0.3173938233004912 8.213894337533068e-06
0.48125312000580106 0.11368151917905979 0.3130245695720361 0.0012995261170870719
0.5179236131768062 0.1410585473372049 0.31009871726929433 0.006770788066199655
0.4580830852650337 0.11613023127756607 0.3113745142967102 0.0042599861938878575
0.5903929295684012 0.140350759138617 0.31637864342775435 0.004987149037796653
0.5512859542907033 0.0686312470038068 0.3110474094498823 0.06604196987581568
0.5221303396689276 0.0714362131048513 0.3096895659899923 0.05099154672210827
0.5642988233939856 0.09649928443816885 0.3120062612361298 0.0029760749542733496
0.5384093735253292 0.06028498902290371 0.3064179741592327 0.04216882561027215
0.5709228147028723 0.10026063196635679 0.31297975275283435 4.1608342528843456e-05
0.5874494867299179 0.10099038449604124 0.31613896051618995 0.004938904721889899
0.571447751766694 0.0553788578598054 0.3030001129135763 0.026515766882491503
0.32991625188774565 0.23776851577935584 0.31684499558063445 
0.38968450084444023 0.16176292618090354 0.3123520025228167 0.0021564462805305174
0.3331783838914252 0.19347412578773696 0.31053052393693775 
0.40006030227499445 0.13297299936637408 0.31066149173602137 0.003710607354845968
0.3320621593030899 0.1651187705281731 0.312211667547461 0.0013790479063727726
0.3820489507977389 0.182750188509238 0.31347873970653295 9.226932599691144e-15
0.3590214501522413 0.1528704458100084 0.31495693124928936 0.0015555058129578152
0.35196967516696925 0.14089584593021742 0.31309989540500377 0.0007135759827117352
0.3811075553179265 0.13187102896564382 0.3154205236564026 0.0033522344512568196
0.33029243497854754 0.13103841658877818 0.3168735627413351 0.0012538904031636523
0.3019125097256926 0.16890700395438887 0.31173490367957774 2.647315142042204e-14
0.28556508918698087 0.13620228560264205 0.31208448030394476 3.6516393087271005e-14
0.20407009128356401 0.16874907337989156 0.3090217367344031 0.10145769313173497
0.19894547741821622 0.2220746915643777 0.3104140467239966 0.029315497044574982
0.19480697243648687 0.20999073305736915 0.3024575196450339 0.025744114674455698
0.23311234464828529 0.1890668361392999 0.31397309938634566 
0.18420230068805066 0.18095610456728473 0.3107811631811943 0.032472239187461505
0.19620779909696381 0.18801179633158965 0.30900571274731675 0.030526563824575536
0.19677093468729107 0.2746089273413766 0.31512786731047443 0.04816872772227294
0.19303464876363116 0.23889551062381603 0.31485342967505475 0.010280123840194279
0.2021950272066183 0.24963321495750906 0.3122066876940945 0.013941493776345959
0.30796484567298205 0.11943719359098864 0.3154844088122316 0.00045494571345478934
0.2787630372772247 0.10533625774206322 0.3132082127476753 0.002944036828678361
0.2919085282054205 0.0754775300879859 0.3147462122300264 0.07882235486669308
0.31969192292934956 0.06493867474898457 0.30631431350150584 0.049586885919852865
0.3281463515715953 0.07281441916208953 0.3064162090748693 0.03950670908776931
0.30083843819235784 0.08028910160430197 0.31464000265677666 0.04916433837418921
0.3524496498486388 0.07239931996639003 0.3069084546550934 0.0469557917264288
0.3157597983803873 0.09226011658734737 0.3147444760719289 0.013833437451867589
0.34486938390624844 0.09106403898430289 0.3141246445128281 0.0038360496302025132
0.3858232730758524 0.09346265988956397 0.31894547671568646 0.025800645440083533
0.3615979920257002 0.06787009288681696 0.3090616450364909 0.04033493533673476
0.2677035768724551 0.07326683388287049 0.3097630032276547 0.11527718901005196
0.2683261228162 0.06839540335798312 0.30566603328105196 0.11474693036393988
0.24822019595487196 0.07351407871302071 0.3148293174131685 0.017341212551637005
0.23306439145003902 0.05629033142821749 0.3057502083998858 0.004268262846707736
0.19114341944119212 0.10868484908137767 0.3090970403394508 0.02332500787653822
0.20015886793604537 0.1480917938713892 0.3083872592808222 0.060928774527842705
0.1918880662432723 0.127733932420502 0.3060748163966267 0.016566177813731625
0.1944167810971162 0.15080940294716944 0.3030596032582977 0.05447474179613428
0.4033305350864505 0.06909861953164351 0.3151454082525033 0.009741480513603504
0.4186388373032764 0.07829693738969146 0.30870512859114996 0.025879673506617733
0.38695568393367297 0.07165453428473793 0.304166722333369 0.03201567166069201
0.4253837365887974 0.08267804730390199 0.3101105416040247 0.02304317304027237
0.43562674718975486 0.10496293783532633 0.31087853359227957 0.00923590619754183
0.4854360704108045 0.06754138570905775 0.3076910871168273 0.02913004124517113
0.4894459206501476 0.06427725411757751 0.3052198228144986 0.019224293740469172
0.4248917586880275 0.11954176173016082 0.3145689248222935 0.010627038524110528
0.4669901681369179 0.07848499801429774 0.3123523290392571 0.029302038671874617
0.45428150562894487 0.09851951126287273 0.3124594314055304 0.007407318272477787
0.442814509749623 0.07407643453140532 0.3057978943195562 0.028927030178511403
0.4636933903910441 0.0791038485637574 0.311649260442157 0.023920400679746233
0.46059728500431285 0.06822437437646357 0.31016086139074095 0.02313337801389555
0.4506487011326518 0.057036715391795674 0.30346167087665754 0.012320646876058642
0.18422428327452484 0.30080563522676707 0.3105543299203342 0.06807099136890331
0.2187000483569459 0.33999606882061034 0.30697437183033327 0.016744954774621096
0.19429843955425188 0.329516164739324 0.30658978454738267 0.05168695691181653
0.19112855877610485 0.34661324980867575 0.3052030562830935 0.0613914158098011
0.214885902421855 0.2988127450569029 0.31337122893465913 0.034336351640818816
0.20338585786274743 0.31017655455650606 0.30941589863433255 0.07647279994878206
0.24136331185978516 0.32451392534366474 0.31300630647108524 1.1757293275355263e-14
0.19955133857040122 0.34665292139299386 0.3061719897831604 0.0709007394929907
0.2292045145365773 0.3731249709037445 0.3195133263660722 0.0006741885032364533
0.21400456111295751 0.35887312721340836 0.3105594617133418 0.022221055647440147
0.22458193099254922 0.35346520616722704 0.3111935792991477 0.005311487054846839
0.18826364345268126 0.3679813881029779 0.306773654676412 0.05039407317026854
0.20721671183019708 0.3688393342624205 0.31272298761045175 0.01722737591621794
0.2250360624223262 0.45283117159916003 0.3165467907056682 
0.18662274080733748 0.4522825697703491 0.3018226500582471 0.0727801427895375
0.21146046113874659 0.4260966355599905 0.30951170884566315 0.04220519749711845
0.1837083998856656 0.4303404786423282 0.3107652353628798 0.06785887678016482
1.0619275042460727 0.5114170449704584 0.3009504999709636 0.03560727318388074
1.0475427919533362 0.4751890298127462 0.29946087153864914 0.07567806653871421
1.0562397823491472 0.47674159572995295 0.2817031259840476 0.04845248601316676
1.0620870127797046 0.4959441425887042 0.2921392559972623 0.038086509105468444
1.0550453243995654 0.4769467187568817 0.28974728007872913 0.055338180472484816
1.0489475134463917 0.42093247931411043 0.30776497885997633 0.09623530452479703
1.0569208297881396 0.4141102609857427 0.2803642540997868 0.018298448612648455
1.062792316868342 0.4402380371409414 0.29992637997208216 0.039452022421869556
1.0493729983713693 0.41078901095500886 0.308344563067255 0.054444966479815386
1.0558580897744785 0.3905498441256747 0.3042214152179157 0.10152405106696659
1.0657274334943863 0.3055037785585454 0.3021810206975551 0.08045513500627881
1.0575665529033151 0.3300440281835976 0.29565430628445044 0.0759979818795784
1.0548613351509357 0.3271750228589452 0.2858389574628213 0.11907155896753581
1.0608481044268971 0.2980521303918739 0.2925133434154815 0.07783055660728139
1.0656804394478434 0.26307238886896106 0.2921509181365568 0.0721622689976841
1.0574246740133502 0.2522256331460917 0.30780754621075285 0.03291838761941315
1.0620054060414683 0.21483534371061327 0.2995941203681634 0.0681088279974374
1.056847900041989 0.19222137767780784 0.29845388712340354 0.08244201858258315
1.0584402931614014 0.14020300470492766 0.2992750152684132 0.055726127114728866
1.059067087774788 0.12248245992653933 0.28883816654929934 0.022472261999825518
1.063993675075197 0.1118460309259257 0.3049369968431423 0.010518538170471891
0.17897756165983655 0.49942357073411164 0.29628293830432884 0.055708044684795406
0.1834424530156102 0.516871164921506 0.2884155879754703 0.008350103387291263
0.18623423080726836 0.49104946210027034 0.3053818055221236 0.018926089769544987
0.18273557906016763 0.5139584866339888 0.29385687371765734 0.026675618118563827
0.18693058500864917 0.4167890810834757 0.3031131028545766 0.056751007598315466
0.18226300880540502 0.4352576423688317 0.2904918728998059 0.06903954864127845
0.18561720882015897 0.402171628350313 0.31494109063932574 0.026235052770874064
0.18291486093456238 0.44244059584737155 0.30223194061867026 0.07901002700251762
0.17391375701830195 0.3881607399781074 0.29019360658088766 0.006236200334353838
0.18679714810851994 0.36091389235645766 0.29499757302853563 0.0791877957746832
0.20188886753672586 0.3594499448144454 0.3083329502581302 0.021610781095382964
0.18134187288459586 0.3997612778303057 0.2952695828849528 0.019972393344627564
0.186440540912444 0.3854243077233386 0.3033000455172777 0.02979264689805623
0.1847702399129031 0.29975107199341805 0.2945714716583727 0.14432250019953707
0.18952250850260957 0.31644627781457185 0.30681107225194654 0.09088481053284288
0.18251243119221924 0.2969766492963981 0.303001581826798 0.08426042082488171
0.18781898231543076 0.31925073886527894 0.2905420222445869 0.06119231495950689
0.17785320546286296 0.2781192673273217 0.29795471858146433 0.017360571824672873
0.17993721912025135 0.20252566725729143 0.29540034279525673 0.0245888157632145
0.18506645830424243 0.17378373228688448 0.29335297834540086 0.04300537311742706
0.17900466913438967 0.11234213804169238 0.2943795485405066 0.001966500330945759
0.19175540955047277 0.12370296424823941 0.3052058166301853 0.01657697005456097
0.231334903290832 0.5845098296580579 0.31382235392683155 
1.0019944418181022 0.5767186112595303 0.29015162801404876 
1.0177302179348198 0.056550670919798825 0.3000580524813966 0.017131153772149868
0.22721270396184054 0.056540914636430864 0.29000464330277187 0.026400745090763955
0.28172787060773263 0.05144468190371285 0.3049026782729104 0.0344667822343796
0.29522172385308704 0.06781911851856307 0.28506159453419483 0.04528895705395137
0.3162704104253027 0.059887095520048 0.3029072388047095 0.059470468801925705
0.3038646854096573 0.06202790387457696 0.3022276504122882 0.05796449344507179
0.3592127725802781 0.05352351554455139 0.3006357656178301 0.031075128278897423
0.3300768115310075 0.05822950325509125 0.2912067528978265 0.050341325011440355
0.340078975399635 0.057053464837474824 0.3041539805163483 0.04309781522512656
0.36941221088264586 0.0589933438786833 0.30364169229222876 0.029331222974506698
0.4032309267324641 0.06446737594458368 0.2983404431092957 0.022747227273491287
0.41474031847778464 0.06446758266823384 0.30160243073443643 0.024723165798339667
0.44190223813753177 0.053383046567435415 0.298110648785201 0.021763186153655363
0.3951909616003209 0.05024334644197779 0.2852036147191394 0.02613114635218806
0.43968873899914973 0.053258155407049146 0.2941202793747486 0.022665940808422384
0.5111786947419678 0.06056353972222212 0.29197390040290333 0.03981835760177606
0.4885248074990286 0.05795272604628289 0.29898683066358905 0.02142114704443579
0.5108077546909494 0.05807478051840473 0.30229703849669737 0.03867871060827644
0.4677481202817691 0.0525569823720653 0.2948902804547628 0.030658394638225592
0.5372094120492577 0.055926662301090196 0.3053569463473956 0.036441723170821505
0.5635494363120234 0.05851463540044208 0.3165843554067103 0.08384060980899274
0.5809611010303966 0.055686167855283616 0.3028773771000405 0.026700396212895845
0.522440026657533 0.060630097820628476 0.2898907945675312 0.03829501061105319
0.5731360972883973 0.05516246853836988 0.2889668853809342 0.02978782186273224
0.5435113882204994 0.060645396647385316 0.2889841884933906 0.04004724143741603
0.6404403458694938 0.061541631270025154 0.30096818185688085 0.05402797192753564
0.6496791598276568 0.05955903914537476 0.3069323850625338 0.06409757365646185
0.6030476606634181 0.06139121051301359 0.2956701155899064 0.0031541875716462743
0.6228784532555744 0.06131846407867654 0.2971801629933066 0.004369602547945614
0.6531669993974253 0.05876178458676278 0.2788574350692309 0.0030752275282391103
0.6910832347331299 0.06372656050745258 0.2953778471273615 0.056398790251853924
0.6667304177609749 0.06272535990077134 0.2953490063253973 0.05358726548769821
0.6758962593337929 0.0630959650790026 0.2973587178623765 0.04540581536465282
0.7247513507670126 0.052089393004168795 0.29718880107591067 0.04159251458963582
0.6689962688313527 0.06059114935445237 0.2865177287214092 0.04984515662708383
0.715581833667838 0.05569583033604985 0.288586724921059 0.07533615256603451
0.771425858848443 0.05656355494952769 0.3090384430275292 0.042468256835214616
0.7315221283845184 0.05966895389662898 0.28840124778423865 0.04782791314833241
0.7611036057169931 0.055971415912380085 0.3006151182204462 0.04560304868248958
0.739913097142452 0.05699866573632014 0.3038893567548449 0.03226282923889865
0.7734692731357 0.05700965373991622 0.30214429140035287 0.04423645708793223
0.7965114614940729 0.05544445635559173 0.2961157427444682 0.018307114716835642
0.8581917764167094 0.05856195570430255 0.30257790258891726 0.04747962747492899
0.8360875700336459 0.05993021174984885 0.3121524295773288 0.024616253945197557
0.8227147743578758 0.05997460539027055 0.2913283610875108 0.031518002808780705
0.8645281061844908 0.052532734319685914 0.29370957704492473 0.056291993051272464
0.8400383106625486 0.06294369717088892 0.29031260701739225 0.03339709122029686
0.9121228240784581 0.04777329374731516 0.3061364975201753 0.00972628817384503
0.9433161312779151 0.05022570948983312 0.2872340276950704 0.01673192586465916
0.9600927283363286 0.0613376746386048 0.3028090156785613 0.054757576063499784
0.9536008907501197 0.06451432569699024 0.30663405831890567 0.05514474680528563
1.0061459880977424 0.05663077188385665 0.3043966588946787 0.011452185933475448
1.017646827294083 0.05914299396206155 0.27945009901584505 0.037814125610202136
0.9859787236089158 0.059792597322085944 0.3003367917349354 0.022197997177096786
1.0271978795837018 0.014278745890873468 0.003704485961374635 0.0639053726601805
1.0298837537884251 0.01832301512119509 0.03547105746940693 0.14127179662153294
1.018609717936744 0.026267221927932963 0.10716731266557082 0.06048415219245132
1.0188762486970708 0.024358162288000473 0.06276777034389217 0.033211804811400805
1.0278163488346275 0.010876461813223886 0.021000924624212703 0.11708194352480268
1.0255360180734387 0.027711425494822722 0.07467558448680672 0.14535902526226338
1.0299022998924907 0.030464700092075418 0.10106256626026866 0.12230689082837305
1.0180855008329666 0.0380505402510487 0.1622216738171745 0.05617065822142858
1.0230131838896854 0.026397517121063335 0.13992245529343283 0.06822140760200443
1.0355304685288607 0.012779493871098188 0.062423537464984635 0.013182135568002226
1.053815907706214 0.01689129857078278 0.03391605018167099 0.07314574119490334
1.039392592152958 0.03155755461904467 0.08169749852175262 0.16176794272650444
1.0451459074270955 0.020373626895101388 0.05844393298395767 0.12018129303423504
1.0484566250236258 0.024989267314289066 0.0723323584799154 0.13729003997439262
1.051099091743658 0.032019340185981356 0.09384601377755933 0.0642624327981945
1.034497204626854 0.030893018831584823 0.17036045931557067 0.05668766467035274
1.0219564544549864 0.04587963257937845 0.186971931493731 0.09975558685377538
1.0337919273588094 0.0513572082519441 0.2084663284255965 0.16109067540349004
1.037397634469668 0.028396269776204488 0.15378486713561518 0.0833402353713108
1.0388602407287861 0.042668837910596315 0.19650172681578884 0.0957884801747702
1.0396419936576902 0.035149102314413386 0.12827915455872632 0.10485303772603034
1.0495646463120334 0.039040675203247915 0.1357962870027845 0.07944095862140173
1.0381182834673675 0.032338717041233866 0.10713556405830804 0.1610145198316104
1.031789339044924 0.05269277207031788 0.2586536302966534 0.07506197548640016
1.0308894457477957 0.05474086068956593 0.24656100621666965 0.06955053402670558
1.0425724199130553 0.05774867877053705 0.29364629425204536 0.061601449033365376
1.0352841039059173 0.05093368289804683 0.232146482965815 0.09636435346979505
1.0564362549530986 0.062297621034000036 0.27943137460311 0.06619595553317736
1.0220079519769227 0.06621935572770696 0.33376571824080237 0.027126612277267807
1.0290176226230616 0.06692043018141476 0.33407379113866303 0.05360373668392839
1.0202753952377128 0.07079031494686407 0.35377223612109193 0.030359597735028665
1.033836499542148 0.06727582099048839 0.3193346682119923 0.06966962324173234
1.046719214663124 0.07946199824393427 0.35907711679097254 0.11543645260529281
1.0341040327985436 0.07418765517602541 0.359566175169577 0.1335761235209346
1.0487533902752082 0.06636286610857643 0.31387488311180317 0.06763187318221253
1.038749034393365 0.06597929529477294 0.34639835396493257 0.07618144007017588
1.0389967517637515 0.08681905692232152 0.44540938706829697 0.0570182056598877
1.0334028574725052 0.08641775583411229 0.4101792758988658 0.20852270326531788
1.036134716777073 0.09045000914533666 0.47147160469486593 0.010004270504559086
1.0361861674257313 0.09201157905854614 0.4277515030051348 0.12864227472953224
1.0331794840606536 0.07075316582040335 0.386251762343462 0.06712639208594923
1.0213263271699764 0.08520243506832867 0.3970037828377034 0.20746230225332887
1.0463495651009092 0.08469449157641158 0.40053748929994226 0.19522671814525783
1.0175897148255981 0.09195423315654229 0.42911266860313585 0.015736421172214084
1.0211832791610882 0.08967088584559524 0.47006977165191566 0.014943679468552096
1.011535418534094 0.08573327129647951 0.4496740019495776 0.008632745798136204
1.0483688848314117 0.08334939556062723 0.46043920217523115 0.010297511785399855
1.0153183818114786 0.113832535735005 0.39120168229766933 0.03136501127509336
1.0427376504844865 0.11766861614746094 0.4048190140871785 0.1704817848674864
1.0503744216344197 0.11324623617045317 0.3561906487013975 0.003082926075558155
1.05229767980713 0.07407269423661968 0.1507178043875105 0.007276873364651482
1.027605428535797 0.04437103130119769 0.002498097382762088 0.08487370017638789
1.0488623891389224 0.033992319765632786 0.004997420606554155 0.11866877982206911
1.0141602157038594 0.018715283614806594 0.020258875005710296 0.18468832315124592
1.0081910075221734 0.03614514818545901 0.05189573559258017 0.01204627852071469
1.016071563264886 0.033060518166135124 0.06924601215805362 0.06196839039470177
1.0144620422011752 0.036792127289032535 0.07131234255994069 0.08056492590736329
1.0159935422879176 0.037539239895373194 0.12734719814505713 0.07613937375578564
1.0140564336095963 0.05006506318074651 0.09158511376551867 0.1148715083917685
1.0096984730838725 0.0519727704805802 0.14410792165302524 0.05942362060323511
1.0131858529778404 0.05558996845212505 0.1026653485924685 0.13193776163373283
1.0268756378849873 0.04574006025217532 0.1911442802776722 0.10058617180289722
1.0191802499795644 0.059709911578598646 0.18612835400204697 0.09182315351242479
1.0175464892761392 0.05127069644965058 0.25608286226290516 0.011416767571936416
1.0177830433560686 0.06244419665560643 0.21598006230219308 0.03147595353726828
1.0249409990500316 0.05185193616168761 0.21844068231997218 0.037975377477894354
1.0103006223009683 0.08163997697883452 0.3736420650742251 0.12610202130421289
1.0259050537730474 0.09225869301294032 0.41160291522577397 0.214519426653866
1.0589816702244772 0.015798618200144797 0.0319033567602549 0.06952010611898855
1.0530395852387908 0.0280231092581665 0.01148971656209884 0.12298767527785455
1.0520633964101096 0.027002086035728005 0.02610994378352937 0.13366576138635833
1.0461673430031078 0.021630504939814766 0.05025010992794473 0.10470885996573723
1.0468295967210774 0.03242205262029523 0.08508410949668352 0.1594644037078982
1.0540853732198283 0.04192193531188416 0.16815162498154623 0.06847115977627499
1.0562612156329352 0.052220874816888016 0.06769637441937164 0.09319414859211206
1.0551237395636937 0.047666521908291216 0.08207648464078926 0.08239252774198717
1.0504847923979517 0.052277521512688656 0.1015789737368828 0.16383446230150514
1.0532602490262042 0.048780222344172695 0.09390648558277088 0.15793792498224699
1.0551819098720476 0.05207372772067174 0.17649023058608626 0.1571454618040657
1.055912394520546 0.04505646515295344 0.1292250684256031 0.0440956371793345
1.048008537396271 0.06814950113128222 0.10452210670607286 0.1413915280305582
1.0513115997702265 0.07549675814660661 0.17197331181842465 0.14179202348101477
1.053634771896295 0.0794887284141125 0.14336262639294722 -1.0456766546335699e-12
1.0498898308598479 0.06875146655841523 0.1899045038864343 0.19019117129708993
1.048853478415119 0.05212803467743492 0.2212779812346097 0.09340526318739012
1.0434684822134535 0.05834898819436728 0.25058287025442344 0.07042807400002203
1.0528436429703973 0.06271771549404648 0.2550582388343555 0.07875305622689348
1.0618378069083456 0.05622601770898202 0.20910349380168983 0.07851467427738558
1.049509130356389 0.059148832657928266 0.06484117668730928 0.018269208344792762
1.0517425703187149 0.04979888238625243 0.027680477155680124 0.13389625422946014
1.0507255254861976 0.04232227595484634 0.020927155387495417 0.15913081762646258
1.0528065415788006 0.0741393042317954 0.30991951555807523 0.0355495621923102
1.0540026163693559 0.06941066552288816 0.35268812628558105 0.04991584750825494
1.0514566214148882 0.08632084884311413 0.3140399054642055 0.025364767798100346
1.0530426063902536 0.08492625680852905 0.2318726266607983 0.04384774445162863
1.0554057692597025 0.08405174543675739 0.25625869026508585 0.04048506909358258
1.0446931610825285 0.08712733761052202 0.19761120644005234 0.13263884023050174
1.05132606949285 0.08020831994302748 0.2796770499237772 0.07142720638433699
1.054203527105463 0.0765502662688464 0.29432973135165713 0.03169303623634716
1.0563396724649632 0.09694598311907958 0.40738612721052575 0.17718640396506646
1.0620639668505225 0.08984339117464439 0.4185982420520445 0.1255593060203391
1.0459701832146142 0.07614088341942316 0.3933204056984767 0.06422050531633272
1.0519983084022104 0.11662777173237299 0.3857847687857829 0.14495678967879883
1.056659309285634 0.09196486692445308 0.3981544103586732 0.1880332724430436
1.0534735195900307 0.09477926171834718 0.3274158647072403 0.0530273281673429
1.0519686817879736 0.10170493006506057 0.3719155301119958 0.053195057281979076
1.0508361055417612 0.1058475976465491 0.34372133662572935 0.03960727618646928
1.0463210572428217 0.07970688951468582 0.3855114729862901 0.13148758625012394
1.0585839768746954 0.11255707091586802 0.4340285823227922 0.022367328087319487
0.25112999178501577 0.6270744979961019 0.58023978657644 0.04301548142644417
0.2258749541331043 0.6217035111454662 0.5752957460849895 
0.2752129303600209 0.6292344036195533 0.593357899654088 2.615635301945002e-13
0.17924971852780064 0.6047644987079672 0.590924411925384 0.013907076042703961
0.18223083702949475 0.5871848336745867 0.5926889351557648 0.06617879773226455
0.18007375837073786 0.6022345730222617 0.5725789545614156 0.01804104727928859
0.1379463510605272 0.57156592673041 0.5799629388682567 0.0396714441373366
0.12469553928032671 0.5630087103868442 0.5801408401819163 0.04832361578508295
0.10338591042172061 0.5534325001708364 0.5747257067687755 0.03948641131019788
0.0865667973177991 0.5407634283750704 0.5865104577535516 0.007718766228516363
0.0739775904338242 0.5245703152785495 0.5789695395203581 0.10343584498069347
0.06434416312240104 0.5186597313337539 0.5681650767710753 0.02722431061227971
0.05278850254185532 0.5053112174703643 0.5750367913473102 0.028933768106315403
0.05053340188691806 0.485567564714167 0.5834228924858155 0.026833323810319335
0.03187620876410231 0.4567477967943465 0.5717182850513471 0.03441289343529558
0.043589194279445284 0.4880523106417232 0.5978106772360379 0.001393268730325777
0.037794353385412566 0.4601057486466573 0.5809704101861787 0.05131768083087247
0.020620495136911044 0.44514822810621824 0.5815942390653092 0.0292680523449553
0.021775035571223678 0.4405177731903121 0.584804016387827 0.05143274123412248
0.008674997104470155 0.3959259627006656 0.5687719718522816 0.11251657944649915
0.01897534173810508 0.43221917532901644 0.5620273572696954 0.04880838701075282
0.005862021290172872 0.3785868649540186 0.5749436730824893 0.11162577349357647
0.006325944177003551 0.4039514306312138 0.5885264286420566 0.08042708283377166
0.005761866729219817 0.3764036204498575 0.58523294441764 0.09159744795198195
0.005252433096655357 0.3243436658711284 0.5873145982439468 0.05615255048476241
-0.004125728365041967 0.35847613214675994 0.5824250914570247 0.021915851221404457
0.001741952721091412 0.33654634246760273 0.5814500844154752 0.07732648189528583
0.007347787301484062 0.3034345975625491 0.5857412720145161 0.027400534704537963
-0.006627863462575382 0.30574414773606984 0.5754015222506385 0.02319568443265038
-0.004798582210689549 0.27795072590429654 0.5725472268678381 0.05031312513148543
0.004514817813525511 0.26678382018300034 0.5833457941912195 0.05708364802519754
0.0011395567820717408 0.27937305385628197 0.5750284798602879 0.032418483211905
0.020032996115055143 0.2067606392885609 0.5878873874629346 0.03464014677226086
-0.011032717056325208 0.258166403735477 0.5728020608224941 0.09391991237062788
-0.0025856871306152605 0.24257457857091233 0.5907742649008695 0.03198037828131786
0.00496244372837966 0.2555667655948235 0.586293248710368 0.047326306834469284
0.017829039471484856 0.1978717050047006 0.5733650055349765 0.01791250976060726
0.0032212926286994846 0.2545718874295549 0.5627711976869365 0.09552999762860001
0.03311508104745695 0.1714583249144943 0.5716152871496792 0.00802151681217064
0.049006533309977056 0.14356390492373844 0.5682269148746315 0.03101227532846106
0.06184823915884477 0.12101827550436678 0.5694753779277875 0.08723062664851158
0.027297258938492337 0.17982534887980567 0.5675970889652224 0.008594368481662623
0.060737785817177134 0.13962902885298975 0.5804085328349992 0.06948206754671797
0.06952529457524668 0.10515354962492496 0.5738832585980582 0.05928473247259842
0.0573020019228123 0.15091089500867516 0.5816375144449035 0.03446639062620425
0.09934967451748461 0.09209675439808354 0.5859522848336864 0.026048132314906793
0.09318859196670436 0.07796221085924407 0.5782814033884235 0.014558866246526303
0.09269481906497234 0.09572540097166735 0.586091349749567 0.02432753880151802
0.13598147642822225 0.05225232516641812 0.5877208275378694 0.023374737737842877
0.13572767301048233 0.05274601821977879 0.5729900631185644 0.03477279939120526
0.13276280029643034 0.05312879187893956 0.5780384377090297 0.03291600889809644
0.209474116353147 0.022403109452741474 0.5934740744748169 0.048330750936199485
0.18623032858574584 0.02107714150377766 0.5717222692270613 0.05475692252475457
0.1537192430982565 0.043297923579431734 0.5693834910610351 0.031990486377876375
0.19377539955687656 0.022017984807687373 0.5852540397659435 0.061463175531415254
0.21711418199093388 0.007941217731745555 0.5809924576888622 0.08582153144077913
0.216811230245831 0.013119978674750041 0.5683907201518275 0.08780585312458024
0.22834943519008136 0.014243498939306033 0.5871530221666672 0.09566333476557554
0.3044041643889141 0.00013239333028109432 0.5857428519858315 0.08359848028593539
0.2590305074217869 0.009351913321985365 0.5785920083861299 0.087406969988981
0.29270185885749755 -0.003238976373178404 0.5805685505399019 0.05066561875361673
0.23228135814774134 0.0064462407052543365 0.5708865090756802 0.05950186638341959
0.3090613631298462 -0.0005372503556338128 0.5755265977578743 0.07255732251707618
0.2754736122697398 0.004645456963438778 0.5811120305155628 0.08254576236162176
0.3829813033057545 0.636996108258793 0.5847243831472752 
0.50866050533476 0.6362471600790691 0.5864330288599514 2.468800711354456e-05
0.4989228555150635 0.6302545929858336 0.5919740144093816 0.006563670511264813
0.566633416872921 0.6275562281604329 0.5934872739148283 
0.6912060051027474 0.6370622217756211 0.5954510295832911 
0.7664166169723461 0.630885363870535 0.6004796424465272 
0.8748994980940568 0.635234070606728 0.5901373698548933 1.318982721973628e-06
1.0018638027769315 0.6217923944316028 0.5898156030491305 0.022442637815830103
1.026238695838109 0.6232056575119485 0.570422393831815 0.002129790426733034
1.0699257559384572 0.6064785982884359 0.5832697983735552 0.028028616920736278
1.0565557215696604 0.6016537513767994 0.5657440241913675 0.005140449649815386
1.0849643665084292 0.5901197228739724 0.5883618280834626 0.053843241197547145
1.1010718141678095 0.5809935464064482 0.5691077246589961 0.01008720937083163
1.1366250026382678 0.5517232633492006 0.5925967850366733 0.0426574560705192
1.1669535328024003 0.5231939978964602 0.5826594979804292 0.08186441991145593
1.1511018749689739 0.5431140082517306 0.5859872407965839 0.03932873529541002
1.2009095318201974 0.4791815186226333 0.5753517447500776 0.017289662646176884
1.189813489346972 0.47196803848771635 0.5933076653382925 0.07169760953123588
1.2147058166769928 0.4680262917568272 0.5736502373050262 0.0073613114792538065
1.1861362747916337 0.5006436049171324 0.5784750819455865 0.07603494768184568
1.2207784693963224 0.4510872213209496 0.573747893791522 0.025057147822691025
1.2219505817588836 0.45097507996148667 0.5863213654765731 0.038113173607278644
1.2288417240766774 0.4175035772584057 0.5825730670964157 0.07123624749083998
1.227621377467218 0.4381523056574803 0.5847780551401809 0.060816747589243166
1.2352831076292796 0.39831214167409973 0.5736544249552584 0.11778561439879807
1.2332640153212127 0.40943824752689995 0.5866326170537106 0.07462712195837325
1.2432910791115397 0.3785374228023655 0.5804323892796635 0.07615999668919701
1.251119159423743 0.36941169102241417 0.5818949430380844 0.05606507730383169
1.2423311615579136 0.27217509346362073 0.5692007092580628 0.05072016159372677
1.245353460863544 0.3421982772967318 0.5724123848838476 0.054654714581063364
1.242181297056344 0.3083367854690126 0.581532112211134 0.029569555976741754
1.2432399426198493 0.30401754959094557 0.581420925965622 0.028730496560938023
1.2447826965683226 0.2939046909460682 0.5690668334648602 0.051125693654510085
1.2407431754646456 0.27917562615810576 0.5814895467316089 0.1197501110972035
1.2174476448713094 0.18076994613002503 0.5787178315718449 0.12861017377229952
1.2383951551951367 0.23008099604102783 0.5807633523959045 0.07691985333009171
1.2498623809482212 0.25803660548330104 0.5924967179986381 0.042124319385728935
1.2291833617021959 0.21431517479466608 0.5811741614239215 0.05781634440398199
1.1908795621342823 0.1412601295771981 0.5668618852605936 0.02150734921505871
1.2049188496371965 0.16685866019267984 0.5812945835629655 0.05865799061141774
1.1725031673962216 0.12025296805176036 0.5716177188708899 0.011828698883819176
1.1782675476061537 0.12318741079967327 0.5806831529349831 0.017375841093407757
1.1984118974734512 0.15709117729982633 0.5797198118844691 0.04954960276967569
1.134576796315135 0.07313778182430658 0.5727998521910869 0.006663009450869267
1.151692137128186 0.09029842693288746 0.5798399887955932 0.050664749907590734
1.1105204147911756 0.05533561838609568 0.5757204208480771 0.012321026906614898
1.1183750706656936 0.06437606631654247 0.5830047260803767 0.0719919184348794
1.0915263068782652 0.04346015534497801 0.5830848822272985 0.04566511711055143
1.0781492779335258 0.03563784034992973 0.5788592369864414 0.04478102025608091
1.0513113506723333 0.023098381867609753 0.5688498235957219 0.05265733374902121
1.023068991882912 0.014759574084843 0.567114871168909 0.04492378404550468
1.0837657108084926 0.04423006256538615 0.5642315137949127 0.048712430588566814
1.0940994657998557 0.043956875129195015 0.5754071011382208 0.04773737566957037
1.0691533147971222 0.027566236889434246 0.5682693616985589 0.03978839214699051
1.0771062700874032 0.03921010273282422 0.5865890208890916 0.044653461460943955
1.0718956037421414 0.03442533385319743 0.5852903728281693 0.046628708457095484
1.0437158840531304 0.02587972903121932 0.583112336247736 0.05127490512093647
0.9483686280534961 -0.003144763079192903 0.575675802834135 0.08106234452194691
1.015203128228486 0.004624509988432924 0.5799726343197257 0.023346629262070137
0.9584948230605662 0.005288917417824345 0.5854851570951982 0.17414671733581136
0.9934457115739437 0.010416966351743913 0.5905267580960912 0.13041670024906307
0.9508322078588516 -0.005716938157272498 0.5838942240754651 0.07057484550724125
0.9196744849663027 -0.011596439582003133 0.559024677332515 0.03350589830447425
0.884300995387884 -0.00010908513303883738 0.5918634504780609 0.03567947554133244
0.8981498414987505 -0.0052548002668107345 0.5760088024937629 0.02580278079085089
0.8045504733060937 -0.008353814548858718 0.5741300109990908 0.03328768462910648
0.7699369651823698 0.0004831091119923816 0.5692319308425453 0.031032664748987936
0.8206459664830653 -0.0020419485774556658 0.5661723541085963 0.012832055777075187
0.7963338547351224 -0.005801752118063319 0.5793807341650586 0.02468146256144577
0.7872120481877881 -3.248498937016509e-05 0.5883144699667606 0.03721567730479534
0.7162701637739144 -0.010109353000268795 0.5808114586167211 0.034707414357206215
0.7306795071788563 0.0058361938985036065 0.5846407393883193 0.03743565157755434
0.7453127103632237 0.004690003482223153 0.5761459055833972 0.027873653332680152
0.676759213579066 -0.0007419639291115967 0.592535579319505 0.05033684574016444
0.6952418231540907 -0.004227313296912567 0.5803237021963276 0.0518474271868421
0.6798858940401803 -0.0007746626549666203 0.5736566270551994 0.04702930496806609
0.7124458928494046 -0.010279489354616495 0.5797645864528551 0.034232268620724975
0.696700273593793 -0.0052119325321479315 0.5823587349538407 0.05086973475852108
0.6485456784920732 0.0008623841534536147 0.576336802551223 0.07059704052138031
0.627265679851207 -0.006033895101170007 0.5879392525695845 0.14234819800795787
0.5950486115881721 0.00048803378411755097 0.5752978779770589 0.09085028329564648
0.6166672676010525 -0.0014428320181804326 0.5864266644690141 0.08975699206163609
0.632780390807981 0.0032966740716259923 0.5701915583418082 0.1767551476563993
0.6172198706909731 -0.0027617161535829927 0.5797640640806102 0.1077278219080255
0.5777796999853397 0.0019602631666318197 0.5781204767124584 0.06906089524523835
0.5408060939880669 -0.0023668791039920868 0.5673439277627361 0.029425761375488416
0.5437963394635129 -0.0029280451178569857 0.5633210083244041 0.03370574298163797
0.5250020025351075 -0.010071909539940338 0.5822964344669526 0.025447213858498935
0.5672696911102942 -0.004033160713038873 0.5914632721191533 0.03526025164571111
0.539816796850904 -0.003598626580865653 0.587545410555749 0.07283140058308299
0.5030022361418839 0.0013544451622464777 0.5934241453286904 0.034227610434708004
0.47566914144931877 0.002034570306504732 0.5838395088979884 0.0799605930304998
0.4263467179933307 -0.0007149720847269458 0.5706663132831411 0.023455698390953916
0.46799562896587416 1.988454954080246e-05 0.5746601392752525 0.0855522909238669
0.40033082199100767 -0.008088811611727883 0.5783095293577447 0.029042060094924896
0.43328864211255314 -0.0028490665933363023 0.5883195362943527 0.028920944371698072
0.4002653156576798 0.0009282358403515318 0.5879126830474326 0.028688948090480528
0.453283543937374 0.0003955382383647909 0.5873972014962903 0.04365280578468322
0.3785114552439052 0.0030866498266096686 0.5733625985626044 0.020240154217197392
0.3912677989394882 -0.0033826791498782795 0.5743512489212578 0.033726307680301
0.33003656891829125 0.00023594071561527585 0.5760368334799063 0.01955128652095048
0.36630403509697906 0.0021186029001800575 0.5833597288030917 0.023301401988889518
0.3468397859562395 0.005764722495987802 0.5782571569323616 0.024021296050382293
0.8621868777820533 -0.0027367725354458094 0.5670211898050211 0.021127373212831497
0.9023995703358653 -0.009022771994825825 0.5716049079846578 0.04584761730140071
1.0056772604011464 0.009580426261130036 0.5706274185286626 0.02367796369285721
0.9750972226596037 0.02197475035877602 0.5581377525545483 0.04457471935789715
0.9801154206883925 0.012352980295638066 0.5746318814001573 0.13254799537080805
0.7794251555493639 0.002127685091312618 0.5657375342070704 0.02367773528043293
0.8316090148165308 -0.005749886513748993 0.5793447559258692 0.02264739317852625
0.7282493235721373 -0.00331092770676282 0.5648415165437419 0.017689782445357235
0.747870404562268 0.00530395419359209 0.5773389491684926 0.03267886151382274
0.6441716161011423 0.0035684853393602436 0.5686541250638276 0.08876821529674107
0.6200855798405369 0.016998660343697035 0.5609215496507955 0.09097916393145267
0.5785603766970727 -0.00556227645767259 0.5671993992817416 0.031791755034069356
0.5648754242178611 -0.0003365515478443472 0.5548850423918822 0.01784154515122572
0.5086962368840531 -0.002340662770898035 0.5645619605455523 0.038129883334828106
1.1697332586149702 0.11177350448792535 0.5744831561863086 0.068365939297078
1.1939296626194469 0.14889652805128512 0.5678358206663854 0.027282479164984896
1.1701523444724922 0.12226485269955466 0.5628171074532925 0.014984217029367586
1.1641411418105232 0.10510088120061453 0.5720460027851836 0.07967878439063121
1.0956193097731368 0.04730908049482806 0.5707259744320262 0.050088927360702355
1.109203922059797 0.061511410684953104 0.5651753443668115 0.007760110789445272
1.0378735477052285 0.024455137975062956 0.5580274986256553 0.016865783808564162
1.2062166149568065 0.2047642112029544 0.5559156987086218 0.03611551434746901
1.2307624975072176 0.218380120260368 0.5736093728023838 0.07422199964744132
1.230132735422001 0.23923339069363375 0.5640972414393295 0.07697396244846418
1.2358128010269622 0.24622768037120807 0.5722914241396491 0.06119742698892701
1.231436709148591 0.26863838750150587 0.5613482632914174 0.07550526942073596
1.2182647263721855 0.18532621923389964 0.5710174495445977 0.10734137815430551
1.239605924231738 0.34959169668995044 0.5651385589866454 0.09616718928703825
1.2356795799197746 0.30587212955290843 0.5660271483467665 0.03443237409764636
1.2424997151748052 0.33089707341144553 0.5768461246438881 0.05566155750350791
1.236946279060957 0.37755815720822683 0.563533375754138 0.07092615370543134
1.2249478805255267 0.40002456880447085 0.5628079841669463 0.047250361932295544
1.1797964455357737 0.5130838007611891 0.5655131458534901 0.0005618095729741663
1.2010768387612765 0.48537966209364897 0.566081037735972 0.009019979172854659
1.134528662784947 0.561173817687445 0.5610284489785142 0.03293425463354201
1.1471135801950072 0.5505704984764586 0.560749509734527 0.003827689037502234
1.1519158790092974 0.5417974990399357 0.5702547576261617 0.062136643251660115
0.16168543512697206 0.5955680161449879 0.5745584713865812 0.035850816716166654
0.11971694053425816 0.5625792777754152 0.5727995880230712 0.031654682336893544
0.1254120544273255 0.557012695997225 0.5509046408297873 0.0006325077657876496
0.0899192658230424 0.5374725580775275 0.5691830031103842 0.014391549764772055
0.021715143093847443 0.22124052185527163 0.5642802688009471 0.006632586179760344
0.009189071192899325 0.23655895118796993 0.5648473389528096 0.07327629570760988
0.013469070617752432 0.38374378863776926 0.5632190784514721 0.13438762432298013
0.01612032052036807 0.366979266802667 0.5609226177543084 0.09884087029898918
0.024107412697522018 0.3500529730908738 0.5579197197416719 0.04685375952669429
0.008495977660572637 0.3355290965786121 0.5726685894808151 0.07949255233023636
-0.009279567304600826 0.28205894484518623 0.569805707849779 0.04016190676869558
0.06299635770484667 0.12855439386569262 0.5816433371020171 0.06526198777999763
0.10953168942295496 0.06910694987628173 0.5682931703624132 0.01857534621522125
0.4824216221630354 0.00990770930284435 0.559015250663188 0.012087919481898827
0.44946755689543444 -0.004927806794352755 0.5765018520314975 0.05148166507817871
0.4918598531383818 0.002659181410045274 0.5667957800985577 0.06655707816979652
0.2889026465556974 0.01082110457439335 0.5671335921158396 0.08320626638304038
0.25523270677724796 0.021650132426672016 0.5601194632092023 0.02536673247604341
0.31879793863921607 -0.005822817683800097 0.5627526454177102 0.03787754802338417
0.3526755675277688 0.0015148641312258844 0.5763073189194258 0.025392318002173127
0.39972690378285397 0.0006669102594216834 0.5712336305314782 0.03394607613669462
0.20258481045940296 0.021241748348460713 0.5678421529439733 0.06524694301373218
0.9153267947604701 -0.009338569794492293 0.596685345904696 0.004850338994963178
0.9079917024110854 0.007777856733358066 0.602578662943418 0.05780684755856998
0.8583202892278444 0.0035230328696861783 0.5863950189606086 0.056977126809390814
0.8857303091208399 0.05923798325264581 0.5982158769636243 0.00014869028794002224
0.932903067380053 0.05756247054300796 0.5929811958608421 0.0035427137038963954
0.8629644315110648 0.028493516700146913 0.5929991853746583 0.007113267333611049
0.9230777703825016 0.1456560385003471 0.5999318848890368 0.0015448767253969631
0.8675840772106984 0.007603202489900162 0.5881234857044096 0.047750788770087975
0.8989725910476137 0.08837270125662465 0.5982753102470463 0.0037159207055193024
0.8517052678527282 0.02372619783526375 0.5923010835491334 0.03778956640652101
0.8235660443837803 0.006943851240806256 0.5946217783138835 0.02925448691396205
0.7823263770401142 0.0002835822838324997 0.5933658960797036 0.03185094948978492
0.8464553677662331 0.00867034349201829 0.5871541249557856 0.07146897876436371
0.8016204140112217 0.009710934434259876 0.5886804202144708 0.03981895547164189
0.8563292741346812 0.04503883426703887 0.5932708428980144 0.005327321459252602
0.7661667619718385 0.0057011199158265155 0.5873808341057077 0.02063077890162738
0.8270056567384138 0.043230098692795156 0.5969509615779175 0.0007697364110972821
0.8475775019101428 0.055492280635617 0.5947780503669664 0.006541563524025468
0.8579836386195276 0.09076106193435747 0.5922480614348933 0.0005970763602915662
0.893578874753158 0.11415453260529294 0.5981813085213927 0.0008809329878352711
0.8298222308840288 0.020962817950811306 0.5960477308384786 0.03508711455205012
0.9521830519491828 0.10195239883776064 0.5980487602233521 
0.9371854470221669 0.037683429766563366 0.5975987900289473 0.0006500041520429812
0.9344943451655493 0.10002233696628483 0.5962555904490546 3.3013194228499344e-14
0.960585012759075 0.018527640235695628 0.5923522752361229 0.11331799579027652
0.9682184092250675 0.04891887164152553 0.5940375199242145 0.003686737617916847
0.9815459222750786 0.04564297260915391 0.5948588302287945 0.04681918445806248
0.980720294536003 0.00858310086946667 0.5825824534414825 0.13732892445685976
0.9478739211069653 0.027843879175638245 0.5918996955729271 0.04423719114611871
0.92932539552891 0.003752195496545662 0.5925494045738514 0.07489649269104873
0.9684055286853905 0.019564778986655523 0.5932476031958959 0.126040090405248
0.9626807755589508 0.08680486909047046 0.5962138234293761 0.0007781319724966206
0.9797539663830421 0.005917296847514737 0.597772113226834 0.03605788331139162
0.9460687283194406 0.039081437523079195 0.5938810861171319 0.00953574424552315
1.0290906219698943 0.018345848360878093 0.592596523800265 0.03269264364646911
1.0883236860981604 0.045056696274887696 0.5930767822937955 0.04607590191162232
1.0305173697366772 0.0655290666831312 0.5965242882547672 0.0039629993054475145
1.0729649537762922 0.04402675325221367 0.5920905596823803 0.050864333163654844
1.0302844231527009 0.07807188698569127 0.5949684335487139 0.000673567994489256
1.062184286364598 0.050564102942851484 0.5919328745405251 0.07481116687593123
1.031323566146205 0.03486508557296832 0.5969238678422455 0.0569429164645542
1.0435356943795417 0.050411427144479166 0.5973623031563068 0.014124257271843504
1.047827395253637 0.05017758319812653 0.5956033788668984 0.041033200546990584
0.9956082139630459 0.08886087511697216 0.594166849488996 0.00047946893223546784
1.0099015005366196 0.06316747033729549 0.5941771493927048 0.00016158436458590911
1.1438942928246754 0.08826883329816257 0.5962537772662754 0.042689572767939936
1.1413536530490005 0.11350167310318819 0.5972679612201627 0.02174127773012625
1.047874585089522 0.11326435134935937 0.5949392927206236 0.0012876494506345985
0.9968612921808081 0.11284840451014465 0.5934313874359711 0.00026878883230609205
1.1002559450611775 0.11475047553590355 0.5977409113261642 0.0012956690186529008
1.0940201218316494 0.0924637991827975 0.596154339709822 0.025477173548961982
1.027984305240314 0.1011987066506748 0.5933039712939023 0.0008290522290768518
1.1599154578138742 0.1081199331463271 0.5875005967256406 0.07823148438318443
1.0924796714196974 0.054782853380258074 0.6027761868266779 0.036722960893643464
1.0731088235327522 0.12272095259962085 0.5957598257152279 0.0011609961170908174
1.149373920995501 0.08702092467135746 0.5930168075959399 0.02726946396724656
0.9535144980365559 0.15440382666075644 0.5923021785719885 9.299140350213369e-05
1.0725770937353412 0.09754732267689262 0.594847786322928 0.001260536118165232
