x y z curv
0.2732418963709231 0.28323381168781964 0.3839866098510547 0.05139904076773086
0.266932887451669 0.2754567797845133 0.2904305849044546 0.05511948324404713
0.26173572688580055 0.2594477606982139 0.27526160045768 0.031998029517527844
0.25637114019686696 0.21955754076611733 0.16252333543431688 0.05538562474732252
0.23894749120676273 0.19547440637551333 0.07050387521426081 0.05250859116495694
0.25877658825002076 0.2717670974605681 0.25500261963989773 0.042128285137272535
0.27002972690329685 0.3045422400893371 0.33389296450724687 0.03953019139146453
0.2692766771499799 0.2838266405997898 0.36411245043142326 0.02438868662346889
0.2547979921899113 0.21550323517166356 0.11068091696975925 0.09088052413794737
0.2766178857872449 0.3254169813744735 0.3829041488815422 0.06858044049864565
0.252178517445139 0.22529276325808234 0.17909166252544043 0.0403322593413167
0.24396515365388707 0.1924683824798881 0.08593384849824706 0.06979171532802511
0.2675560449868981 0.2606877655556879 0.3242186142877412 0.07381479505429016
0.2626026053427821 0.27194539308850957 0.28516540074670765 0.04556732200651215
0.25362723510787355 0.22115099064224483 0.1958226155831418 0.05831450003711181
0.2565628776322775 0.254117546577767 0.2538247667029872 0.039988703935338384
0.24727660254550002 0.21725285073501643 0.12908990260623202 0.04860115434152982
0.2544519559960701 0.2462679550830672 0.2008698640303435 0.0333575736712099
0.2792942560341843 0.30643516344350064 0.3574256651006683 0.027048679591748184
0.27573354150543317 0.29206649191615736 0.3636737421728732 0.021286294946102617
0.27470825895275913 0.3045082719352003 0.37135802559760905 0.03413040110801847
0.2659682660805414 0.29167607713030347 0.3229774090135296 0.016150459254226007
0.27673085672249503 0.2767293037483153 0.3979640006224088 0.04343641279902684
0.2587895998181248 0.2732393498330862 0.30249834531883624 0.026772475557527212
0.2674056385910542 0.28759836807991584 0.3576798297478699 0.02325777597794418
0.2528044481321882 0.2561754801611229 0.1782267227559749 0.006645697930847609
0.2461199855322287 0.22415136984753392 0.14594400053482615 0.044640551291136796
0.24447508209730678 0.24108719026181777 0.1338833739844892 0.028084150320411783
0.2438853276362626 0.2408962111025882 0.06786274413319429 0.026148399548809303
0.23924921400146645 0.20221871565239463 0.0583587681918692 0.04151466331669278
0.25158548084883076 0.27177830960839183 0.1439925891807628 0.0282225529664835
0.2608369095208091 0.26830636549103243 0.21466158139326869 0.0352343980032541
0.2680683750765002 0.2994195928677092 0.30291425256894733 0.04603279389106466
0.2393080204971687 0.22388717878509784 0.06623552965009377 0.008591403538030914
0.2473680823139984 0.22953313666867084 0.0939888205453853 0.021717614259829127
0.26236013588739543 0.27839440795007797 0.22380863773760978 0.025020986197518726
0.24971629350960503 0.2600225684752434 0.18932427739616464 0.015518052808291258
0.2552368501808522 0.2623268583780891 0.20941907354063094 0.01884560852845823
0.26289185068500764 0.2990660330814967 0.3226762915743083 0.026854762567224657
0.24507651782528594 0.28024777005700924 0.26995565323492376 0.015193567642074433
0.2565341880713412 0.2751097323313033 0.2549980412744577 0.037707707195617786
0.2567281619105163 0.24488164347311325 0.09320083813010645 0.04451959469438766
0.24570094025669634 0.2511674714893067 0.1404846196703689 0.015242042155985657
0.2564437441373965 0.26461615271385913 0.20407560381356343 0.02275478374801572
0.2436868256439002 0.20947947603355868 0.09745845767404993 0.07398551704727431
0.24365956393961746 0.24392063900814387 0.07386780894048685 0.02381584664965183
0.2337324690689989 0.19452061104162371 0.04544537420520123 0.026295602557537545
0.24167587582147523 0.23606280283750106 0.0781471789333088 0.020817086356861327
0.24133632167152733 0.21857075088171513 0.07312141025594335 0.0241758976179509
0.2489823461544022 0.24493087294094645 0.1561767975221832 0.01571001372887315
0.2552896380800284 0.25120141779027777 0.2452048318876576 0.03319902828796805
0.2436813375902133 0.22576924672182014 0.08255817647052445 0.020312980520665908
0.26147731918279543 0.3001412508003151 0.2848889696020535 0.04283149194738438
0.24426191142697967 0.2353706035369847 0.11004599638871262 0.03277766018084456
0.24965327226845993 0.23188482910139313 0.12290655076228052 0.022988485995105595
0.2360103993708188 0.23872839118454922 0.03104373483816546 0.02821500844827733
0.23906439980929048 0.2257345939425221 0.04325691243411821 0.01612171148576095
0.22962801716156336 0.21522749560902085 0.017223726917360155 0.02044175197761197
0.23570760320526066 0.20412488542666318 0.025076030571939797 0.028297119008709494
0.24499047253220874 0.24014486649338104 0.046475554478912114 0.016947966461068012
0.24013714152883744 0.23198929617160438 0.022154581962394653 0.04650802775256724
0.23267561431318354 0.2257827718523373 0.029403111903349113 0.030833978257224073
0.2676869534933094 0.2578699656554166 0.3457887899182355 0.028198798172407932
0.26337150031443285 0.24792836607060556 0.2902130820770688 0.025363180770597626
0.25306006336527614 0.21521011590326702 0.16605407751822393 0.04551167743937336
0.26913072741921806 0.24666299235732947 0.2975018423560689 0.05898804939080609
0.2824984269670558 0.26870635835842355 0.37684934383078444 0.07830161357651526
0.2574180535778415 0.23899667554322432 0.2675475943216334 0.038830363428230756
0.29270390097046567 0.2688733859234159 0.42675202378826504 0.0595385640790236
0.30459060595010473 0.32164648864285184 0.4144921342408365 0.09045778701436932
0.29647851811962866 0.3253815442496291 0.405205663018285 0.055663387316029836
0.2881459503825029 0.33053442086239926 0.39517719753405667 0.048143826216850885
0.3358408648327627 0.2769914091621324 0.20609514045347083 0.008651751700657583
0.34388489876022693 0.3107089714196369 0.31731672156623314 0.0018163529368828931
0.3195128847579482 0.23980668379958456 0.031378897882377466 0.0005377874558470512
0.3307924767226198 0.2934974809511429 0.21319702169671556 0.01532958636030557
0.34091666606912396 0.25268989320978164 0.36831906696731603 0.04951211963272871
0.33344049501135653 0.2532999176320822 0.3570190796869372 0.053208131555256555
0.3488042562631278 0.2575447438985238 0.38762345476810217 0.05299994943015046
0.34574633215641853 0.23773838687630883 0.29586003662504323 0.06316864131508686
0.3440573332278206 0.24678887094583554 0.3098769150651448 0.06694716043633421
0.3322183281696288 0.23325099544981617 0.25178402727162064 0.0959629797828229
0.3323953571014197 0.2278803720079237 0.21914541752261793 0.05460019588267085
0.3326056826876918 0.25061670578352635 0.3441080922690686 0.04269434598271932
0.3326026787364349 0.22971722988561108 0.30430833664821916 0.02406681875124645
0.33478034877340035 0.22857683929852715 0.2718974960471453 0.06387971834891742
0.30758035016208374 0.1883808096400171 0.10899739078468659 0.05560723044858213
0.3174113727525146 0.20056684972211802 0.13296593782864632 0.07619428833148115
0.30654607021771463 0.1875011501514706 0.05792392698624322 0.09476132828910458
0.3303176673314307 0.23015807022996704 0.2434523759147602 0.09540649917712155
0.3160416599651448 0.18820581597397212 0.07425422057906117 0.0943177446131539
0.34577376330001336 0.23201193417591331 0.27245403743559804 0.05649827482620512
0.33969997941414637 0.21576310135781981 0.1658362061163562 0.012067913204912892
0.35355132081767665 0.26014340385167656 0.363626911938642 0.06316896972013769
0.329429986407019 0.20396319961440817 0.10993063470818827 0.061638550574402685
0.32305040943747704 0.21424969322851475 0.17670852319409538 0.05784987381843607
0.28823338122799463 0.2513437226788727 0.4002609743309664 0.04449043293743256
0.26530830672217814 0.2128962914377206 0.2016026193747827 0.07523516332481031
0.272172679768481 0.2424824899341055 0.3293486274279998 0.08146049441529626
0.27401122915464543 0.25037357350118616 0.3417502567468894 0.09419385159928903
0.25352980617914234 0.23164073885025788 0.24478072654114869 0.0410070713156033
0.25935557718803787 0.23136743585824865 0.23321759583815183 0.06728743183235256
0.2468771320620302 0.20176117459011433 0.1184310136144179 0.07646689851608164
0.26991239756659097 0.24708607694853466 0.3165004989550475 0.07139545666115063
0.25699922039609424 0.20871936393337653 0.18665717178047678 0.026224280434925553
0.24922683171488216 0.1919138847378704 0.10570739304700989 0.06970033847404276
0.267854577481296 0.233455549387858 0.2716501787310416 0.05006383736804761
0.24194307763553666 0.17392115943948352 0.015467538206554294 0.07001618091118054
0.23621057911466772 0.17710261096735413 0.029016651698461488 0.04233680030244052
0.28381171013218653 0.3334017128967489 0.3662373210331835 0.045471495898473435
0.2705936234218045 0.3167209454110476 0.3118143403714582 0.023471757378075535
0.2569621291129212 0.2806582506858889 0.15042706814449372 0.05562758239803065
0.25193267465865476 0.27100728467970414 0.12830517366835545 0.041865181486734314
0.24811331913080356 0.2582252546587208 0.09584088889738582 0.035398015307532095
0.245286358032265 0.24805621446286769 0.04281955927073135 0.0163337336734888
0.2610483895767073 0.2976329626485807 0.24671841357783103 0.026949282523453914
0.24614154860883858 0.2587503828456647 0.10132675619736352 0.03200830883791854
0.2482472409611581 0.26883668672955785 0.14184193570732057 0.02465695691810115
0.2710060512926066 0.3232564069852828 0.3555783739843937 0.03215694069945217
0.2592158572847777 0.27776211300052 0.21155239880405244 0.07371054604912843
0.2417891183856794 0.2509644090988171 0.015519803736675098 0.04026931680234094
0.2462282337913682 0.2541324618860683 0.065477754937215 0.025903847093624564
0.320009905288581 0.23345065752406824 -0.004209104107863395 
0.3315213872744046 0.2812613651442265 0.1788932088815192 0.05968306011260783
0.3227183459988086 0.26435845297027316 0.10979118393827712 0.007365125289705846
0.25029685720548434 0.1705961118213165 0.010651949229571477 0.11213572144286119
0.2982723533211251 0.1775574413011173 -0.00621896439513458 0.06449689439051717
0.23480455421498825 0.2011098103510647 0.008822244393266256 0.02380498619851121
0.23999018198755817 0.23335931044938302 0.00800445823765427 0.04491989240556708
0.3194046587636623 0.33683179241710776 0.3924572780966701 0.07566236822642781
0.2950783599017833 0.3087217382702359 0.25753671948981705 0.03162852312910866
0.2620357276035567 0.26759057269433695 0.1066566074964967 0.03226223850862703
0.2601228868883343 0.27377787508576956 0.12519425652122396 0.031124641265217093
0.2840072209232269 0.30962468840896384 0.2707393560908481 0.05038503269985637
0.29728925561944247 0.33432685390072636 0.3930184138404231 0.05070509593901334
0.28307052035966834 0.2814623503230918 0.17102077610981165 0.010010797245546925
0.25941526750695476 0.258723189196105 0.08374910359411208 0.04396681856946293
0.2836864133653655 0.3111574630595472 0.28618127523056425 0.0467571580661016
0.30171733326114336 0.33839917661734437 0.3838923845481841 0.053738967852079184
0.2796864277180625 0.29355361835996213 0.21987755517520374 0.05252897855183249
0.27004956869806557 0.2717622617310011 0.09768673777533969 0.05144974123083298
0.2576321663209127 0.2650132835173255 0.05758919082334639 0.023522591242998797
0.31967606905586476 0.2814726094721201 0.1175446257367238 1.159107632964824e-13
0.29609265345608116 0.2942952749242724 0.1760989794942225 0.004577620043178297
0.2550390833823945 0.2498684195206703 0.02051893048765483 0.06407272195541787
0.26857615560103015 0.29145128201967835 0.19743536244116947 0.031374750267776585
0.2517614888285232 0.22783528781762238 -0.0006623828875508284 0.047786608028438836
0.2415781011786636 0.18486138438835062 0.006563333889985751 0.0551998532183758
0.24014709350581714 0.20977810030107896 0.005924625574961929 0.02850245343933878
0.2910108752039507 0.31005631428899094 0.4330091375526834 0.077000574957395
0.29240865917954934 0.32239709170475195 0.4574186507127066 0.05151748549211385
0.3289404131575151 0.3644697447231503 0.5612732464719031 0.0704781683985005
0.3612712890317424 0.33158367428619695 0.519086335919604 0.012693417057236303
0.33287021455825855 0.24311270065476495 0.3444546494358944 0.03917789096110285
0.3232115341039848 0.23156610776568873 0.30721613361739597 0.02804621243583503
0.32563534677658995 0.2555979740479598 0.3965183399226216 0.029227748814474104
0.33116610982868233 0.2532203539051441 0.4000767091796527 0.03267348798770584
0.302613309221524 0.18962429681666423 0.09892192863146836 0.05240763520936199
0.33492163585042994 0.23924082553548265 0.3213866907416129 0.06121784256414286
0.3142494445190988 0.23046671606440433 0.2908646457623975 0.02436394907735139
0.3271769048730145 0.22416078536423253 0.26136369998044073 0.043327360888997905
0.28274524280284213 0.3002324453896851 0.4108405460200417 0.058578300331852434
0.34797773678586275 0.30601942229866236 0.2882633444581487 0.009863884437028583
0.3180301585237224 0.2564741130765529 0.06394140947207848 0.0015998686966708984
0.3337981133755194 0.2952883413078859 0.24486695711906006 0.01201923403874325
0.32008764684467167 0.2159652047231796 0.21172668897069066 0.060197331573689276
0.3306869140899833 0.2218535666996674 0.23644855593535105 0.06660340372881428
0.3437235931765655 0.24985304466625902 0.3316409004256319 0.04726842549918911
0.30603867542846186 0.16607462163499545 0.013623409994125006 0.0531162566106303
0.3220147461324942 0.1819314647868231 0.08702516513313181 0.04924103124637063
0.3128179754002466 0.1906239048990625 0.05168823597487437 0.10074721587239968
0.3303093310476862 0.2129111916852945 0.15107500079479805 0.05900242033063221
0.31117311398070463 0.18547605444493845 0.028826899157609606 0.08260231575570488
0.2701188665075319 0.23737056975351373 0.28447143669605696 0.06676351416705832
0.2654482694493766 0.22710345753100275 0.22612027259516482 0.09092596620801363
0.2373577109543934 0.1850394111218087 0.05642825313673068 0.04502394108556451
0.259566269593933 0.2086467696027567 0.148284005679862 0.07513593850857112
0.25672388037809035 0.18306916812428775 0.07673351096967698 0.07085342388360441
0.2453621493039255 0.19534941202406142 0.08647106435103395 0.07218983475083036
0.2828631700316189 0.2512580484040296 0.367549506569601 0.07301968864199297
0.2720196704041891 0.24285225886432693 0.34772851332647525 0.07787980436250443
0.2556663950885069 0.19926248193610505 0.13346403198233525 0.048833199820965525
0.28181098555852757 0.24615667960270915 0.3623621150003158 0.06953967989859322
0.2641742517383753 0.19738259254176801 0.1751187729796664 0.01707730805677496
0.27172931796825905 0.3007906093053138 0.2619877424864314 0.07354490108601978
0.2564256836083503 0.27933244550681846 0.19901527445300093 0.06447364109433276
0.2609886927505509 0.2855488540017025 0.2348821441562088 0.03377263714616086
0.24595950483607357 0.2562235598066946 0.12323828257770553 0.029607267557168936
0.2673004417124634 0.32193982809463484 0.3705189216084128 0.035274194256288006
0.2770883847752283 0.3178597444394519 0.3415769083299242 0.04704733195208865
0.2665787384750468 0.2988016912256099 0.2578289657442418 0.056026069823633944
0.24871093593268803 0.27237869695674555 0.1841578361784215 0.05056119754728627
0.26794528625907094 0.2858608077731853 0.14294945407090853 0.019363390171399035
0.28880309067711735 0.29671671238952024 0.1988355826176568 0.02214605280717784
0.34160145887700577 0.8715414395018818 0.40545334927951443 0.04709692768528987
0.3271761460413818 0.8588357245416096 0.42688011083868044 0.027938200876844965
0.3149645273629223 0.8595745311365667 0.46930893868861573 0.009788093750322368
0.3269664491640053 0.8508627566888948 0.45455479953967853 0.0117448764508949
0.3119573776040317 0.8580706803049417 0.49037282393710524 0.04122952005154668
0.3398525611378952 0.8217016798597326 0.6096403705068869 0.03243019043134464
0.3421607561858349 0.8157820440913922 0.6418981451051818 0.025979065079578884
0.3143065021805274 0.8408069536973072 0.5871298915317427 0.06966396832474855
0.31156047264367887 0.8252641782850915 0.6143277493446124 0.03486997094790463
0.3056092862211315 0.8462640015867711 0.5453230021709551 0.09554176914631471
0.3113304896772462 0.8302266111826049 0.5845702781778269 0.04063152930196133
0.32012878059198613 0.8367456369856721 0.5614427091048547 0.04236211321582174
0.2925042012252399 0.8525928954975506 0.5518688950866055 0.03654051026354579
0.30307652015425224 0.868769313748108 0.4720372691902176 0.0275571019031017
0.29605347916881153 0.8753614873096855 0.49076436169492016 0.06449216472493027
0.30134669054341956 0.8683789841940774 0.5106477690506291 0.07051431627541097
0.3024778773442185 0.869983738239032 0.5466576098248792 0.037583185384796304
0.30954239348013435 0.8665841120493336 0.5311160615794204 0.046115089481240164
0.2932830020121235 0.8748351713022964 0.49755429671077367 0.08750397846725755
0.3047401266537474 0.8766993511899998 0.5390808124052381 0.03009032586948377
0.29250055671922226 0.898520508696251 0.489821717123824 0.08143568409781005
0.2942279735803864 0.8833517133031563 0.4953960871241895 0.08199370706192975
0.31493903519328353 0.8432381706133656 0.5989295487660251 0.06260022698698965
0.31486443222246396 0.8408146919367736 0.6107624946806782 0.06773561140905572
0.3187291143288221 0.822496175149538 0.6867876834851278 0.062060809974840314
0.31837687196545095 0.8227954833833725 0.7148809334851762 0.05177577641434671
0.31939090072111104 0.8362355547495441 0.6609802886838421 0.08193705134277325
0.31418015187700404 0.8566852745464906 0.576892029361834 0.04116431626123166
0.31545187819686554 0.8315686438761172 0.6389952301784594 0.05050826157087877
0.3145418386149604 0.834059077541685 0.6868698039493799 0.015320791000257404
0.3098468112028194 0.8499616740116243 0.6217692570412714 0.03805519400292252
0.32410290648416995 0.8293929423052923 0.6269661176168861 0.04491233409534996
0.3134211526222655 0.8326190741662337 0.6395572072793745 0.04483713402853805
0.31984908698327774 0.8155299162003743 0.679576628099592 0.06082934730726997
0.296125581186156 0.8468646815156171 0.5169053100255002 0.046875415196716605
0.30904068142718066 0.8633636270110328 0.49182706455062186 0.039205814664105935
0.32582139913803865 0.8207455228106939 0.6302389194283283 0.03318589010765317
0.325278713741186 0.8208027056852253 0.6597148200007007 0.06471844204277723
0.32477427022816646 0.8193001342701465 0.6653295309048334 0.0672540075717586
0.32376330697377953 0.8125237152439254 0.6736192571118726 0.06816827818472902
0.32686532011616737 0.8099945435301724 0.689549941110907 0.07066132977381469
0.2900928698471385 0.8912632572635512 0.4636987845318663 0.031091086247783242
0.29151559102753233 0.8969598986315938 0.44775394243721606 0.040899359694677076
0.28926085147338054 0.8873210402390163 0.4305673765624228 0.07876576167821131
0.29290225304894263 0.8729966695976062 0.4390764234092014 0.06744407670484126
0.2981499647654243 0.8753191909032912 0.45722577015638044 0.03504861874724879
0.3080036906131399 0.8697283312718744 0.6339209728017179 0.04709654452081558
0.3218201985243584 0.8662624654969939 0.689115147039305 0.037117045040244157
0.30662151511838437 0.8761222330641123 0.5930566784043717 0.07503245426459731
0.3245719476719938 0.8575917415053814 0.6937147319976483 0.03777926855261186
0.32610448059300357 0.8541279060032617 0.7080622998804047 0.01401554643711931
0.32333790605937485 0.869609004686257 0.6821160614829709 0.04303866924488341
0.30889763688487526 0.8881346226713716 0.5723331837338097 0.05434532202091809
0.31146814850086346 0.8977986236841541 0.5599028303123812 0.030010939353316345
0.306640629199295 0.8801629381693189 0.5925526074745533 0.06890582377655445
0.3186456979959328 0.8757301816733822 0.647873103336356 0.03955147065976281
0.31844063842266934 0.9012606160729504 0.5282406374125553 0.05468260511841732
0.29898100686316803 0.890561252122779 0.5029917710834454 0.0975908283975013
0.3171477142139782 0.9071580349786632 0.544814324357292 0.02357616413061443
0.303205492616289 0.9107840437158893 0.48181551449760807 0.033942268262399
0.3001375796183441 0.8893809289346242 0.5403498346457037 0.02260047549193342
0.3213410238062271 0.8427665330343842 0.687103683157077 0.022813371373011808
0.31327919563187867 0.8727208290625725 0.616398950753193 0.08014707035494405
0.3232597115137832 0.8432946808819282 0.6900357076513702 0.022790171295438307
0.3135343253130675 0.8810289049728698 0.5768572606153696 0.061855922359577604
0.3090790320436338 0.9261224525629309 0.43975807311656684 0.02673819099888135
0.304533808834089 0.915760727221288 0.4623118626649756 0.016239635980607896
0.3102492986357758 0.9104040422830288 0.4933315430360286 0.042564593226919085
0.2999771401054041 0.9086892144612622 0.43559756955148005 0.027683471942906338
0.29685233020305424 0.9143138657647417 0.44030402389661344 0.03133752576896373
0.2965250637652429 0.9103270281269071 0.44022700888186184 0.04342037453916832
0.31591564506954056 0.902812905890665 0.5122797480721555 0.049722258804647125
0.3184636091984713 0.9067069974013469 0.5189346347160039 0.03494336583253199
0.3294694633633411 0.8972449312861293 0.5708918934807369 0.019553604002635117
0.3303918336840541 0.8837581910485514 0.6053449183323518 0.014031885786064792
0.33254844363020736 0.868281487698843 0.6633448319748355 0.039748837168760334
0.3418563176084932 0.8926616241464198 0.601400740238212 0.00986753411444626
0.30733907952590944 0.8587598901190046 0.45774865217603994 0.013601548020474342
0.34636843804128237 0.8105968906415222 0.6550577054414812 0.027933842902295326
0.34742744570648015 0.8136056309542816 0.6448021796934609 0.018951764899518393
0.3138868571020964 0.8655650104282522 0.4297011400283063 0.06350732198398387
0.3431065434539527 0.8229339434460904 0.5925420334715675 0.0760432022831608
0.32659865642267816 0.8374922599480552 0.5095931961508061 0.0027749224438223083
0.3463115965627053 0.802390843732369 0.6810904977084447 0.017261072201336464
0.3272838605050243 0.9112747335106611 0.5014607519054755 0.008225755470299297
0.3233355745447751 0.9298034412444092 0.45685876283076493 0.006679597644407361
0.32527593322458115 0.9104374255074078 0.5128699112691522 0.030125549765296133
0.3450919630146622 0.8800785909461256 0.6810794312460806 0.018620448149919824
0.33456461201438004 0.889599474760397 0.5919908778598449 0.018915433406578103
0.3517083030575872 0.8704889641366048 0.38490763796360544 0.04526655022333957
0.3580197431289911 0.8760036941050631 0.38344369794646116 0.031038378496167966
0.3328520791440204 0.9581389870008102 0.20405353295391918 0.0009020395407343663
0.35802792260767247 0.8940650951295793 0.36051187071044816 0.027669387304074047
0.34862534316837857 0.9148236362697185 0.26947775880985947 0.007518490059303403
0.34174869403646885 0.9285331293686404 0.23841395975640053 0.02763226599234997
0.32924737552583505 0.9894991745935675 0.09253525336831309 0.006748998061138522
0.3418283321817666 0.9201743979190947 0.22760149720273057 0.04460685669659515
0.3265028495897173 0.9448878555709553 0.1307606494282883 0.03842522565657722
0.3257296559769124 0.9435868417455552 0.12939648759843964 0.03970894246236828
0.33901856097105365 0.9142211097173593 0.23170714184438243 0.04116627447961143
0.32756957085067917 0.9644323135834731 0.12575190500173256 0.015472045601266393
0.33913575569863985 0.8999628985569315 0.24553026371442793 0.027889239399671712
0.3379952087249837 0.9265089238972587 0.191677673355727 0.043103969418346884
0.340853886274026 0.9056545050998435 0.3050400015252338 0.006584734376297269
0.3236694038886826 0.9694720672053423 0.09256426159672547 0.018587479335356
0.3455679127742819 0.9014491382172805 0.3272265721744964 0.00964316854770182
0.33288686057052613 0.9565640342587892 0.17920068275239862 0.0035193541722789256
0.3295527864967447 0.9584853693832782 0.11472333018494413 0.01794565012852099
0.3196790978238676 1.014978056192167 0.03869632283944649 1.3994813371506432e-05
0.3252781031800475 0.9350138647412631 0.09807981610739876 0.009426453832763497
0.3199061220104127 1.0087134952509207 0.026221920306923375 0.014537102789110478
0.3453190887908259 0.9114768262545105 0.2803257015649039 0.020197892289919483
0.33444512722846503 0.9677406114224476 0.18005563133904537 0.0009628103178058319
0.3598484360957345 0.8994583935318539 0.3781450605787309 0.024563924385406184
0.3553385389443258 0.9203820916895961 0.38321944046769807 0.006243251098413896
0.3484165380780381 0.951255052329628 0.26256226378742076 0.0070489282089680055
0.3243446328752911 0.983002028057751 0.1292111304588633 0.005191391308705356
0.35327622560603394 0.9223227060023294 0.31775016162938363 0.006149209086328493
0.34751655206717375 0.9490154452616836 0.3078206204464994 -9.182655885250841e-14
0.34636259244436296 0.9473215603012036 0.27928782605745445 0.0013947082686085442
0.3354829582092188 0.9753305075866154 0.22081964466842902 0.0028028156947822775
0.33532771341549633 0.9903010947861058 0.15482730861981583 0.002326359348578131
0.3482485273500173 0.9621519619586537 0.25422669917757046 0.0035971215957480264
0.33669642789824716 0.9665115203190299 0.22073308956579438 0.005917483654352947
0.3278049455443047 0.9611274567403295 0.07416689128566724 0.008675884205408933
0.32022173171740786 0.9712676400493143 0.03579871259717473 0.06810995323121619
0.32040812136240726 0.9636205764326966 0.013551071185184237 0.011076602970080103
0.35717602541838395 0.8837627114744598 0.3862689012861344 0.05173161316508277
0.3511101003493916 0.8914740095567473 0.40213587582451615 0.006586254210508032
0.2944114467829719 0.9308482642145423 0.41124351402727666 0.04720920635723773
0.2806415127546085 0.9415518210035455 0.41147932257925746 0.017370559603858287
0.25710960003152683 1.0219753915157652 0.05781065067602215 0.08781715130209433
0.24917303165583513 0.9966559715231412 0.12314817095457822 0.02037100115720025
0.2651671389197139 0.9425593074095967 0.3027514768409805 0.05735703226725377
0.25541348098606037 0.9557208314131782 0.24640566625719215 0.04402747631399615
0.2668885388988987 0.927926281848604 0.3910015407951827 0.041284462256594635
0.2568276647425324 0.9674208922991298 0.25195206871199993 0.03602511601789197
0.2723353460637949 0.9407025667845758 0.3807575000409804 0.06131289954778971
0.26168397023287926 0.8973856309395396 0.36009176759987044 0.010597936746851467
0.2630566606869028 0.9387504191403508 0.2927556448012301 0.03546306985099153
0.2786687958279452 0.8876265245312832 0.3713437918908973 0.04849098388829786
0.2649997860593314 0.930884137178192 0.3063124166068303 0.035744124040989936
0.2586636185598611 0.9459057425145903 0.29815916121848585 0.04057376048350708
0.27273202421444676 0.9053090740697618 0.35144881144578904 0.020850596112270987
0.27959300448965696 0.9217705888451869 0.36276606403666345 0.04258828552980622
0.2831682149977044 0.9135782986572567 0.39566906530305057 0.053555484873892126
0.2644632745338418 0.9385005959910674 0.32625749817328203 0.029033064098860598
0.27136968335673844 0.9160252878978584 0.33830808776623217 0.03593823651893818
0.25445781472107365 0.9846694785256423 0.13670004026209212 0.05473374598927957
0.27311382733831235 0.9015975141852814 0.38015860337932716 0.03158782076937643
0.2552601004682284 0.9654319081070937 0.20972551842746193 0.020442647390249615
0.24621065831396727 0.9769786708243298 0.15233567299449205 0.02201464953655727
0.2474069433156263 0.9838910501351441 0.12233460236299788 0.05617027207465961
0.2572806365131504 0.9902003668468001 0.16129094731726012 0.02041650120508675
0.26197801619086564 0.9302366099115923 0.25518958213989057 0.0382339992380074
0.2713900801504513 0.9529802950284342 0.27336578003159345 0.04151247890141878
0.2734984312379791 0.8960727123067136 0.39503157308469194 0.027637350404568082
0.25964964843423305 0.9232250155843393 0.30173835128043347 0.02384857624659676
0.2704138346294914 0.9310293781571923 0.3224992847206108 0.02993696875961712
0.25784394185104054 0.9578759834060185 0.2336696040631077 0.03268747363017196
0.2728638617293971 0.9021643841895248 0.3717634261874944 0.03004781602235204
0.26941194206323654 0.929286337608689 0.37124221625049203 0.03972227537024764
0.2536672912696293 0.9462719576913481 0.26378885817806524 0.04252493916758953
0.27329008159826335 0.9155875548522947 0.3816022206413518 0.044700313090546596
0.23838906316830347 0.9817212103465276 0.1131099186251661 0.05267147055580643
0.27116937116679973 0.9168536078211026 0.3189874577040791 0.03687570598575914
0.25034834672127054 0.9645998280590856 0.1769390609392531 0.017835740677716663
0.26597774945759495 0.941077869280091 0.3117449658818411 0.05264184422260562
0.2709749835291902 0.9270064359553165 0.339766839078154 0.03811047968846769
0.2569712371049797 0.9600820727366418 0.20577215491201534 0.02179920041462064
0.24076892965049954 0.9971084897489453 0.08341872417724758 0.03540199378525028
0.26727396093689204 0.9515247194322198 0.2891385445175483 0.042943877260589965
0.2587509548053784 0.9369960146910346 0.24218945387702678 0.045108143955955506
0.26477787127900404 0.9324772115274494 0.222156046566601 0.033518107816861
0.24103443197192578 0.9727387098317225 0.1344404330867869 0.02151471093545011
0.2614693723252414 0.9580433287796791 0.20793008354059586 0.022350873262543494
0.24503978957759912 0.9999932228042874 0.053148289209983414 0.06171308567088226
0.2454738046702563 0.9722601098372049 0.1515415204996853 0.023218101699738036
0.2507369236540183 0.9568761438709357 0.17863452498207036 0.015793753549568242
0.26450239757700744 0.909654065923813 0.2531412521112536 0.010898163182300283
0.25402833854299883 0.9551223661284418 0.13340597114046765 0.04171625375211127
0.25494210810572193 0.9834879880968085 0.08237514663238742 0.0402693287614061
0.2511915246797553 0.9861151537183673 0.08988004318871944 0.025658448825640157
0.2627171198527842 0.9447111783651605 0.1865277934701524 0.018539641593622654
0.24661217341857594 0.9528415831690721 0.11046111093900883 0.05837676398484407
0.24736819563390128 0.9929267043808415 0.06792944598965397 0.023697463098968613
0.2586729685117543 0.9281905098074431 0.2734989085642533 0.039741048456683165
0.2618082890871506 0.9124494011932166 0.30422151862260793 0.013972545244969483
0.2507424697281711 0.9442670432547483 0.08208017273465225 0.12174417289841045
0.2682520291215088 0.9253230479333503 0.24229426025038905 0.03431129604889342
0.24467217408045422 0.977984059598468 0.1029642966765038 0.03373001903772004
0.2416013375359737 1.0060587659847782 0.030990790773883645 0.04780835313065613
0.2578857410198272 0.9356546163066052 0.23532852718761135 0.017321540946000465
0.24029779005307184 0.9913983201059728 0.05510673331117151 0.03646341518904083
0.2558208308383451 0.943901386653272 0.15725063161183134 0.058352668419461955
0.23195939473584426 0.9682896796650015 0.0708526404858786 0.02460316211486175
0.24144327130245585 0.9829284098709868 0.052937053536304936 0.026801067811769327
0.25906081015332694 0.9301574191259829 0.19256392835312253 0.0625150710118605
0.24123925764810414 0.9640419110180565 0.10790263231953098 0.03645291506504909
0.26351363811048656 0.9392390937689756 0.2137596169754142 0.032244661334713653
0.2359338448324585 0.981756500397758 0.06458892023132248 0.02133063786208269
0.2708776907939462 0.8922490102124245 0.3362857978106385 0.024958919381329006
0.24195806750316937 0.9837955832985502 0.06803390459031862 0.025430774707854466
0.24752542521292015 0.9627563268763029 0.08230900468382109 0.06983608595782262
0.24055747483282527 0.9849761689056263 0.039526354597028815 0.02794796541097056
0.2536552845855598 0.9347361279949279 0.16904180718161477 0.092829351181658
0.24808294106554504 0.9490257065512446 0.15315597906086484 0.048303475535893474
0.3124101747441069 0.9390644536881265 0.42126264881753683 0.0510468210814837
0.29965359569171185 0.9284574826945844 0.4139959110008127 0.059127252213906724
0.29282555447420416 0.9027626188719907 0.4185930297120242 0.03402780636149057
0.3196916004066651 0.8672386479569478 0.40754492198349657 0.08560916802321883
0.2771305407563518 0.8770311515501923 0.38938309768133955 0.043731111528462936
0.2692362487340033 0.922327510313921 0.28243796986866243 0.031033877685271372
0.27864104741796303 0.8894578429393346 0.4160272749731512 0.02934325918838579
0.3075014937576025 0.8637659193892833 0.3939411888391069 0.07918783240464253
0.316400969425812 0.9283844080297932 0.13574296111900608 0.08622085683763572
0.34302972213179445 0.8832032891033562 0.3470651808539906 0.014913923976721364
0.3398201545595493 0.9034648446523876 0.29369298648784903 0.006599807124091808
0.31832883539357293 0.9035501311314615 0.2229323261175556 0.07277894432623186
0.32928028502678686 0.889748335444376 0.2783819049491544 0.06430167892917261
0.31531843830544387 0.9265685179967832 0.13460912103836742 0.05008555507051229
0.3052549045859917 0.9577471146403281 0.018344635575994653 0.05551926237203782
0.31367837232527934 0.9475475254444593 0.04088846906105262 0.02381325393597409
0.30814864779689205 0.9452821823727773 0.043365768409753466 0.029724138030520195
0.34976456105631404 0.9499351887385786 0.3506290312070056 
0.3333863524111648 0.9865245876658547 0.18723791451629884 0.003914289835119733
0.3272625511291446 1.0017305756202222 0.11856029044130845 0.06645760664276094
0.3599865282635391 0.9372642872445488 0.3815600481515235 -4.114394642497326e-15
0.3212387985176435 1.0208118047511774 0.0545797387008943 -3.271282027768041e-13
0.2832557600797118 0.944673234008082 0.34899298268555873 0.048711202762134545
0.25438167783852655 0.9874093084390668 0.18480150925758299 0.007197510319660948
0.2691281753309606 0.9669634623132468 0.30039010146047446 0.020711182997154527
0.27186373817496806 0.9453836073694885 0.33036591296637136 0.03533162700386962
0.2840868474885673 0.9407424902796965 0.3909317775556969 0.08371649825787192
0.2820300981097191 0.9525300678608251 0.3204666633770631 0.0382781428082677
0.2639528100200006 0.992719771579054 0.21600162019047917 0.02313842510258745
0.256893755550602 0.9703400327641152 0.1904440318332872 0.02550259752508718
0.24807457725401208 1.0132268521254646 0.06243834976360588 0.07486743244782854
0.2577148107307674 0.9705798194792952 0.21525465244679093 0.02292441983971943
0.22974653875634077 1.0191199804403954 0.03667108019814345 0.025028497083161343
0.24924152966659913 1.0127539184358691 0.08449196018692588 0.04977664272199721
0.2486375605325655 0.9920199786561285 0.09774191187458643 0.047176872999941874
0.23144107983170142 1.0198465269665982 0.01720393739643832 0.08147195502411536
0.23694865030325732 1.0254110005197554 0.04257850585401604 0.059239547078061124
0.2814242539134762 0.944256839187336 0.3583516545716733 0.040126038005043094
0.2804531741253122 0.9546143147258102 0.3744316113872237 0.04746770188999342
0.2642722633267968 0.9767438490098086 0.2560105980806579 0.03653682144300506
0.2753444031189147 0.872388373017565 0.36860323565650427 0.020785091862655918
0.27983424174103616 0.8805566381174001 0.3462617579954181 0.040293936609343606
0.25841098738779733 0.9132272583988361 0.21033958555878193 0.062000291961509094
0.25104059440083 0.9280579320906729 0.1544800936889815 0.07407631390150449
0.259085262837495 0.9063210887836557 0.2021076085484401 0.06454898219279095
0.2759738159658515 0.8821664245156169 0.32694529157376245 0.026699373989078925
0.27094488076284967 0.8826614077069852 0.3333511065723017 0.021370345886135646
0.27675747056948435 0.8982148077452224 0.2788158914851402 0.026714201291494596
0.2734105416256558 0.893275181863767 0.30412386610718734 0.015312501437961716
0.2417323687399279 0.9651233196632496 0.02725969557314873 0.09044993877164784
0.24819864938586483 0.936233444782123 0.06783311676189012 0.0458751013486365
0.25420104765522533 0.931547038661682 0.09785162842991588 0.06663337340511626
0.2729898446067531 0.8972128070876637 0.2715134984759095 0.01899786425741093
0.25658421616971366 0.9301187813150392 0.11266470207281823 0.0596596809218947
0.27268742628707626 0.8846587259782301 0.3594353144794036 0.040555361760557275
0.2387761998553981 0.9435166940959914 0.0628182594991683 0.054326055348976915
0.2674269686051572 0.922931903419826 0.2334550933770007 0.06070699029464845
0.2477026246148495 0.9335878576800664 0.13113211249988566 0.029035730501105424
0.24578044482603678 0.9384879079072925 0.0951642167501807 0.07259984121641516
0.2516914567711381 1.0371981033508422 0.005755259120209279 7.85919731902148e-14
0.321818912397751 1.0222716408804664 0.00999634356832228 0.005142543595498699
0.3347027916665413 0.874807639604114 0.3231074410449258 0.0075592285063652166
0.33355064602768647 0.8747763424453355 0.3486119195101796 0.00499174091697359
0.32091243661100727 0.9052410004342465 0.2170092519159632 0.06086194731941243
0.3343295606500235 0.8868722908075857 0.29463939321887495 0.055805350894858975
0.337834100941196 0.8639839524410731 0.3669299491117151 0.059606785318837126
0.3183131537168561 0.9116436884576744 0.19846175336965163 0.024543154141695996
0.33265376210740527 0.8995135954536307 0.2271119613841859 0.036471903531995635
0.3014715505878759 0.9035109823291172 0.197327574142918 0.014748113595938797
0.3192565004958338 0.9193282352854074 0.16286632071758422 0.012324755434252559
0.3080003254080592 0.8923564660767727 0.24019348159791656 0.02335918198769924
0.31176728108528573 0.9395732639379782 0.063902413260426 0.02693374786318172
0.27271060022252774 0.9536184155666694 0.012364589377376677 0.036944939789309204
0.255186063683593 0.9447567632434734 0.0314522576245273 0.047256108796022066
0.28903329967980795 0.9571566737905131 0.005530783278195631 0.004842128575889832
0.2536303914668959 0.9497077489106603 0.014529358981419927 0.034643583400835946
0.29296821707000736 0.8677799902961797 0.3981711624615486 0.0235535359350777
0.29655432356413747 0.8653956166539898 0.3814325408449762 0.06720219813463128
0.30336593259160044 0.9601205778997591 0.010053452311970884 0.052853538241922994
0.2339296670925398 1.0006030383931157 0.01003693103458043 0.05408900855960298
0.22595831057117047 1.0207447489159525 0.00772789643537612 0.05535975463737106
0.2970682529117652 0.8895518340288845 0.5168540985187026 0.05690755667944037
0.3240919053912247 0.846376969713347 0.6787653684500007 0.051916536937212834
0.31519013877052193 0.8315845356713499 0.7157836351645935 0.03465871181818718
0.30942886979049716 0.8586812002772496 0.6403146508529409 0.041056951663354914
0.3150298076384122 0.8556501850171442 0.6492300170499952 0.03393264973153875
0.31793987264131246 0.8530279865701146 0.6612158210180739 0.030907729811250874
0.3006994505058321 0.8655062250264773 0.5691414961742587 0.03367189356733916
0.3096998762119123 0.8763202369355446 0.5744259224985842 0.06098390911718626
0.3060370119222629 0.8512016915189197 0.608283818612635 0.013254913873255418
0.31494271835453796 0.8569930185210096 0.46349571896466296 0.013282628400954182
0.2896136538644841 0.9037150499533154 0.47410221578219264 0.03195587797702937
0.29469598457606866 0.880084717164487 0.47937796884556005 0.059610073708535834
0.334291662862942 0.8196471317554102 0.6203413844769206 0.031019995111275702
0.3112963468276052 0.9761002562283186 0.2959121439779131 
0.2930834219360091 1.0174469447021912 0.10297783936719142 0.013650014635449107
0.2979932823808738 1.0144780311226826 0.11718601153360078 0.010603915424360129
0.28395844994446673 1.0274097853535544 0.0733413796735296 0.001165037430304614
0.2718215075555521 1.029212914138614 0.052140431222490645 0.020516333480249546
0.2899290402835297 0.963606779722372 0.3120325913983531 0.037910343935263706
0.30188451315369985 0.9391140960747347 0.4122103408336189 0.06417016680798532
0.2685690851543334 1.006072333066944 0.12158532082684018 0.03579208337815873
0.2714850774964964 0.9552240946745103 0.30573259253006707 0.03376331759899698
0.2888139765810443 0.949735569542692 0.34133000324791707 0.04353000272894273
0.27263034269005526 1.007196643466183 0.13470647312016784 0.02812820088918804
0.2778054093027013 0.9816002559281286 0.26530515174634034 0.05685840708272714
0.2570731946392776 1.000769347260653 0.10328413974444926 0.06473632283483795
0.2335989928439947 0.9802511157365995 0.014002359008955847 0.04531415459987386
0.23974486654501742 0.9593604063814433 0.07083651366256957 0.07242015378393092
0.23883917615720876 0.9867051470089268 0.03610249257662517 0.024800411604204146
0.23506290317037934 0.960880448931969 0.043362160516117354 0.03739207146668267
0.23875658941469724 0.9756704050686092 0.041340816869018034 0.04030006757103403
0.23360164333195074 1.0046360431544823 0.021438769420452055 0.03916749910027866
0.23852741440601927 0.9634489970646574 0.01582653160623432 0.10022849642809444
0.29047876947914614 0.924332328061791 0.4081303704942803 0.03661643006316535
0.29234372278547804 0.89153653940526 0.42872729001662685 0.08556861737473774
0.29587378060898967 0.8730330161141975 0.4158674591896854 0.05704718496559006
0.33764785388453705 0.8919549146038388 0.26417000837902466 0.024804578674523754
0.33645584880053186 0.8936076643606088 0.2780723948117101 0.05589023634176291
0.32836452068875943 0.9144374507246144 0.1929753599305633 0.025241175681332134
0.33309525651132366 0.920084633218613 0.16722788427777488 0.021190159941335895
0.3234171759672951 0.9377481701366317 0.11667240450207933 0.029695663944029376
0.3141686593093729 0.9334928226878826 0.10511908779479842 0.105634426597764
0.34548084018342773 0.9549700963509197 0.304772656153681 -7.622450020397554e-14
0.3222789067930807 1.026323922662946 0.04054940559054908 0.0004952103244610706
0.3314519306852943 0.9956414029682443 0.19223115332360827 0.0012942338293902048
0.2577682217052895 0.9652525013708754 0.24813225977313413 0.033620959862033735
0.25430990917287916 1.001338028128771 0.1253086275125291 0.018987022469892516
0.2541504282129287 0.9969830059544779 0.14893387344682738 0.0200915090105755
0.27388810286319415 0.9634195048858654 0.2678170149231203 0.03484535683235495
0.27262544403704364 0.9473667280255644 0.3737747656359973 0.033781777841223916
0.26499251876899255 0.9924012041229162 0.2001196104207692 0.013182351758618956
0.27776111801660475 0.9706117976285471 0.2765940084043967 0.045512413839573815
0.2549941090002712 1.0109672304988906 0.08633078850878548 0.05080978356064839
0.25342144242091286 0.9232040069173283 0.1713610792669543 0.08860201970890985
0.24662227555239427 0.9192233189969197 0.18161259158882398 0.06584232909308912
0.31168665852382416 0.9303557938573481 0.07925418658699322 0.019531564611118234
0.29047526435360715 0.8929229317908667 0.24997662481283303 0.007478392159080623
0.29774627430224104 0.911753485707947 0.18449892822174935 0.018436995985236203
0.3030203536352034 0.9202997986523369 0.13391345661674584 0.04489516216302704
0.2676219382836873 0.9178547347654752 0.186821304799017 0.09958415206988568
0.2711350924833029 0.9058273213600659 0.19676878651583454 0.08711051413363795
0.287828048195168 0.9088327458175562 0.17503953848725357 0.03778660311361116
0.26876400104079307 0.9158726983090392 0.22030553472965062 0.04921991481902733
0.27678589224933964 0.8910967806685716 0.301552734698606 0.015343671956991458
0.29204765890099776 0.9383847057201217 0.057355317655248074 0.02263050165072225
0.2825250904551166 0.902730468970859 0.23658064855417413 0.0679134934391229
0.28611470294144165 0.9064100098243544 0.21490265080450285 0.08101496288035781
0.3044399597521898 0.9228787696199754 0.0973832097398973 0.019548461584323888
0.2942781818069815 0.9459808983314352 0.043978753707234086 0.039096960971691144
0.2777693567736826 0.9343097382860207 0.04508537845396908 0.0015640302018647956
0.2639347973536726 0.9326026863491523 0.09602566799760828 0.07249225462305368
0.27049733955677197 0.909689513291553 0.1651274084631685 0.05514506324692064
0.2910847661733657 0.9240617824265535 0.14753125443204454 0.01075574544037454
0.2782661642814396 0.9184705897814037 0.158869098206161 0.049930331313493476
0.271163454635153 0.9231304324556786 0.14617276311530672 0.07975018609613416
0.2676867654414972 0.9284943924467647 0.1273859290001585 0.05970547084909843
0.2701320398300019 0.9377975228817201 0.06758667550804988 0.06745772736130398
0.2753094693200625 0.9322501290939602 0.1011608813829943 0.049849583167868375
0.27703534750707137 0.9028080188885965 0.26782394434153317 0.023516496902631474
0.2780885706616747 0.9034167009889835 0.24464156452353678 0.02689826180718836
0.22947852829394608 0.9714994172402679 0.007569142782984943 0.03647266052331319
4.443642993277299 0.5311103961135731 0.7365648966542431 
4.451628790668689 0.6185589948783239 0.7383609205470296 
4.453631343691696 0.5890945284009153 0.7418281765020103 
4.45336544965635 0.7154679606783557 0.7397388170361495 
4.45133976504341 0.559465421976306 0.7414036242223049 
4.453005311191506 0.47336276449903514 0.7392271550092909 
4.458188884523234 0.6830036625811707 0.7461047887691246 
4.45413966290084 0.5140672276092906 0.7436317572239602 
4.463762407506152 0.6352886740144915 0.7432954717222175 
4.457255908052945 0.7461208646484678 0.7370134574112378 
2.432511242028708 0.2991860860030889 0.41315385491496215 0.010990805505114313
2.403451291725218 0.27054627366977174 0.4298391587234388 0.05087508815924371
2.4162045749564722 0.26822029217818816 0.4208648320155509 0.051525359494754695
2.4383590912787 0.32862551990028754 0.5288302926045888 0.025453606361387868
2.431212284727419 0.3170848752307929 0.4801116488370682 0.014566608674338887
2.4409171845342756 0.3287584793247954 0.5466896293930983 0.018941702787295876
2.430896092493965 0.3390887101465535 0.5885497119063628 0.034530581690409526
2.437621954580754 0.3206134273158533 0.512965340117966 0.02415812138024238
2.4355752292125343 0.32354244452134984 0.5254917795187571 0.04678877088292284
2.4296999753610318 0.3094668911564279 0.5110566918995383 0.02164636441209516
2.431476041565787 0.33299458518843295 0.6044706555452332 0.014399745340362183
2.44067454301187 0.36490254296160785 0.6842147446988103 0.07748860619324154
2.4342534071931405 0.3400778932638726 0.6577437802394641 0.027969951610464946
2.4319161310504858 0.34677409796361836 0.6395812789599338 0.029963664594630696
2.4281349126957075 0.3499552075246623 0.6642703830227336 0.04204793507520745
2.425783815873629 0.30865047705964416 0.5248265701721806 0.05683156459952265
2.4289973181057087 0.3093922569211649 0.47863898853557846 0.01614158097557788
2.4235964030759187 0.3136434536926371 0.5469359239080349 0.04988210205149746
2.4239252221820022 0.30091307166750897 0.49016266742720327 0.04055299399726262
2.424126953984682 0.3215910371522982 0.5732629346272675 0.059331414910031126
2.4264802503877294 0.33081590545945627 0.6079813680403356 0.015842071561198268
2.4264150567498084 0.3282366057857048 0.6051972505100848 0.030156224035421467
2.4236396452592626 0.3072965807514846 0.5717460612072115 0.06323746633483956
2.418788869992585 0.33230747450671433 0.6356785069665238 0.049736723841790884
2.4240591701488796 0.29427635731864715 0.519572515511466 0.030253093191519514
2.42006795126963 0.3147534257151815 0.5440450903885645 0.051116746974946475
2.421235298107946 0.2980143280241458 0.5628926693693658 0.049017747792314534
2.4154172426456477 0.29615937807311643 0.485811965315489 0.06573825255003887
2.4132759026937936 0.2770265082056588 0.4605921186387697 0.020600468103781456
2.418904011955979 0.28724615378582424 0.4613116093654389 0.04692874405644859
2.4096744263435044 0.3242473849155393 0.6039840588496108 0.0717372776314425
2.4112253078601005 0.31472262570613946 0.6186278684530286 0.05535078398105077
2.4175672816876546 0.3232733735543006 0.5837336639177441 0.06972487076682503
2.4142167921273083 0.3108220870537366 0.5786879552930885 0.06484210093323073
2.4237323465343676 0.3442913505957845 0.6913792945857541 0.08297030810882022
2.416134368007841 0.34294070966918705 0.6659851339497831 0.059039686453286944
2.4161747747576143 0.33583700063260713 0.683476461507601 0.07072243654927551
2.42437328002565 0.324605692316426 0.6505602423195739 0.023598777977769075
2.423806259712904 0.33059552459321806 0.6224881990761865 0.05267741420222009
2.4136159582156993 0.33930570460522996 0.7089302087125227 0.050752199510209386
2.3660222902986408 0.356482601934779 0.5865157686435388 0.004286950873271136
2.3682628758067192 0.3542719825050401 0.5644439239867646 0.0035213083066574723
