x y z curv
1.1750173443286587 0.8705211943951331 0.40551906232616003 0.008211867925539918
1.1711864169681072 0.869833064095167 0.44883304815149594 0.015352800062785462
1.1665764203609934 0.8711515830014843 0.19397600874441773 0.08615290788781398
1.1688870624419145 0.8720428946331591 0.15372525994044473 0.06592229529852478
1.1825781287170862 0.8471092599698894 0.15736046492247677 0.030195056945439128
1.1735042283572106 0.8653849279650279 0.22683155913809394 0.13267895523999104
1.1779885051563266 0.8484980986180365 0.11619364387413182 0.055090935939399635
1.1767394899268746 0.864771546908658 0.4510824729813307 0.007379364784961528
1.1744586428504262 0.8745166456815996 0.0377420939370638 0.1285174265292886
1.1769234256273742 0.8649046438225962 0.2758589388749329 0.11353691600152406
1.153633864653478 0.8690783178757865 0.6621455368790252 0.036839608993769375
1.1436169561895817 0.8715613091534623 0.46013105145414335 0.06634587153454306
1.1589628380115182 0.8740762990333176 0.31840922227684065 0.026959868453473358
1.1574131766763665 0.8737445057963289 0.28587906562512755 0.04072925175607374
1.1621873491285326 0.8745855274083669 0.5668284311447233 0.05375842407939165
1.1575585932205716 0.8735280732209664 0.32988689507821206 0.04663489833506993
1.1572026540537002 0.8788830992104862 0.1335525577637571 0.03503547673122086
1.1602065313753194 0.8738135533510011 0.4049830764066783 0.07619836488783688
1.151683255463434 0.8776352263637711 0.6247319584437336 0.0073106835956012785
1.1445297722905718 0.8735764685343018 0.0246243486037394 0.03127475978492928
1.1484032738293053 0.8749613755322226 0.26688998793932167 0.1154733634907658
1.1448113217613887 0.877145783345486 0.1864453768089131 0.06373140571765867
1.1666065672000288 0.877156693788247 0.06617681016216793 0.014150033500862767
1.1553671731768362 0.8729211362071018 0.38996655790152607 0.05622226615906368
1.1562288839196928 0.8772611627890853 0.5814084176105478 0.08050295796564452
1.1545792687706888 0.8698413321651935 0.34879522189112916 0.047847351126609726
1.1548129350280234 0.8749255897460259 0.1945024625105129 0.0786470475002624
1.1585162472867805 0.8763633620855109 0.2990328605738837 0.025742289926316463
1.1464051749177082 0.8717610264226859 0.2575267234333814 0.0801667445886419
1.1583363806439149 0.8714584439133507 0.5907924686201322 0.08872072263013676
1.1513855869379293 0.872382132203488 0.4465072053678351 0.08265382743643422
1.1446647241410073 0.8651355513421835 0.3319550850943183 0.013417755518034332
1.1377104121230468 0.8753787991350144 0.10886874259078033 0.0632545118263291
1.1384153525076526 0.8813907160838662 0.40911564420366253 0.05305509826439566
1.144244270516871 0.8702444596838639 0.0523118219996591 0.035102201193516286
1.1429829763547499 0.8679153493034546 0.2795251257479533 0.07855279572921035
1.1438539928467162 0.8776440843040643 0.4803364165581013 0.02484180311054989
1.1486103441675712 0.8709909060317836 0.29592189355788634 0.03540714679281121
1.1535480200643946 0.870093845881284 0.0710064753506583 0.037449865752544255
1.1427119733199271 0.8680108377645535 0.36273836620994054 0.008154001780764067
1.1584890904133944 0.8704415079912772 0.3428009714286397 0.05474291924144245
1.148491061284966 0.8755623048529646 0.17454023579732794 0.07592482865520556
1.1501164240544666 0.8705542134489476 0.5323021983099738 0.04610933407989047
1.1493102479567803 0.8732319424228334 0.47290475862200726 0.04885074104563741
1.153049099972608 0.8733141807238475 0.5657435853735239 0.08080984635685871
1.1482213983284921 0.8776956830338695 0.4273895086820548 0.02986134024104383
1.140779548881721 0.8778419133146103 0.23745218998051654 0.07445249421325664
1.1453867819662027 0.8769230592142461 0.5133186010401607 0.025886473482778404
1.142246494738349 0.8668755299224373 0.07862203231878605 0.04422227860827007
1.1373163915326123 0.8714063164995202 0.23030091001450065 0.07731431945957522
1.133676101162349 0.8510259010164143 0.2573598207910527 0.014351360104621687
1.142016879136398 0.8690327420155434 0.5443722185797054 0.0455648127262266
1.1407115292072574 0.8643403152319347 0.04331698033691082 0.13195620436252906
1.1360259807075275 0.860728777845705 0.06413934201908528 0.046968870571837386
1.1365052350325298 0.8651665879250877 0.3089355168238368 0.007541412631141546
1.1430399171533991 0.8649573464087367 0.3396979578206029 0.016753972879221705
1.1318115771515853 0.8615692892307051 0.3796544647196348 0.06171049843643158
1.1355909431501485 0.8663137297831103 0.21847068058416386 0.09019111637153653
1.1332860844577086 0.8640400446273834 0.4347360964111083 0.047105629213666275
1.1342695510495497 0.865836253236874 0.3324698754268356 0.008866634415576741
1.1322962113761594 0.8706613979861619 0.4007727416439862 0.054278571029766416
1.1388199842829136 0.8618507761808863 0.11699228717177265 0.1990654825416554
1.139050704952145 0.8636091315206516 0.5005659788966327 0.034751602475746816
1.143452691992883 0.8718694568613211 0.5269003099042303 0.024217473662306564
1.1453005471266127 0.8680531269831978 0.6320313475324534 0.027744955923789675
1.143708786384286 0.8707514948282343 0.6449350838260738 0.02297853276025201
1.1362364726132765 0.8705344302872995 0.48955706933208737 0.020761594672531507
1.138880810023482 0.8632741751730721 0.6092149389742115 0.04452588874803137
1.1429769371136218 0.8685572672560526 0.5657166991215753 0.048639904230253675
1.1344017270482236 0.8552217627455304 0.2065956708020634 0.06560593759359264
1.1355164643730224 0.8642038834012588 0.27978439187788917 0.012908942921675461
1.128956661720097 0.8518281601457881 0.5934405050285267 0.01952064626308387
1.135338064583154 0.8585588465762977 0.22748559293832368 0.09468678133408846
1.1315425363898228 0.8542962764924481 0.47756370243096874 0.0443262455705433
1.1253498391627885 0.8532980712127411 0.5541262472320102 0.007728751026382503
1.1469702953068595 0.8606825020887457 0.5829243540218341 0.03928717302637609
1.139714094219294 0.8634255981935784 0.3557415581765885 0.0073823371819862794
1.1340177733162442 0.854866686732325 0.5133255148600712 0.013532534248287365
1.131092473224712 0.8456016384319504 0.24742110872926293 0.014913063371762273
1.1725420271802258 0.8344045129714512 0.2141623661227821 -1.369234765229382e-14
1.1790125357626595 0.8367925348791198 0.1643972257958077 0.034199627684273454
1.169823779442448 0.8308867997868026 0.2777402357965131 0.009067400133348913
1.1348117632685533 0.8458240679925974 0.20961391756674322 0.20762711497610462
1.1309253910795074 0.8472416229956186 0.40350258197349004 0.06549280511669715
1.129093904255799 0.8505703416102909 0.17789215051999646 0.05549377628355211
1.1335220994844974 0.8555926082879897 0.45274457702155846 0.026192418583383413
1.1337158499136346 0.8605246711168268 0.52373071255081 0.017637660285999827
1.135009998732234 0.8496854179332739 0.14633110904925167 0.1998308821379543
1.1339859245464678 0.8449880807605893 0.058134444294696636 0.11501756825818832
1.1290385272822132 0.8526397674003718 0.31434080710649187 0.003946740385966099
1.1369101149903325 0.842466586244336 0.1139063766577431 0.0052939017270810275
1.1343499677360098 0.8573467387902055 0.07190660768483109 0.05199053730694308
1.1357279052697675 0.8519273624936604 0.25020432167756257 0.03985472475200174
1.1390951302142394 0.8576583555428556 0.12919058975061737 0.21844860167528887
1.131619295381032 0.8438132729853309 0.2621255066157252 0.00913872164014838
1.1717998254289081 0.8660912451823445 0.16316745200910027 0.03346073615789381
1.1748303346476412 0.8688276006186121 0.1267712845742107 0.11676047473004267
1.182428690882446 0.8539154823805398 0.5647879491230053 0.02222060067426435
1.1828750688839 0.8559500642938387 0.26280724383916493 0.0980868017155305
1.176885496623167 0.8657240866019483 0.2876207735741018 0.13170635712490308
1.1771741982974502 0.8639088916392436 0.18529949668981743 0.03907667670469247
1.1758063922060982 0.8656297645626913 0.5980193428485682 0.06951811821788334
1.1854122154884266 0.8573331689057224 0.3464611715316274 0.0221455215495232
1.1674624055583867 0.8686444207313502 0.6556734883131308 0.03158971226291127
1.1663408983783183 0.8691665614376338 0.633615178672732 0.020812602033491855
1.1788803875344902 0.862435686975333 0.5496647715275422 0.061255890490628885
1.1695393242846355 0.8369409882847424 0.1346244096636221 0.1390600792653539
1.1773047474288871 0.8445875747128107 0.09988478985190852 0.030159285294157016
1.1885718154959783 0.8435585993029772 0.18851932588947043 0.020472353277747973
1.1759498762381269 0.8384488384219366 0.25683152709583656 -4.664093236624963e-13
1.172521405884034 0.8409140113036763 0.12151716674825144 0.13501787985511035
1.171253985493134 0.8408385084946195 0.04538853796131516 0.03794407190428289
0.060449881243342045 0.7765211303587947 0.6481914770804925 
0.10680170437565421 0.6648058294032134 0.6454527255165864 
0.05868669899130464 0.8622378504947933 0.019803916699429165 0.19589026602757456
0.03696790417104936 0.8320747573577744 0.020997582348452934 0.1611959950146872
0.043284081731615166 0.870286505447519 0.478889184163326 0.17187423190519732
0.052026766205823194 0.870166161361251 0.40747736802616125 0.08443293455833871
0.051501909560073805 0.8771980237396251 0.21027568065422425 0.09623564339680347
0.03938630712046458 0.8749281995913386 0.3129470169314588 0.09583473595968625
0.04157123187785099 0.8696579189008667 0.4332451863377913 0.16977511224184083
0.048643018676511926 0.8772628283125963 0.07449740247148609 0.06855673125291391
0.047844344165557134 0.8734686155269661 0.08146854230176825 0.07636135457395164
0.0384871994097807 0.8746113633350024 0.30343565854026733 0.09503718724117895
0.03865447886460649 0.8779272122807179 0.05009816228042172 0.11753714946425607
0.04265948760528728 0.8837657155020383 0.18895379778099028 0.15208365606462396
0.05428805484157824 0.8730770001555007 0.3742770216192444 0.06864499545477643
0.0340853441571723 0.8674623371374537 0.6173809284319824 0.15379611405258506
0.03985692374290556 0.8716902624292416 0.6147929619160036 0.20121844208303338
0.044321282312752834 0.8696028859840079 0.2444640316751012 0.14571574851976882
0.037455784484023764 0.8786452836235141 0.64672257571414 0.14258216821939465
0.04665969039099669 0.8755484019280121 0.39167821335716874 0.10555312517711506
0.037679628890507154 0.8692222732033849 0.5881189359011176 0.11587942099845924
0.04729432416620372 0.8767977980499964 0.5757676829901028 0.07212584921077472
0.042020971997073 0.8737398397210112 0.35029843247115294 0.10615395676549556
0.03936361352793558 0.8712097191826615 0.5049442618345555 0.15525190984589313
0.04922960762933312 0.8754873047978089 0.31271596120489503 0.0896883549369034
0.052744142085212824 0.870482201067101 0.3353948989811585 0.13097877739392502
0.04720027429910129 0.8687834532720422 0.28881471530052477 0.14818240088495296
0.04859639669464071 0.868633626730638 0.47866414858236067 0.16588510851859756
0.04699935749035709 0.8760949037204079 0.44998776217089725 0.14307951091027585
0.05397546889603428 0.8759219599706957 0.4948834706435493 0.15683433063546284
0.04196108490111279 0.8825647048725951 0.17581097907101367 0.06283076689817771
0.05991747470743036 0.873978239104715 0.11254803766260435 0.06601344488544217
0.05202213261273753 0.8726592362392738 0.23079008505030532 0.14030536921600645
0.0603266466373299 0.8642855935713017 0.1300919749001342 0.26760162267362286
0.052921266116492886 0.8698336840694547 0.43636767512665714 0.1537091943531918
0.04957059963204091 0.8725781209250348 0.14237660441242092 0.11809149291162631
0.044993614527099345 0.8773565240321312 0.5680884344145806 0.09038747514681869
0.051768903382861844 0.87192848926362 0.41554582264911594 0.0566497180678637
0.05567481583618251 0.8655460892052496 0.5568779873930503 0.15994090100979655
0.05571016864331857 0.8704074644700606 0.537491537976668 0.07954081805714147
0.057639958369424024 0.8714724527347325 0.6530964430113407 0.020175953380514353
0.05384333914871126 0.8749902887940259 0.18138189608466915 0.10826229645781697
0.06214794320914599 0.8622634842652923 0.530300098396966 0.09870938047237698
0.05825133461379357 0.8617456587900734 0.45286394955984444 0.22975231600354373
0.06462411801448818 0.8563069071350891 0.48323416638941 0.20622817752799344
0.061920159439356255 0.8600164016034875 0.300119883317515 0.13827989522050418
0.06622481460024693 0.860465900684033 0.20564622633484747 0.12839835961469437
0.0630750032886028 0.860898604123628 0.609383680243619 0.19810256332157156
0.06562646211424378 0.8673594852033256 0.4186845745120987 0.06881768115047532
0.06173978769955706 0.8674791360233404 0.49335200501426363 0.1689837028074789
0.06081324715385974 0.8748669982618102 0.3623143340756626 0.039410161467982624
0.06105035899533255 0.8700185244336188 0.5158095426068704 0.060534819002938486
0.06362440116555364 0.8605019962404455 0.3338595058313907 0.12630598175997892
0.051450719192402544 0.8648253115723612 0.6114355186932516 0.16702349529102464
0.058692090772748846 0.8627113956129325 0.29383605250100076 0.23214775641215518
0.0588006305558884 0.8718338377361619 0.6312155032329931 0.14908351484303672
0.06704142769475527 0.8598644853118542 0.31877267543816423 0.11503286475841386
0.03060620589001286 0.8693398793624817 0.3239189050091685 0.10466639177312288
0.031093319077672467 0.8751850385545222 0.24805887768947024 0.05238658409183422
0.029582335822838132 0.8711605720400878 0.08295599721658038 0.11687655560357563
0.03560838972629882 0.8726083232123298 0.03784344929261102 0.09822615590719763
0.029365005580601462 0.8743648548648081 0.34603268102728035 0.09433157645207192
0.034283140195701015 0.8798735059758528 0.2822878903096532 0.0764131013564178
0.034028128171936234 0.8712672371344982 0.10944590436714055 0.1323699347989193
0.0290255867293253 0.8650955503383272 0.0496579456479065 0.16109659551785366
0.03466376397826324 0.8666768901094709 0.16898042354211473 0.13246766509761268
0.031058532101513443 0.8687878493826561 0.4167272771943857 0.09741387570187404
0.027515554785128144 0.8697628244282265 0.35341655647924497 0.09414043711979406
0.028249814131811164 0.8735820983763536 0.48515598449035885 0.1293212167216223
0.029554568390059602 0.8768792800162905 0.20202658610343302 0.055405312539821235
0.028863158517875853 0.8725332827174608 0.5269769405337106 0.1460032297344869
0.032537663882384694 0.8658605643281359 0.3826244266177814 0.18043081974358482
0.03243273905923094 0.8689262051811523 0.5980153052650363 0.14787074084614568
0.02386610776965576 0.875957856020117 0.6626636797562959 0.0332191253691195
0.03366019510121556 0.8738752640402371 0.6544848317400067 0.14604755497094052
0.03151315732536846 0.8708648827822763 0.6066053165238326 0.16030148695345872
0.03388969090688105 0.8773975201907658 0.462266996939885 0.10880761663934974
0.04453901008921724 0.880158246667499 0.1188101938471817 0.058757221639003966
0.03524234654668098 0.8670884251026562 0.22837241788491816 0.18205608072785
0.037624222825282924 0.8729683472688353 0.1470549539806865 0.13404437450460951
0.01656037877399877 0.8546109625650816 0.5685219014953786 0.044707071450999086
0.027679097644508873 0.8646707329518037 0.23787567643574162 0.15844862540440582
0.02617947832543543 0.8631112365890364 0.20312030781456936 0.10677298786305683
0.028984223884008814 0.8654959569411579 0.3235292592875882 0.14329909698956178
0.02386973783449553 0.8632305964302339 0.5470570571245421 0.12357068773753759
0.021531330501615868 0.871900880659218 0.505175227239223 0.11441799672440507
0.024532855455788496 0.8611151707011413 0.12178458035832643 0.16981078623293464
0.023613100772897275 0.8519822267577809 0.0428964982241046 0.13605748426361525
0.02410777240484123 0.8622068122431443 0.3803031735016727 0.09218278279720746
0.030357850106740723 0.8635200246126677 0.2094542490057797 0.11773715434478606
0.018028677864208587 0.8615855505915144 0.14817460655698017 0.055813690244400076
0.025074075441284528 0.8641809973187909 0.4177886423497864 0.08192050929313534
0.02277892817565378 0.8658646086549058 0.09391244907428341 0.10045748924079603
0.03020669417973186 0.8356203651905163 0.06365472105647701 0.1042281288064101
0.04146745801342488 0.8381074644227403 0.09980207715108996 0.15106930007212696
0.039776829653830885 0.827445940284993 0.080187444098737 0.08005979963895397
0.029460931876186414 0.8345267188127733 0.17290625710971322 0.0764338603210658
0.03519726012686305 0.836555594929355 0.19299864541052877 0.1714986662843216
0.04063249270702858 0.8336102667367584 0.12812320380001907 0.22161016680855586
0.02816054219539596 0.8322372944830752 0.22996001833563082 0.053631380973268826
0.039461881313933404 0.8296968939129488 0.3808327601430034 0.16931034850734253
0.0263647405142719 0.8354535503506366 0.2920899024958457 0.1505325719316874
0.02734602727429658 0.8358018877922383 0.40504243782858557 0.08856958201937724
0.038506807803315425 0.8413855148931506 0.6225391481963927 0.183123996154502
0.03597633007540757 0.8412656083714605 0.49570694143128935 0.2601738448245976
0.03371224067063252 0.8411362626163796 0.5968314247217141 0.18515023407420847
0.03511664285973918 0.830835148713989 0.4674658011444625 0.08167621104779445
0.03884821774091279 0.8295685601477273 0.5165101651396853 0.10219201281838364
0.03290060302739636 0.8370631001632032 0.4442566566825606 0.1983435192241509
0.030908444536709368 0.8369146442116449 0.5500697057185534 0.21146816693205567
0.024850941322245607 0.8404748610012504 0.08860729848154855 0.03609494590694206
0.030600805373729324 0.8480210199797131 0.47906370089789174 0.19300481396643168
0.025349111698916023 0.8450764093735308 0.027687526457349773 0.1448748999016524
0.023868791125763976 0.8430451797074413 0.04603471468794888 0.06782433269219587
0.02795579699195974 0.8369942683875614 0.3650298720253018 0.0741517276869494
0.02585328399246045 0.8415985381867135 0.39404821243099547 0.19385573462644262
0.02635428131808179 0.8428420671900911 0.137026111444997 0.17722013822734542
0.034016536450590315 0.8366889973095929 0.34871224804745027 0.15025793320322148
0.02464163925897122 0.8329179194411929 0.3078069831866861 0.10689298605234111
0.026513970369173214 0.8503616491267073 0.21607810737516375 0.10532381793621456
0.023933846185144887 0.8455201347329638 0.6324386658752449 0.09945614701926023
0.030389097987153404 0.8440645291963657 0.46670715302122934 0.2015823848948028
0.030269357203213894 0.8443717325944413 0.6152525199881752 0.15448929916123244
0.022448040683741434 0.8426777786687258 0.5740393759860776 0.11162647766649052
0.029495779207070853 0.8486650067997326 0.4962878491151145 0.175114646820003
0.03309444762051668 0.8402757468209117 0.5049143713909814 0.20674066836066624
0.026824816441747935 0.851469079786141 0.43930246391935457 0.1405696167461666
0.024678681415958817 0.8560023444842895 0.31728566634583844 0.13109726461432963
0.024152688676567377 0.851479333441611 0.5312448392697774 0.17251214315450986
0.03343889003907704 0.8334596895228731 0.3795172483573494 0.1468367435822335
0.024043718487451245 0.8384912922224116 0.15175806604423248 0.09417497806002867
0.028594443604607032 0.8443823279808798 0.4549106415376573 0.17824678154429563
0.03469483966827594 0.8421409043751433 0.6330860472703526 0.13616552856538416
0.02943410855340094 0.8359185826908916 0.4228251307778855 0.04136743196054639
0.024623829191845848 0.8399610795083269 0.5391425785856959 0.010046407895583127
0.02699383445305404 0.849070836958138 0.5839406572991145 0.13849123153568557
0.022174779794738836 0.8365435282805185 0.29043304789690416 0.054965105370613485
0.02519484863740245 0.84404520044907 0.18898335444151032 0.15196339400458622
0.023609277598087078 0.8512139086546434 0.18430154377313446 0.1324249697855443
0.026624523011931647 0.859830123930063 0.05926070209422384 0.143429087921684
0.02302348551216904 0.8537937110233786 0.300918515903678 0.14591904686640755
0.02103217748208596 0.8388014220331901 0.33495607943979083 0.11256606667938214
0.02595840839610662 0.8500882051025235 0.02614315930725657 0.11137839040140228
0.020091007599898892 0.8565297918808733 0.07732702094486826 0.07892481587256059
0.022922362279103523 0.8546761981886024 0.16033942175612143 0.09401986868727276
0.01932568262381283 0.8444493481936894 0.24655706945186887 0.08521060235455284
0.024855468700568772 0.8493355777665181 0.22819419837045915 0.09556382359800164
0.0232835499948733 0.8545407558535542 0.2909564387108862 0.20771221735270193
0.02110909942600354 0.8539511236736022 0.38934160060940687 0.10360218216246475
0.05716036989365065 0.8326837538747655 0.16202144486931505 0.07168042926007626
0.05012110935538707 0.8228264439735202 0.5684400774313253 0.10649826859639354
0.05547481009902644 0.8267487600061517 0.4591273175243135 0.07030125284790428
0.04565189760019765 0.8344651925834864 0.18485175004247548 0.17331560715737782
0.040683218814553244 0.8276064864284606 0.430909924654604 0.10990891811749974
0.03667376347307981 0.8290033922008344 0.24740002961691934 0.12108032391655303
0.053568314715328205 0.8337313608023486 0.3445793351823744 0.12512252587352993
0.046470103500831965 0.8378875854144316 0.6183809606268023 0.21344947580191273
0.042937395729670084 0.8290709603443198 0.5893137129941066 0.1551485011052183
0.056631343002088545 0.8299964534471026 0.19886671557467037 0.0678437476592837
0.04726885359240671 0.8293767222699165 0.0271230420091831 0.20707864243106985
0.04946454106905855 0.8312057173431796 0.09508971385656578 0.04779462797334711
0.06482922744287536 0.8439241333298393 0.33411980339248915 0.0761131746923054
0.047833865046218484 0.8305916355605755 0.26487183283529475 0.11561288405420676
0.05368484352613783 0.8291973158223659 0.2910516973410938 0.13119631942381432
0.05091954321633455 0.8321602107874498 0.11510690861979152 0.11564515533138109
0.06363795973437544 0.8497115573465003 0.4504373280837793 0.16323374453498563
0.06616517407854873 0.8427140637001351 0.5133050152948078 0.0845787408333622
0.06233923822817127 0.8451803918643528 0.3924132440262063 0.09794162678834431
0.06257259873708122 0.8653632777823691 0.36317065171088614 0.11796567234248266
0.05801334479746655 0.8594042996300131 0.5756995686340309 0.14155668330197368
0.06318042362609166 0.8532577349158914 0.557306087168573 0.11076274464564317
0.06774076652724333 0.8517707363854766 0.32044906830475145 0.08621338095064385
0.06310674700029548 0.844194500852494 0.24959511035358042 0.08246824943005433
0.06331473739015052 0.8514310553932634 0.06442235317509655 0.19433296684504583
0.06304440524168593 0.852021982407774 0.27713460470666085 0.06260442452093176
0.06388264586864903 0.8323775351019181 0.03827289107812182 0.038883992081233144
0.0676394054134219 0.8522011476600688 0.1963187397880575 0.07550769370018467
0.026574063042539172 0.8639856459495521 0.6240000556245727 0.1579402301997222
0.017820120787285988 0.855516903367977 0.6480053037617687 0.05422555642858248
0.02032441684365601 0.8578391473952259 0.3415211215546481 0.08679213225592854
0.02516271389979755 0.8625491213946285 0.4608370435114393 0.1026463917470159
0.031397506999655544 0.8537038382053048 0.5982016053433208 0.17028715491028557
0.02373741012287023 0.8535849377688685 0.33202331214016745 0.1306311226006399
0.022771975146287697 0.8638545551316928 0.26443577433888654 0.06355956308314083
0.022604855807312547 0.8661355642626203 0.3949048530437822 0.11680894919761027
0.02003183757179623 0.8500673020162499 0.34745062028826434 0.10523231704159568
0.027005974008537832 0.8659772480862564 0.5164282207968564 0.19275344116785537
0.01918549740557338 0.8684193345882704 0.2968103500344821 0.056584938507917466
0.020612457652266634 0.8673424833716847 0.553473728415573 0.07987514213433577
0.03400761793537089 0.8795020855154071 0.04702477346757482 0.08590115391950315
0.02703807469522948 0.8689819676007454 0.6397637187672259 0.14650607358620896
0.027891301052442526 0.864276177694903 0.1376368428186406 0.21072267818765442
0.028993591144509757 0.8736459118046187 0.4434464782148617 0.10152317213244863
0.027084675380820638 0.8647927658880182 0.40840820919332016 0.11018086920705825
0.03681016396385138 0.8722776590178274 0.46797858023374045 0.15020973615886518
0.06265636548811346 0.861598909367441 0.5490042529225311 0.07033861042180124
0.06555568343074496 0.8541998177832312 0.11681823501256873 0.1062435572759632
0.06539445116161832 0.8564689001620329 0.3687921109920794 0.08998948217403228
0.05830637840557852 0.8651900972728634 0.18930471750670225 0.2710749361813693
0.06202306525182036 0.8593866385015935 0.09961787072229439 0.12258142657323316
0.0648625371267272 0.8514361656514691 0.23532928948569132 0.12460535528244997
0.05822138462341446 0.8682522067742162 0.13168449975919289 0.24801850435035352
0.06143121699263435 0.8501918454769871 0.136235036425179 0.18326314863003934
0.06525746309048955 0.8629257309818286 0.06103381179812947 0.11536272843571765
0.06290692571685723 0.868986507591882 0.2787484044530608 0.012566200818527726
0.0698688971096096 0.854374561643315 0.5003804466423871 0.1660487114755786
0.055165264781531075 0.8321886619466655 0.3168727345846559 0.10812226929353272
0.056806487038746516 0.8728766805112909 0.04399263025769749 0.12181736515914236
0.04845780021018729 0.8708977998234342 0.40145670218520735 0.10153340830038197
0.05247139148724955 0.868732308339133 0.23816671074374005 0.14311349919134597
0.05304790604537759 0.8689937029415636 0.2655629931522714 0.11423010108243054
0.05763562659099855 0.868916672438417 0.1509768479458364 0.13769663562546683
0.05974114904669054 0.8685958140289535 0.05380492240593603 0.13130784321416225
0.06025523765883117 0.8724537006402371 0.07871900331464106 0.053580925637259455
0.05524306856041287 0.8663531459167582 0.5165669623380477 0.16750569228268053
0.30756367716574556 0.2186200741529611 0.02412994752928776 0.16557285144914383
0.31302989697107464 0.22418664216381484 0.10192808094372267 0.11321457763583605
0.3107356816100387 0.21459240834196358 0.12354571338923934 0.2165662720409168
0.30845921587796143 0.22148758784182015 0.07281323871940708 0.15287934727839098
0.30186963866619293 0.22422967875244246 0.26021403477139216 0.1831308506500594
0.31485636996401134 0.2230822840107073 0.17827675233899457 0.11875573341976527
0.32514753460354673 0.21602862603088832 0.1522281547242977 0.08800693196896907
0.3247412563294118 0.2134708616949736 0.2752286773431372 0.07999881422483496
0.3259280078899278 0.20747693820074667 0.06210857691609182 0.19922556154417925
0.32327681024690913 0.19794716094491813 0.5011991150961409 0.1543456544451673
0.32442847303998673 0.2110222879135053 0.07392700606516882 0.17533803542086154
0.32421086575635416 0.19531069910831642 0.32799119024817225 0.11000206980344346
0.3259843011184682 0.2114717421702857 0.39518783755450093 0.15226940488864096
0.31948379000534805 0.19725786385914773 0.4233811953282372 0.19130644454279327
0.3257115741729697 0.20651989417614858 0.037430286710397435 0.11578097212739204
0.30339689647719104 0.22325237102090778 0.06486264506331325 0.2165185393420134
0.30727719273618886 0.23023421585398204 0.5299288933039138 0.0028710765933300866
0.3037333263228443 0.223949887691447 0.38726861117798356 0.13483748859531067
0.30824119810017087 0.22523487178340795 0.3554294267136364 0.11459172181217499
0.29981255107902693 0.22141744651893258 0.09581472497504503 0.14647528472389262
0.2958627111119894 0.22156847665018414 0.26420358829657203 0.16413057497937267
0.30819271226026024 0.22048519485647078 0.14980770657094772 0.21821294885872383
0.2959719812667971 0.22055792343958772 0.2970273785363664 0.08980290862771947
0.31272760879060246 0.22436509399736057 0.1962260661197729 0.02947934140262612
0.3003300060592509 0.2193513764647682 0.3601297659757592 0.20807143624911556
0.2895782977061144 0.2197155712563596 0.321579191785712 0.03155595824677717
0.29309055284038665 0.2204383408567484 0.23327329478853973 0.07303099526708176
0.29424018322523593 0.2228751315847017 0.028427438138483616 0.20584633452299164
0.2870195396331813 0.2173427711648291 0.5373549021134655 0.04646072680822464
0.2941674601243425 0.22403282103330086 0.15021689504937538 0.07414491690367836
0.2974266371854877 0.22221971302050572 0.43930507253973045 0.16259405626792273
0.29748029448507435 0.2192964385496879 0.503399826308051 0.2010804466064982
0.29142177206151987 0.21935165359437706 0.2872969920654411 0.10118474981394013
0.30479587706085604 0.22336620242745825 0.3502076708909072 0.12619755598559457
0.2947751581091156 0.21380552357587843 0.07400505675750577 0.19196497456051845
0.3006915337329792 0.22490825080310675 0.34022274429624705 0.12662133245627938
0.282287152837631 0.21602087506354178 0.2478421757182822 0.05801323998346594
0.2823036815440956 0.20888055063961275 0.22875616590555045 0.037033831723439055
0.2921713892061184 0.21873485884330615 0.22998131273969846 0.0712976215208697
0.2920122798358466 0.2144479222067231 0.37052688463423705 0.15012814673231786
0.28845546901599206 0.21506383075583907 0.4206383747979164 0.15036893390056935
0.2876930277402715 0.21209807417637 0.4464564013562008 0.16001943729340426
0.28204527702818327 0.20591788535750932 0.12561630029534604 0.13236467599477497
0.2839737641220823 0.20667500456402843 0.10066793594568701 0.12716478883357613
0.28844576912778525 0.20720193365125375 0.065019191391883 0.19894766288459995
0.2842837987468078 0.21654043114238877 0.1472324202568026 0.17802206714347352
0.28768722093026045 0.21485944779297747 0.32113215658943733 0.12065038651548281
0.29116258735567796 0.21163055376085768 0.2670605152728745 0.14223250627403314
0.27900335939786625 0.22001076334934583 0.03978788061123195 0.04475194645731936
0.2911933812510541 0.2228747838402352 0.5338664882860874 0.039371072793215854
0.282831109342986 0.2085393884474089 0.19585981344882097 0.08843173496451862
0.28596436203420106 0.20704932033610504 0.39358077113337214 0.18808284626992686
0.28730520117731617 0.2184545045049685 0.16678482770080916 0.10722106564494449
0.2862621541518146 0.21029132559905703 0.39789085581677947 0.19799385008906425
0.28360259209914596 0.20258092563837776 0.4754835009826196 0.07411172246231246
0.27392631606609896 0.19917747412129155 0.518344525199512 0.08477520565266461
0.2841509006959048 0.19632291670741103 0.23188595238766946 0.1244506278256356
0.2789823000415948 0.18961562455839612 0.1952285604345606 0.061020725343833425
0.2831481756884942 0.20336073436372665 0.13444536971995608 0.1219923246197084
0.2874326412335804 0.20212067835746558 0.31683947256622863 0.12993791345894737
0.27943512432836165 0.19911463676381758 0.08494292419806251 0.09706991625861235
0.28066934397493976 0.19616632242321733 0.16081406425592976 0.09570360056672994
0.28601772823582405 0.19687368452547757 0.46246416141386537 0.10238601123488796
0.28212356199260036 0.19111951533241694 0.5380243396591395 0.09690518042818307
0.28363248018072207 0.19819418862437901 0.28263084973044494 0.09853996745795514
0.27141156802397887 0.19712236209167328 0.3738931667784116 0.14294925695304034
0.2754447574740419 0.19673297416679617 0.4160016983592323 0.029899898373709117
0.2880403053847886 0.18526566063188663 0.03532092148672182 0.08673497214042572
0.2879847447787337 0.2004631732495771 0.3258922240764672 0.16159191985328822
0.31103539313175016 0.1735937874970726 0.30773872328816587 0.07379247467370581
0.2995223769894075 0.18219033885975636 0.2375373733479085 0.15193426288555867
0.2959770949293302 0.1783614011153777 0.43461257269032516 0.12891798118652562
0.3027434552708769 0.17929336099919566 0.5345347386284793 0.03390886054371178
0.28686641609255564 0.18237131270851678 0.10074070362895976 0.10340928608783777
0.2927767596325575 0.18876719528114078 0.3825024649194454 0.2367775628829428
0.2900445810177105 0.18314778363712095 0.14147266292360622 0.12163649198905362
0.30175579541763237 0.18421679771252303 0.052633054282767294 0.1137878372560624
0.2941045827401684 0.19072889130269996 0.3602908423681252 0.19795049821449043
0.29562299375582635 0.18978962772019894 0.270411902615169 0.1768374694270898
0.2815738335604545 0.19056517590247327 0.1650595877971374 0.08175996597850303
0.29348066258214306 0.18419828684381245 0.43722717131220346 0.15155047520766163
0.2881308026007737 0.18402758561848118 0.561973057302089 0.0764282562659491
0.2876711785380644 0.19421174973381308 0.32915991540600104 0.1511366191401755
0.2860367445206233 0.19499566959106485 0.05787030290752402 0.15399832076822714
0.2824101949717488 0.18995950190071573 0.3707734126756903 0.14018974191502306
0.2831829160466341 0.18718236337546315 0.3843464961268579 0.11914425766576289
0.28191235994633507 0.18620657385030037 0.49816440407804624 0.13953798763151307
0.28535890206167047 0.18808972025919465 0.2366224230313197 0.11720582819029528
0.2827801498773795 0.18674004115482662 0.028963944680760752 0.0801967277932987
0.284003353941474 0.18629639062253056 0.5066296144120378 0.13304406424162626
0.29409838651604475 0.18245339778253963 0.19557083955632903 0.08822377726228263
0.2902654745494842 0.1893513458775012 0.06780894648321482 0.18722315556379385
0.2844361398788297 0.19476795240602615 0.6276298309237562 0.01655671713204558
0.28561102094680896 0.19079671560144718 0.5527575401933558 0.1009057147289885
0.29671152036105697 0.18138915366990008 0.6008824526931815 0.046985292600525995
0.29014810073300795 0.19107774650119938 0.2541255184253011 0.10938920033534485
0.29918422939514655 0.1846401728721476 0.4016968744700731 0.14479819139181982
0.28722421865845055 0.19527028515887496 0.31310603833733536 0.13503130805488614
0.2979398534750083 0.18189276020549744 0.59754516477153 0.040531124468454395
0.28235200629533747 0.18845068341983603 0.11846359635904208 0.20136374584355346
0.29349018623311945 0.18713349568074794 0.30488968921650966 0.11044916478268786
0.27892298113314934 0.19448022066246776 0.11161742466455638 0.18762800581133832
0.2896824545627746 0.18194430336512513 0.46945024762676935 0.04926973351103697
0.2810286142130158 0.1899723935696467 0.42694521245573536 0.09812351796681211
0.31112181498685393 0.18357439299940428 0.43510273666742316 0.1619131270252373
0.30122041602578536 0.18621845065680323 0.02540131907883346 0.17811271604048418
0.31562319055307625 0.18057252499751184 0.45693194250458713 0.05869464322516949
0.3039392172181616 0.18036822447924217 0.11301053094475515 0.1611671745441961
0.3046004303933136 0.17925493632192377 0.34113145605121814 0.08388904783910284
0.3055708312860049 0.17998897046460796 0.12682667643525072 0.1349182856321575
0.2995974702133693 0.17903841037882653 0.3278767560202357 0.13710536641716567
0.3068880871371647 0.18318203425748047 0.49875634626480664 0.16575124003046715
0.29932692559365576 0.18223763427840417 0.461274152727976 0.13623465311012803
0.3022398349758484 0.18274933069942828 0.1537697337160683 0.20304752158588815
0.294152508757474 0.1808297517629108 0.24009038332254695 0.1335916740911859
0.3023427380910852 0.1787217306751161 0.4942675981506155 0.09186704072547067
0.2928718032987103 0.18155429678396978 0.6169246995782399 0.03923787164478963
0.2912010844331208 0.18154743534457934 0.5962326498406189 0.04787417395583948
0.30135255841663783 0.1840350632098924 0.5045333525080786 0.14253405183998424
0.30284641206984114 0.18498045387387793 0.18812133346532312 0.17346682532990076
0.2990226181223083 0.176678192098731 0.5660559452914661 0.01949430529359319
0.30287148028964356 0.18467657808930396 0.05820741350495701 0.12966215096560169
0.30397118229435194 0.18275973542151425 0.377395395121897 0.12292450901789094
0.31694241830163655 0.18888263851380918 0.07230934759841912 0.22230812678355658
0.3205090690676624 0.18056575864200625 0.28757811322819754 0.08245356652594092
0.30650158206902417 0.18353505165194323 0.48636414650109167 0.10851041611468466
0.32193444616394384 0.18595484119150757 0.11623966419995509 0.20205803337606912
0.31071685287776274 0.1866123946476777 0.09952456464324871 0.2166497968114654
0.3143680613256186 0.1804716624920206 0.5859731325666041 0.014781823710990249
0.3094660142379713 0.18500074140825318 0.46955314325285247 0.11164351486972936
0.31409092647443937 0.18344169626625406 0.5269688720207899 0.049429438869872146
0.3140260887730217 0.1915759167901727 0.2536437765413524 0.19891559675793533
0.3130592271467601 0.18578530310263475 0.36548643890660926 0.19331599711181388
0.3064534425863366 0.18626696835901632 0.16035880632810057 0.26676012329827875
0.3159323272971555 0.18089589079650828 0.5463766426804795 0.03131371433858629
0.30455905352275287 0.18205243340072633 0.27064001589665665 0.14409784060106579
0.3031580689608799 0.17652683868430571 0.2964523449231616 0.051490735521464506
0.32464883897217245 0.19453840979225237 0.33789121006780926 0.16051718965947942
0.3247222069094197 0.19405175449004447 0.15678541219384085 0.09378787486006528
0.3167461306944958 0.18711563320452707 0.05922464480992918 0.16215201160544723
0.3195191197572484 0.1855776263907498 0.4151334844124519 0.021061718055762114
0.32230105710391516 0.19247946338773328 0.09231085621569597 0.14707125870286203
0.32801789122690644 0.19653896505750698 0.23764176178666838 0.04677052350946033
0.30610533625243286 0.188167108488932 0.3839558363689019 0.2564315213232049
0.3245906829487174 0.19314163965895834 0.5386716630860161 0.004410816477100232
0.3206907565575383 0.1878234788615347 0.22152511794777036 0.0979071917128832
0.3179846992997113 0.1910737658435097 0.5094873535502502 0.17958638008197575
0.3192094553658037 0.18662038940525216 0.026688115334572327 0.09104689852904581
0.3320771677343122 0.19282291269275365 0.06879762871114281 0.08734775477119901
0.31807189001823083 0.19008902050953114 0.3184160676861584 0.13344312114676854
0.3175805032101665 0.18151387680524098 0.04267403015521064 0.059680217962001916
0.3211255103325198 0.186701970955719 0.2878035919986583 0.14750355713148117
0.3227516704320999 0.1898534157903298 0.3625201555352181 0.1531918132158657
0.31880052692807354 0.17886727283660142 0.14280519911579626 0.05692364375158671
0.3226260605743658 0.19826767746253657 0.3933320427097142 0.20820395722810262
0.3143728387517049 0.17464725991632749 0.20346283117923256 0.0723495357914656
0.3215870213601153 0.18489036510937434 0.5730183284063407 0.024156647894059063
0.3090123386806956 0.17977535439166425 0.4501564411600028 0.13235266120897854
0.31966985199033215 0.21465884322094275 0.08315673321845907 0.15005386170635515
0.326835797882476 0.2119609786478213 0.17390024610835395 0.13819741195390478
0.32538898851483433 0.2127331526582785 0.20488378109404617 0.10950666622241378
0.32844698091422597 0.2000434851794886 0.46244251569542844 0.03374055993523757
0.32725716355123746 0.19037083773491112 0.48462690590344176 0.01546660757390706
0.3225586556229974 0.20432485452365917 0.43975522450206106 0.21826015469773538
0.286236547444944 0.19736880101094684 0.17150799320213525 0.14704221423077976
0.27854563518611947 0.20631739115444342 0.6226448797149129 0.006274007840157331
0.28605043440320976 0.21416456488241595 0.41566847119737405 0.19040204201703123
0.2755271107544901 0.19866904149053122 0.5896301013804295 0.01751905656376862
0.27728591099565086 0.2099762023085264 0.5746340937465403 0.029802131428035266
0.2870573645384753 0.1894047323546961 0.5592597699645065 0.10296822375158071
0.277939504819073 0.20203064652423983 0.29877439077689594 0.030049667783679526
0.2829169231646344 0.20983875502115937 0.43812633599261586 0.10571517519693102
0.28853665489668673 0.22099031415015005 0.47811690584833055 0.014056908138748495
0.29175415446370445 0.21196730202332903 0.3319261418857054 0.14619624395899986
0.2939198360119388 0.2175401581959159 0.19014647875817006 0.14520486670891913
0.287219098628651 0.21727813320424896 0.5654728011671821 0.019376333207158005
0.2845681345811671 0.2112644408921171 0.45949083788300493 0.08091696104966697
0.2847295235557899 0.21099682111736504 0.5034348251718469 0.17150568422553955
0.2882912417493311 0.2188143957038172 0.10746872388229778 0.0689593494509661
0.29395094887727347 0.21941504320572833 0.30171529791830703 0.026327847762306466
0.29573680084622567 0.21880593463930784 0.13245856981194498 0.09193634140783732
0.030370946616539236 0.8619955446514712 0.024529479949668316 0.15345838353926614
0.0468407393859979 0.882836271205532 0.0180815353017616 0.13813864017696612
0.8927919891818389 0.19519830067283644 -0.001320597042758784 0.1347382475329347
0.28010180710227944 0.21182203965512042 0.020480627910230097 0.11691399240150797
0.30637674434488565 0.22097707404185032 0.010053927559777383 0.21956289947708613
1.1376711040279661 0.8577104654867641 0.018878931131964972 0.04690579031415445
0.05408583706559466 0.864997789216342 0.0033255909603975282 0.2104168610102615
0.044097871018670395 0.8724997024776131 0.0024777168333239515 0.18165265812740236
0.031849981543019386 0.8631329064481186 0.002849804772485947 0.16376253822244488
0.04349438648291211 0.8797970064307794 0.00981499856548138 0.1376872781123303
0.017625641539299464 0.8515247411756242 0.005786077646414379 0.04864743816667922
0.0416299863682346 0.8336926817133543 0.004402464365618695 0.09344561983640892
0.06553790265652307 0.8528772678948224 0.013072732025535667 0.10067302493184604
0.8930167993055071 0.18752987072306063 0.004267800415791697 0.16915956824422212
0.9140753443374786 0.20394427857354866 -0.002163390174029931 0.06296716373552108
0.9079152230248414 0.1885888469158878 -0.0005741584596618146 0.13434687186259633
0.880427160849705 0.18699296259958248 0.013383722203155634 0.13863044382804193
0.879929585188013 0.20634913420619275 0.005862151555778621 0.07777054758981669
0.8890837795520532 0.21931082782313696 0.006782891020544817 0.06109028826917781
0.8772541903075093 0.19997103487044432 0.016674456836160794 0.10629577090308404
0.906543074513107 0.22023124376364944 0.013008689871730742 0.11277745814998485
0.2949891050067647 0.1988759502097672 -0.007488426075906208 0.2132892134895873
0.31131556999991417 0.21263527057807174 -0.003935245388949501 0.13515137713388417
0.3161736060065523 0.21146233759935867 0.0009311474790280236 0.1436950340851006
0.28750105231528866 0.19333216757134197 -0.003264184994815643 0.17138030206511165
0.3221904947980917 0.20379640984572497 0.010856399386272815 0.12558720045683167
0.2996690410758973 0.1782395795182405 0.004930167494851163 0.08656677799053214
0.29064026307015706 0.20908662203624676 0.0014336644027132086 0.1917975830254652
0.2899662751499355 0.21528955851425174 0.0056238524073167874 0.15994255842351832
0.29044134280300943 0.18714138133604544 0.006051611563280764 0.17980722121106452
1.1459953421295794 0.8742398169080737 0.0033824787110582006 0.046273328225117795
1.1767154315127584 0.8571904728526895 0.006921830994729844 0.020807577978671426
1.1821044163779277 0.8430165406227845 0.003277070916139712 
1.1438100904941748 0.8603929565298284 0.0011180611058158197 0.1416014004635881
1.074416262040226 0.9039354437121455 0.6901022250690089 0.023955031816383157
1.1232012285196293 0.9009887138632071 0.6960034996294827 0.061459086363752864
1.1858487332365708 0.8933674298132881 0.6897455576073569 0.0539293310360737
0.9226685437634884 0.8990443706584244 0.6863311423982216 0.0506945199308944
0.8969366920531691 0.9009832451143124 0.693243116440393 0.047864102401048825
0.7989558136037198 0.8908906901770421 0.6851260976959336 0.016259569817231066
1.0100145708681623 0.8993468329371658 0.6849024792126936 0.009199880509337193
0.9494265132725452 0.9036241060331596 0.6815692279699179 0.010572315649724582
0.9787893195178864 0.9041436357046612 0.6851374147323949 0.0067636838983818936
0.970505922684018 0.9040383961521381 0.6973550068518941 0.011222988531844513
0.8684836277667155 0.0995576841239463 0.6965143538460503 0.10210073214320917
0.08240611336482734 0.4921152227660198 0.6817165171143245 0.021685016522546317
0.0757336329053132 0.46640932823746883 0.6935413885002979 0.03165780191408337
0.733463160430816 0.8984628588984502 0.6859288253913024 0.03927218394987341
0.06278677965141254 0.5170066566636697 0.6823736729569431 0.0676022561726147
0.033195806282894244 0.6517263630429129 0.6830940883544665 0.026386275087385662
0.1838533190811969 0.891998994140216 0.6935470747566054 0.07904820191832813
0.16930260625473312 0.8868309650710459 0.6885270323184839 0.03266928426448745
0.5464582165990947 0.9055143552464492 0.6964497254484895 0.04424494600341098
0.3035366862092656 0.8916374126294251 0.6834017182586147 0.011162061117311016
0.24528303223465042 0.8948129809371496 0.69459875133535 0.0423616490676855
0.6679421430798301 0.8965096152697273 0.6904852524029232 0.05451199589536446
0.14719072571090855 0.8863078327516408 0.6839835570561354 0.001978186787660328
0.22467987330242517 0.9000858883560426 0.6946266776194706 0.02504993011900281
0.09082328933304429 0.8942871819590028 0.6846986451660911 0.05735758498218738
0.5670410276490448 0.8952408840339373 0.6788492494330378 0.002598071976867145
0.1387120028683223 0.8917697186195156 0.6915611376299844 0.0382391114888105
0.4420872444286337 0.8962479667087406 0.6890004778011971 0.03989530035383578
0.5960636341670598 0.8969315164773071 0.6920405784541218 0.04147912013923638
0.3621565360813438 0.8983154339532765 0.6926936064317387 0.03282835280990409
0.40103542226748673 0.901781867978391 0.6866605152153232 0.02312300715226408
0.7090318153238001 0.9024418091809455 0.6946577727454013 0.028187245758849334
0.016545685364841096 0.7641853419763049 0.6821302236820755 0.01833474575216956
0.016750385272073703 0.7852639957261811 0.6853863630907573 0.015438231054087875
0.011986123179319009 0.7931665640643615 0.6889014942615713 0.018784322087994774
0.019200174007083043 0.7076551258472641 0.6847736587088392 0.07810106332679422
0.003267250778148206 0.865138572809283 0.6982079571006498 0.05594118982650359
0.05353873606561371 0.8933072692724845 0.6928225722526041 0.01372923320415011
0.024119070523855746 0.8989889155752255 0.6941045357958195 0.16713041479828458
0.0310828199690579 0.8976487638332442 0.6995135071191491 0.1120534214457742
0.01185117197155877 0.8124502386539223 0.6920502406254371 0.02867023522923079
0.009887268589143133 0.8042818966864875 0.6879960979727792 0.04042004966806953
0.0490165772014021 0.5378991022811173 0.680819054713906 0.0357225047083423
0.18800141190244615 0.2519003175026452 0.697640066117091 0.07891414473627896
0.31099534631482567 0.10694800298314477 0.6894996256285266 0.02795334661739035
0.36425328087166803 0.07628637783216098 0.6838717550172041 0.007927629104336137
0.4283824148864018 0.04021264591228075 0.689804588440167 0.016520475703559953
0.3442327897781477 0.08478087634844755 0.688840599799078 0.012072239611107663
0.6070816999830614 0.027661574648308634 0.6810130918363118 3.6381176902192346e-13
0.6120412386747414 0.008613413296794376 0.6901480746496844 0.12011761115006978
0.5038848440557001 0.020475993961963847 0.6905289698459609 0.0444235413053963
0.6803639339522515 0.006578151404458995 0.6960348130544031 0.03435872307501827
0.7481878958503625 0.03593566400058919 0.688439691715764 0.06375090397146395
0.8915810419623991 0.12554316792204495 0.6930131812045988 0.0346254970823467
0.9247792677298676 0.14715233769458128 0.6896185059306575 0.020414946360169123
0.9117449732520574 0.1323008065048828 0.6998341746717303 0.029864737846770188
0.666575082078902 0.015550398728021934 0.6890105594665062 0.016886562354363605
0.6014593514371983 -0.0015492994424627779 0.7030676372267975 0.10012747659198826
0.2621269430629529 0.15812265787898006 0.6820783075682159 1.9413206766226655e-14
0.1931515987135931 0.23514923672042778 0.6941329930983404 0.07184608106049165
0.28568083336551936 0.13356677858812763 0.6883738379828644 0.004863198703867959
0.7638469963654679 0.8986279811751515 0.6843491238069291 0.030223810005352743
0.6904712451144234 0.8956069135273003 0.6846780265009278 0.06306860700147669
0.313694794975317 0.8994859226190334 0.6906049129103317 0.030574067508456967
1.0245596131565673 0.901561579901026 0.6889832448600623 0.013010398819192118
0.8811824780341465 0.9020595816168951 0.6897455507514925 0.037426737143677
0.7870660210085213 0.8998712611159357 0.6928344451058936 0.03515733915719772
0.7386196717090423 0.9006902201264417 0.700600474047218 0.06281042343061839
0.8719110416723562 0.8967822684628447 0.6878203141982235 0.08054644339304713
0.5701862696467302 0.9032207555965581 0.7107006501739067 0.039129339573755764
0.6710590699516914 0.8962062792218983 0.691457823611735 0.053905535731770246
