x y z curv
0.18290455821237045 0.8287344606125742 0.2534570013606238 0.08530147156237244
0.20469453634551035 0.8111058112646592 0.23633756017274024 0.02140946992024588
0.19071814562258782 0.823503472591644 0.4330628769296675 0.09838549920985
0.1972875360771928 0.8256580222225052 0.21184453229678546 0.03786592397926748
0.1920765461475868 0.8283889437079968 0.29954308282136977 0.10968615257300506
0.201496439618069 0.824932912548105 0.275997935782936 0.00889353268760889
0.19764027343937018 0.8245793462325067 0.16862750008128563 0.02063770178439995
0.19965696539879424 0.8171183157608891 0.4175712020392352 0.06959079948128312
0.19313754500077893 0.8304205254355662 0.3911661489799748 0.07977332572143023
0.19149034661898945 0.8239426572867427 0.4404020651157853 0.06478872006607732
0.2011281016157484 0.8209118335220318 0.5573863626521598 0.03256773727664327
0.20883251853816445 0.819796443122774 0.4834898055322528 7.744158128182691e-13
0.20434379774653907 0.8205895554201504 0.5296799736698518 0.030631751394892482
0.20135544308594444 0.8233879706390446 0.5274002237679826 0.04352963919070387
0.18921123353959496 0.8325946667741557 0.24369932708194364 0.01953675647365958
0.19455594827528294 0.8261959884694337 0.18886659739522182 0.02506389595882865
0.1857995143828953 0.8352284754683584 0.5655356575548259 0.06728319513816673
0.1975106818497652 0.8294150824272958 0.5405424722931674 0.027304233552971756
0.20059758321710164 0.8255999218124257 0.4847534034634416 0.02598921498361893
0.19704216375022918 0.8451299965925626 0.5873506944254249 0.01625790438370545
0.1873092382324798 0.8345431008601373 0.5148296906041692 0.04563026171456817
0.1750073554347411 0.8289529973038197 0.5487781243638429 0.0462496187254759
0.16996332768108877 0.8300966147254035 0.6171329338092147 0.035246975006789014
0.17178497335884454 0.8359824010435886 0.2192614297308973 0.06555279749604111
0.1685027642378817 0.834884806749215 0.24948831121751663 0.12714302386910672
0.16848859730855195 0.8382994215604578 0.2874894878987907 0.07339901718995573
0.1732033470044929 0.8343101170361179 0.3707703753376058 0.119692896166989
0.18068369500527307 0.8315181610876429 0.5303284714829063 0.05443200336719099
0.17744950448939165 0.8443467510478375 0.4948537024567149 0.0190530694211523
0.16545411476045685 0.8310001766046137 0.590284313086746 0.03782007961167042
0.16481684776172828 0.8333849969059052 0.5117177479236146 0.03039943741679583
0.14584972082287753 0.80800386745696 0.23877688557458246 0.041687191433555544
0.15339907218062396 0.815129310497456 0.38230813498211946 0.05645918020078098
0.1504919786781148 0.8103935741150179 0.26066357154234077 0.09943130945541928
0.15785759638650246 0.8104217816538877 0.3066590305300792 0.10858498652636459
0.15098750143458786 0.8165339503908027 0.20581417214594933 0.07112862690263971
0.14792355104580163 0.808248430471725 0.2099936238876485 0.08209146665304738
0.1430142538803836 0.8125450529898621 0.4929587443398605 0.03125383664278303
0.13856495930913096 0.8103279598258402 0.5385458565287408 0.03743594038649731
0.14912649519993132 0.8156319200786012 0.4825995597647336 0.10157604688157393
0.15403396938236058 0.1610439306534546 0.12217226863344036 0.03161592205508562
0.16223617014960418 0.15585183791137439 0.003229078744321994 0.02444816648341352
0.1471293526368467 0.16621237846312903 0.10678676733330286 0.05387753622859019
0.14775503233240353 0.1721274967639602 0.10426900079373654 0.04819145917659894
0.15157875023399586 0.16339297878481635 0.08123948918339273 0.029930443475941888
0.15083433963173937 0.18120557596055337 0.13555906774563914 0.05440238942455716
0.15289632808066594 0.15367862576092683 0.052892424409512126 0.0027278525884649393
0.14797170762421313 0.16999361062328802 0.0283514952029962 0.03611541387853134
0.15402891961380633 0.18301863527540943 0.3462556219574209 0.08720594895250255
0.15180353218419515 0.16928707956933378 0.23211905648014225 0.04892631936610809
0.1516850539092188 0.17768334261092608 0.2532634944277014 0.05097173666990433
0.15806727675010776 0.18591320204413628 0.1697000407160056 0.05081510884430584
0.15227358196053536 0.19261254376114964 0.2564253962615303 0.028792906013524824
0.148474604610752 0.19156029317449028 0.37052646067969863 0.04068268632855178
0.1418650377729381 0.17840881795260374 0.44112706349598335 0.04238595689918826
0.14975666250595607 0.18741386002051008 0.4607906286324756 0.0559882830962768
0.157356035410928 0.18920893503532937 0.4229179938557894 0.020032459677111
0.14926249586120358 0.1967908401955493 0.40699047362775426 0.018704261302851414
0.1499785025413596 0.17725533364291088 0.3952620068042878 0.1148102606612078
0.15460990542721145 0.19496767270703522 0.3077571254179916 0.009625435415871809
0.15605755223865672 0.1846255464699165 0.32598099009081477 0.018604841404363845
0.14840559020466879 0.17479011516543944 0.4048076469447021 0.055041276711524555
0.14932541958530096 0.1804785050591143 0.40772900688646163 0.056375689502260865
0.15127469609906835 0.16540827586804852 0.459093434762182 0.05475239805581805
0.1483710236352312 0.1716980972823391 0.3245520118074895 0.024736933372506847
0.14649330193715351 0.17396054441948616 0.028283002268380895 0.033120350865435036
0.1504934130606082 0.17796558252371503 0.1154946689351108 0.0624627647802814
0.1509900626693463 0.16763125367788592 0.14756049179411862 0.019866094222242423
0.1506910283203941 0.1597693364813396 0.027254026416771143 0.0180994163709282
0.15411471014261585 0.1565672366368546 0.24045960752391288 0.019665751715413043
0.1538826698732748 0.15292111502612976 0.21241112446367133 0.014966330733241707
0.1494903223581611 0.16675337479411034 0.2918710488256737 0.025998489810661975
0.14842981217608925 0.17392825805205325 0.27642374177880086 0.0369290063055113
0.145739348180143 0.16799172729565717 0.36346303742854386 0.06512751515126065
0.1502258316472817 0.15222384033466274 0.4415651885667365 0.040938951265176805
0.15571252397170215 0.16306933349223676 0.2604935775858386 0.03350882792590757
0.15481389617769697 0.16439359884898735 0.6053979435609866 0.04219421655246969
0.15487521881975347 0.15292217512286818 0.5385184371078168 0.018535068403157454
0.14999415670023722 0.16395246451620385 0.6166445445565979 0.017939934611750006
0.1546858846460045 0.1646149375584678 0.5580763472515383 0.0939768456106369
0.1617340714065829 0.14383568237826183 0.2885015484549104 0.001066117219415547
0.15655592174523628 0.1581449357280679 0.17284066597385214 0.003250277197852961
0.15579673062334828 0.14833353650483183 0.3284062705233197 0.038286717471124825
0.15339570454146728 0.15367779389813851 0.31550858581972707 0.02040761029844155
0.15841631180365015 0.15845949661421718 0.3836074020132223 0.030183657460784278
0.16259566620754468 0.15366773505511827 0.35252614981455205 0.034596858510560005
0.16357107310192506 0.1484758738649739 0.44085627805965 0.02674326022293463
0.17018848111891388 0.15485870548336042 0.5120670704940501 0.028285541912901165
0.16207352282346624 0.15575172363014694 0.4767831979354089 0.03247829351691151
0.15458516481869716 0.1675176220323707 0.4846568055147306 0.03295833911550058
0.16898376880345664 0.14609106848897377 0.5959629499761465 0.001482171367966653
0.1524847301755445 0.1837222582268366 0.1352452360149789 0.054295483036496645
0.1545153785956311 0.18711966406580333 0.1549394507691257 0.013574630955225065
0.15073979874146196 0.19677904188185386 0.06869577611482555 
0.15905865235922875 0.18106731246917496 0.00871278883098988 0.023445491020215054
0.15748028477696652 0.17910671943785086 0.0022896850184184786 0.015383227415016904
0.15371576489154465 0.19148316319336076 0.12105359331118594 0.048010293855202175
0.17103992898881135 0.1939482330030415 0.09904590604148962 0.04730035444664372
0.16846374269221412 0.18605705472878062 0.0021229076857034743 0.008559690012898778
0.1827559300363316 0.19844495574818605 0.12176640065621996 0.026252532129729226
0.14756450236070082 0.16150335654621337 0.14319823544371008 0.014321532772335378
0.1654068582531006 0.144908777861244 0.08219670508000156 0.004453772363169905
0.15933181951191064 0.14473048240163355 0.01422779168678856 0.007404940994214564
0.159118547558622 0.1541989695753409 0.09472722403801424 0.012527984832416201
0.16307760735200308 0.13873411444184683 0.12650862225894827 0.010236401365886945
0.17277913956128296 0.13731545602057788 0.0753800722135251 0.0009332129468580678
0.15951780635874369 0.16912909044637497 0.0018217138553006259 0.01874344285186329
0.17605132052451608 0.13864812369280904 0.4232032638355635 -4.725984739474361e-15
0.16918763250318974 0.14986972248400499 0.38604616977687056 0.005472949654717357
0.177011896978559 0.14576043377142714 0.5139996043406365 
0.17603906853920515 0.14741220542731492 0.5709336942031734 0.00013684410040057434
0.17908352760609839 0.20851215197077713 0.4062818478650261 0.023882606837710672
0.1801125883157892 0.20868605415457403 0.34917913070210355 0.007356297470943797
0.17720345113593422 0.20620845523118528 0.29155578600880566 0.0063015392520712425
0.17512446879157245 0.2037796766731583 0.3827607717164474 0.032061700738752766
0.17570965396097726 0.2085299634125472 0.4392321886525927 0.003755705672506415
0.1803599202023811 0.2076078374391606 0.5090869218253768 0.02072505587110774
0.16170187959397367 0.20347413080413093 0.33680169835322055 0.031691983239856635
0.1684822379924014 0.19776603935936732 0.2281163795079467 0.0413558432241831
0.17342513798903594 0.19510199779994336 0.1709931541631334 -3.36943865803684e-16
0.17310673658204956 0.19947012982066153 0.20776645219684392 0.0025932851564101477
0.16670003794156163 0.20000109420888795 0.36718218304869893 0.030575733919554877
0.16190738841397526 0.20077096487121662 0.3930943949193551 0.035738627312976876
0.16585679630413927 0.2042223666757133 0.4275856509714664 0.021939932507394327
0.1642698589934357 0.2009268261731984 0.2607329000787905 0.036625665078619994
0.15923171263539723 0.18830389336070544 0.2932287597433052 0.04165700220004128
0.15805398344044888 0.19511141863799913 0.32300834860139516 0.025454747596126807
0.15641575031650126 0.1883037338356958 0.4350067252795298 0.048173017830624554
0.152701034418538 0.19065365110288995 0.3427466903927802 0.0733923694148239
0.15931322629193895 0.19837246631495437 0.4548184717198574 0.025340930774879516
0.1661770785583974 0.20427007649712187 0.5153478109146428 0.041116995429218275
0.1673027899175784 0.20674512845583334 0.48100975859577616 0.02943154931230832
0.16306342600777105 0.21174619837690897 0.6109180160734263 0.005155399418183465
0.17020949860018036 0.20699399500079746 0.5432848448609272 0.025787859846381017
0.16076767776271464 0.21129948640958468 0.581946601143769 0.0020013385174133466
0.1632878105026246 0.19955554262268063 0.5674912228748866 0.0173841091849081
0.15394693109235708 0.18823935496524005 0.2294661075614069 0.04353332109409994
0.14754939195157024 0.18764469356255228 0.2007997118058886 0.030458697268919928
0.16108123209634925 0.19697010274019808 0.580690906440147 0.010136547311284992
0.15517967408601974 0.1993026823325926 0.5225002876997157 0.030177573941811767
0.1600417646179944 0.19899501443744022 0.5953163829888182 0.02110223615699652
0.15161989712562957 0.1899475631851665 0.6147028341816365 0.048616528919293175
0.14927841390318977 0.19405764244190252 0.5064062030824098 0.03311933386820044
0.16114078076301327 0.19664996080654448 0.5583236202647052 0.019296221075223864
0.153962184951765 0.1822061515390949 0.5747493568136063 0.01821383631983817
0.15380926217888555 0.18707008406700604 0.5417908836043255 0.023498500865820407
0.1546908423085665 0.19377990854438815 0.4759818408733933 0.05425828352784854
0.15433521066730058 0.1818941886741076 0.6071038931709253 0.035477191929290754
0.15296284938788687 0.1846067793472752 0.5091965560629145 0.08245692267771336
0.14415466330104212 0.17448675446017609 0.5868165795898813 0.03712120755996023
0.1530306085187289 0.1743383728136445 0.5472395578843444 0.022455945529638727
0.1517856066827832 0.1774300956544762 0.5741368666573244 0.0690606930734246
0.14602992819178726 0.16660392472391594 0.35667324886551394 0.03005337522237597
0.14760643047134558 0.17683470569806312 0.2678199578447388 0.03553042635872612
0.1480156508025753 0.1657809631183809 0.20044971696729222 0.009260892865647172
0.1457977021292794 0.17071164996877317 0.4797940062608485 0.035972421337796455
0.151579405263816 0.18232613139226247 0.4929255901422622 0.06281993148932609
0.15288396143349398 0.17581669253799653 0.49958198199094517 0.07745671271171577
0.15211100300842975 0.17214770461871115 0.5332327595165735 0.049562897847480296
0.1578242649199764 0.15470100973194978 0.2936610326296852 0.02615303267167608
0.1634199820206364 0.14669462645448875 0.233920626965731 0.006275653133264216
0.16304418193455442 0.1477340980447027 0.2464202561095433 0.0099259290648388
0.8221015193696284 0.15078555524413978 0.6301500433119195 0.020909851960150067
0.8368282655749151 0.18521885425384121 0.6219027967432 0.023017743332140076
0.8307377580086163 0.1856001762721535 -0.0008312263683246762 0.02626858786155696
0.8226106031633957 0.18460368983792866 0.09608507593283713 0.05189481051243825
0.827812865049062 0.1893395718014624 0.03349671743241776 0.07903356865653825
0.8269740924283857 0.18978365472300568 0.022624545918500733 0.09132568231553642
0.8314458061237419 0.17866057980393055 0.05272866953116632 0.0337665515906356
0.8170769730457922 0.18875549750323187 0.11323838352297345 0.00472636085307218
0.8088867463701381 0.19947716903612164 0.11729338982480439 0.0024206202546359205
0.8166993882833606 0.20556011573153235 0.3287373819969906 0.008383896594833913
0.808099853198834 0.20446651235297844 0.3769667656424558 0.02175302176431397
0.8224764024069774 0.1928176985844609 0.2203323350430085 0.020760254630384216
0.8230082035233154 0.1880305630173453 0.07250267660277669 0.0655683312219583
0.8157738555938169 0.19357787644662786 0.14788145110542508 0.029218656673867166
0.8195818465319359 0.19855069982592807 0.20954535975898275 0.022164225735588464
0.824667503871939 0.1930322936213672 0.1839741271537962 0.015238059278759134
0.823523021382146 0.1896852136562563 0.2520796730087754 0.02333585628036182
0.8160314679188612 0.19907019523986577 0.2810634106951626 0.03255170416591392
0.8275370284115809 0.19104149247558802 0.19715281644050883 0.0312623881139866
0.826684774504496 0.1818519167437717 0.14060216894586164 0.02923325954705406
0.8296648459827776 0.1784847837054832 0.210428727256888 0.07064188904809952
0.8273729593130642 0.18988328275657604 0.3320712638444488 0.025008611256874282
0.8270284630344521 0.19533943178095647 0.37141705530535984 0.039541656756419095
0.8272256801986577 0.19003333154919722 0.17701400446120602 0.01599210762113946
0.8278948338203774 0.1820897663838913 0.2758913106528379 0.02708949836682599
0.8325035256528565 0.18798625994918303 0.34853015000357007 0.04801282286301731
0.8323659035432172 0.17564242157337606 0.2084015002959266 0.07739581412504414
0.8356921749440346 0.17469756064485795 0.025818530519387674 0.024764083205226786
0.8391795565448088 0.17695991637016031 0.0808550663430966 0.06328517302019725
0.8327908391152559 0.1719534408536683 0.12195284643606326 0.022640130500837363
0.8403483584892942 0.17087485578703687 0.10488938139497309 0.028177037362252928
0.8285178355370793 0.17584852331114698 0.1710173255927136 0.07939050840649732
0.8321090776948259 0.17159965766110202 0.15824093872626668 0.0867548086538144
0.8393839900928148 0.16919757580757547 0.19141076781409863 0.005642445248629946
0.8354699166864873 0.16577724002753172 0.22215546005982492 0.07377387753818862
0.8337534518068227 0.16427407608235867 0.2956025128217813 0.010649062910771598
0.8338752918826892 0.1630008010921543 0.3481947585006648 0.017572933120293777
0.833200396161742 0.15641563645053963 0.23441932888470574 0.05260552892823474
0.8314408867613151 0.1572472485170383 0.31611751120435877 0.09706151069495225
0.8333035167267151 0.1580931186929745 0.21568628632117806 0.06848632698594118
0.829654783579104 0.16424936943680501 0.27548121089531147 0.0448318276906581
0.8298858229126496 0.17252512744294501 0.5160456486588348 0.05897666694041604
0.8296418816804247 0.16766365458811758 0.4975985357552757 0.06726750516052366
0.8336189424162923 0.17110721902659254 0.605845983865767 0.01228510131841802
0.836786444374352 0.17415748614042345 0.490191132407826 0.060959433788276125
0.8286551043216686 0.16134713740497977 0.5408134738194654 0.016653505581085783
0.8294785691778024 0.17892191754405845 0.5714949074006224 0.05904702486225823
0.8367237633937565 0.18385650196855735 0.524213777168155 0.047506594514547876
0.8399602423127185 0.18505051737488512 0.5579012265911021 0.05107926611381618
0.830493602139119 0.1640444783149297 0.5283871168573797 0.01242477122068709
0.8285608512980797 0.16013557532212996 0.6216938488566638 0.018162582910181822
0.8243257640224381 0.16538411955695845 0.5588575236184431 0.03291915292737297
0.8266691391509365 0.16698546383850646 0.5539284752329264 0.0588455760733226
0.8264196054563507 0.15769284826379415 0.47011134864038995 0.024356763621697197
0.8225221677423716 0.15641547300914746 0.5767564614561628 0.037427269267904996
0.8192900699912512 0.15770924567206543 0.4925309913651801 0.03409626243158652
0.8265341637144739 0.15269216678876463 0.3959130078290599 0.11781962321835422
0.8289069785189596 0.15657147942997546 0.3704419345836211 0.025087492131914513
0.8274001858236179 0.15581015274252463 0.2517843232523124 0.04947798240645402
0.8277859644026232 0.14949770290433512 0.3250424372140564 0.04907989252194032
0.8187441901376187 0.15482263087889142 0.601159193015596 0.022455669164244605
0.8265735915004128 0.14810317180343005 0.32054043950736777 0.047888472205325064
0.8135237899545851 0.14034426980861242 0.17392352468248765 1.2098125980125006e-14
0.8129496346782 0.14637574181592772 0.2224907787882696 0.05679867040574309
0.8183612912649009 0.1510855390564794 0.2397621013203138 0.048941852914869605
0.8068165758159545 0.1501899889874692 0.4434946228666837 0.0011272607031139806
0.8058291833217016 0.14921998457376295 0.4724310909482082 0.007629130503353168
0.8089757964497024 0.14694568441053985 0.5758607965860564 0.009133924381643671
0.835472230056807 0.15925844962355432 0.08955557494865272 0.11274386247616733
0.8399975322490535 0.17289987247950647 0.035052735684880154 0.016101677740446265
0.8313140366618725 0.16603296656514327 0.0011231898848663375 0.04755652696283885
0.8319511727438045 0.1594053725729618 0.061801326839975926 0.05682835181458002
0.8339193409574572 0.1630035034954908 0.13887301762322163 0.026443924004675667
0.8366293992243837 0.15863125091090546 0.13218975190748522 0.0207550562921541
0.8336958701313425 0.15308167405219159 0.028792637848909137 0.03375582968283195
0.8341438504387144 0.1655608671966969 0.07660928070568336 0.20762520989403482
0.8261533622021937 0.15647635161332568 0.15469622684535936 0.06474021904489798
0.8068886565849677 0.13974995784448851 0.07955380636396862 0.014465443470820167
0.8108451324680066 0.19412908359493347 0.16659147164836796 0.028658894153643123
0.8075724548499222 0.19264636243704786 0.08182915373485283 0.02106538168916839
0.7996206360443615 0.19147895111384847 0.016262192692069622 -1.2083024840718378e-13
0.8277420663303706 0.15480739996126489 0.07212199266705946 0.1419109404299235
0.8240788510845254 0.14928315338015322 0.02504152582019893 0.009242452438800907
0.8300836755806372 0.16331236593787485 -0.0015254763288159404 0.05096916685090101
0.8078345738724545 0.14976732153768 0.4048051933466783 0.05322683350443801
0.7976658648072272 0.14034779917830306 0.3094536257090688 -2.7053292904021334e-12
0.7936504992955412 0.2107488457745462 0.5525333322384558 -2.6657313305009082e-14
0.8099813522653091 0.20501038901720883 0.4844058133186986 0.023296523716879597
0.8064491017774679 0.21360851180101043 0.46470327165365477 0.003726913778665955
0.8029464867636009 0.20537949588782922 0.49569528915156025 0.022800779743449764
0.815649199464458 0.20344975335821971 0.5457091736147396 0.05295697986749632
0.8153098169676632 0.2053808852615967 0.5266972942844397 0.028936281196823663
0.7976892036469223 0.2084460120234889 0.5423764420990581 0.005403211661663512
0.8188676869776841 0.19998843114710868 0.5115827205162162 0.050169889218843966
0.8254289485686712 0.1989438951983372 0.48611101892968606 0.052822924902610466
0.8300328322943653 0.19298681120391784 0.5583708768745353 0.09734423194873366
0.8320844864185918 0.20287565161967813 0.4763547980590933 0.014330389634263831
0.8113103331009441 0.20379880837942418 0.2924691097226516 0.005536857502467287
0.815583193559184 0.1978588825769029 0.21677740177449653 0.021941224821622203
0.808482419434156 0.19614595032537627 0.17866122504231838 0.021771040817027805
0.8072345150332988 0.19805783311020939 0.19874060508712604 0.03018362328955077
0.8031747842883895 0.20699323232538255 0.38620015674008606 0.02633233436596232
0.8117899033139874 0.19776694283892896 0.2688356840470201 0.019337911970589736
0.8181021607694987 0.19984520538793762 0.3991742528319725 0.04103213027996394
0.8263622720146836 0.19432559438147473 0.29386259895585765 0.017571400493992476
0.8157496998443092 0.1974334315716747 0.2380589369540234 0.0072660817301621545
0.8237102300125982 0.2002072162604119 0.417018467201119 0.004859821668320158
0.8328960140841403 0.19158087045300065 0.36530688935643957 0.03275185300387895
0.8178178776348516 0.2012755244665302 0.40094329723859673 0.04370221117592798
0.835693153595192 0.19421795634374897 0.4391980044131579 0.00326216046944333
0.8241157034562182 0.2036806353594054 0.4324402974450174 0.014915422567396587
0.8231222443912317 0.18768382544179527 0.3995163803932861 0.05558611342427768
0.8315828392380687 0.18389674792828906 0.2434283137626583 0.03169134136319539
0.836368371585601 0.1881556450250225 0.3173345644337134 0.020444736570428532
0.827908729712594 0.18285640329684097 0.40916181892987774 0.07872948043438814
0.829522953703195 0.1778043523140569 0.2532501743764792 0.04759049681434644
0.8425059757309806 0.18430033796479975 0.45723991530695196 0.030246130677304348
0.8278555500746339 0.19256934859372424 0.5924276266442468 0.016156852227231178
0.8326710286510041 0.18729124550631615 0.495508274875333 0.12140887279177413
0.8386377516063935 0.1952301992489025 0.5797337574280732 0.035554054571473544
0.8372275509653699 0.1916891201016847 0.6242841234339455 0.022428174829086926
0.8305583133245612 0.18650071376168914 0.6069276839541786 0.02080059192312568
0.8394643900715548 0.17936436649286697 0.4324113867318607 0.03531186747036339
0.837498933341424 0.17752579384374836 0.33616753980608666 0.036127519093279485
0.8390685087469295 0.1772794654171137 0.3581944908416275 0.019066604440471365
0.8304863588407269 0.17867246642497442 0.27681786970261507 0.02650306947462341
0.836584195694506 0.16591233406642622 0.3990618768161924 0.09858502188072846
0.8311037312871147 0.17067132793404252 0.31196991152322207 0.014236917341244808
0.8339389048038983 0.16800216105013074 0.38915133004480734 0.060319845257151075
0.8318909425549755 0.17451841888552178 0.25106506996292116 0.045697299947156315
0.8294595049132024 0.1551702071117193 0.4329223599374115 0.04391471832034149
0.8237934695070078 0.1486867251089897 0.5201216679464574 0.010896068553000803
0.8268640548832465 0.1434418367516236 0.5574958079700579 0.0076729078231986365
0.820933485936011 0.88592078785512 0.7245044106190057 0.06164858931974046
0.8526053989202467 0.8525283929800955 0.7074762350672826 0.06792608956075959
0.8164487674364654 0.8910769672174095 0.7157631580990882 0.07177967699479128
0.8007488773537733 0.899998931996252 0.727500574699799 0.07080462091755434
0.782665355459698 0.9153210033053322 0.7147194207866787 0.039079808914223475
0.8042567516335912 0.9043709098541819 0.7059371305645434 0.000906004680235019
0.7693210698880443 0.9278714621499876 0.7156567529198615 0.03205969497743688
0.7526681297230582 0.9290039415042515 0.7040904211535666 0.02305570688409254
0.7292337420955238 0.9437325561896598 0.7251063075644224 0.09008233452343642
0.7234347362190172 0.9505634015270608 0.7241829419035872 0.030633290249252865
0.7405119764099634 0.9380008696379571 0.7106037762552335 0.04099069497451868
0.7206846465313682 0.9449194048994713 0.7030402696427983 0.02982335856878896
0.7325508183429975 0.9488750471080006 0.6963359077013718 0.004218768685606259
0.7049670673750459 0.9554075483395668 0.7040992531367298 0.038811663924380194
0.682354173484252 0.9708236629960283 0.7299944199327103 0.022882855815473144
0.6911999311909061 0.9693025969632509 0.7223296946253404 0.02372377289008964
0.6532627206100884 0.9779131679256227 0.7243263331198767 0.0841241327157995
0.6516659316864731 0.9757826579937544 0.7155590829001262 0.0942283066625688
0.6723189658721567 0.9662950882437494 0.7192414564217675 0.03195594115194836
0.6362651708632904 0.9858094718300321 0.7058965267120499 0.02410554829465956
0.6461556968753006 0.9831009977237094 0.7252842896846047 0.09097336995288485
0.6324647612166796 0.9792589300915993 0.7127321621104489 0.10227119365313281
0.6131103929766306 0.9879334280217301 0.7226323035016189 0.13400899449233936
0.5731249516143024 0.9955337105835436 0.708331437221452 0.0990174772013684
0.5997764554030751 0.9945013809556642 0.7137478287683577 0.03391028230061765
0.582630967131591 0.9935540158109204 0.7295612657216279 0.14573684940215537
0.57506040364356 0.9981577415978944 0.724591426031954 0.07252060944522688
0.5615650358350444 1.006687007681323 0.7146330620767131 0.09196890500822552
0.5476588044347711 1.0006124549498567 0.7229966482616245 0.11366093012345117
0.5306380911919857 1.005403656935823 0.7220999182529504 0.06931969549028218
0.5307674293353651 1.0034389071964227 0.7272226483788131 0.0437885729625428
0.5328765327613288 0.995945779095644 0.710583216906623 0.11486035473742227
0.5078978200955654 1.000710221186327 0.7043578995532953 0.019468387313348677
0.4847443119228469 1.0083959453301996 0.715291529611072 0.03978075949786475
0.4731478004752295 1.0069544872076357 0.714203395053115 0.036694777720388365
0.4870362780347205 1.0008472959629728 0.7197801028181018 0.06093018449373387
0.46431018753259395 0.9990679015262164 0.7080626161519042 0.058736565952876595
0.4569811385530755 0.9902675409675362 0.7253789280870173 0.06205405421127491
0.4125807016167281 0.9963266141595776 0.7256455260200129 0.04003899296317815
0.44172626597746245 0.9914536152392571 0.7340059678423642 0.036602010367181984
0.4166359708787947 0.9926848274212983 0.7217546595468253 0.043691570162418876
0.43021275043212837 0.9983508304684341 0.7078217324350163 0.044443579796451034
0.4213498931197417 0.9890772736077957 0.7209077587788851 0.03869317956509881
0.4013729539272188 0.9934832995112226 0.704555771733652 0.039252759900043496
0.3926809247813974 0.9869321630339387 0.7241655238831901 0.04645775757137458
0.39162877939826257 0.9864081626521087 0.7036987984183702 0.047052367275038254
0.3819039736960201 0.986976839467935 0.7151086666230344 0.027336369717385164
0.3646950559322512 0.9881714893793306 0.7213059746343602 0.06046311176121532
0.37431522558260605 0.9738954302560164 0.6938502072467663 0.027340293156544376
0.34447545698374776 0.9780389905061003 0.725047768197475 0.020645129130254687
0.33024480985123733 0.968051276450352 0.7185124573754009 0.020173898517377806
0.34830928789050974 0.9774937644502312 0.7176293253097756 0.07647296620213531
0.31035099832149193 0.9550679812186176 0.7206399452881023 0.03514664741019762
0.31337703805504086 0.9650019742616295 0.704355582453218 0.02632474967395054
0.2863334864596885 0.9552432937767066 0.7172770498981519 0.028115670838766607
0.29331813675945784 0.9530157345808586 0.7172073251958047 0.024000276433221193
0.29752337857050526 0.9658048759495064 0.7031220277156416 0.02960636034462113
0.273036424452616 0.947645395011353 0.7172730005623119 0.017193888168531703
0.24992075898381835 0.9272428600578413 0.7181927928573819 0.04889487538285207
0.23559986601210886 0.9215562918062898 0.7233316155559086 0.05567866547067303
0.218071779749276 0.9145848433077031 0.7010772146830794 0.03916146136593703
0.21898328382635848 0.9130847961085629 0.6979656565998812 0.03302829228781701
0.19965545588072026 0.901165141594133 0.7144963926891408 0.030468330493009795
0.1929658137341965 0.8844785013706734 0.7256007196003319 0.04530499238045745
0.2071793860661895 0.9025876759704476 0.7119365184581261 0.041916536650305855
0.19467605842183366 0.8991379826925083 0.7182322256823283 0.024373895083380465
0.17709647739323311 0.8899743785173391 0.7114201200524536 0.023843225356403396
0.17281986611514244 0.8838550994314 0.7187423600935666 0.014131974954714037
0.15552335656426794 0.8600878552136509 0.7250757903889711 0.03967940262010106
0.16752464016016042 0.8744395036369687 0.7150298150573344 0.04240725597263758
0.14925005876365782 0.8557391254909694 0.7253651660324304 0.04357610044690113
0.13626413907030177 0.8393567518026769 0.7323863462348547 0.03990602792950581
0.13259185008634783 0.8415340085474077 0.7054733403354823 0.007312332259290769
0.12087939410440608 0.8237162932479786 0.6940748647623783 0.010403724366952654
0.10723660733893332 0.819162581008566 0.7086083997135091 0.07279645127386598
0.10013489548602326 0.8079821294229339 0.7251108548387124 0.09136311546548942
0.08886765351002947 0.7969496291292388 0.728040988852626 0.06658910200676445
0.09866763255488865 0.802839200860722 0.7024259226609662 0.042354004171550504
0.07048616365564511 0.749712992379686 0.7209945360156699 0.03729816925346998
0.08823155547442808 0.7754965304350754 0.7115449405414758 0.07294918257102022
0.09276623365245625 0.7852274917410669 0.7179442825512959 0.0794135215103684
0.07211809864439848 0.7613306397150551 0.7149619504468049 0.01124795289632645
0.06403824757809151 0.7492056325164799 0.708796624067881 0.03423174315725848
0.03669709856279828 0.704268708839986 0.7333119786538047 0.0344036129250425
0.05653977435099921 0.7364531462155479 0.7161745246295341 0.05385151962031008
0.04451097437633185 0.7220048322115864 0.7097969258915521 0.045491089408593165
0.030524109150742728 0.6834702362547657 0.7173186549406526 0.09441544732075328
0.021830328464836412 0.6628113948410504 0.7254925066811746 0.0658263992707058
0.03753011124902746 0.6984608010141693 0.7127679163751915 0.052871085207487324
0.0064176189365757665 0.6322200466260564 0.7147363385274099 0.09428596668476892
0.015519665204345962 0.6451112952491412 0.7282400260476187 0.08965098404304928
0.017682753951291076 0.617405290667611 0.7097732192682655 0.07870972138710865
0.013319868954723982 0.6300434429974802 0.7085098228554045 0.10999599606867769
0.00431871183734 0.5906635150434182 0.6994165008807062 0.03448357601175897
0.005413494662049389 0.5767150159726844 0.7149323316317248 0.07634788650038137
0.006058351454542281 0.5881752197518317 0.72528747482339 0.044770485509677695
0.008547917801454986 0.5797394588859915 0.6991039114438027 0.05964113320759057
0.005763638485097357 0.5662812616647395 0.7085819120074055 0.06992982618877004
0.00016769649351405704 0.5594471974765743 0.7265509755591832 0.09907308618525457
-0.009664279430530606 0.5348871651263541 0.7242949741796615 0.07923845089629435
-0.0049448754067694806 0.5051117726619796 0.7267873839281705 0.06736136593886624
-0.002838443726349729 0.5258156092211761 0.7029971437652128 0.07018617701247742
-0.002709831064666265 0.508211126745812 0.7155465400586772 0.05326544046237485
0.007861405922021577 0.47561095783997037 0.7010594357372285 0.048680557469556116
-0.009388225580306764 0.44297402287525356 0.7062341042360292 0.022720602308997934
0.0007530954044290084 0.4563132603576236 0.7243070859252938 0.09988424345666996
0.01217811822642976 0.4221301131716976 0.7193938466479225 0.08314072160546941
0.007153889318292921 0.4355442593423946 0.7213040146956105 0.09828747383086398
0.011809439346036052 0.4041067125216891 0.6963855674830588 0.06920419983337311
0.015463710587669306 0.3568240890671331 0.7258272445869116 0.13615663574746342
0.015320468746658465 0.36056257858903923 0.7285959104559828 0.07901937699264945
0.006594584684585465 0.38989466685493707 0.710796824129241 0.045426734386322935
0.009497206718416537 0.38155626409572063 0.7139096817993549 0.16780045069974556
0.015177068161612049 0.37412463638435034 0.7079478898785966 0.14463269262020256
0.028488048221049552 0.33886659751607445 0.7256236263626409 0.12457740217223641
0.02604946110348274 0.32152112681586675 0.7253345526031292 0.10078132899216691
0.03123319681064257 0.3165285920786576 0.7192208746787483 0.09285562985468018
0.031060453171047803 0.3215369063168099 0.7110544132505632 0.09293007228261849
0.0427825733009066 0.31373060978068457 0.699398101694597 0.054969564520252256
0.038414243194019045 0.2935117743205815 0.7119565808292975 0.04535982924796514
0.050182739661873234 0.2860907019473679 0.7264150413034588 0.09420788361343867
0.058136146296570865 0.27804790618707176 0.7316233529374943 0.059592707101093205
0.05974627760164128 0.257552235178399 0.7284690185490643 0.037786643259962976
0.062164639883552954 0.2669955882740485 0.7106369373089474 0.09289985758768995
0.06566946590893576 0.25212432936509277 0.7218107883905359 0.06935371256392173
0.06898337689922338 0.2309892188820506 0.7183293968780221 0.05632337265812181
0.08547944813505465 0.2128100672721157 0.7197167624759999 0.09214185489913512
0.09462962530788878 0.2047398186627731 0.7089833083525089 0.08796627609113837
0.09550994851181324 0.2037149339128952 0.7261006128874885 0.07695347159133395
0.10748242461691407 0.18687763299315152 0.7106029679145673 0.08402460255582384
0.11896077771439376 0.1685879026141292 0.7331937732222177 0.0477423289380876
0.13029072749156895 0.1591639583250903 0.7214781676144588 0.09867848648033645
0.1769609239712008 0.11303412378071297 0.7192545026663598 0.05346883266432036
0.18295682832869808 0.10998821251993983 0.7246679020466521 0.033132106930451044
0.2126031213833996 0.08586136729079845 0.7135569619133658 0.03698517739517974
0.19584491236256302 0.09517759505324704 0.6986858631484978 0.0013705940508661665
0.2240886713121065 0.0894319520538226 0.7326528987926675 0.06072130401021048
0.24463675136909727 0.06965189014796182 0.726508731538548 0.06025905355128659
0.25900037096050593 0.058453574056455314 0.703015628222432 6.47781977361536e-05
0.28867682506844183 0.05660179537896102 0.7315573123387378 0.010159273142807288
0.29871092939974897 0.0431774388100465 0.7325389963545934 0.005030199859774206
0.2867729551324586 0.03810453346522368 0.7120187437345806 0.01601599482813338
0.33110922504403295 0.02456231554100684 0.7012526057579331 
0.3525023055735464 0.01688947321684468 0.7275955931883914 0.030442953238614075
0.4165817304810405 0.007087682711571726 0.7308549164851318 0.03750778823191332
0.4343481376880767 -0.002976251057797849 0.7074155151888504 1.3264211453895362e-13
0.45790325084422207 0.0006813961806098512 0.7238267517056577 1.9035072309188185e-14
0.5118253407085268 0.004250041089601156 0.7274505572185938 0.0018879832524875218
0.5171571397900949 -0.004655416556556979 0.7160599262507027 
0.6127764249869915 0.00902186676696535 0.7143896295731743 0.010957623090723123
0.6448485107288008 0.02183545169431434 0.7091884509733125 -9.986256542421374e-15
0.715565087645832 0.046888319632913476 0.7291979289386585 0.08065868821733892
0.7497840573287081 0.06309411901055452 0.7192368787242931 0.15005792261779116
0.710444267694782 0.04575257528861242 0.704360543884448 0.05476743265259164
0.7688289746610498 0.07029408403449869 0.7299196583349905 0.08522279961279446
0.8020809008923052 0.09621226847256491 0.7016488206528964 0.043577881369928344
0.8304712070043504 0.12372901971545941 0.7343664535022665 0.027777423645599673
0.8470211891644795 0.13797448812813543 0.7307124805424967 0.042905117689688806
0.8367741628581145 0.13032839132922183 0.7063882506305048 0.037344991439925944
0.8551177182750763 0.14251422055207413 0.7194790842458405 0.035359660306265195
0.8595603959050184 0.1478180249167519 0.6979433853560384 0.07721537592777275
0.8841330241758569 0.18453125584665334 0.6935564569439848 0.0659105280284438
0.8642692514736765 0.14863546546035505 0.7100913726911375 0.038642676998269114
0.8856043221491362 0.1771055989786018 0.7159506544979937 0.07426221672948254
0.8807360880136793 0.1927954468546404 0.7294752919942308 0.07961487557572088
0.9059060073033346 0.2051620080117039 0.712269164305752 0.04570893880244112
0.9186528608533664 0.2210303941629475 0.7135526524996989 0.00314384379358658
0.9228086178659632 0.23107068968651118 0.7140702083265896 0.031649125403001174
0.9221004740173742 0.24188124358695207 0.7214292855415793 0.04771692316868457
0.9420771889681469 0.25559970890433964 0.7103971921609036 0.01908191810558975
0.9368544622077052 0.26894304084475956 0.7196031988483998 0.03440708523587335
0.9357715567101911 0.2730308953037235 0.7064685583018264 0.024473075328434412
0.9504148955427276 0.2947058248366866 0.7067546739612534 0.03691388860264627
0.9686614731556683 0.3117693233468287 0.7176431913688156 0.011384981497505902
0.9691842375393552 0.331743030543089 0.7059872427914174 0.023032184808822586
0.9872357608567014 0.35474716290296143 0.7230658693601719 0.03554785728440161
0.9981411022992962 0.3908674911531185 0.7133801846579483 0.05371028311083986
0.9904263241036411 0.40346325932912164 0.7190959125102994 0.05120406163421283
0.9866505846855975 0.36547479535906874 0.7020298654401741 0.0467650253807903
0.9829535359814767 0.38594225199834586 0.6994720437577009 0.05888869236851337
0.9921828492637523 0.39872832097991917 0.7221881385176862 0.053827323738638896
0.9883646678876151 0.39794775991469455 0.70250681255946 0.06521235316897325
0.9926188047527181 0.44149170637249996 0.7154744744694963 0.02396573313679342
0.990259642797783 0.4417463548853997 0.7066017554063158 0.025302848205359194
1.0030184608533865 0.4785817918787214 0.729901009939769 0.034880037797963455
0.9966830880173766 0.47279226774999 0.7175269945772507 0.052581154328091746
0.99897555668158 0.46634715602716603 0.7054442098198627 0.0346558083075783
0.996625731325044 0.46596858551211906 0.7267682346879051 0.04073496876777559
0.9996206432577206 0.45176190730187227 0.7102131488794883 0.024686067789814435
0.999001768692831 0.48204437579111775 0.7009333386021372 0.02682648708663688
1.0001525224407377 0.5173037726682546 0.7181161734371793 0.04426891453488793
1.0034469825241183 0.5164658123224389 0.7108714096505142 0.04242175158718119
0.9980404168145267 0.5046976614404285 0.7052973326712191 0.05533942890566077
0.9964179848390109 0.5311663965496861 0.6980067956133609 0.021572663721520523
0.9983383358356321 0.5464264357575671 0.7267971002145075 0.023149973475135963
0.994903961697353 0.5512785341648362 0.7229019507657695 0.03339925513926455
0.9931689054714837 0.5834951046706274 0.7196345030299344 0.03444397497377311
0.9915518787269403 0.5782671096250295 0.7130209810753423 0.036573258418662276
0.9937207138729669 0.5942195522605603 0.7186956061280978 0.060855419187638794
0.9944043520256932 0.5790169577897821 0.7040988926108441 0.01776090456407363
0.9988563371011616 0.5510410563136491 0.69970073666517 0.010342028338076036
0.9828100563670099 0.621984799829838 0.7230467746920037 0.07598777651799668
0.9893565537536295 0.6115519799041577 0.7192775891611617 0.042797667605930886
0.9678119120023059 0.6441255954830443 0.7332494828643781 0.06032989993757901
0.9766520650789048 0.6355588989859825 0.722583976958844 0.05548794235978548
0.9814628149345246 0.6221638459284714 0.705811732494144 0.047962731585195394
0.9857548995649366 0.6073962950799772 0.7060517310054488 0.052459151398409815
0.9767518932713845 0.6637837292134472 0.7171393340305737 0.025377611602768718
0.9626219358193858 0.6881741564449249 0.7189945408008991 0.0472416755534197
0.9680287843053652 0.6595191345811944 0.7236787869567085 0.0492793280911756
0.9774589338493981 0.6611391637665331 0.7076919839985659 0.025103432554051015
0.959154305515959 0.6909225731751074 0.7113719375259353 0.03713713173687606
0.9626515579551095 0.6837093795272831 0.7057489375445974 0.037046345047457796
0.9751596280871269 0.6641332761790503 0.695586925294625 0.01811795753914192
0.9516905237869714 0.7070627010469144 0.7288749862792697 0.09233566793259358
0.9356744074927874 0.7363389273642359 0.6955022451336101 0.05997789535838519
0.9470448339167294 0.7120900359657348 0.6988723623413485 0.016388243990622497
0.9430464877645134 0.7442965286009524 0.7182627652472233 0.08993384440496212
0.9346987056271795 0.7589628889791946 0.7229671255317488 0.0794086554267723
0.9199432611119909 0.7818508899687919 0.728144993619476 0.0962083018288692
0.9346357880686005 0.7631454715963887 0.7041245074045402 0.09039059675568413
0.909661499714789 0.7942845474186949 0.738193827929247 0.053097508444219454
0.9068702186135705 0.7952121422132367 0.709192019879913 0.007568376960089973
0.8872209203392953 0.8154180259119138 0.704082292651034 0.05384995414101952
0.8611546224597361 0.8467417624401873 0.720240850092921 0.06156204715308716
0.8668773548320304 0.8430059043976964 0.7175864014516945 0.042252733755396746
0.8874029291510602 0.8213277059820548 0.7170258810277573 0.033799548122807006
0.30029745420725373 0.04181159357615774 0.690194359084509 
0.03295649343986105 0.38770511122795087 0.6891873447622356 0.0005279444911384058
0.6424928971984701 0.0232630999634026 0.6985716925222 9.139054987280551e-15
0.7473359496422537 0.07015652022083489 0.6962709125381399 
0.9417915500047292 0.2562064724019809 0.700194421920553 0.023569634294718922
0.9720085638820414 0.31605933641123346 0.6988592200734508 0.036923894675772624
0.9827345625673715 0.35545002302490364 0.7026244290348925 0.06561097565525725
0.9894558201181017 0.41217397966816155 0.6992692481615393 0.05496611507105697
0.9875158772269061 0.5916911439915038 0.7012803167863207 0.026086739934684654
0.9975779336478764 0.45667621186619195 0.697176457975935 0.03620712500959633
0.9785693521936292 0.6341789809171828 0.7032259454048101 0.01436328310650857
0.9961998611793631 0.4694131833892844 0.696790108367647 0.03645190971783552
0.985641058903156 0.4330679980068927 0.7001355062735595 0.01366816741558795
0.6980475937178551 0.04083390041361473 0.7086531993733345 4.515191947173735e-14
0.7883538149813036 0.08532096059486742 0.7048796497643469 0.030820731119785474
0.8105768144497557 0.1097196307271651 0.7081563886076 0.03698570344670501
0.9006078804072831 0.2035161527065722 0.7152423528570846 0.046167234859731156
0.8902472564394687 0.19129424703403988 0.6949267431862779 0.059865295181138235
0.954246341338273 0.300427785804568 0.7010076401002052 0.02972443711189441
0.9987379671141212 0.4643891438371797 0.7022040024317173 0.04330861436493273
0.9829537580336639 0.6380342565445194 0.6981698629509127 0.01571291427836169
0.9903696878849091 0.5208017076538735 0.6888306075559659 0.00928546270814657
0.9870998037957063 0.6034477413645442 0.702297141195054 0.05774466984635419
0.987572520388597 0.5723501701483344 0.6969236003782776 0.016334822659299492
0.27247283814763157 0.9464730605067057 0.7040138192970468 0.013692473230956027
0.5858396203073485 0.9778580009256032 0.6978693727344958 0.2058570566709844
0.7895415909587586 0.9075898448260806 0.7006602995724867 0.007893515618552225
0.7725866710925764 0.92006918211964 0.693136859470334 0.010104757229163748
0.8902404218614841 0.8067639316922081 0.7020999786046347 0.08349104243387899
0.5119658955039273 0.9979648752260246 0.6887008540117592 0.027580016509447115
0.6927716397266568 0.9537480808020291 0.6940166197660605 0.014283566269937297
0.5549144839171172 0.9825428485028722 0.6969662301797644 0.1137213345633558
0.6205687012700484 0.9798605270358861 0.6939096020100756 0.05195694133967704
0.5933153164760621 0.9842442795168107 0.7019567679197267 0.16843676753018189
0.6615283583532012 0.9696668106995052 0.7094000456699964 0.016471838898456877
0.6860074685815947 0.965221015962091 0.7077130430016244 0.03171058629663897
0.8314523101527189 0.878746060091234 0.7053485362143272 0.028175983598456585
0.8434247999205458 0.8576012355942114 0.6981401720226352 0.007043611007003639
0.4063929927820646 0.9829945934113835 0.6948344656622312 0.02855103245768881
0.4467222039766356 0.9946239788297487 0.7031481208018869 0.03198935780410732
0.457116948720662 1.0015824245089275 0.6931100917781048 0.05997510239385279
0.32028034649202247 0.9688860814836504 0.7067498939391996 0.02482024949070991
0.4807380359073065 0.996232383104222 0.7025254437977159 0.04817980634663189
0.42825167942465947 1.0037236534350567 0.7048999703097657 0.036964763122182394
0.31576509567459127 0.9734436645006197 0.6958651338732204 0.008742546387670717
0.3335224742156119 0.988784375537246 0.6997712863418093 0.004755821133756123
0.23876681662430788 0.9404414765812104 0.7072999592922952 0.004401034497757623
0.03628141124404819 0.32179027243788105 0.6999854141035738 0.045273076992189916
0.027680532533501404 0.35485794319713326 0.7050867950889713 0.156617387323082
0.03646245229286015 0.3502441040235737 0.6957843293690626 0.10800845787795736
0.06366583822664483 0.29490857821368055 0.6908951869326891 0.04399250268107766
0.004238090627675722 0.4554500508283019 0.6949427430263504 0.04893685510676046
0.006220745060852028 0.49843735351927004 0.7080885125429582 0.06648046461415283
0.0012250813849244294 0.4424600057964179 0.6915903469643859 0.07242507436306181
0.00919335782641178 0.5528300429351807 0.6970556686114786 0.023884056963918283
0.016115613195602386 0.6067137374724381 0.6970771179316781 0.038971376421733595
0.009147092675911326 0.4791666224438191 0.700603685251118 0.03262691770328457
0.01654620040801664 0.5642769305363382 0.6930945496899015 0.006761896259602329
0.043550565276471505 0.28380084325373306 0.7037839527766201 0.04048693135435726
0.08010470522487013 0.23514935261361808 0.700666578162236 0.0658387209543086
0.14769502103816437 0.14481497592776704 0.7045159740283167 -3.952000486431247e-15
0.10839434560021766 0.19919795446196825 0.6969247776859376 0.0019543615929909384
0.24554703353549734 0.06829981664754611 0.709976609192741 0.007370304924495721
0.08459271124001477 0.2215881720910566 0.6999031072835667 0.011758317184011812
0.12020965566710842 0.1713533101031267 0.6960259028442712 0.0029252287631051283
0.096330092980098 0.7851224811863532 0.6971660486986605 0.01161667928503407
0.03825164186511898 0.6672768254825314 0.695522146171874 0.0002833668937605586
0.03803553192944883 0.6889769534225373 0.7052593633279903 0.05736196470109894
0.05110655903714392 0.7160225759405726 0.6918230215709349 0.00865495927386827
0.07427981305661693 0.7559342909003677 0.6922847339712074 0.00617317776008154
0.14602186760326188 0.8496674863382381 0.701675967862684 0.004483625603777614
0.1735560369502688 0.8735891889614473 0.7019241358825862 0.019685095054438325
0.3566053595592068 0.015704319946692503 0.733649330352283 1.2731778302886848e-13
0.3277253691977011 0.04183770833938109 0.7373224883641408 0.00782562295007335
0.19114184579768267 0.2172553342741929 0.7368830742276593 
0.16477103465084528 0.2149560444506524 0.7365303247257879 -9.06576571194791e-15
0.3191969202190436 0.04865325896613748 0.7374069682874788 0.0007993072803320081
0.12710541192187425 0.2593859463285401 0.7360648311174247 -4.4138302165927505e-14
0.24571625023567722 0.14595025417971388 0.7325104443311602 -1.4647895491167132e-13
0.04047950306209808 0.36191544830973826 0.7289125277406512 0.13970167130988392
0.2772628739253801 0.1308125882733095 0.7313736972434839 
0.2637908585808727 0.05631057505625832 0.7290002007058397 0.01673203933953045
0.33212047349781487 0.07989826975591008 0.732281462307146 0.00011700316053926484
0.23298770998310053 0.15730888166396823 0.7306839926533532 1.5868965987262326e-13
0.2325640614027605 0.17246963389645195 0.7304314015050996 3.4058434252570126e-05
0.050347282759921154 0.34430951110312413 0.7306488913002323 0.14251557405252913
0.23739891675619765 0.10213105411632353 0.7323868513547189 0.0007059103378276784
0.49660361387747826 0.003741141605748354 0.7279459436549616 0.004914436670892593
0.3652161397831556 0.08863252792794381 0.7325997651557409 0.0001733563868364625
0.3733643273202651 0.0942898944440667 0.7342198160643721 8.032223602041842e-14
0.4310743746153812 0.008996848420825928 0.7326288289275262 0.05507771638247266
0.39048724603367185 0.03879539915245667 0.735232329525857 
