x y z curv
2.252449107027611 1.1442667550697385 0.7576974185305098 0.010648662960080314
1.8680857401148117 1.1792537106223235 0.7555801190005869 0.0006705229776963256
2.2507788357468015 0.8824471041840724 0.7575002857765193 
2.3252654871395184 0.7626511123866643 0.7544478955832691 -1.9159341459489736e-14
2.489346474067059 0.32458809550919354 0.7570036460647868 0.0026369301068468686
2.2621956418426556 1.3835589455618291 0.7562765562592191 0.1497014394920924
1.760684239822943 1.0585016156130804 0.754895433066186 6.283073208401977e-06
1.7319663264454626 1.1554817667840527 0.7529216481697455 0.0011546530283321063
2.6893189158294484 0.7286268301928945 0.7524947145257364 0.0008063673930182062
2.724607377650349 0.4216741544407879 0.7582674203589547 0.0006940349428650382
2.4887368818654614 0.7877690953644254 0.7529246039940074 0.0020698452899477527
2.329223925507703 1.152495783997215 0.7565341079694291 0.0015777596674751123
2.683137821638687 1.2759298297936066 0.7611719700168963 0.0024741746267681326
2.7873581280681496 0.26211204098201674 0.7564325419394444 0.0913978755959256
2.6645229919019493 0.9463121882767707 0.7577926632617296 0.0008765787160076288
1.6088640488835886 1.2386900007223953 0.7536525543653717 0.0008781527508140539
2.6911819795557506 0.8163424391215848 0.7587430786121528 
2.291743476001684 0.722834438728801 0.7565104886559351 
1.678205097072285 1.1855192670512795 0.7536914852035917 0.0020200006587301183
2.2983684331061816 1.2410921951694067 0.7559513799673101 9.989009747384778e-05
2.4287916472179485 1.2650441327217365 0.7562839868752899 0.0006572258543300097
2.7683354945653824 0.04286545598735203 0.7553747505018125 0.07100322579815987
2.6574370614768608 0.9118231675772879 0.7522784703480916 0.006072568658135515
2.4068002671137543 0.6616701387986584 0.7557156181645712 0.00311460728182716
2.751816216207689 1.0588982515690144 0.7541009101881209 0.01641512455049737
2.4992505194410204 0.39708361565226746 0.7569635147060009 0.0013762600624378939
2.734724726158309 0.6936530674536286 0.7556897365081043 0.0010315572987826165
2.65610338897498 0.15522222472601457 0.7586589580233599 4.460289468677365e-13
1.6924686221775935 1.1172714126644374 0.7545601300060197 0.0012132031422532503
2.6308897798566173 0.3053085103769878 0.753590412504565 1.6758238655645044e-06
2.289151979828295 1.3825901843179609 0.751035518511131 0.12364484911124482
2.7698564251703437 0.028900840660404322 0.7551327612541929 0.06755443669228288
2.738916353311227 0.16983834978406553 0.7550400804926339 1.2787862185113892e-05
2.6158878943598305 1.1581202987774006 0.755317079335933 0.0019314609034838319
1.9457818339190094 1.3913729986702557 0.7515297303779765 0.10724911481778673
2.7931065413227043 0.8167984596059804 0.7587539353249044 0.07501144394691654
2.479354724342061 0.8961530648673415 0.7632683045424602 0.0006726465953908912
2.432739374949195 0.562560196940117 0.7517470416269911 0.0009276393667751121
2.4872722828715355 0.7191552982118937 0.7576544650412869 0.004412009483617572
2.5841395216031007 1.2404748615949353 0.75651257444297 0.0007647236692249326
2.767468031028713 0.8937792225101301 0.7523787971967436 0.17819555549458935
2.789446721458068 0.8193009337773396 0.7550922662174671 0.09561593900580291
1.9104243294962173 1.337760187179029 0.7539505286743585 0.004076778647725021
2.586371949440705 1.3017173419574835 0.756019932230958 0.00014719451325996425
1.9802619300463233 1.1183040713797745 0.7530271341839855 0.0014098737040116609
2.4687502281760616 0.49545956876889957 0.7608306596953411 0.002823486960107147
2.618672792342715 1.2356057275795354 0.7512953169851415 0.0031753911990292025
2.62942167557458 0.9694007008669648 0.7558693290509139 1.0713553420926105e-13
2.7453908581701567 1.3940598252515606 0.7535040169732281 0.12876708131635195
2.6492189668792063 0.9928320958779386 0.7529645137266131 9.642927327972745e-14
2.1066290068765725 1.1235941059524377 0.7517361501877412 -8.940953432109625e-14
2.224136248173026 1.3909395955026647 0.7512046514908458 0.032236764646572734
1.7385331132685757 1.3643291326839924 0.7557874760092054 0.037067753393495065
1.599454462704029 1.3565034081663399 0.7512381524106749 0.07742373763392439
1.9022804410138419 1.2234523562320032 0.7532096614732716 0.0014774079883026932
1.8098441902366045 1.0430053632368432 0.7544561837402746 0.0018702167604655814
2.127196326883346 0.8752901976845097 0.7554263714134504 0.0038342191148333783
1.9207244583012875 1.1114306610063427 0.7566138041345731 0.004271635299905097
1.8364687506829847 1.3239605675857125 0.7544260250095853 0.0035760726103077696
2.7978535851637667 0.23718614747979377 0.744605539207931 0.08736142791995463
2.681574346992288 0.2084030895640442 0.7567432591557582 0.00016041206923890546
2.147062370575392 0.8392458460446748 0.7548485682702624 0.0011076181366693283
2.082721073406267 1.3828737880672468 0.7506534381221002 0.051304334403057344
2.3536460493926046 1.1486761773605285 0.7579453848431206 0.0018058611159730194
2.425910948002183 0.8306965865197603 0.7580732728220373 0.002798677263960953
2.2599826541075956 0.9803445551578307 0.7548645345029834 0.0014924969647727698
2.1344169098854135 1.3775840408640068 0.7485978155663162 0.043653876598769056
2.42147295233127 1.385143298895444 0.7505799021046634 0.09835474568685475
1.8984438429059671 1.2587282958196873 0.7519228407163151 0.0019640078236744614
1.9644516750073076 1.3099710567566538 0.7528016129227372 0.0015740819826208245
2.0737181856774973 1.3720271862215383 0.7526949958074387 0.06052893641378826
2.2540734978011163 0.9498580313886398 0.7574117554364501 0.0012325081877570998
2.7229061287669243 0.8503507067664144 0.7527508345120051 0.0035142412543025282
2.4798378644800714 0.5936530363157734 0.7559423979824665 5.097924503748431e-05
2.516069667626017 0.3113755658387566 0.7540524586302708 0.0016308861862932515
2.1126727257380775 0.8328374861220778 0.7545973324964486 0.002564806362343172
2.4248286366947673 1.029561846218888 0.7563424319853771 3.037734497528327e-13
2.4442284781824 0.6580565426796157 0.7515766358583645 0.0002618007746042834
2.4503748182776617 1.181277858841829 0.7542942872873472 
2.70994452945063 0.1387898176613619 0.7525989367137226 0.005719710564015689
2.6468797353357916 0.6247732749574756 0.7553727657794367 0.0014066055396184992
2.652470867939173 1.2981734750798155 0.757568263526745 0.001830316378317885
2.4466936735746576 0.9011151954149632 0.7583887628541318 -1.1099621360345741e-13
1.8043967940338086 1.2494317359715565 0.7626413433668614 0.0016792243014649543
2.3512449400763127 1.3926026093072421 0.7535862120264509 0.09350377382496729
2.5238191711818443 1.1218559932905503 0.7564096494938053 0.0006756285445194833
2.1659474882022987 0.6550161442603207 0.7592708479989263 0.005578332882476768
1.970218544761544 1.396793511362539 0.7482942403368167 0.07519865979783398
1.9903225664697577 1.1407277813207213 0.7552622428643156 -5.957929407879078e-14
2.0868655634528355 1.3421185076299715 0.7599477821084354 
2.2697644939357295 0.9449673109833764 0.7535289510399986 0.00028779691945180256
2.7548713511455003 0.5615808879942835 0.7568744445628368 0.0056375257854416085
2.4757326219768157 1.1466677798615759 0.764825280097904 0.0001949806117825588
1.775520188201401 1.357875881152155 0.7485544839551355 0.009968157787629862
1.7439408389714608 1.2310503971183047 0.7603060602565724 
2.7310857865366667 0.5016622189297687 0.7557601133107326 0.0006099410197967952
2.213514696384201 1.170711351309509 0.7542752206325344 0.0007221849643467853
2.50056245287363 0.9883554888465965 0.759672396545191 -1.5427040364198237e-12
2.724716023146551 0.4023705091455747 0.7528674194854754 0.007268526018554606
2.306367355004967 0.5312337725540972 0.7589301420228318 0.006299580107183564
1.9392407339542597 0.8587271657447593 0.7557204827245506 -5.804741952622294e-14
2.0483712440123996 1.3709792792208528 0.7565442866899771 0.04502739114848459
2.7716417601096435 0.3019706315030206 0.7600868330297482 0.05596365404617853
2.4685140182204695 0.9770013679065858 0.7559517572695331 0.004547722524924873
2.223356929301784 0.6874675385007626 0.7554020947095054 0.0006885072815499153
1.6953623200496464 1.341690467131402 0.7538379449917162 0.011320539083764325
2.735951430813758 0.9879835539467163 0.7541518667336703 0.019449310375688977
2.019701505316987 0.9385399116897115 0.7574034054309761 1.5430847892243874e-13
2.324303254900654 0.5559896749655125 0.7558455720066675 
2.7774941577829177 0.6707032634967058 0.7548307378038016 0.12239635922110835
2.783000742735111 0.8695661093082903 0.7553132885075458 0.08581042169828786
2.7841848911976936 0.9628758587915361 0.7498208845075776 0.10569714308564292
2.7442473540180408 0.39200084209212316 0.7549279572305111 0.0071975513700277
2.619462631111701 1.0384626623900564 0.7552422937187234 0.0022974440618116106
2.563081729387975 1.0060735628605861 0.7604761233948814 0.003036593755028408
2.750038052526088 0.3530314032234902 0.7527883610593836 0.007460733309636115
2.5212974296195254 1.320198968789991 0.7587294603414313 0.0005953156729616971
2.785796633368535 0.7562540228388793 0.7520208529680759 0.09062754221083831
2.0213782823111632 1.3702474998825416 0.7512091132353653 0.04457962441165501
1.9210103884084757 1.260572476336804 0.759310792588688 0.002267252715194245
2.5675197215479626 0.9784002331129635 0.7596602312634732 0.009777573968226923
1.8926858775295847 0.9845208608704468 0.7583939018476876 -6.278997405000007e-14
2.3132190323869444 0.6379066539235362 0.7588299308247797 5.97957680862288e-05
2.487344592901172 0.6476257129416026 0.7536854224414398 -9.700585115725863e-14
2.6189459584134633 1.2739044207397143 0.7566712347257912 0.004947728904153396
2.3942970556702514 0.4140077229106823 0.7544438074577958 0.0005205210937033761
2.344876053483303 0.5052795077270269 0.753806788686014 0.003685014040017407
1.7224589891457052 1.3464799744561637 0.7580064475241897 0.011810187304615354
2.8025795080253006 0.6818489875466933 0.7539380280095715 0.07455403551402662
1.9931107440846443 1.058150845578157 0.7535316661316002 0.0024901152148801074
2.5974104007735472 1.296935993045438 0.7546981947642931 0.005337297398805749
2.5640811754025443 0.3855067482164879 0.7566098616537198 0.0003681702729039361
2.354905109064806 0.5139385689543391 0.7534410445000157 0.009201075146067618
2.0449415274154856 0.9655799408789514 0.7587481626797696 0.0031685807084377597
2.7316713156847325 0.8568419634509158 0.7534375412688901 0.003060124344596801
2.3987599212879434 0.514397013719097 0.754243500319359 0.0004779755005919566
2.083647319906959 1.0625904252991056 0.7581956623078916 0.004704820361572858
2.530531884087776 1.2215938632701246 0.7665034124401541 0.0026564766341965343
2.7108950967413077 0.4599656702711171 0.7611949245703193 9.810640304786986e-05
2.3667036354703512 0.6920000755016871 0.755185968886708 0.0048331345505653505
2.6464485456196094 0.6921741080188039 0.7556269384583247 0.0016871813361908929
1.7125541429350175 1.2041143054397774 0.7547118297501733 0.0008025638112778206
2.058312641537885 1.0674255186054553 0.7598930961063568 0.011471257753684056
1.4501770201967452 1.394257621329157 0.749517281345169 0.056665366801455126
2.461940806517564 1.2414912895269652 0.7552745472473092 
1.5570642552188763 1.3833451249636104 0.7455654104031769 0.10671739648334562
2.3108015152629617 1.181895138436999 0.75719455125528 0.0015957999727571818
1.7424612264795705 1.1820616024424795 0.7548256112277513 5.060249905868979e-05
2.157468012306399 0.6634469614577778 0.7557751373515428 0.003941182806631771
2.634234970712716 1.1559755014975925 0.7564490438842533 0.0025538835354141326
2.229772860939832 0.8202161049188429 0.7562406229341148 0.000817262888323808
1.9153254523155174 0.9394203356647151 0.7622530837430344 0.0017863416508925468
2.2053817151901822 1.260284909711099 0.7523648095769855 0.0016953138535480855
2.6163467142796044 0.6807798137250872 0.7563592850399706 0.0023809391982751492
2.7101280293813272 0.15697386323595997 0.7526335678874256 0.004562164875288455
2.3899067870368498 1.3614240262273878 0.753853218755204 0.0635664603667229
2.6525484542235467 1.1941911145313333 0.7556528890131814 0.013585315207282046
2.49389330151181 1.3070434940555726 0.7592271411675896 0.00033769453902814285
2.7273018136009037 0.34525393434126705 0.7541723107166198 0.010681887115964185
1.837047304366725 1.1925846685893167 0.7592363378008516 0.0027044496665191093
2.6794071773952512 1.0430178764353772 0.7544030179107265 2.7621319178772126e-13
2.776494055561399 0.21432200212548408 0.7480600390102456 0.1467585042580875
2.6188493903529797 0.7081216922499809 0.763473655940994 0.005668774257372535
2.7516461419110043 0.23203760539915042 0.7542531972921765 0.008080867065356356
2.242234228680955 0.8441721045744804 0.7556111713834923 0.0005844185897954094
2.6478284443186584 0.27818156067652927 0.7583339269539372 0.0033187001018837054
2.5346327276284275 0.4043197224853781 0.7552903541406076 0.0006850013015615036
2.6053663414110133 0.2920606497299813 0.757510764436227 1.1882633146314695e-13
2.586794083400441 0.9571655569802685 0.7543991902925071 0.0009411662574698094
2.7584404877970052 0.611524071670145 0.7545590199720447 0.010431011904367725
2.519702749504929 1.0579829516846901 0.7543843465544177 0.0030080140885129477
2.328598640915915 0.8237161355105861 0.7528401459596309 8.098424597785697e-14
2.6476334344025916 0.42128930930028075 0.7539864462216288 0.0025158551773568913
2.442761991913074 0.868674687981141 0.7550182561653931 0.008303099670820675
2.2838156788606097 1.0178054899529188 0.7575337802059734 3.010482435940615e-14
1.7146793903291848 1.3296813501161184 0.7563148631360737 0.01320437182357672
1.6135811889071547 1.3316649164015268 0.7524897248903454 0.004491437582122348
1.647417859019451 1.1620089007686634 0.7557916610832799 0.005715678297542282
2.57593396914753 0.7565556242989323 0.7487031497046205 0.006300021477159617
2.603291260808018 0.41818188793220057 0.7546684540964667 5.162261711119198e-05
2.224584508616501 1.1009075545172933 0.7534424493312658 0.009625708834404069
2.3619885807361465 1.1868367126016686 0.7543686957887039 0.006337921353709361
2.69798353531962 1.0278989970214336 0.7563364993274299 0.002828323979672575
2.4093849957034226 0.47451298603577596 0.7523898782526547 1.399879354959231e-13
2.107426851500918 1.377669758932241 0.7639070861668456 0.018641294987415073
2.5216988913830343 0.8051057805645675 0.7531755147572511 0.00028384723220339485
1.8289254540775637 1.3734878090336347 0.7486806539774506 0.11983722417589371
2.5430329362934168 1.2623720326199415 0.7539572516920354 0.0027289337796135033
2.7582004426256725 0.21701261593557525 0.760407020925654 0.0032186557373824476
2.774760632919484 1.234883278103959 0.758801064764929 0.053290953051613854
2.3843951590202375 0.5713266655920258 0.7598472415488192 1.5665937596804893e-05
2.7793874018817406 0.04187405740606516 0.7540670963255965 0.09190572911325223
2.7598940053587193 0.7427317504183263 0.7509029242234784 0.06298516722689576
1.988130472134796 1.3498539789891013 0.748565924209916 0.0030453955097173545
1.639242997182331 1.178592057083228 0.753373777909034 0.003984049856120174
2.7648517120666347 1.2627198523782637 0.7491540734197751 0.061050893193006536
2.077778863452612 0.7456288007689249 0.7542415783468756 0.003572512926657815
1.820934924522305 1.0665186676931842 0.7558843424884244 0.005427139200454474
2.3735162073619374 1.3962038148397697 0.7485749835134634 0.09270463405855717
1.9825368340017513 1.1677765835679428 0.7564944918705595 1.1308352296073642e-05
2.727944093194328 0.6596772889213307 0.7530155514148581 0.004727297352295951
2.182265550642013 0.9759969819060106 0.7555542782201694 0.00036783044158551173
2.3857197864364585 1.2026069456469524 0.7543896355635273 0.0033873736876243845
2.4170329707145775 0.6156080462583168 0.7543139657753988 
1.949527487897549 1.3576141680387954 0.7555902597717736 0.0052420060010429665
2.051520402079589 0.8773124571902325 0.7590325586857135 -7.213066469099399e-14
2.2019565246438497 0.8687608353657208 0.75606175759407 -1.5440933914958274e-14
2.482099624835767 0.49344472919112564 0.7590986439415637 0.006820439245893848
1.9037132713102924 1.3193529896545917 0.7548625383326902 0.007321857317478432
2.230450397214526 0.9015108365447456 0.7541847066088506 
2.516247866471514 0.8657826622461905 0.7570517609543514 0.008565534952837493
2.76066380519355 0.8153934645940866 0.7583991527152034 0.00800201276155343
2.779185579621273 0.575069115752862 0.7484223063369342 0.10916379472794373
2.320364525797857 1.2052124230668213 0.7573034442822926 6.820015913644148e-14
2.2524424137784473 0.7587684574930227 0.7578953188201014 2.344845555732871e-13
2.7565574304246967 0.3627506369354037 0.7508368292865104 0.046368840383291574
1.7296166967971522 1.1020388677458854 0.7562162702599479 
1.8711507761062804 1.0446879700355938 0.7559501598005638 0.00029707881109777883
2.138817614599805 1.2750390382164312 0.761020935447339 0.00057812286792902
2.06348730759042 1.0207250657859912 0.7550834039012344 
2.665720283377989 1.1908168754651316 0.7607274809749982 0.002338309007711861
2.036183972023575 0.9815038043908153 0.7613325474677544 1.5029934344923377e-13
2.402362645496546 0.7951659920121166 0.7545101972047041 4.940242105486708e-05
1.4925960390221347 1.3358328932150547 0.751249757905224 0.004109243953531521
2.677518543561876 0.24442246675280377 0.754205490651121 0.002088886015892495
1.8154729908357332 1.2838105759312937 0.7526420605042256 0.004607431576293378
2.736044380972401 1.3917586369650963 0.7466960245448686 0.09204015230188846
2.6813565548187417 1.1265742127706677 0.7634651955740945 0.0027285177030003794
1.908519595886707 0.9070916198335707 0.756049156707414 1.3984269429303657e-06
2.6148794975486442 1.140785955877489 0.7537656233351906 0.00043179843950029147
2.59399804557033 0.3640499863535582 0.7588804395059926 0.0009965106576723638
1.6408316500167408 1.284250680853947 0.757330721792274 0.0007730558276640453
1.8129430271463853 1.2266712021195254 0.7574291997102534 0.012291965328983866
2.1929177638352932 0.9299427271650587 0.7541284086450194 0.002470997212603072
2.603037696550897 0.8145052434008233 0.7572787053063269 0.0003337166896763142
2.7841010560495603 0.39231111400347196 0.7552368640220106 0.07649758680329878
2.2628784346025976 0.667698135668597 0.7567238770518756 -7.624625111247615e-13
2.6888290862760265 1.164433244588882 0.7570232256370704 0.013424175796957646
1.552824214726658 1.2757537696494605 0.7498958085490111 0.003545713024592185
2.7815582547379933 0.6583036320142349 0.7444442251845287 0.11864648537709686
1.6957669220613263 1.3719434123182088 0.7484322051053844 0.03934665850338882
2.433545592750041 0.7808896184933816 0.7563281140065935 0.0010426566067900129
2.167199902981675 0.6968776151220063 0.7545961400532819 0.002352338188761345
2.3188317536147705 0.9099700093469587 0.7566634359121048 0.0002755583111026717
2.6014910986395363 1.0240983124764595 0.7515677590697966 0.003960702187345811
2.625716165616728 1.0302647022637903 0.7517221064858354 0.0024851523099322626
2.7933396817545457 0.5229616070646693 0.7604918160859743 0.0686096332421246
2.1744349737019304 1.3882225638598646 0.754154382283516 0.07840279539834279
1.6080022840299455 1.2774294489698272 0.751884135508769 0.008111684579765164
2.7102036919619583 0.8590960778140606 0.7544563517613216 0.0023674766323109287
1.6063352470199914 1.3824419489947002 0.7516019061108438 0.1209318578552896
2.0129029090685573 1.3698346578111624 0.7476982284451883 0.03993199416820012
2.500145530398178 0.8205223510410355 0.7499069930896554 0.0025406197315301143
2.6896124123564458 1.1529265296957012 0.7536877934424104 0.008454166062117954
2.4706490284958122 1.1055723523924088 0.7581217479421357 0.0035205681519864967
2.0348970040597694 1.3846610101030838 0.7461971160296662 0.04850148724148
2.155879928975046 1.324134417697832 0.7546572510687338 1.0364351542332919e-05
2.5768155272648285 1.3405835191697884 0.752490373865795 0.004328291224866768
1.9262386377614713 1.375060359487158 0.7493138584409691 0.05733126779657299
2.7037105495355367 0.5073444074563328 0.751965132050592 0.003000135551781009
2.785681070394408 0.9472917786171278 0.75210826014143 0.08851883710283222
2.035209908264161 0.8083054905903068 0.7565400010491535 0.0025959309997902096
1.8447902542188177 1.224308007626893 0.7579216971305218 0.0006051105256676828
2.6798454944348076 0.4225141889910758 0.7552366911456876 0.0024082980607435128
2.7083893488512345 0.10422323360680037 0.751495627481996 0.003422610847116265
2.7900227507498334 0.3665035560918399 0.7466985915506361 0.10903184424194558
2.446340741936396 0.7325550625429248 0.7518171265869691 0.001149955800958595
2.2352035870911333 1.3939477528588338 0.7445580988079994 0.09290740375824243
2.7914447569292316 1.0330273131761285 0.7478934395924224 0.11741547959408373
2.756016889248001 1.2703232934917987 0.7597389392870303 0.008468542992942371
2.7053424721116253 0.347200627307047 0.7582308367549038 0.007748408608904825
1.9698446181567861 1.3837154181976605 0.7511217285632769 0.0750856765321994
1.764623255177051 1.0773803452200004 0.7567708891408222 0.0025186286297908165
2.5128217054285598 1.1568598921950937 0.7532497697116577 0.0027010863538480105
2.493199408608672 1.0963126678131896 0.7567197762247062 0.0037787855645913917
2.387229024356641 0.4293650147912755 0.7512673427720054 4.240097974167727e-07
2.099287751728214 1.1963110205573388 0.7589241237021042 0.004845445702611228
2.3939778323409633 1.1417533185798283 0.7536817564562848 4.804070889802729e-06
2.301277225948736 1.3881819090040202 0.7587515864105435 0.09304728525382244
2.1976826487421723 1.195679901959449 0.7541429729166744 0.0006149221240561496
2.0091196415742454 1.2287923971290289 0.7555964497385678 0.0016250300379018064
2.553579584064006 0.7838859107923005 0.7538341303473662 0.002170235934283125
2.244510783388052 0.6558310491224376 0.7580290370339169 0.0010450013103518669
2.0617672699985374 1.2032819154173156 0.7532108570773812 0.0017036003232448515
1.8871876662279459 1.1747467058273067 0.755580239962269 3.7218911398909933e-13
2.781860079795331 1.030948594292063 0.7474518431292174 0.1970079941171524
2.476481615954129 0.6539515976280972 0.7527264644958509 0.009871353242027843
2.6857403835298737 0.8727211760005285 0.7522945870041958 0.003437597872896638
2.7743391208489663 1.3727430485417658 0.752783703066602 0.11693085028178091
2.6028253509183634 1.1914484146966484 0.7568592875964849 0.0024315738116390834
1.9904009074211397 1.304648798060372 0.7531344288982404 0.0012075483191024412
2.29261194575138 1.333958122648249 0.7547773924853541 0.0011969113684648632
1.6413657217624136 1.3982948639959358 0.7570264663416365 0.07256619009163319
1.6550201388494514 1.3202551243006644 0.7564198198361751 0.003164120075222043
2.734538697521909 0.5937169023443043 0.7556197811816455 0.016109088678399858
2.086026311521078 1.085236091691066 0.7559105217968263 0.004045417159466459
2.5934996053063917 0.5283761390563911 0.7627494857604479 7.173981205789077e-14
1.8272737511830865 1.323777145067738 0.7560983524260932 0.003677219526993699
2.7884591151292946 1.1219930221343033 0.7458696575708695 0.12598197118451984
2.781239150790756 0.9409067790065616 0.7517060081107378 0.08294254751935873
1.5994763325469799 1.2195162952307355 0.7541377198997001 0.0007001353606595137
2.050434088271138 1.306370679588038 0.7544719122518745 0.004980368684329023
1.5283005676544037 1.3778512224931823 0.752602665877056 0.09171767610254475
2.6389024577645936 0.5362969716688152 0.7517573952510155 0.018215362357145378
2.6788529413936306 0.6508142466324492 0.7539143345085985 0.00022953395055702453
2.616207138147527 1.2568101958684967 0.7517179586266365 0.002509581675093596
2.068746205766189 0.9362723510458062 0.7597041955542261 -1.2883765121364082e-14
2.6808354626856414 1.378884776318656 0.7543433851571838 0.08166237973611042
1.6240900248166987 1.2276059111136564 0.7556562487721392 0.0010250227930656127
1.8240307335505066 1.2523531654697955 0.7543573046167203 0.006449870658709826
1.9938892215146358 1.2900897665754405 0.753834480844123 0.005927502557419738
2.286822914911063 0.805815105915881 0.7555304046303015 2.848976442809159e-14
2.734156258365114 0.8310812001937182 0.7503922614752014 0.004299731015201494
1.9856645669694433 1.1930442754022077 0.75883517551569 0.0007980433910698605
1.7249613370205898 1.102475121874554 0.7574289523149432 0.003839177481352855
2.5796414247901795 1.385971777937004 0.7533034864868181 0.07914974938756807
1.8341764677914427 1.1159628548990022 0.7549719050745899 0.002023226449920631
2.5575163615289425 0.7397626211721151 0.7569136660809299 0.008210620810828866
2.2492459230213715 0.939254105732743 0.756689387775925 0.002313308914464632
2.1436494224386067 0.9897539429881735 0.7546802633369557 0.0012163383199930015
1.9699095136584344 1.0178614409283662 0.7551513093328941 2.6319007922021844e-13
2.568262489262382 1.0362861621821178 0.7557333007992192 0.011233215299322979
2.576212036470126 1.0926954766681412 0.7564306370558166 0.0024984112037439174
1.8668535249826113 1.3002198007956691 0.7541227093291312 0.0027809181535323386
1.7173693253591122 1.3144025893601854 0.7685752866599187 0.0007273075202064385
2.150493344931365 0.7719479971201473 0.7567239462404178 8.859053525769369e-06
2.359339495338155 1.1743768820578826 0.7568317217945154 0.00025150908876926426
2.6156826808428733 0.5438036171485636 0.7541640908724293 0.0011692045627927255
2.215530096461389 1.2951180553641126 0.7531418579384513 0.0034715110064954076
2.581479085438727 0.40001834053790675 0.7561895738005929 2.5539453573612216e-05
2.339150392786607 1.355250192317254 0.7543952137677263 0.00270526077953205
2.70731445113738 0.1879668380136505 0.7556181059096945 0.0001252713230944073
2.333419157275622 1.302454307027493 0.7551283739326542 0.0027095233711081287
2.457823751026779 1.1066584309565612 0.7545585661044248 0.0010850948601931717
1.9922611824947047 1.3705497087381167 0.7513378400707461 0.06323392419293794
2.7387199186048616 0.7669153010936786 0.7547377430705767 0.0068211770408145205
2.408301858047292 1.1166091357818637 0.754223713006621 0.00021456740245834482
2.1251616586783673 0.7578163015944981 0.7529990639419794 0.005001737055120946
2.5160786812274205 1.377124357872525 0.7573421744715291 0.07897981187709935
2.5425982421480975 1.1004163795376474 0.7561374202808891 0.0014964888036336865
2.499800948754552 0.9252057835086981 0.7579022213165454 0.003584218543020056
2.781754118969399 0.7055458962146046 0.7522910374374603 0.16045467469232685
1.801744801030496 1.1032832874873648 0.7552165634780121 0.0068006651750618435
2.7827784129876565 0.8416965780391021 0.7508694180215597 0.13771837503961804
2.1433578145739123 1.393554816173006 0.7551395881608668 0.0431122438752276
1.5319786006103602 1.3363689870107216 0.7604584153775179 0.005280066956171219
1.951608160582362 1.1781561135519303 0.7569426292177829 0.005612334626132753
2.510600232579078 0.5954242144454187 0.7604367879363909 0.0013447301054136582
1.7825381817876493 1.3284207360144356 0.7568192559642087 0.0030223717057795115
2.5666232791763677 1.3967237442105558 0.7392482672493751 0.0722244644283928
1.9126416020930042 1.384026516073031 0.7476521497379726 0.06073375420558072
2.3453620653772824 0.8698969936062582 0.7567426855754432 
2.5428275509094127 0.7180184946462876 0.7643027905090672 
2.2081532429968003 1.011278750119993 0.7534428898543307 0.0007631281006184936
2.705903644748967 0.2502304256549207 0.7535803500211163 1.7871094223123378e-13
2.3489879722855043 0.9574405868382708 0.7583118820929678 0.01141011430985564
1.8786571070178246 1.3210658270356228 0.7549158578266506 0.0039554703717386945
2.4586273799446805 1.0709007552160545 0.75869305958902 -5.924935799788053e-14
2.5152259297885498 1.2356353683483519 0.7601720090768438 -2.835804665228645e-13
2.4997643730590497 0.4993022995086893 0.755471985538673 0.0035884215683094343
1.7793432332004444 1.207417959163707 0.7557466595751791 1.0924079359137332e-12
2.5998067482683984 0.37996469153235585 0.7579991428363049 0.0010922685563643317
2.7882993825898117 1.3346656398150798 0.7559939150228516 0.16949220585427185
2.7496720073675607 0.37891496025392374 0.7523677335182639 0.008225837012507132
1.7173758581923604 1.376047965959989 0.757348833494241 0.04254379781655891
1.5737370372795103 1.2994756999466077 0.7530862458043923 0.002188986594770428
2.124305573615435 1.386006113093393 0.7465303586308208 0.030795520437554895
2.125700087905894 1.0018593836294885 0.7536296099659812 0.011472446651946824
2.326013783395886 0.5152167687975259 0.7561109853640386 0.01117451429787019
2.0169050007412936 1.0217494314224744 0.7532299458238697 0.0002225179133136562
2.7248065465908966 0.8827034310825587 0.750123455961925 0.0030863516264827053
2.523579878425282 0.7405171611782213 0.7569464645098586 0.009355270544343985
2.744296111116582 0.3025422297852632 0.7550096005625521 0.0031662168568673773
2.358851691344524 1.3056909566806678 0.7576982703145515 0.0024270220986189026
2.695760813745772 1.2808951019090153 0.7595813246779354 0.008536169569156721
2.4689240225285647 0.8086422079151986 0.7567314284891877 0.00029746680184170195
2.3861176992520523 0.8709521819294737 0.7551372056474338 -1.285815582896838e-13
1.7737339850991705 1.3068411920351042 0.7546741232643571 0.0009645066144569478
2.735599800966198 0.24191708350512128 0.759763145160107 0.0076230007386572166
2.079349635933899 1.2518351282688343 0.7564731091107633 6.166098579104317e-05
2.794732826032477 1.1417903681577717 0.7523003324109199 0.0771867926953587
2.51755362148913 0.8304686409888893 0.749151954270158 0.001630250191197556
2.132830718212988 1.0253174835713839 0.7571396137312751 0.005864089872983955
2.49831347616106 0.9138529649869858 0.756021952104998 0.00032707902823622166
2.380088412928041 1.2611457947575972 0.7543153614589418 0.0020247554767680144
2.6714203403610415 0.5144944994863706 0.7512226078500212 0.007390319368259757
1.6340705195038279 1.1629854192143816 0.7542171097285153 0.006526989168083214
2.757091046031198 0.32435965468868494 0.7573003258914383 0.015334023874856075
2.681955451547213 1.3394922237770075 0.7538746434207974 0.0010130187838128988
2.5992675697882595 0.6088023965606822 0.7545291604207359 1.58794050385302e-05
2.5134081848642675 1.0847533741373496 0.7588425564332396 0.00578748852943964
2.2624581198632043 1.1881840122000527 0.7544668985423674 0.0009263589654552562
2.5996607533541565 0.8674663175039508 0.7524324658248829 4.025677480173209e-06
1.7122853365457662 1.1762185910598615 0.7543979070176786 5.856402726775341e-05
2.4327323895596376 0.5156927173506046 0.7515733378989911 0.000830524785337282
2.7610499309755068 0.8054985550816439 0.7529258248373423 0.01708608470607104
1.957510889902162 0.903406233859168 0.7559864258224881 
2.160186656981818 1.3073614348441591 0.7534101623638323 0.0037154955616905583
2.6475547826946273 1.1098619950460844 0.7545713839942058 -1.0805031491008228e-13
2.2516204446694736 1.153613180184743 0.7592084748254254 0.009801669779172677
1.9840554501584253 0.9406715635334826 0.7592240571969491 
2.6292546144106503 1.2898687792686037 0.7594682891628151 0.003911510319390481
2.2910101203715607 0.7436969869570402 0.7603907362299208 0.0017590106585768628
2.7929197837899573 0.06247344915027863 0.7451534534313367 0.050882962409892304
2.6158073844646763 1.3650625211261802 0.7577062067504595 0.01705379211074099
2.779991677585803 0.23364819676262427 0.7460736815592598 0.13687866332516496
1.7484224450578731 1.3704633437046967 0.7540794630218157 0.07851915614103011
2.7740578094100474 1.1186737607044988 0.753242412770411 0.09108838412936164
1.9847382244297953 1.2143430504126327 0.7576442925417188 0.0007182405232019248
2.784095688482608 0.8327724468381964 0.7498336438656263 0.11802507801140943
2.0495422954306335 1.3254191757805354 0.7561561954087703 0.005055313667390919
2.5883084594374193 0.9086644412647863 0.7574683838610674 0.004159688669761707
1.5818957595361627 1.3166632418779094 0.7552183673103446 0.0014207913052614986
2.5837333271077214 1.3833880600662425 0.7560687375711925 0.05891925763315251
2.0338302660091685 1.2238442150053552 0.7563976915953008 0.00223177281048459
1.662327318596483 1.3001883855559289 0.7559773023220518 0.00014967524411908152
2.738144459868058 1.1394370977705304 0.7547264949529203 7.7884162008136e-05
2.448347924758334 0.6484956816785428 0.7572489534684186 0.0005083907498442288
2.4282638280738738 0.8461114031901295 0.7603122226457125 0.0015569363227683581
2.7404934533485323 0.08545139004211008 0.7591014414537812 -9.808745913425082e-14
1.9176471304774634 0.970939682013471 0.7612752649175942 
2.2287991127054965 0.9422846943072583 0.7559543965210532 0.0024728745016790064
2.779896063318034 0.09148927828031476 0.7542977693948659 0.045517107168527644
2.705370258007403 0.5712612906976033 0.7530871342381765 0.00999818557703371
2.757016112720754 0.7092502406187412 0.755924447854433 0.06288288512882402
1.941747487051059 1.271282802499529 0.7584622614277103 0.0054609928364471915
2.193287360810762 1.1203361016471525 0.7584460639935895 0.00032852382768613404
2.7647712061768797 0.9981025664748466 0.7482627444013263 0.07225340765734962
2.599535550545505 1.3501117678753038 0.7541456571739122 0.00019181357061530928
2.654547335012265 0.8672582573467568 0.7538770868651044 0.0013794681749366765
2.2618344247581943 1.1254416351411396 0.7618874079743408 0.004792473921217252
2.5313295094084673 0.3828218550570302 0.7590635529224599 0.0008783761780683695
2.6794982487769166 0.8559706505732867 0.7526478446245455 0.00042420059531876646
2.5689078926488693 0.7707500190138857 0.7516846109341193 0.00857104645574126
1.4698558841163119 1.394304206228714 0.7540145918747511 0.05456918762479423
2.7644333080683627 0.42260688106020083 0.7527001197388674 0.044793822319323336
1.6325771613362068 1.3352143508251701 0.7520997397745689 0.004057481029872091
2.382626515040959 1.3282090850767838 0.751618658107207 0.002192803772291447
1.7850041584265581 1.0521039872664253 0.760197009805544 0.0002445397299511945
2.6138959917395983 0.6036905326087705 0.7541752599609237 0.001476149984795958
2.4456932581424318 1.0358233680331628 0.7548326827811488 
2.4441191053395204 0.7868687204513961 0.7575145460186787 0.0002442207629622308
2.397047210693811 0.9982458422488851 0.755538075977314 0.0009270586731444752
2.6890008396439486 1.2559926388399967 0.7535521137317723 0.0015829978647434594
2.0613630392027176 1.2466509538865589 0.7528911544087384 7.335633380827095e-13
2.6642026608938605 0.41134121366140214 0.7552063577046905 0.0034068004185633938
2.4855938524089196 1.1681414240706536 0.7535643255366717 0.009174484032825602
1.6190888947659818 1.1940654600912726 0.7541666814056701 0.001288571739902593
1.9209906596380826 1.0617284438526506 0.7597294546265058 0.010766942850732307
2.6503585153134295 0.3656018903527759 0.7569827957612576 
2.342407627276482 1.324493443939845 0.7563940507745404 0.0009330104139574491
2.60707345046798 0.6699948642747768 0.7591163423476859 1.1056020664588115e-13
2.6921794492371176 1.1233526672411667 0.7560703477097044 7.580388854812149e-05
1.9546491207817032 1.025392235036704 0.7548000441530646 5.910745401538253e-13
2.719206848906082 0.3343174159240514 0.7547114227732065 0.007243945153008221
2.2041177625445005 1.2733620818828872 0.7539849302081922 0.00060157745207556
2.728051751768377 1.1253360309304088 0.7583993054202941 0.0013860774006029047
2.0088366200327377 1.2246727244059592 0.7556482787561972 0.0007951660287745522
2.35069704152704 0.8979571209302285 0.7569183722064857 0.00017637691477430481
2.237978595953262 1.2634612319655711 0.7546536500711247 0.004089291189150881
2.501090638167124 1.1724532962772198 0.7535731301290169 0.019651149797645227
2.596832577700545 0.9416751916149596 0.7606518273424028 1.6711199212460262e-05
1.7996659517810838 1.3844685521492883 0.7567232884196271 0.034857015554286504
2.680028177208555 0.49099211079599075 0.7596172142526758 0.008343201481312843
2.7470680657925697 1.0145641475142315 0.7501938878867717 0.010275591987147725
2.5465088058301695 1.3538249668639817 0.7538620669559222 0.0014365239735903053
2.081118377259619 1.1183337775246414 0.7543192966326695 0.002724152156908852
2.57122346420661 0.5808724200803201 0.7543026992763657 0.006565393672455247
2.6696340241553473 0.7440291776751684 0.7530855398252359 0.0015171257421519526
2.7046174968420647 1.081888033760475 0.7509109454190482 2.897076221072447e-13
2.5826922666231753 0.5453291404314876 0.752930430522651 0.01780636899225727
2.4178694729725945 0.7982462144238673 0.7557125468257336 0.0008794505892762557
2.6548512458636715 1.3903611772847786 0.7581739180690514 0.051819126837268185
2.0520768820530857 0.7821858821995301 0.7593190321680434 0.0010484704715690125
2.7571410783777206 0.969780819360769 0.7538748716790569 0.010468816334138063
2.2855087265820804 1.3670575405733523 0.7541128396236122 0.11806466275385755
2.2675260946508984 0.6590967422972802 0.7572988017059383 -9.9587569089786e-14
2.729412224962862 0.7907839047326616 0.7551167831897622 0.0027188118782110345
2.7173752728149716 1.2054335821441666 0.7569560119595655 0.01103695733814754
2.7808786579907214 1.1102473482829525 0.7489941105792043 0.09820055389992298
2.134864816721886 1.036319133836008 0.7522072183339437 0.009893197028889158
2.1446506650881827 0.6788550446773396 0.7549195918933694 0.0031453926415812563
2.2893592827081473 0.6110647421293282 0.7581151630324856 0.00017824091830800654
2.1723051716591764 0.7454051512311521 0.7557864834557348 2.355766727992297e-13
2.749928878341227 1.3300869031542715 0.7538077235483728 0.004720755773309492
2.059463834894118 1.0894584558591984 0.7644488752838593 0.0002634812872302025
2.6934620782780225 0.3693077687117759 0.7638547269761653 -6.074660133979145e-15
2.356642871942349 1.1458572386210721 0.7582777362981014 0.00213444839971779
1.9709738244499795 0.8386587213476183 0.7607722757722563 -3.059392408053136e-14
2.197621533771969 1.1637457910515845 0.7528138206297215 0.0020925690231220944
2.746429237788797 0.7745109722918956 0.755819886266972 0.006183623540363408
1.874641577345672 1.24529978882874 0.7538481776992463 0.0007392289283874427
1.9428983216299192 1.3399022296493492 0.7548301175841324 0.006128959011188413
2.2176964659776854 1.3349752523981546 0.7534560658220519 0.0008048409977688528
2.1833937523966416 1.0053692121622304 0.7576036934652778 -5.016568617069235e-13
2.3610039264968954 0.9292370681628384 0.7576991642920781 0.007304270286124115
2.7363192159461547 1.2636189259295074 0.7544176724331108 0.03162808014270484
2.3458069870644507 1.1018262561075995 0.7520690317609481 0.005251531247998852
2.7427431052082767 0.6220038436438952 0.7493040597903629 0.006322154977240384
1.9604028543629923 1.2230079069760873 0.7556920521187603 1.819509642626112e-05
2.111853148448554 1.2217366389783557 0.7575635425696629 0.0006633350487499338
2.249805904029525 0.6178315352471895 0.7572867875895752 0.0008492967299635725
2.2113373100404368 0.8358620669710846 0.7611274579904209 1.0990910885139759e-13
1.6921419622851532 1.3323703039245522 0.7543939561824622 0.005696840220404525
1.5253184278880383 1.3568848767665216 0.7552227711325813 0.022427113347346563
2.415140805048563 1.1159746899082466 0.7542322354153567 0.00023910516643405803
2.5735258277027855 1.077964714702985 0.7590029178035418 0.0017887078568518998
2.3790019036328682 1.0854847863147368 0.7588132019230663 0.007316007092525578
2.341509138700979 1.3833994737015285 0.7585825215362388 0.07348724250852488
1.8017422238275627 1.3302604050438853 0.7564238331837713 0.004234880501299802
2.6631501836296145 0.3532146072582511 0.7554698094423886 
1.6898320226400256 1.2316986434005803 0.7583001680851678 1.2611834777424525e-05
2.7925274804812306 0.012275948059082692 0.7584235198264072 0.07408233289752084
1.8256991709993549 1.1291707177532895 0.7540055466079988 0.0030855207243243262
2.0292643709212514 1.2909258506107246 0.7529290567764589 0.004123583866381977
2.795741249523634 1.3102988979444863 0.7454593739572802 0.09859070587093074
2.2783388151232105 1.3782718373923233 0.7338477497905173 0.1349321486040921
2.0982981637468368 0.8031143094384939 0.7535093323794861 2.513044832133456e-06
2.7709288548993682 0.7007638187351558 0.7511230436931167 0.19768978968243808
1.9384680255175009 1.205938323498874 0.7543677688094941 0.003544698261038629
2.021667288905404 1.268166045257325 0.7504163665226804 0.0017626859744954444
2.5532786997814054 0.601562100245783 0.7588243041329533 0.0071679891812699405
1.932639816734799 0.8836749230805384 0.757658130003577 1.0771188096576852e-13
1.5628607111994526 1.3889388159046414 0.7568172463427822 0.06643243886760741
2.465582441150835 0.8278563250091506 0.754114513864953 0.0018594590876060432
2.1484300162395673 1.2104799358948626 0.7562068331310058 0.0026761236367426255
2.3054572595571647 1.298268999865103 0.7565713764597533 0.0007855994364511442
2.792771451504502 1.007807747823322 0.7506268010411574 0.1130722773008024
2.401486258144165 1.236091130649269 0.7575960849845925 0.005230843375986936
1.9287429725073324 1.077034187856692 0.7606574226083035 0.005375794955375027
1.9106479627314 1.0454649322404113 0.7571899157768848 0.00033505728618391954
2.70656845807309 1.3698203563187425 0.7575761467954024 0.01892084448446476
2.612802584173424 1.3793073785300423 0.7578317809913765 0.04146133279473289
1.7308310048355913 1.2144195195845136 0.7548144747464082 1.57219459670068e-14
2.2868228030149167 0.6237678117111086 0.7581995133484376 0.0005150510373280015
2.4914833473681663 0.45512346901005835 0.7551399068161505 0.0010294485687568087
2.356542900372766 0.6399522701702969 0.7559916890933259 
1.8092273284170943 1.1726950512554617 0.7541340249244567 
1.5927696519541616 1.3548648544969764 0.7538388348808092 0.05620414701249918
2.621187345734863 0.5965638295422846 0.7535366038680272 0.0004791083980840576
2.7188435840163065 1.3578554793217943 0.753723130262523 0.018267062761608978
2.1821321752730163 0.9020197121568913 0.7591667163975969 -1.7750943801665317e-13
2.6862958654779683 1.3826688541654508 0.751610419564325 0.07284418743820306
2.282212054956666 0.8313338176593915 0.7532073474799044 0.0017530150556317355
2.0692445849969907 1.1245051523431198 0.7563812428520105 -1.7711665593003276e-13
2.0242853983792894 1.3279600224712398 0.7543645465928528 0.004119237653293513
2.6026187134033725 1.0475658426524626 0.7537786141518737 0.004028761686444381
2.5231780816207814 0.6287655997530763 0.7599538787644229 
2.606117837624447 0.43605888656471375 0.7582121662139861 4.864584372645107e-13
2.2754475061895305 1.285215416407071 0.7535508211225032 0.0045573680652583265
2.3632395502539327 1.3743086195628615 0.7557943876093559 0.1294351762816464
2.084677030257928 0.7382966461642024 0.7531434748287956 0.0015670078723623825
2.374989356107447 0.7395358276349008 0.7583868087194974 1.4440754829872713e-13
2.469253075977411 0.4040482139593166 0.7525659675254351 2.7465445002265887e-05
2.4384401864619316 0.542124645182167 0.7531490540763294 0.0027346856410436766
2.5788274081823914 0.8839334880223428 0.7542341989896363 0.0006415379263219304
2.7527337195755424 0.9279139791161536 0.7533542422129126 0.010002386062212331
1.8820819849011994 1.0850871174514924 0.7564190714809808 -4.649340680837353e-13
2.141210316428768 1.0347285820083938 0.7512767420719664 0.009665752120309326
2.379904763500117 0.5582596274032161 0.7570800298886348 0.0009702378673025924
2.559736517534757 1.3904517214508763 0.7504045504641277 0.10308368633705725
2.045327878964757 1.0002843199095321 0.7556445133844155 0.0026395097680858275
2.3231249809918166 1.1403306305099046 0.7545789339686053 3.2839900109318287e-07
2.7764533282833264 0.7708391221749596 0.7508630719516749 0.0769800664932627
2.6510687589767907 1.1710150844263263 0.7535891967128486 0.0026607219498805735
2.0582541910550605 1.2948437192695519 0.7592216511805087 4.1067302071249136e-05
2.638665465045423 0.8848217670969345 0.7573683896937008 0.00045843973770909584
2.020342800053613 0.7941837059777291 0.7553748851907981 0.0024886385796037743
2.622002689524476 0.9832242690071407 0.7528534726069166 1.6424961215117468e-13
2.3446024182489436 1.383291235339978 0.7537799294608717 0.09451847007515995
2.2239164698450713 1.27299180331663 0.7520050812788404 0.0037693575886349967
1.8392719606299348 1.3042682680075914 0.7554150031587615 0.003851078987048366
1.4411942291973807 1.3728380371326103 0.7566235439526333 0.08614732824047923
1.8800837190097035 1.1199363681739014 0.7570430202374585 8.447794315017161e-14
2.329614800975827 0.9092779825543253 0.7568557654860242 0.004885481822522901
2.119134957159111 0.9935548873658867 0.7543909945083005 0.0005833380941338283
2.653449001277313 0.20167873669316755 0.7558112022310672 0.003202146375420377
2.464054522285234 0.5859217391692653 0.7559225198116034 0.0011686147750440887
2.5575657787088093 1.206281348240977 0.7609075778144063 0.0003859135334303921
2.1800405454515204 1.2722650276282825 0.7493479547828895 0.004865180467528603
2.703454980878546 0.9885583068188873 0.7536174235427079 0.0024644164988979513
2.7537534338311063 1.1939949459132841 0.75352638081346 0.0029519017702369084
2.01578931568894 1.2294435005753075 0.7575353413139677 8.725198299324921e-05
2.3584044722169666 1.3953461547036161 0.7553218512516993 0.07271189732115986
2.6710089266488346 0.5546491271772435 0.7499072549686416 0.0031578867146328793
1.8895356698316164 1.2190446069811915 0.7530242544402451 0.0012640067070774702
2.6763475354575337 0.525670982503723 0.7529274405502132 0.00575476175687117
2.159817066053197 1.273781697900961 0.7570461318239302 0.0007841115655612924
2.1325408583532193 1.236333823216412 0.7557567210182473 0.0034695108663809864
2.53248061988919 0.6241291796725433 0.7564489161306585 3.186209884204007e-13
1.9798282257650646 1.0830804143153046 0.7530471753451583 0.0013697416191219033
2.3372197316015413 1.2025659334948602 0.7542950096431948 0.0034777543935358107
2.1853117946040794 0.6765451695546709 0.7564662995088038 0.002843016632815398
2.1093957081113945 1.3031995366091598 0.755034681291619 5.505250441929064e-13
2.517931629901261 0.40759764412227395 0.7563397108940412 0.0001700109035784379
2.656705067176686 0.13994825572167646 0.7530513452140792 5.196973388063733e-06
2.769643245721816 0.055744355150782875 0.7539498090816091 0.052371814162195086
2.4209595494723053 0.707309634796652 0.7526884853397535 -3.1956945690670705e-14
2.491465905642466 0.7055267742848615 0.7595552817376032 0.0008029058914677233
2.5382502181224025 0.7569208964474895 0.7508325663842838 0.003625351857695422
2.659683247791118 1.2560957971037126 0.7552163115963654 0.005517977160209369
2.402343855940932 0.6174138644765657 0.7548699861605552 
2.7589857818686796 0.9518435665215209 0.7516549318638908 0.03239120192733918
2.3316727761129203 1.3928091589767528 0.7389674370680818 0.01747679674726681
2.717372638327417 1.0920165660631225 0.7550415199301009 4.8117913929735015e-14
1.8966136469287236 1.3882866703876617 0.7469213965452345 0.03945834465473784
2.097243159727185 1.3894452347634363 0.7468489573520131 0.03329444574738609
2.7173529801382066 1.3241103947437243 0.7559609996060512 0.002846001795547604
2.3807684992166283 0.9939753845688407 0.7561472079171615 0.003443019342707305
2.2078563554734205 1.0730269742480076 0.7526276318630838 
2.5219721437632003 0.5723010875648163 0.754903581587162 
2.2897622764871657 1.1277561026437395 0.7570493778641683 0.0007323699797918954
1.6900069793816683 1.2918039964178953 0.7581356463752472 0.003393900896457287
2.011427837269534 0.9490780223858772 0.7563211355748345 0.0005737851063345512
2.663114676362602 0.7812520846005513 0.7583282353830099 7.59638361161936e-05
2.1492150749659915 0.9291279574979279 0.7554040114023048 
2.7378109474761634 0.3159358612558991 0.7560291333554522 0.0040923527016007415
2.7947746324130964 0.20984262037306478 0.748850693869322 0.08876068751983114
2.3708234698016724 0.5980671418833291 0.7654268816714433 
2.5430062127650763 0.4573437781401666 0.7543562766949125 
2.683062095227339 1.005598642639587 0.756005277693069 0.0023515763113806784
2.111116788372643 1.2886198610035113 0.7541263892467607 0.0038366501108347013
2.5125271656404236 1.308764635954208 0.7586809321685496 0.000606681494814746
1.6566993066410296 1.3847889886527036 0.7536714224488629 0.1237034912046675
