x y z curv
-0.0016740029531136054 0.5269879668570038 0.7188921078687396 0.06481411091823276
-0.001553272530499241 0.5018611358016061 0.73696142470358 0.07216289243064464
0.00018277490220132463 0.4913613111644877 0.7326605766698933 0.025417976384517312
0.0027194888204752116 0.5169007826510668 0.7289618008114348 0.08914171193094707
0.00382302090271625 0.4733613740263517 0.7315163985728367 0.07368123925676846
-0.0037922870792233736 0.5207295347184361 0.7109861628090195 0.04296099837152858
-0.0038725000221762145 0.5048376983505027 0.7285541960157751 0.05548068452295975
0.003546161243891017 0.4769217529020845 0.724453258021861 0.07552787979725589
0.008742189403710425 0.4575366804538688 0.720887554180135 0.0843992674540781
0.0007488302110776213 0.49154401941913367 0.7190319751810996 0.02695666774665376
-0.0003029383212319824 0.4868976494870996 0.6993099838452376 0.007364061389742529
0.0011957163555580742 0.47329531931951796 0.7033093813376061 0.00445943068605726
0.003061437336979369 0.49865910067679964 0.7106479112416422 0.02695411271580017
0.00806395823266767 0.5803942729128082 0.7045637760999933 0.03833456047664648
0.010358767222845337 0.5959301125818414 0.7014679377866314 0.03267548025215767
-0.0014711887299272393 0.5660997287616465 0.7058907565775013 0.017453445827956063
0.021584284442947452 0.40668818676448937 0.7035423308103288 0.018992880952521822
0.008112990787858246 0.4380439329286709 0.7000141736179599 0.014999440495470574
0.02882981481702742 0.3824173011014447 0.7031715054283908 0.020398497442799698
0.021157710700863495 0.370078079197599 0.7033695019901189 0.02829953342435142
0.09047932007468841 0.23136503360608035 0.7049035670367279 0.012559290234303475
0.15728213987749176 0.15614832820974486 0.710498365481135 0.0039027532022139874
0.1475744079293914 0.1653013297589428 0.7056880932032368 0.003793684813117704
0.21435674351596662 0.10661150086990961 0.6977336217799547 
0.27127657010253503 0.07274689744097115 0.6928021390978333 0.004554185327447443
0.34345319237640387 0.03273927827561032 0.697275005893066 -5.272162378370466e-15
0.2928602220833529 0.05419368570337129 0.7024748165723045 0.0030745415264409014
0.9237253771468966 0.17345433332492644 0.702611169897544 0.03321299898433012
0.9540525969117444 0.21305932679438655 0.6994956279181028 1.2215957800142511e-05
0.9815727980552365 0.2520998240229389 0.7053297932981193 0.05265375600630521
0.9914551235526566 0.2783562282534436 0.6965825978912674 0.012622278893000024
1.0061909937800695 0.2855833292796413 0.7042704989262033 0.02771576948451124
0.7141263862614453 0.028242191584495608 0.7040162114640757 2.259173322561537e-06
0.6834834932909145 0.01797101160771376 0.6979994087960766 
1.0388626113624602 0.36823015005442306 0.6963873625877105 0.01823042256511187
1.0390582474416379 0.3916381012902993 0.6930406007412854 0.040857105221671616
1.0429861762895847 0.4214690173864961 0.7036067071173173 0.04859897409713548
1.0575874264159453 0.47861151886007264 0.698418119312218 0.0002800427309601739
1.0612047348285594 0.4956376656452688 0.7058703470337574 0.0036069376034313064
1.0625328913635324 0.545889362139343 0.7062641159576138 0.00897926463505366
1.0542249852314776 0.6075019272403643 0.7015634835314342 0.04421723004617039
1.0556169920424137 0.5662210871152514 0.7045789747989794 0.0213676919015293
1.0400216263675026 0.6461473917600725 0.6993665515406643 0.033670967482329686
1.0310385648733533 0.6797886040491944 0.702719682057012 0.04500046629296065
1.0134979653718097 0.7544269501718871 0.7029887304310214 0.013256569491538264
1.0220256839088937 0.7478481165344893 0.7106188021070707 0.007995861178376218
1.0243737280802918 0.7217321133708337 0.6952048401818255 0.011698031791352986
1.0024717134922272 0.7792615907149971 0.7047804600780783 0.01260320915860212
0.9782233408274543 0.8094443670505761 0.6997530799460441 0.01964446841106601
0.9317620904372977 0.8838468134027979 0.7000993932192471 0.016011138303816855
0.9676308580255214 0.8358111864578248 0.6997317478726551 0.025925334021905392
0.9498495289246167 0.8536589430117336 0.7027418433763912 0.009043797567641395
0.9137893003575532 0.908958875418346 0.7008892256615383 0.003803054905068136
0.8042892912482087 0.9880882236090941 0.7077728030656176 0.016050818293918127
0.7775464551969541 0.9983529883614611 0.7020420373918159 0.012939591451418084
0.6956336389631674 1.0372902019501238 0.7112136710093832 0.0640500940775689
0.6519448018250477 1.0447276850823337 0.6929117970119271 0.006314763424711307
0.6303178236304091 1.052701352589954 0.714368831234438 0.037809087348271785
0.5119162842690276 1.0637769505447983 0.7008054514453715 0.04101906039795269
0.5284416836207113 1.056520880518065 0.7024227465819471 0.023995210785677304
0.5775201144078922 1.055029542241119 0.7041271181477793 0.022249071287405275
0.3651587948011715 1.041618896938346 0.7076317251757877 0.02467692231963671
0.4215616246046591 1.0542746286965183 0.699877054872584 0.00867463238624054
0.44422990829083076 1.0545931718508175 0.6968242885254043 0.010369975998963915
0.4731336879267906 1.0612651773609656 0.7025897350467589 0.02187535076946492
0.29810226343213414 0.9812313584869565 0.6931517838649448 -2.150989713637233e-13
0.3174372498745128 1.0119139508595552 0.7059259920498406 0.03952845737386066
0.16938735607998426 0.9071343836971325 0.6932721115183053 -3.052896216083743e-14
0.19924490732826486 0.943533970145084 0.7129288523036471 0.024105954653900606
0.21504843899914605 0.9485100413653217 0.6972577047221119 0.0031422191998080927
0.24330141801422092 0.9814661834066293 0.6966602190587339 0.029995656974808882
0.08666511012405448 0.7870099576150611 0.6929310523190451 
0.07139744631711895 0.7743378017003233 0.7040125971317572 0.0487190985058106
0.1400988252081174 0.8902100789226393 0.7036984366031038 0.011337102256579206
0.1191337523818785 0.8584268147165521 0.698428487462566 0.0018399322996766967
0.09862658893488702 0.8392942510548188 0.7027544229416953 0.005669136153726178
0.05131323874511293 0.7340849988607048 0.6973514717392657 0.022894248444630103
0.027485929245146007 0.6934018605232001 0.7087552780133587 0.05194646515694918
0.045399231351768675 0.7254089962448238 0.7025701208028632 0.016641216423037886
0.014714513220873575 0.6500005120164327 0.6999824428189972 0.02041660120480368
0.031555374840878746 0.6854428728057546 0.6974883829122992 0.01321354027271137
0.061474937596910036 0.28240142691801157 0.7376662121997308 0.050677650445336626
0.06109944217199691 0.2773712229709742 0.7238803434949355 0.016032119520396886
0.07652855209641012 0.2505781701846681 0.7291327496723679 0.006371479016512348
0.09530738205239467 0.23467360263924586 0.7365744550698453 0.061763588870759
0.04988508437248666 0.2888890583474749 0.7260074318329225 0.016087830320833003
0.06510919063506365 0.27459057870334214 0.7402693410022179 0.07192620158094981
0.05834702495950567 0.28315486180417637 0.7048343204398281 0.012621051961791701
0.059681212396504556 0.2619208434973883 0.7087760581180965 0.011246237894514968
0.005894291789451207 0.44557492698132845 0.734413853714345 0.0896403223908412
0.016385875636676313 0.41480305890710695 0.7191669621005486 0.053624547352993844
0.007178677345410334 0.4088793002935729 0.7382480250916623 0.0472625821110799
0.021244607436598728 0.37496225511935316 0.7417072801786553 0.06029043854525219
0.011423932945866086 0.4401699655164972 0.7090127296114701 0.04283190623482402
0.019581779379806895 0.36499325554600665 0.7085767925031995 0.029057855367540884
0.004927712755891614 0.43137158508739376 0.7177279896662574 0.04862283707563014
0.01598805856400628 0.3897504158419046 0.7185212213843383 0.05894440365576239
0.023549439914004884 0.3852461066207662 0.7299514033257664 0.05296472085074755
0.04163142572797681 0.3092616343660981 0.711602128533237 0.026227704721069323
0.03761905102701248 0.3453967554613384 0.7005394396130913 0.02193432072517876
0.04526947023855977 0.3037502725874064 0.722668405549246 0.019179564114052996
0.023049077225605778 0.3655616657325951 0.7342021716364394 0.05038232054232609
0.025306590557619395 0.3640784181101194 0.7261761274207121 0.0707983271453568
0.02775543342094655 0.3449218009196639 0.7164653228004157 0.04511701805882842
0.0554748741576042 0.3051388622812843 0.7333145828302142 0.057818052588466395
0.032292317361017675 0.3349351204444842 0.736466698358689 0.04666341661006087
0.031699585892197235 0.3481118430708611 0.727516847795883 0.038680726167151645
0.26978590728163476 0.05734311770360842 0.7208490896983399 0.02591200957847202
0.27265561372185226 0.05823183997144938 0.7251416955389048 0.032446243026255935
0.31043647761373033 0.04516888619607381 0.7028806667030647 
0.34700428933502947 0.029420694778146392 0.7298821508928632 0.020860736628898428
0.3479385776065928 0.022130346574405012 0.7120158415139223 
0.3988495159216144 0.01244987863423521 0.7284090872439927 
0.17572436896245983 0.13259634401171166 0.7260044865771123 0.005425981512699733
0.18804906410794778 0.12022737875341996 0.7486322193087487 -1.190587464889766e-14
0.15108571407558832 0.16006154972334583 0.7259368205022635 0.016316445415061876
0.16733753462048442 0.13846672136194504 0.6988506778228016 0.012839835200843771
0.16307025256160823 0.1387448064353004 0.7088341837656096 0.0026933996451129504
0.20218667994828235 0.10117600479694501 0.7361489748278849 1.4075720556136905e-15
0.2187429775228585 0.08912378293158091 0.7204813340705729 0.001986665196932819
0.2185638018872678 0.09222579012410179 0.7418063105498415 
0.2516663911967823 0.0749736738036308 0.710896137224579 0.06013434345085996
0.12272882841276037 0.19666510366742312 0.732368416100466 0.01857657929721793
0.13912332661144208 0.17221290102583262 0.7346650417541046 0.02027337789377573
0.1313720617025137 0.18063334928305505 0.699838935128566 0.001792181564856596
0.11145637445890404 0.20863270535846382 0.7039839951259363 0.003299908592437749
0.12276753699531076 0.19337065472295722 0.7090278635726774 0.002991458935982701
0.1317825262324084 0.18157144361140887 0.7218350953695941 0.01581203781212399
0.10074564490665305 0.21602681867801662 0.7258990241155151 0.012158683757828411
0.13839880099743862 0.17477457144484548 0.7314535363143443 0.019258761531761488
0.0921442971214153 0.22988065074887407 0.7233869794631054 0.018580486472252866
0.10337286694290013 0.22261904973224247 0.7340528188717934 0.013567435778542166
0.11412695710147187 0.2058109434616627 0.7321621437568163 0.019482091815799817
0.11170725033989448 0.2063511850800556 0.7404666468228043 0.018947384837077298
0.12566907293542792 0.19400410206949356 0.7398056417944381 0.020017763387765324
0.43077607016442454 0.004631451249043305 0.7399516537540716 
0.5297405136160507 -0.011556741211606587 0.7328755492334077 
0.5313317191139522 0.0012129129557323008 0.744614077486953 0.00343414311368368
0.7358572736273984 0.03381978178713181 0.7367874971338261 0.007611785789379567
0.7454439025454741 0.042416776733550245 0.7108284197163793 0.04082074490037404
0.7676504996688269 0.050534690133130326 0.7258002694252746 0.04749084801719025
0.7883411373157803 0.06335832380698433 0.7108196444335024 0.000749572897973097
0.7432564535111063 0.04192723927027722 0.7073441053844518 1.3002341574629851e-05
0.6055874256950311 0.00989069948158509 0.7484709261427226 -3.102101930270114e-13
0.5837704704838202 -0.00893755156251982 0.7032299601680339 
0.6619290314237812 0.009574603261872663 0.7323994265166147 
0.8488512517882754 0.10642155320300202 0.740316047435127 0.08284730197105665
0.8190924406532587 0.07411999510228194 0.729664532233637 0.08029999043677032
0.8299505250799472 0.08248266316292378 0.7168714589986973 0.023834703101732094
0.8552952198407243 0.09713694719344194 0.7253990842215435 0.00884479050315906
0.8073935829344651 0.0718654083637533 0.7075949537041775 0.0010994762970082215
0.862023991625205 0.1114360391869627 0.7075357741198061 0.011296011948891455
1.0241361210466338 0.3143900934788719 0.7225668921536584 0.014469559512727432
1.0241782373285113 0.33150503220490607 0.732206289158056 0.01071618974753897
1.0124357998950562 0.3032757935587614 0.7327322219997837 0.021950772756685846
1.0336336767189753 0.3471253212330321 0.7331109059282602 0.07437040100763201
1.0345759802577315 0.36028020268459127 0.7154786130503044 0.02727384491691129
1.030481890412194 0.3434019788581961 0.706711068505637 0.0047583564037831745
1.0205013056602552 0.3119319689517891 0.7099773298916515 0.013087017688911554
1.0300271413282898 0.341952304350619 0.7139753036199766 0.02696517043587129
1.0315019498495124 0.3541442446543485 0.7063775958000321 0.012258968208936785
1.044095800473196 0.37405536393954675 0.7268396814861479 0.041657421232583015
1.0346205709416734 0.3551375188050072 0.7172445757580308 0.024964124706880864
1.0426095053264373 0.37856377568255284 0.7153104133411433 0.01859672766094287
1.0475216728947372 0.3995140896591984 0.7324124448861264 0.07054727218871294
1.0543428882720587 0.4148738931974716 0.7173238505518299 0.06566042586048648
1.0543169705909863 0.39145253824455783 0.7059809308185103 0.017096502447695117
1.0604939351250524 0.4420090391221317 0.7072461277080276 0.018436190928426726
1.0505610157729286 0.43579796918254765 0.7241492940615533 0.08504857426209296
0.9402978834918075 0.16835074163675104 0.7192633618877227 0.023060373164645976
0.9397547140204145 0.17641107577244186 0.7481551386266259 0.06827086116929691
0.9411871933527892 0.19223952414095002 0.7454070792718025 0.1339200220845322
0.9385613264719844 0.19601957699351896 0.720389935158023 0.08373873958293934
0.9618209365253693 0.22407054484921038 0.7151212674055253 0.059999653311807115
0.9473056762412471 0.20612662181568106 0.7245121392761635 0.08839740345290728
0.9390533466472201 0.19868871981816272 0.7023120387843798 0.04287332994907525
0.9972941045250322 0.2798154018225683 0.7445120795757533 0.02743225044132981
0.9888037377419684 0.253321754921918 0.7311187117793827 0.07367563985962697
0.9853768114436273 0.23524890552246305 0.7401412270608044 0.06803331802844038
1.0126304002978483 0.2856664244528846 0.7422862768299203 0.0143273278044407
0.9932584552450338 0.26389911372810415 0.7243705670608342 0.06223837178240146
1.0112707756690216 0.2797944757545912 0.7166749701344345 0.02172152242259737
1.01369570964418 0.2950614975881078 0.7141543848939493 0.0377149478272771
0.91381725971553 0.1529815140819106 0.7034242431258095 0.024915380021134068
0.8813279575831183 0.12945441442013916 0.7114439579156885 0.014456160766785745
0.8665173345328371 0.12234471795242284 0.742124611718935 0.021546175179103257
0.8899809418694483 0.13548385770320248 0.7222313656918218 0.011300768330528172
0.8762765063273971 0.1203533831830208 0.7231565884001215 0.018536810735915944
1.059353235496638 0.44658481896041413 0.7371562752148806 0.05405684998331927
1.059573674109855 0.4571608389593366 0.7354162707183243 0.0354740123538306
1.0672472276196705 0.4895880048295271 0.7320263443369158 0.02765857595750894
1.0599422308755582 0.4666519130771477 0.747929622486038 0.03869400033105986
1.0730667559174658 0.5141809057122492 0.7453916038465663 0.025176130216395788
1.0617587525180947 0.45740791955423177 0.7154037331699037 0.02219837208929736
1.0624262216961293 0.4794860683492762 0.7150264861559851 0.024615480817506672
1.071022106215289 0.5151142672630865 0.7124225486675094 0.004528865206648189
1.060998238049587 0.5855873534805771 0.6990418730879805 0.049158411320345236
1.0677951558107295 0.6084225493344119 0.7345609678729943 0.04102036106582978
1.0569689813568361 0.5817300651945508 0.7308188139970994 0.10870748929342175
1.065013382121859 0.5990869023199911 0.7080594734425614 0.03576457641698268
1.05741767322934 0.5950347429154506 0.7148316234638291 0.05242004410250292
1.050762925454449 0.5859074748396921 0.7409687902979849 0.08251021251020017
1.0671278006644018 0.5448266638372949 0.7115707647970216 0.013119720422781716
1.073104189773747 0.5428885942138078 0.7318672934717151 0.007104070480494555
1.0618989182834713 0.5711756187404388 0.7368200237560287 0.11609618977125481
1.06439142916555 0.5695970186281685 0.7180827468442231 0.05243521171273219
1.0698974171672762 0.523679466683896 0.7104359925899618 0.009010543457668451
1.0405718479740285 0.7004350666953274 0.696912598396086 0.033407891983084956
1.0137290661199727 0.7471543727321786 0.7352558546753254 0.03558176904278811
1.0147338262058767 0.7552720420420344 0.7190843674236311 0.03025432845178376
1.0267080513452795 0.7336144048803659 0.7214233231549058 0.04127303194124702
1.0257500310536325 0.7202522324494571 0.7113275254290897 0.008500764200251936
1.0200239418879724 0.7313085915079213 0.7334770406905674 0.08027232091841525
1.0300185986157273 0.7104292261758189 0.7291066805418239 0.04855338822539517
1.0427905156431732 0.6976378831440672 0.7417923276502325 0.04629054869203985
1.035603744916033 0.7044366492847379 0.7227587251173397 0.06497200718327005
1.0414225014123588 0.6876999860396744 0.710858067599305 0.0510594797141045
1.052420863923814 0.6209078704596909 0.7255143293904462 0.06498742739224492
1.0407595992692884 0.6680741413538664 0.7303160470447105 0.04759279496916602
1.0513668867580415 0.6548716235233752 0.7262232374257476 0.0443330852884898
1.0482488882090364 0.6374870736353625 0.7386741620200156 0.053500041190366096
1.0455293176131069 0.6804314888522548 0.7360286663485217 0.05949688145927693
1.0512893437000557 0.677805835125916 0.722441358095172 0.044076844729879244
1.054624392493038 0.6549601938309259 0.724071792948345 0.03396366984482483
1.0563652829274626 0.6277166231931606 0.705586204300938 0.03112663161634217
0.9994054434247324 0.7868675839909315 0.7336908753687102 0.035818173999798114
0.9997620575151991 0.7803089770833347 0.7236962252215942 0.03492129634616073
0.9740381706434034 0.8286608321996954 0.7374182333042745 0.029974292790728056
0.9997050913778914 0.7806790584672542 0.7411362653922592 0.031801912556933
0.9836668099734438 0.8166603806081537 0.7369305390804561 0.07597722603956533
1.0154862846221782 0.7627003644389202 0.7380024843606212 0.02519204713854195
0.9908097106101241 0.8085792210454562 0.715879701188436 0.028226088098792654
1.0012171033835333 0.7802837546640705 0.7133139427388313 0.012532965320574085
0.9875905665404894 0.8245964032413022 0.7135725785762999 0.0516819465685362
0.9860196058042716 0.8263504257674856 0.7257745981910974 0.03685406991585246
0.8727654918203411 0.9486537655470462 0.7292594474565062 0.06151497681407643
0.8855367907088888 0.933541211796152 0.7456149886944005 0.03259481580676304
0.8849126894066592 0.9371957274978461 0.7074726418118817 0.018186497100321497
0.8773276258208318 0.9416402276145274 0.7182489208907828 0.03260086169490397
0.9189020177363354 0.8948952682172946 0.7351110715224731 0.09119147591989178
0.908168671035312 0.9165885254454484 0.7205345782172986 0.03407032950569098
0.908087920279154 0.9173689526959141 0.7299242713505216 0.0300845328671635
0.7014848118832517 1.037777578686566 0.7157451619735319 0.06858459323242772
0.6499380843602581 1.0522746139440344 0.7292426536473438 0.03882992903889546
0.6859332681825653 1.0349966044739691 0.7061105605678517 0.010572755791820381
0.6558012069329316 1.0495318210261844 0.7112834664690617 0.008083616773785154
0.6766826297716255 1.0460427821514242 0.73209591215104 0.041979315163407596
0.7217573345546968 1.029568315459522 0.7271879909819174 0.07914959656669743
0.7180524358932259 1.0321605537384628 0.7458231456965029 0.07951229920149726
0.6877777333068612 1.0449527095983642 0.7312491249418264 0.0361524977434157
0.7239599984688775 1.0383278362945871 0.7021007562769567 0.008636862680992704
0.7004692166590378 1.0402485906547734 0.7301624968799699 0.04887884259712952
0.8373441130226345 0.969382331668342 0.7118941527712832 0.011527179206717248
0.8487768885328298 0.9612521491378146 0.7136564865691233 0.04331593017798421
0.8293904050172178 0.9771757916159096 0.6940123191302878 0.008850845891956267
0.8077943230162904 0.9973322520011391 0.7156246474426058 0.00432195017776757
0.8531699456769992 0.95706157234692 0.718885037424553 0.03870148674764058
0.8289788354807294 0.9772054842248421 0.7468701152460423 0.07527882894518273
0.8646302901643128 0.9610794714590682 0.740582631565498 0.037103140290796296
0.8699381521664248 0.9504341562436855 0.7132768423294227 0.0611862470212357
0.8614494800217986 0.95629523618144 0.7325720474201947 0.04677041729046147
0.8260598334940538 0.9768188202453998 0.720563431231664 0.037548469031556723
0.8389057632657089 0.9704816276065119 0.736863837185707 0.06704894306219601
0.5915075720769059 1.05333908225163 0.7202226178092719 0.040563104553727
0.5755066180939415 1.0613944521776013 0.7215319005071019 0.02864976218651518
0.600830244670679 1.0590844832644213 0.7062513849495392 0.03792228616910423
0.61174976689765 1.0579917505488168 0.7086101762857304 0.02073752768430707
0.6013524085797637 1.0515881277199592 0.7345455607651205 0.038061088398848336
0.623084197360455 1.0539160795139002 0.7391652107995939 0.02892896482466074
0.6269906616713643 1.0625913934893125 0.7286700252786058 0.02607231266583814
0.6137472561704942 1.0548586504806252 0.7311268243412353 0.023485612016756276
0.6396029390066855 1.0561547889697798 0.7340180787427353 0.0386011897624153
0.9614544545746352 0.8501481369591737 0.7476218066928657 0.061533607566416716
0.9610788198301458 0.84733564086146 0.7144369776469919 0.029319603773941865
0.9501317418350228 0.8593533713714213 0.7206148661942801 0.0875690725238785
0.9388324241066632 0.8696202440861188 0.7103075847129179 0.025275528385197817
0.9248154646290138 0.8949771885208497 0.7222354296745713 0.041500657847216696
0.944376445345251 0.8787176852112104 0.7284940213851075 0.011824117048251839
0.7683242564398786 1.0110488445926857 0.7387329824471549 0.04860386762545352
0.7800392064937303 1.0029543451604004 0.7308578687541288 0.060450078080528324
0.7690123170047543 1.0113043211882904 0.7240284234816694 0.004632491567970743
0.7939286820232271 0.9985494180061328 0.7377216307503824 0.05980505444870461
0.7567362891786658 1.0129139475196212 0.7044334825200383 0.0048615875335162265
0.7283053691222259 1.0232667581239967 0.721210086394866 0.08094743773589685
0.5114853179860743 1.0608386833407757 0.7336013534800379 0.06607342228216356
0.5036374180367779 1.0677001198573803 0.7050237648088358 0.02330527313311469
0.5245772375862318 1.0695983274346719 0.7140616897292954 0.037964148661071694
0.4969645940302602 1.0568978717748205 0.7288191728927014 0.04150053725986006
0.5030419829945848 1.0610249435882666 0.7220568930794883 0.0436172184944248
0.536589868415294 1.0675344904645239 0.7154904338990491 0.029995264720852604
0.5331542238162745 1.0480052722680275 0.7458021802657482 0.039392616516695726
0.5654021713193302 1.0632807916304956 0.7201398163123419 0.06693429549533185
0.5610354258598992 1.0706285594447407 0.7134355084248306 0.03643800096061561
0.5645110412088475 1.0622946234921558 0.7330485503732569 0.04530743278321989
0.56441775106498 1.062434743928641 0.7377273914502184 0.04083932973629659
0.5506928517851198 1.0634794916300854 0.7373562162557258 0.028725165367097502
0.312099876942082 1.0213692307272493 0.7365994261740155 0.006837640092316291
0.30774605039539327 1.0132149282033396 0.7191640599183973 0.01113374882706717
0.2862254092916991 0.9995177556052538 0.7279740552114176 0.05794007489114356
0.3353533633820747 1.024789556694936 0.7123655285707724 0.018930503159269783
0.3393297323041217 1.0320415706859811 0.7351631822577527 0.018637473039496148
0.2630688723947763 0.9960391896610494 0.706462304005733 0.029882414287203347
0.2889861954060937 1.0056079581832813 0.7114842445049501 0.04096250506787818
0.3242188303195194 1.0170255039210419 0.7082041387582684 0.011206354907498146
0.26853167292165087 0.989803123917329 0.7341438504070346 0.09483261674321294
0.26111077503089186 0.9869160356338869 0.7212377020025548 0.04766232677549932
0.44551996303623675 1.055762417663937 0.7370507362140226 0.0850263674403688
0.4388832717907911 1.0536680276645143 0.733274209135409 0.0757278929052966
0.47775494086318016 1.060637216560913 0.7436721216408817 0.04600905492561859
0.48225076051785437 1.0680887303196622 0.7211223130870579 0.013195211968690175
0.4668702266807822 1.0524015260681094 0.7223709846149542 0.038735191383169526
0.4654363724347396 1.0562171566526086 0.7360894276146437 0.04620867835381736
0.42837265684324316 1.0522107874336335 0.7251224567350089 0.034072783319972634
0.46979476294236766 1.063792773697885 0.7062219216225687 0.018181038578061595
0.46811905308054597 1.0618302522683964 0.7035604446225321 0.017484719696615282
0.43343223288216115 1.0557115120645628 0.7210098234477956 0.028240342992906287
0.43232677420652366 1.0510865558315445 0.7106527275975586 0.031206190491423376
0.3422261119560341 1.0314507472307897 0.7012631672735145 0.02041965231227341
0.3340408944778267 1.0232222746300963 0.7184429794313689 0.018241685009961258
0.3885296738508705 1.0381217698283856 0.7094157625952473 0.045477531251499725
0.35345069908755955 1.043618518696679 0.7287542988872393 0.009715909314398188
0.35547894164629174 1.0308183181648147 0.738736995024482 0.09246772952328443
0.37494190452271114 1.0472085471582957 0.7272915368443074 0.06074546831105084
0.41300419757222634 1.0499952275547693 0.7077746109157783 0.028418897985081872
0.400562299821015 1.0412694250275756 0.73123851525455 0.07467927682730467
0.39950922494426105 1.0448055020201548 0.7128982691123162 0.06605548403226141
0.36189924715339794 1.0397236163179928 0.7296485779213574 0.0784232181129319
0.38836337750310873 1.046862147154421 0.7229907036889743 0.06218533176505243
0.2601985666695151 0.9871426432154197 0.7002948408511883 0.062422781191029765
0.2480499028680216 0.9935006386235955 0.7257390069067919 0.005795262070527023
0.25879454085452275 0.9813460179284289 0.7405691423052616 0.06867524995879225
0.2163990878354659 0.9641649715880176 0.7225667365079957 0.04730980565493514
0.23789368514964093 0.9751531954462497 0.7108870421843999 0.02897196105920913
0.2108831879996447 0.9561532687686741 0.7098761451286097 0.018629758813539177
0.21427802980158797 0.9524934929551266 0.7377156534629012 0.05037839606007801
0.22484964142559768 0.9602542106867438 0.7028663278502988 0.015497447369582527
0.04116140602443712 0.7422687193526412 0.7332484718268013 0.021891992570291105
0.04651056480886582 0.7577916233057657 0.7415281290564361 0.038978970793451244
0.039247695467092544 0.7398968375406683 0.7275452417642312 0.020889700733952868
0.03406595746613208 0.705160110751417 0.738094139006896 0.04670665035431047
0.026842157801767873 0.7204533984449333 0.7208883591524586 0.04232572493602333
0.028856337957473794 0.7108692972221086 0.7357261683066006 0.05769131106132101
0.02036114746926159 0.6875235070413187 0.7060859423016804 0.02513029316865924
0.03362502905159347 0.7302739819467715 0.7131548368025541 0.018455928844730927
0.02341806571776312 0.6921324070686607 0.7344323713444432 0.08744365906373279
0.03208462664553824 0.7089222791834053 0.7198056984429564 0.06459731769393326
0.04507764798264715 0.7413717119250055 0.7119511617570267 0.02296383292961215
0.010539440500038416 0.6429051246840876 0.7377858565670568 0.08668377949619264
0.012082505862124114 0.6311227071741863 0.7315217062720639 0.08470527679812986
0.016938922146081718 0.685051440067456 0.7312520022949864 0.07916262895690368
0.016482053402457647 0.6658836093694024 0.7288622783145544 0.09451932092626335
0.017668981452221885 0.6772664874488216 0.7189339506832458 0.05835596628699657
0.0022125915806054924 0.6281313221491529 0.7071553393785633 0.012007782793492105
0.007407672127680148 0.6187272423178983 0.7187803110429298 0.0477315606215036
0.012862896895222622 0.6652428339061603 0.7074001711433939 0.015089714502862025
0.009141802964045292 0.6442696488235002 0.7222858227071772 0.03555858265812589
0.010081487041803667 0.6190314865362606 0.7432707968112643 0.06249407265059593
0.13838969031749487 0.8930560420923896 0.7376880411730823 0.03418314163047024
0.11442187292096435 0.8768095423345876 0.7258334267832295 0.04429642825093837
0.1360847579797843 0.8916507539257174 0.7136178035040254 0.05037701605763153
0.1323705677017075 0.8826367604905976 0.7076828189681524 0.046083742367336304
0.08699210933785444 0.8265721017861262 0.7140399711028642 0.025518208192925752
0.0997801892205039 0.8472239761420857 0.7162436666771153 0.04849988625961167
0.11312509546825153 0.8582307135681162 0.7107875739749355 0.06826751800963983
0.09499751294247395 0.837223157380934 0.7300710746023159 0.04646322148047122
0.07986962527226155 0.8189655926933052 0.7297505793133757 0.027920523972865725
0.08978290870092803 0.8172514623377762 0.7410183268398857 0.059420450653250495
0.0714858907423519 0.7868989529751238 0.7431912278927547 0.03512959734810289
0.07199197217676283 0.7916593785706104 0.7310948067077779 0.06308671943198794
0.05362862419611281 0.760011876962088 0.7159768741565886 0.04379838441344449
0.05547985268111993 0.788944582276653 0.723043702009314 0.04805771705886795
0.07084186786184174 0.7952944813861099 0.7103142440565635 0.0545218462840421
0.05794279775726489 0.7750087165032126 0.7299484573554164 0.05059510548856466
0.05363768806005199 0.7611023354119041 0.7176745422447965 0.044495322709964646
0.14687319521968092 0.8977936244531552 0.7109191460492446 0.04681337904876897
0.15972817261271327 0.9054931840116267 0.7073986546389961 0.006826224109959102
0.17369409388337792 0.9277777421166982 0.7290267591995316 0.09450961791018961
0.19385047986525722 0.9411456750832339 0.7171198524559973 0.04677414680527996
0.18787588395400323 0.9329576364587983 0.7454418757411507 0.15120860382375195
0.1731017531359619 0.9341305795883389 0.7507354520382886 0.053409080515902464
0.0043696346024534195 0.5947041288071768 0.7327162036953747 0.05037064925450547
-0.006630593138487645 0.5385890058838289 0.7390392526655061 0.060060492682557316
0.00784464236000637 0.5864096365714274 0.7421726791663719 0.09346718647075898
-0.00583221315663907 0.5691810388527135 0.7250048301052995 0.02064041383742944
0.0022525450248145947 0.6124865867910824 0.7115717611801312 0.01863457752687751
0.010831721914840328 0.587449728052835 0.7111501155165229 0.04186092545587611
-0.006670856144755072 0.5499774128168586 0.7429738600395401 0.05151911654776846
-0.005190380697137426 0.5368139612081333 0.7060825999664575 0.00622650157056797
-0.0022716891928104693 0.5634670360027113 0.7014479967316347 0.019769686716330323
-0.0017854548730010286 0.539563665162045 0.7207217748923932 0.07375256332883916
-0.0029849906907238365 0.5604471421514375 0.7220578722327367 0.030592183331427353
0.52681230795945 1.0120379380613822 0.6036648187412061 0.015815599682283864
0.5149242139823168 1.0133099706297393 0.4410302367134384 0.06236672152484355
0.5163292179783002 1.0066798147411644 0.5124229721183344 0.05541932457438478
0.5196432162184268 1.0152795230855274 0.5411402987714734 0.03501721175623402
0.5191407928886517 1.0060483056576666 0.3967163697462345 0.047829539789274365
0.5361541095839729 1.0111059887829528 0.653700379641518 0.0021225525357410195
0.5341544015520653 1.0049619273872517 0.33890418019258645 0.12129299279660867
0.5278010031071807 1.0101866244148783 0.22455911422786232 0.0666762555213792
0.5224631551825615 1.0056990586752719 0.6206469673819828 0.01639838062485746
0.5378311855761081 1.0067491999839067 0.6223014010310364 0.012279556101765503
0.5236483047926994 1.004114561945563 0.5136857118054854 0.06294658442904384
0.5237310867050767 1.0020088740538298 0.31706989534973423 0.17058253201560716
0.526710595853267 1.0096245429687671 0.43618841076483367 0.13009180658506556
0.5199957948757352 1.0070240605802316 0.6239549209936344 0.016374914514141917
0.5193121702015543 1.0042012345288762 0.30285333373531753 0.05125021923666718
0.5251926313774408 1.010106083014245 0.3546961446354707 0.08818466787424993
0.5084939319842128 0.9962383475327058 0.4304105627723405 0.07407660580824046
0.5422592857339111 1.006892025197534 0.6263755514489021 0.007988785671170145
0.5252091234075089 1.007225378093622 0.4653152632609476 0.010613725630211554
0.5141136232644216 1.003033847037214 0.19151963269165675 0.05674752202058493
0.5218620508176592 1.0121587540722734 0.5909158129313157 0.01503005142039043
0.5302837570508557 1.0095385674964128 0.2733260853541178 0.05349806939366876
0.5478234338880762 1.0124009163523482 0.5754959478193584 0.021518123762387074
0.5417070461571712 1.009518075541902 0.5093644493628089 0.08868904233097505
0.5282338486998643 1.0086881548685782 0.30553471685973266 0.15014303997709696
0.5109115098045689 1.0078762003451256 0.04342292975546524 0.08922275029511043
0.5142428295954994 1.0131908797940878 0.4757524232964933 0.0029600636474084955
0.5284571681885656 1.0083183521064738 0.49722892369537514 0.029318217334613084
0.5374293195672601 1.0081796000622316 0.5788653279005725 0.020538310548539943
0.515609116575909 1.0021779292428412 0.23053719034734346 0.0708511277892862
0.5273657217084038 1.0026922019074325 0.25156503544742886 0.09762483271337143
0.5329800764573563 1.0035162156898632 0.5288779127792944 0.042027253858202517
0.5363555124402564 1.0051868702560385 0.6079896238842639 0.01681659608495626
0.5130419591384131 1.0026654690600478 0.15428273749024715 0.09888101636690484
0.5382799978356565 1.0051428748750555 0.5912364498511041 0.01785791892126909
0.534422373982069 1.0054724207129115 0.5465258278047588 0.03462612849382132
0.551139719246539 1.0034714988626565 0.1556104079994326 0.0954785910737654
0.5507560111393646 1.0062822425021694 0.5889830162480465 0.018780420646007698
0.5320160601888808 1.0060754928645157 0.07352982607760383 0.06803397697950575
0.5350534625414777 1.0115022023003735 0.158786178607577 0.025347923428881997
0.5520490103242036 0.9997493959239776 0.26185221427624034 0.09804868460175968
0.5434207314502525 1.0097230946769649 0.4900667627444706 0.057968434669263894
0.553783005641457 1.0039580592197668 0.5112682291554197 0.09233790911389331
0.5482447375947342 1.0063230044626439 0.12450741500544905 0.06335023110609854
0.5515689016475216 0.9973218731394736 0.17669889524325696 0.1416707636503655
0.5571866648530378 1.0169765978777192 0.5404890356241201 0.01432455616391283
0.5379896029556683 1.005102709470506 0.1398852048806364 0.06886465338137542
0.5342256609183358 1.0066299572936486 0.34567695255538955 0.14137524381715016
0.5421866047023048 1.0066166846159874 0.4446965341958942 0.08149642648327363
0.5247525316801149 1.0138786168606853 0.07433157705673897 0.059405596844718425
0.5507722436678381 1.0081686317079008 0.11303373082003379 0.09158745197384495
0.5409545719040765 1.0115988074118758 0.28307679650339046 0.07224513205632144
0.5399445865629405 1.0095415649741257 0.0216928891361838 0.13780066112368322
0.5380000281572326 1.0094271962567984 0.013989343311417535 0.037915555920037536
0.5495026896689029 1.0060775931268178 0.4344699586731374 0.07383009785193594
0.5301559871407545 1.0029351581249013 0.24509759319979324 0.07479597228166036
0.5307085309033973 1.0045914338536153 0.12294364180078575 0.076700836888206
0.5365108438737213 1.0130978006329707 0.052593642271427064 0.09569226862807162
0.5257770148808414 1.0035896626501952 0.26067186765377376 0.08836551426629302
0.5421979432440026 1.0164758998525367 0.20289031033993274 0.06610950343967371
0.5572492192998658 0.9995631594526637 0.23408217040934062 0.07730037744038504
0.5645986053205573 1.0045486454977501 0.06603434132923028 0.06622460725344935
0.5522802663873653 1.004381671499605 0.3998403923314839 0.12385503277480787
0.5408324607863361 1.0072486873732378 0.11319762304666814 0.08791518994627623
0.5561098403871642 0.9979657345270438 0.0901542142991542 0.07846704267849737
0.5254636427368019 1.0042419059920302 0.13699117267044172 0.03239335078859635
0.5515541771122169 1.006461704648439 0.5221358234251889 0.026458658222204258
0.5451083617893399 1.0026165204400008 0.32764649227084713 0.12331851232131373
0.5197384678275815 1.0219030870154202 0.045126172085612044 0.0376592249824168
0.5416089033780281 1.0117825592153544 0.47565784224914875 0.06377110483681794
0.5321669509812323 1.009814565438159 0.2108910437653261 0.14528667139307708
0.5517521112432706 1.0094163094601567 0.21340383228865925 0.09520103241361681
0.5560879717500703 1.0055103786013722 0.31009494141459565 0.08042816353982836
0.5482215748997918 1.0064717600268225 0.419854307432349 0.059787213141234315
0.5186726901445277 1.0066077440713166 0.16657378216200264 0.08719825185333828
0.5445217116304915 1.01157272254944 0.563207558136734 0.028291337105037336
0.5371363222426571 1.0102262025355486 0.3676501147975226 0.09684461188944282
0.5476867939272226 1.0129781811994603 0.0533888981030692 0.047404162536302065
0.5399189716475904 1.0098095322993101 0.027338608121378772 0.13798943692404542
0.53083982404023 1.009193933811596 0.3145760041047562 0.10448034300509271
0.5141565139324178 0.7834305353753462 -0.0037082663530907207 0.13698205287634233
0.5124596296290546 0.7987260760719891 -0.01129595424957663 0.0029679162529685295
0.508556678876576 0.7227701076410122 -0.0006602914505313491 0.006631726513099812
0.517427207152166 0.750590680608369 -0.010276979533045636 0.006788415724873828
0.5215926458571355 0.8286780858516531 -0.004681435004790324 0.07598229114413592
0.5219748690850121 1.0008110030503226 -0.002181694691089431 0.10272435422629583
0.5469811277174305 1.008801989379975 0.002136639337777888 0.022482804502747544
0.5530182818860622 0.7912724385422719 -0.00537432144149662 0.02035988202828866
0.5527027015291588 0.8382710393928013 0.0058684262776690374 0.060954325482101765
0.5499605818933933 0.8537790729954946 -0.0011407968857134936 0.07797742430823201
0.5181288735735613 0.7608054116094741 -0.010056178508339621 0.11508125779432422
0.20677764234481713 0.5414606398776864 -0.0009484764318363259 -8.857058045644604e-14
0.2334532423982142 0.5435503226391576 -0.0008430733933026125 0.006665362624548982
0.08512910762912887 0.5444114491737854 -0.003142560398462304 0.14636879384575405
0.34333593402507756 0.5520837295181187 -0.007445340441025128 0.0017822011287938642
0.16577770872320013 0.5504063713773921 6.737047972386431e-05 1.1759966456138854e-13
0.33285358670515114 0.5526509504283434 0.007226522021946793 0.011780125244432942
0.06706130074341256 0.5418811823074506 -0.003997698307236859 0.17276873361340014
0.25206061935014296 0.5508464263803055 0.0002268747823371762 0.019501788862269456
0.07863552289949402 0.5087297452354952 0.00780640471698534 0.07420958168961404
0.06409058108934855 0.5344361776108049 0.0003968232396008076 0.17341051961703105
0.0667772652118639 0.515193015446252 0.0052202007555654925 0.05075457320548223
0.5163481024518272 0.3305260033894334 -0.0049858704232603095 0.003030196063904885
0.5159198901937697 0.20235159572141884 -0.000937459458545878 0.06753077549885392
0.5214023605636873 0.07269486806054633 -0.0034057781833624623 0.11014733812360997
0.5153890660194601 0.1693429401110065 -0.010916890512663632 0.0832969545000627
0.5189285862884103 0.30909868682905006 -0.001754277289522924 0.10819279668604605
0.5569921471282414 0.263488193854587 -0.00045524695739950405 0.013264098670373767
0.545735648738729 0.1725831631762331 -0.0014353705375606165 0.0621025816258705
0.5502166734463468 0.14195001210345148 -0.005194513770606499 0.13063025818009766
0.5576233777414679 0.06958789448392533 0.004177947123353459 0.14584193975701948
0.526705703589311 0.05890710371464978 -0.006836117927894314 0.07208826984442397
0.9840785695706806 0.548197893479665 -0.00026901390158080325 0.04205690262769543
0.7170021077276519 0.551020828330973 -0.000811587325925772 8.294808115341039e-14
0.8327603792237787 0.5469122889376303 -0.0066945861631003715 0.018221592362924085
0.9296569168776311 0.5447728547690178 -0.007738397535298607 4.481053203304982e-14
0.7683108083448905 0.553502415727101 0.0011227202544188497 0.004968127688261526
0.8537949407468399 0.5581813820640286 -0.0032637914821915153 0.008052093739598979
0.8186334557664019 0.5462893801505015 -0.001643841876289665 0.02154709081748871
0.8947307483336838 0.5455802139290608 -0.003973983348562685 0.00516871787147527
0.9916319310244587 0.5382365663654034 -0.0059874314042416416 0.07989398968197749
0.5104704521022682 0.9465008230425065 0.378723682449918 0.01865028048920509
0.5142442172307164 0.9356993584256296 0.3145903441033876 0.006101503953998874
0.510361361615089 0.8748493997611844 0.3788614635774235 0.0018190398979028178
0.5136923496577106 0.934367485488467 0.2539031294264529 0.14230690124665166
0.5120538878534204 0.947835818695966 0.15277999622526398 0.004689718528461549
0.5097819731113358 0.9491363270562649 0.2991289892433509 0.005865682417787594
0.5105079025362632 0.940418615944064 0.39522629385818786 0.012412332286818175
0.5126124135890862 0.9203186836149693 0.2954293216467655 0.17316648215564642
0.5105247636321523 0.9670177196529702 0.41576921388569865 0.01610869875380327
0.5109507673049286 0.9811338222052657 0.42623205505680406 0.026578569748721467
0.5171581730876996 1.0101161911834857 0.007538700714980533 0.08309873998419763
0.5076430782724911 0.9913239979937715 0.2746747214230597 0.044444141156575044
0.51481522628775 0.9622143711452881 0.21802268231542715 0.1119976607442574
0.5060580635807173 0.9332460179204644 0.3778604575157931 0.014694505241988388
0.5059731728435439 0.9379788087488815 0.27939303446282265 0.011781432395473313
0.5096694052132466 0.9452269807335535 0.36306502302492033 0.009675098882055384
0.5120589987681964 0.9969817947710556 0.20438714581043022 0.13239941161510937
0.5103910802313232 0.9045866668446062 0.36677182858536944 0.11009051966650235
0.5117879077159851 0.9872141336064849 0.10216321715665458 0.06727763737946602
0.5103510573161297 0.9644066019726025 0.1445783161999473 0.0055731226634057815
0.5134841260098577 1.0055994427136483 0.3692928386312242 0.01226223218530551
0.5183997105412544 1.009956863385246 0.6431224179887216 0.0012905117833945416
0.5124148140648412 0.9894809997400157 0.5237119147111599 0.09905702045451914
0.5044418126670958 0.8948101660796689 0.3136368327645275 0.016389847225109618
0.5131631745709556 0.9541369589744106 0.3470233227183132 0.0056086260380145865
0.5119283084399867 0.9775213516736188 0.06895007997710634 0.03151940871582519
0.5117101331360158 0.9483706842062286 0.176109753210205 0.010299452956942389
0.5137475935466457 0.9943759209288563 0.09303177368671997 0.07065824949925135
0.5078696043915377 1.0004613392095816 0.10923317720866951 0.06867109975547804
0.510503420790887 0.991550978582974 0.3978734926928212 0.012721089853891301
0.5143535737792045 0.9031448763321348 0.40828253382413204 0.0004631832019523457
0.5117654699179703 0.9931678506342081 0.2612491632729021 0.10753810539087488
0.5081352726990168 0.9630757366600934 0.37810149139331156 0.006479600292636243
0.51040162629795 0.922098248082263 0.30567995368022177 0.007078090902774769
0.5192457830574339 1.004332281564712 0.21008608496723322 0.10744304813119696
0.508799653167403 0.979655451833804 0.2061936354457546 0.032625171041527304
0.5121939764659885 0.9762985564583346 0.1710614501747323 0.010862256342204737
0.5102984770595288 1.0033860471191338 0.6060162248520441 0.021513235406075342
0.5020759587386364 0.939222223232039 0.49096249184430324 
0.5081120049262519 0.9759947555969649 0.3013770122541282 0.022547390146314253
0.5112754564765453 0.9996823469420358 0.06520862529667672 0.04707775940131882
0.5207760147465857 1.0125308906903914 0.18262653811757593 0.11655018036637547
0.5061515335240799 0.9884220387619974 0.22033427240974057 0.05863299565790836
0.5105297056095914 0.9659401463248873 0.12874262981455295 0.007291277933716971
0.5156841750291459 0.9993208957100921 0.26377354692720806 0.09836304993868512
0.5075237095706048 0.964199624607731 0.16286589192604725 0.004709682971923964
0.507522897391661 0.9855844460604128 0.2739304348031471 0.03374839223861223
0.5132352078407703 0.9434570120230035 0.22629545620067823 0.17956842592939556
0.5125275142445123 0.9776444471188295 0.08604738985407821 0.025403933806671816
0.5035074425477261 0.9091989427273819 0.27458554321357775 0.019654931480438984
0.5119461589353567 0.9893318067341009 0.040489030990735614 0.08108757534571794
0.5117611896753637 0.944902033424804 0.18363677186156158 0.011543131577182205
0.511783574230314 0.9889158141459236 0.333092377789814 0.06246069707164537
0.5068586667988957 0.970787135180573 0.5462305315221886 
0.5127889643712832 0.9297688619318848 0.319439233615597 0.009586752188512036
0.5075383600084545 0.89481698699626 0.34100674232255196 0.008352516405667249
0.5114363301977098 1.0018206453964416 0.17009210870324754 0.0466258692506588
0.5099693919236724 0.8791275376711352 0.39111497119888095 0.004432376969692611
0.5007550284806505 0.9612563404409838 0.46542579676762974 
0.5138543254508898 0.926958070853887 0.39676231386650657 0.011934766136748343
0.50777936445697 0.9752337534596783 0.25844460411106224 0.040324713346671405
0.5114502434796225 0.9206216235253012 0.25188413061460396 0.10652075644916018
0.5179248905801311 0.9143691975996056 0.39849144064443204 0.00441281050993305
0.5105644603853755 0.9809467192876967 0.24682742645739725 0.05532226452480959
0.5176583088324314 0.9304647331162245 0.33524417239412563 0.14105855866032566
0.5055889871288546 0.9817050581620255 0.3537179071533704 0.044718964577612555
0.5207935097377625 1.0044854908355771 0.41174588404278584 0.1251160657610678
0.5156090324929252 1.0049480833239421 0.12430556718337421 0.0908164531090944
0.5135673907444986 0.9998773685503919 0.5830515650848214 0.01686510980211179
0.5054274516236565 0.9920145773439843 0.13932457010068058 0.04804619696968709
0.5132255403924605 0.9271395606016053 0.23952365707025144 0.15726938258604867
0.5046890501897516 0.9518332290023782 0.4046586153737895 0.004223569106852419
0.5142657503663017 0.9962255068743018 0.17396456640827448 0.10967403049495311
0.5064616857188664 0.9451491677616016 0.2063918856687822 0.003872825002326419
0.5178642811319915 1.0055463522032775 0.29215777151619665 0.08283240964209247
0.5119215919600953 0.9597911240868672 0.3117240048908945 0.00453848900427343
0.5074090926936803 0.9242060085280022 0.37013384227650314 0.012800433206738482
0.51582129663447 0.9653526231581496 0.22988146538054832 0.10231649954896778
0.5136466640452152 0.9140875397873888 0.3433917708406468 0.01061362658665784
0.5106160717555925 0.9542474282155332 0.27343836601569355 0.00494165321208683
0.511856554970782 1.0056806240552874 0.5083612420213666 0.07772045897438568
0.5094353807008887 0.9927597506911593 0.36530157560125975 0.0462146538841724
0.5101395809811157 0.9476736486282568 0.3310584889693832 0.006929023019386392
0.5119969469584463 1.0015763234093251 0.2242019765471497 0.0811985079785872
0.5083589425133264 0.9627928669672864 0.29280130482722216 0.004068036149965243
0.5130176185169162 0.9346842782979804 0.21299033907771026 0.16729909548798225
0.5131513032234843 0.8896509565882326 0.39555424413210644 0.11684243370064114
0.5094646212136452 0.90695293450648 0.33195774495593133 0.006473700760746155
0.5115110719851556 0.9639120538958623 0.17431993312917962 0.003999221073152784
0.5025423749973116 0.893440824187853 0.2904529501136065 0.022758142148456055
0.5153147055326897 0.9443530201201451 0.2432384259992163 0.008612840870108699
0.5139232874258969 0.926673957820338 0.3567073033957429 0.15946652583117196
0.5103747193428877 0.7669572360972015 0.30477810540403305 0.010002254115077644
0.5092649837061567 0.945375143578661 0.07136788984540943 0.003220079021281229
0.5132558120413379 0.8280980132837138 0.20409859509746575 0.00572171707440629
0.5108842441966726 0.7658368770225992 0.183466874447732 0.010326545382170598
0.5145422588742178 0.8033436840050098 0.3538544186420393 0.006810383638876291
0.5148949960533409 0.7500385184472237 0.19966772994566834 0.17912798862076063
0.5153714930571103 0.8136236939581629 0.35200028040320847 0.007530424848225698
0.5176154519986982 0.8606600533349248 0.3065918504876577 0.1962469397102476
0.5070246519337079 0.72709220044673 0.0853058542004427 0.011914187057835592
0.5041289249235638 0.845326207803362 0.030329223490372106 0.01115449333048462
0.5112902914617571 0.8541822271207566 0.38460388271361046 0.002855042583458445
0.5027772480187849 0.7919625742749721 0.2982006924670979 0.0018727425842632814
0.5131987083917756 0.7936166371782719 0.045119798609320104 0.0037120155324011084
0.5090486385441934 0.9717742955964553 0.10608699868220038 0.007034096564268117
