x y z curv
0.2463447225147434 0.9052921978473042 0.7283192848254502 0.0621190816351562
0.25712554855131575 0.8970578150883234 0.7409699497726002 0.07514622444821083
0.8479088575076331 0.8979318316830173 0.7351403459439818 0.056483987156036926
0.7657980771909457 0.899924098155285 0.7427007282575229 0.06447442221842374
0.33116596111432295 0.9035290265776837 0.7363097275603088 0.05639588089042425
0.6502833641469358 0.8994392121332879 0.7428958804326508 0.05774908478200571
1.1812719170850763 0.8996412656064856 0.7333708007066121 0.05001910214923911
0.42045036988184886 0.899312703570606 0.7360529453969358 0.06175598170348353
1.2263664288001905 0.8977514938728618 0.7393365949504243 0.11352734200948435
0.5071600824427326 0.8978365487990867 0.7341344251215232 0.05745936045856712
0.2741835225469232 0.8946827400330193 0.7411810879358274 0.06666698892439873
0.22551151055295768 0.9006287892073396 0.7269454323135331 0.1826919886188355
0.46815294474102687 0.896999378137278 0.7389443865264965 0.02976437016111424
1.0302959853260958 0.8972470338027173 0.7470635309802758 0.04238568164315588
0.9875459253634956 0.8939624576535735 0.7408301208646522 0.061322495872475694
1.1063464396504585 0.900100696629608 0.733874142623743 0.085339973858569
0.9673590321737675 0.8905434758797288 0.7406803799910402 0.14087901904018954
0.8057879315108972 0.9080818513205218 0.7363675697758377 0.058887850455349236
1.3671647505603448 0.8992113872209582 0.7408607923020522 0.1634518460506548
1.213506068129196 0.9013747682371291 0.7376055821379724 0.0804165298096509
1.2698594476274856 0.8980535652011575 0.732707401443097 0.09132371888747383
0.022849642436236977 0.8746854555687942 0.7362288923020028 0.1282216940696234
0.02826078250013789 0.8918742213550978 0.7380904940266959 0.07370769337461924
-0.007090762692602783 0.047040692707785436 0.7434814827696643 0.1025251378030037
1.5955494601326419 0.04797959097125916 0.7400444207592544 0.13576802966352458
1.6019353520437463 0.8428820236295513 0.7375153629462343 0.12474743164215828
1.5974762198651522 0.8646226826502077 0.7246583482159659 0.07774826892949917
-0.0013515683627126148 0.1643684982391639 0.7302667688044919 0.02793813425763353
0.004295801674790198 0.15180052826936632 0.7274603082301846 0.062086746913096506
-0.0022812242980483123 0.76919937295218 0.7291136448922589 0.05567385114520437
0.0058061862301540135 0.8125073809543151 0.7254025562518417 0.10065479781994614
0.0010752024953025777 0.6737883330556944 0.7313007092857442 0.15404276779768708
0.0034593023040676647 0.41848685558174564 0.7367123470801695 0.05116125245935546
-0.010952234072160786 0.4426923790228794 0.7299756192113358 0.006176170113997411
-0.0010509468350788594 0.35171413136837504 0.7252402594230737 0.031646208675145684
0.009275158890630254 0.25088611469167094 0.7221869983350162 0.13713672399704213
-0.00661164764233192 0.6335853132617237 0.7445639385710293 0.1255813347656548
0.003542455504904805 0.6050563869475777 0.7280519869501171 0.10292701705339757
0.008980028944673046 0.07211962546317412 0.7231629820492043 0.17231616664347532
0.0062724370564034865 0.12260613546470035 0.7286207268170408 0.10311701170462101
0.014334828148505318 0.5312355490103688 0.7178947783929445 0.08465253367408712
0.0018717437173234389 0.2776695983522919 0.7227288660595788 0.15252646746975604
0.025100531950812067 0.13824160750952053 0.7133322611905241 0.047166392105121774
0.012919598705639072 0.3022566034529428 0.7133571633037713 0.07570726937760613
0.025510444197198508 0.6299196202544017 0.712352593118156 0.11516390904152873
0.029710887192858748 0.8113370808049746 0.7085440791348033 0.17962712549048937
0.0019659719741996684 0.2402151432999383 0.7341973301550488 0.08644196283236096
0.024832544421743763 0.0972109085396076 0.7176572423260497 0.07567529456101427
0.027362389960004483 0.5972599669734062 0.7142792840407459 0.10248502928768767
0.0015884566493306268 0.209028119769112 0.7247378418520608 0.043799750095155715
0.01708363949876773 0.2836336483103491 0.7082670733285384 0.10094106629726901
0.019831514043449586 0.5579447889642424 0.7144597053198976 0.1632793282333034
0.02218572524225401 0.7420712805210539 0.7079316703940557 0.062296024993122597
0.008885171495342365 0.2647228056328536 0.7216060503641597 0.1619546146050126
0.014958358949461388 0.40974042919416637 0.7212197614150544 0.25673769923485223
0.01711240307140889 0.6971795514012689 0.7157734653266364 0.17054028100306082
0.017762111879062938 0.24528905792578554 0.7155059917885503 0.1041250335583044
0.002999233165778058 0.19954263205651987 0.7320049088894094 0.13595593558509583
0.020302710251768958 0.26004654457527576 0.7115624664247746 0.1628474353266568
-0.0005467630271246355 0.3064977108240467 0.7317350478349784 0.0740064251870713
0.0006853444478577492 0.27647337217396517 0.7260728459420744 0.15053920677263985
-0.002966292448868843 0.32066509720065695 0.7287727463056618 0.05860142781699693
0.004986953619917797 0.3300389586249945 0.7292748142325592 0.06813574943151325
0.018771323087451545 0.5807279778765992 0.715428736979467 0.14887446977362945
0.008020163650215743 0.3689379433132692 0.7409201785581911 0.019090072781362835
0.01671620827981645 0.6229412717005107 0.7221741043672688 0.16501409000832284
0.0045493613380579705 0.4089592984753222 0.7318037325541866 0.1678213418638139
0.007290757827061429 0.5173195073815784 0.729081969557925 0.11139766485312347
-0.008562877181635209 0.47291485766990743 0.7253057133571601 0.017426535154606362
0.008716122856596143 0.5380887774299195 0.7283921267266285 0.11277701649569068
0.0058136190007802 0.5513225520472116 0.7321210023286792 0.13056213251707147
0.01139715010638727 0.5623030746166646 0.7227271398252978 0.13455784320569147
0.006656481844373042 0.5770597394619363 0.7300223948847239 0.09589017416972292
0.01380652175699482 0.6347442958143228 0.7241292120798792 0.18307644861622951
0.010960369953035499 0.6724028014044319 0.7157881066660942 0.14908462754927615
0.009771698927483289 0.6899926448834858 0.7245198093094591 0.1255753019976421
0.005493216797293733 0.6484733099771979 0.7298454603462778 0.13260962941424445
0.012170695902751962 0.7141705186857024 0.7223281353146932 0.01888621689186359
0.024367676409037167 0.7900893623886627 0.7045638198616287 0.050283096161120644
0.001012108720276482 0.7591042660654795 0.72638749072992 0.11975017677876573
0.005713704240026886 0.6958748130768838 0.7333180519157004 0.10659488722179848
0.0012053884757483812 0.726113245041428 0.7352417586305191 0.042748201198328194
0.011475482051858124 0.7449828080126181 0.7252363226911055 0.08145437388729543
0.0017599368264890575 0.7914505840567709 0.7273345404024096 0.10891820492158694
0.009697101731544715 0.8087718885961321 0.7209052359768668 0.09750466555792058
0.012472910455179727 0.8284605671458777 0.7190560236363769 0.11004841497735925
1.567204539236902 0.3991629329370839 0.7075326754598872 0.06607274292555669
1.580112609925716 0.7177889323837535 0.7127561965853682 0.04013060914996902
1.5685290717011546 0.604999625092735 0.7099077577225764 0.004928513901547223
1.5770424437764188 0.3121402164776712 0.7123180890872095 0.14658236718195664
1.5665320209271296 0.18853755465520078 0.7080963642109926 0.042430232719543465
1.401352736150948 0.8678032491585621 0.70532795798045 0.0004022208132957851
1.1733811111064623 0.8641460759264743 0.7061524046298892 6.604898976938108e-14
1.2966506869531187 0.8697835562854501 0.7063136369720898 0.007796977469840606
1.1052460397484198 0.8692091202793266 0.7067048542236084 0.037962191486802695
0.15858624098652466 0.8684814829298304 0.7072457963706112 0.02004873950410766
0.9275196756278025 0.8695777878734086 0.7051168029882838 0.14689424744011365
0.6273504552867146 0.8588484317042069 0.703058115880878 
1.426020708646034 0.8835715274485814 0.7144241442383935 0.14036902406974724
0.03723149407931672 0.5233713446748476 0.7037156595294985 
0.028188808910115264 0.3982056594353279 0.7067061187563182 0.0766893457514229
0.025855863724545958 0.07930489197875626 0.7103086277095355 0.07273836529085176
0.025517094001424104 0.17404642117994498 0.7132163169798857 0.0003653322157171301
0.04542641884323967 0.8647382002405506 0.7050343456434441 0.012437712313675601
0.35436428155904487 -0.010905769983577451 0.7344798311348013 
1.5941040093556473 0.8107924554170882 0.7369482337879772 0.0638407524289605
1.5909090829352208 0.0806962333179566 0.7313797575812977 0.17659269397453278
1.6093108552379467 0.548315851787643 0.7354843139496795 0.07551830347520597
1.5995122900508116 0.8252520364302605 0.7225999904924186 0.07080117232893801
1.5936844285391827 0.6982262895506595 0.7228044414231432 0.1085668347996407
1.6028519461841664 0.6712178059393281 0.7220934867144368 0.07599589112226098
1.5964907095256915 0.19027463622171634 0.7280925402138917 0.06963304109917312
1.6026332594156347 0.7953156934758835 0.7300491523174639 0.07165452664155113
1.6105319496959132 0.763386674298247 0.7327588176462843 0.07045907112698081
1.5993542281696256 0.7115122162527319 0.7270334527000136 0.08408593601132731
1.596373130277815 0.6375231833332953 0.737939678887729 0.04462222145477434
1.6041999461542018 0.10402153031161328 0.7225343334053419 0.016861112419570657
1.596404345930707 0.48854718540636227 0.7308848111426282 0.08712496282689218
1.6034386115788517 0.5115929245487623 0.7279337380398582 0.13220972751135165
1.5993801611767944 0.5215037611450476 0.7315867019808853 0.14311423728359626
1.596157133837274 0.41035674875922257 0.7255022800899259 0.07984717173809872
1.5942366705177295 0.38466523103733313 0.7290006899835962 0.06581765769312639
1.6061000818341988 0.24376479358744915 0.7281825295559318 0.033039421257468324
1.5995326437018538 0.31264211567774153 0.731668515306043 0.1771560340860256
1.602351386517651 0.3430415214548911 0.7315493305711488 0.17209267778295662
1.597992002773432 0.3615228812583518 0.7329875983660125 0.09532102277617105
1.5923877471497483 0.06161622483803954 0.7303095390634519 0.15520559366698305
1.5867967877594964 0.07966232308890198 0.7237286168738997 0.12960622453906898
1.5943382817637854 0.15490445195838654 0.7348862027624191 0.18274313852055513
1.5966228658516364 0.22573657519746385 0.7278176711140744 0.03557308517402179
1.589529926802884 0.20246541693716025 0.7256589785089433 0.07979968086335729
1.5941971293564872 0.171679419157826 0.7232054592801334 0.14160320027217746
1.5934730550779808 0.6089417813650957 0.7261149372644711 0.0416841549971411
1.5949841723963745 0.4897969246695848 0.7215117275350456 0.09346485810433593
1.5780202937639876 0.5613538792698454 0.7126980289873504 0.1293931994650466
1.5948096178181008 0.5249233913391306 0.7231345169630271 0.13773814165552142
1.580874457600008 0.5120815728908082 0.7109695255937354 0.12217997072546993
1.5938944551428569 0.5875521832588485 0.7226294574519169 0.09669630882972989
1.5945188620785045 0.427500913976866 0.7252547747591056 0.05121194941014268
1.5799222804632262 0.35867564984710587 0.7099673947660544 0.0654028711141578
1.5918788437781142 0.6010741679567255 0.726758551281962 0.08542842551304519
1.5856210732788245 0.654884132046928 0.7096144807063316 0.06592871914876755
1.5728376033576281 0.3083152756091976 0.7104279965562899 0.124801646019093
1.5925550179010053 0.6467235980216188 0.7208358356747373 0.042762234560240045
1.579418856977367 0.538311418377053 0.713798689666169 0.21715764894726686
1.5915239358948299 0.5768554590884062 0.7147801050325906 0.08938218166566783
1.5771300282065313 0.6336261494552562 0.7124450104270919 0.018041433952648567
1.5911626602885163 0.7010828059593925 0.7256802763123513 0.08496229410763982
1.5934815758198286 0.6622680256681109 0.7305564891330606 0.118953869595344
1.5837524682015858 0.6094769052000666 0.7199270392051681 0.043213387746039965
1.5828875235269135 0.3959625305473332 0.7193299682627647 0.17841750697687336
1.596167046063085 0.47510165670445176 0.7287170156884067 0.060727228882680236
1.605836341618545 0.46081177972009435 0.7285313258233924 0.04983692538201602
1.605815763010797 0.4507281566391756 0.7234428843134224 0.052212984927556064
1.570930844373765 0.058722744805780935 0.7107661245313506 0.002311121838060296
1.5926751757722748 0.3345899226084755 0.7237775256971944 0.1401848629876472
1.586351585137407 0.2411035918565924 0.7180482764245466 0.03497292678898301
1.6011819565567311 0.26659696444260167 0.7185134977912535 0.056772565880302904
1.5798200859155984 0.21763833523725554 0.7171692954538728 0.07147763966573777
1.5864887807330013 0.14665919452748988 0.7072323572393094 0.012240122033662884
1.5877119454016928 0.8442978507030263 0.7190404812678703 0.08668043061534318
1.5977793740210433 0.7915946681154253 0.7200209168743525 0.07518024335115707
1.5912177941911967 0.7396196936902113 0.7181592128545453 0.06503026639966988
1.587713360839858 0.7620777309859342 0.7178472699626982 0.07299689396111632
1.598926459410976 0.6838799499831951 0.7285994285899275 0.07850194165748178
0.05652190626063683 0.9048381021801942 0.7318617939641121 0.06652180139973038
1.5398753077276661 0.8997713660639538 0.7324009413843704 0.044181435250919054
0.29288956133781385 0.8977719977659182 0.7271035845562844 0.04612443113300083
1.5023909925175642 0.8992991606747761 0.7360868459532671 0.05822308853070982
1.1988708918565574 0.8904004434776405 0.7210371266113222 0.14892058169240222
0.12955431358585917 0.8987834132215398 0.73332892909775 0.022738109069521832
0.6049820033034545 0.9018051293702676 0.7335801131083942 0.0784019971430444
0.10049368011215848 0.9018181990171091 0.7277056910448018 0.09488085831648184
0.1957332797744806 0.9071414033754193 0.7244291434254944 0.09150266167855674
0.7201300866183126 0.9028550236444953 0.7350416512458919 0.043692828950322234
0.749051429058609 0.8984881864139875 0.7401748179896439 0.08415657354357658
0.6332317403858906 0.9018495173511348 0.7345851500426782 0.10313521186216114
1.4462235241829842 0.9026662384267548 0.7310195753399096 0.09179127702696885
1.4774728016676997 0.9030153227526428 0.74092916686094 0.059680741661372196
0.5739843199781433 0.8966583525509795 0.7284088175127172 0.0409043238020747
0.10632417248723365 0.899766156232438 0.7298410473067646 0.13269604396032464
1.1066540700883047 0.904688218439687 0.7311366150935352 0.08725966654264429
0.9582562952570514 0.9017048132914084 0.7297991049879847 0.10058362352532625
0.9268660359895347 0.9009294882280046 0.7331724423756767 0.133797824668783
1.1268282821058464 0.903806135066881 0.7174287112699418 0.033973234016031764
1.2519164886315808 0.8990210830930203 0.7329907125118689 0.14177003695125298
1.2835394211953992 0.9014881621143965 0.735115080986312 0.060934101352993285
1.3200965817280497 0.9007375011193074 0.7201479725642079 0.01496320392757721
1.358613204290209 0.9059488032235804 0.731903600126478 0.05265516736357805
1.3786838241637234 0.8915845049656169 0.7231031570508392 0.2017039159766893
1.0484797267135364 0.8992273892037955 0.7244510244197889 0.08823123001091651
1.0552706970254462 0.8990204257001055 0.7245770104963322 0.08867948762239002
1.0688822982093702 0.9033978071498394 0.7304322455190616 0.07776264882854626
0.3678519266063396 0.8977121416354619 0.7316976999376806 0.09062784430871308
0.40547852044710336 0.8962422905089761 0.734902943067859 0.06898843536526833
0.45786207264280726 0.8931542802191227 0.7307545853847216 0.05484633571481682
0.4303412933101921 0.896417176208408 0.722556498498785 0.10204119243485456
1.5198051217173 0.8923544340160289 0.7255204097058228 0.06912333153485484
1.5009932780090796 0.8797113893365839 0.7137446487863521 0.03341651742583273
1.4324851072351175 0.8944616648001332 0.7272164383977815 0.1447995656234052
1.4073820303907474 0.9007630831640562 0.7311086202943 0.10245299798018155
1.3935401481186565 0.9041396300265787 0.7320454496874248 0.11908855408972467
1.4503842679549452 0.8905030741123812 0.7181500127492364 0.08132188879004536
1.2060839036736886 0.894311249280473 0.7252576469597536 0.14986365414857294
1.277092478244509 0.8893077610621541 0.7201291342476586 0.12920189488102846
1.1622179444162988 0.8909432607517817 0.722209189073728 0.14617188695813277
1.0349788624054512 0.8917144417610768 0.7287991978405061 0.04612990769063492
1.3664076303964703 0.8813486133788355 0.7125019928140035 0.06550736994829523
0.8227926931912503 0.8759063971045342 0.7121072482546621 0.07661100267219237
1.255135908072731 0.8937535193128345 0.741784264568163 0.16627458500432046
0.790939073600507 0.8875704109497432 0.7033647745813044 0.009812396184115224
0.9481177338813147 0.8767414774674425 0.7127642349800601 0.1977801731633101
0.905448467129641 0.8686057597841169 0.7054231003949718 0.0007687252484134435
0.7537817935117621 0.8988318855183415 0.7269786760967129 0.0706494122652433
1.0086128829662164 0.8906434127922882 0.7160871362729408 0.030339220808061406
1.2485076866179547 0.882090840518224 0.7083705701779653 0.06945207150211505
0.9294522492229974 0.8954431245823908 0.7271232193367344 0.12510301607056015
1.2372114844822133 0.8882372750911132 0.7180376065580522 0.10781917693777295
1.0831780857783908 0.8831419174041317 0.7163992467295778 0.13067061262269272
0.9762033776847431 0.8760957250144946 0.7137942199765208 0.14745483150971253
1.3857020819769401 0.8845388821180635 0.717251589694424 0.19139034385596929
1.219251290567736 0.8923236059412618 0.7168865895101902 0.094171550810166
0.6778270276086419 0.8748187105174259 0.7081928688068948 0.03540156933615452
1.3219869215443882 0.8940785206100781 0.7253091213601048 0.18795989952087194
1.3079505386524353 0.9016448950239785 0.722437627666186 0.12984545213858156
0.9828881823187828 0.8902874980250959 0.7310541091459094 0.17445052383165327
0.6368666377936403 0.8861392279338306 0.7197733735775613 0.10586412071758212
0.7215167035130092 0.8847297344343913 0.716007468958563 0.03881030481044395
0.9946843698929405 0.8970211051319908 0.7211598314113322 0.05324164321799435
0.8834929861966102 0.8987510629728219 0.7246521137877278 0.08879614661256675
0.5046084171552424 0.8846706399458476 0.7180241927727035 0.04035440543155187
0.9407032515012461 0.8977738935004566 0.73374298101396 0.13361381728295735
1.0232570677363262 0.8969006822095535 0.7294473083690662 0.012740085083306736
0.8161387886724837 0.8922893938728088 0.7267303937193592 0.189460581516104
0.9031742140550487 0.894134413064719 0.7176727519762415 0.15088120179064304
0.8504638901141378 0.8949927763393444 0.7203429689790924 0.06166697113852821
0.8260574455468449 0.8957568501687683 0.7330548990967132 0.15110536358957452
0.8673717349197794 0.9016672038274568 0.7324324403796714 0.03962346137504583
0.8639999311048581 0.8957691372649544 0.7216521249658037 0.03779177428711686
0.776917221985309 0.884681776637241 0.7183526667228322 0.09046131716888794
0.37112022266453654 0.8861382320849106 0.7237601769672104 0.07885365444466769
0.6116891385588579 0.8855260792158642 0.7190861582645557 0.09323252859188094
0.5405471263737914 0.8952007435375992 0.7233761926402741 0.04804306024229527
0.7250998791497921 0.8954509325802604 0.7267781185870131 0.09433819048758252
0.5785356587850881 0.8973699660810144 0.7203068788102056 0.0581574293040306
0.6494527331763088 0.8891098334004434 0.7266250979083626 0.076390020627648
0.45331509583985924 0.8862743147319363 0.7178619791295966 0.03440053026152385
0.6688882256713047 0.8952190568253255 0.7168996045548983 0.07587456597027087
0.39794946976340295 0.8809011599450016 0.7177947857637088 0.04612784459219266
0.6761639317878615 0.895553698476781 0.7250752831399531 0.16423094256603635
0.24534045253945694 0.8841523095162402 0.7118668123013886 0.13342079684845604
0.3490360864108548 0.8857670443799623 0.7173559554573032 0.07696324916005938
0.2173809600267885 0.8742698127992072 0.7107148941026267 0.004091474261884824
0.5548836534219884 0.8943468235026671 0.7265968778166589 0.0364297365323909
0.5256920666387331 0.8931911441922641 0.7364473612232909 0.07109994800548784
0.43776800133230653 0.8902997199239076 0.7333986166704298 0.05461101741871275
0.5032695707326297 0.8986294952076482 0.7306950685264189 0.050366274335112274
0.4961000672944853 0.901932131323807 0.7283408419749055 0.04756018109658203
0.25877772269819804 0.8922247148682327 0.711631488912266 0.10893528818555548
0.2655222973742138 0.8930372618353343 0.7338889345979592 0.0756410298359362
0.28813024319064884 0.893579669382506 0.722002795181943 0.06357811819191195
0.33213463681340977 0.8925931078964062 0.723994374925126 0.05827030244362228
0.3094062269432394 0.8985944683167514 0.7248670062881035 0.033718701895187365
0.2940738240946863 0.8982335541691032 0.7308458447855641 0.05229040237180421
0.2564047875816986 0.8939089582266873 0.727487304708363 0.08149901726459445
0.16993418533638194 0.8833180847748237 0.7168954382831088 0.19791915632481938
0.149732323629517 0.9014075364619722 0.731371566583858 0.12965764152443407
0.07391799099079281 0.883493616437636 0.7189860620751132 0.19154676483083155
0.08426510113354617 0.8988204669342418 0.7310756039780841 0.13033993568261182
0.0036361223942003823 0.8381760232272423 0.7309549758075192 0.06946745620485806
0.014646597273687563 0.878510222573548 0.7274248117613901 0.09087478843609943
0.02799844365005508 0.8673608206841856 0.7103336410698594 0.08338352988259627
0.014793057350418373 0.8557554305558698 0.7169745394344016 0.09874745909658833
0.02203789605323744 0.005799401641863603 0.7361692515207151 0.007088580982711775
0.00556119170297969 0.024080881824232413 0.7209962047223842 0.11370829066148416
0.017484737317906545 0.04539797129090786 0.7155576247102294 0.153382965102329
1.5580836511232414 0.009885998679638065 0.7332673926146869 0.013387909168978272
1.5945895568684303 0.0402353226166875 0.7264158090152836 0.053459739595664295
1.5644598480116423 0.018773616786614697 0.7187651712237733 0.010664112542548062
1.5736860769949215 0.016940860699439106 0.7253429362846767 0.015499419247427947
1.5748551925696679 0.889790852787921 0.7208987375060156 0.055397316527288874
1.5405188594030497 0.8888574330149693 0.7184530220468754 0.039103767796466155
1.5652108837668768 0.8912547821763 0.73004528487621 0.06170643918304031
1.5140703537882503 0.43564138494642873 0.6426068059757131 0.01614845008963486
1.5107301892371159 0.44237167910724395 0.6097416826171809 0.01667918693953691
1.5132834827785235 0.44844048231660194 0.6368226022230479 0.014498967642344027
1.5139789264639103 0.4729001081484738 0.6480568479079964 0.021307623491634023
1.5166843353967046 0.48653525422192784 0.5483275718362516 0.02229155112664261
1.520904716379852 0.4638366777167219 0.5452921844208394 0.012443061115087575
1.5157652163675774 0.4634976656639464 0.6022601058795234 0.009139787733659633
1.5163172388477892 0.47164722490285954 0.5751785885121046 0.04435448131744668
1.5173104520009955 0.47089731482519576 0.6276161834278807 0.02357837285651986
1.5150380965830272 0.4578423363817066 0.5715919896014391 0.01237418015596446
1.511021683793898 0.4464537515637462 0.5489137576889159 0.010169727775577307
1.5131351446572119 0.4591299710470238 0.6271592005950835 0.02252526531696326
1.5170007848924882 0.45542428254452316 0.6476749094042697 0.035453990105358366
1.514135938831572 0.4602272849082825 0.6132913180386329 0.010745341697034002
1.508367199824256 0.45304302781522465 0.5948127186495931 0.0051649362500133696
1.5142748898051395 0.4270110262486905 0.5245979504410867 0.02671807323876128
1.5123690427483698 0.44869664577152457 0.5291184544728108 0.018745977174354056
1.5146599863633794 0.422902988039785 0.5386939546080374 0.01737986570164881
1.5170926942324343 0.4387575656742576 0.5402712904171088 0.0140126156605572
1.5164011367257482 0.45474556463799654 0.5160995094725933 0.014608994107196809
1.5150191875721901 0.4361933375691571 0.5659897063854603 0.01153701839783183
1.5180425580381318 0.4307194516572986 0.5663586498352539 0.009599151766092419
1.5132643750606347 0.42864981465202057 0.5988755013885607 0.0339651769022364
1.5146996322811868 0.4341183421187045 0.6485923285427637 0.02030963966376052
1.5068994018712007 0.40563160390586145 0.5417823366621064 0.007767287489912637
1.5155296060910135 0.4164123348041557 0.5211608478821971 0.026951467499520956
1.5057518881282899 0.40629598671124245 0.5680755926125362 0.02225378424024009
1.513227595831623 0.41932029446265245 0.6209464415774233 0.031611979880020416
1.5058149699662946 0.43408310897276736 0.6289207968039705 0.012541231591605827
1.5070155869805515 0.4109529421766685 0.5519318518648417 0.014838418911136705
1.488249336918314 0.40859401920970373 0.5999842420780017 0.005739561770305899
1.5036243630533266 0.41368545248724653 0.6353943690897583 0.04238975395258996
1.507695515844051 0.4084374167556863 0.5803921777717487 0.01891120505026937
1.503993541477906 0.4873489162452304 0.6412121925276173 0.008280495251560244
1.4936608471095942 0.4915960700971449 0.5777496143472007 0.008662913348064419
1.5120326596495377 0.4911014689565102 0.6121065010389923 0.05457558428641807
1.5137659512673547 0.4954687633019853 0.5457033001852173 0.014490045727697099
1.5113269498490554 0.4881869110519582 0.56045424083877 0.05582010702687662
1.5237835067092207 0.47915466522534145 0.522495019489171 0.01339465465913644
1.5192298379008264 0.48388556910158265 0.5933892761443337 0.04602384804056447
1.5138177116616744 0.27711975584039894 0.29073883811981854 -7.694141810486871e-13
1.5319825057490983 0.24388233111631274 0.28391043549756145 0.08507027009878786
1.5445652957495797 0.13304433591881515 0.11663782334187214 0.02744486080190661
1.5475572265293613 0.11649428345347512 0.06344814715233958 0.04847945364058108
1.5688412252087893 0.08107229060311912 0.05300000486103558 0.10237036369720352
1.5988616118773056 0.06139194229674958 0.0029744126942472214 0.1263548459506866
1.5300158469846339 0.36314297651988336 0.3919074139373102 0.034196524623371416
1.5386385160699898 0.3365623972367977 0.3960328838190716 0.05955266339577508
1.5297222997478568 0.35336792828360286 0.42034971595881326 0.039326394167142835
1.5425570612777875 0.3571066669897281 0.40487181281092294 0.019810829818685063
1.5465523746171086 0.33252899056308793 0.3741184411216498 0.0631484972440635
1.538041066283838 0.3216755995285012 0.36607852988177747 0.06509203572261317
1.5403059098441558 0.29829516489763763 0.3541574775692572 0.07438515911269754
1.5411633674133696 0.33104685200122247 0.35563547193779266 0.0472133184192095
1.5452675906810522 0.3097236346998759 0.33440218356232376 0.03517243374194413
1.5430991762701647 0.2972474443786804 0.32084918550415176 0.06149415434506544
1.5550062715358977 0.28080745072717106 0.3139562069738157 0.03540546538665323
1.5502630644873017 0.28620779127997603 0.3014507829838971 0.18047527866286706
1.555100861548742 0.25505245737297055 0.27249184509840707 0.12698764209397057
1.5552503553387944 0.2634722674067535 0.24692459385961593 0.1288979546437046
1.5694339822053214 0.24052673212292278 0.26196466189395234 0.07110806058649762
1.5539235282314772 0.24493880724407163 0.23311280548390143 0.1822027351189023
1.555635925896498 0.23084272211779383 0.21881233439054687 0.13005252717395027
1.5639467702601757 0.22222322187183036 0.2068198032507078 0.09871626885031538
1.5545690694055596 0.20845513960872114 0.2066120026539909 0.1072414674823792
1.5648918869533202 0.2263861491428935 0.1947039534841568 0.07734500499996266
1.5623215934193366 0.20861318390697717 0.17115342354012505 0.052494234482382954
1.57640857365508 0.19754142132535776 0.18321967009729798 0.030538802213745487
1.5701412699156678 0.18381915277100072 0.1748682667919672 0.08849403752200759
1.570998971997814 0.18893261144838638 0.1685007514446671 0.08705576614406602
1.5671768551063516 0.1756225882722357 0.165863347502586 0.1191369295865924
1.5659603947439589 0.19120212044721074 0.15399000597508616 0.13816033610622758
1.574282297097076 0.16406081800138966 0.12382087922020234 0.03149151597660274
1.5756340129397022 0.1360532978631206 0.11247232956347701 0.07795087619545364
1.5833891255770507 0.14668769439713092 0.09842064089760266 0.0197220027857057
1.5707623821178711 0.14962215162758893 0.11555118293823854 0.0885287253330915
1.5785328655986453 0.16311548007640564 0.11760149600982461 0.03260867071154687
1.585872706605504 0.12468527229456512 0.09291174022307448 0.029992308687147858
1.576082695165886 0.13619516642506538 0.1038035232982364 0.06765383886133182
1.5784177609716143 0.1499739801334724 0.094120074184617 0.030222822413230235
1.5782592043824328 0.11520039834407622 0.053077894858920754 0.1623810325680282
1.5902384178386397 0.10985224412976842 0.045293687583376104 0.06524380270202808
1.5780850928911914 0.13078077455771966 0.07427196576570225 0.1042266897260555
1.587181379686313 0.10598820633970327 0.05521833542533307 0.09113162524582391
1.5999200604275072 0.07369727189518693 0.023821281755065274 0.07238330054649943
1.5944395534302902 0.09195748293280252 0.025893695152824116 0.05232186680581812
1.589262134995494 0.08429153184620977 0.00697618923807265 0.20943339118413334
1.590667444144414 0.08002704078380625 0.0016637197687243133 0.20240907365521454
1.5262499917462036 0.36720517121065 0.43453511010349843 0.03942208493183418
1.5235247748365643 0.3694037104524608 0.42491220432801036 0.02892614467722451
1.5229352890433612 0.3950484775857684 0.441583778646541 0.01734985882755125
1.5308758982774833 0.36737557966506224 0.45043539643710856 0.046833224692123705
1.5297585019318645 0.38952282542827227 0.4294167630802887 0.007980908136533616
1.5174730157558551 0.4031149373208963 0.4646982676633597 0.021299077615476145
1.521066505887911 0.4287453939837815 0.47263287610752414 0.004360313338090534
1.5124877499933258 0.4073911254086234 0.48146055762582196 0.04561719886423545
1.5163184925308684 0.4007744780905814 0.5067957738919363 0.05435112004738923
1.507839325492019 0.4207327239459521 0.5024928219212409 0.0392941093808447
1.5112154264858726 0.4257719517670992 0.4870597068964847 0.061765558854619394
1.5339028839189983 0.3160996843007732 0.3122722350277174 0.022283047592674646
1.5442244520580057 0.23024190220423707 0.18842885762624695 0.13125094876701743
1.551463552411514 0.2018573241266466 0.14863316424886627 0.030354487837955704
1.5671272579067281 0.1377422916673586 0.05797529957474164 0.04709753210868546
1.5771452388032579 0.10670970355297822 0.02206991958697062 0.1095417036650645
1.525980281319534 0.33053208415102603 0.33092648394814445 0.01428807106907579
1.5233663563666073 0.3459856598213153 0.3463142060256241 0.01952183485035186
1.521751480570673 0.40623705941557964 0.43867611628036346 0.010873157019229494
1.562789463507416 0.13380442342604867 0.13632742250639215 0.12517544538553116
1.5673579987432373 0.11866929927177346 0.11761990628993403 0.09246554904840905
1.5702546226071679 0.10192572126731773 0.09016013222016644 0.15776563020796944
1.5866289536653402 0.0717466452500321 0.036613620503850794 0.07038845040060322
1.5945380235412066 0.0566251732189306 0.006289546883816201 0.15552776666640467
1.574614580189322 0.1510069605254135 0.1602132272300807 0.04721073136677199
1.5639784141532285 0.17140016947356948 0.16936097911775513 0.12976553131199983
1.5635470146827213 0.17717739696313767 0.18455817232463592 0.07758742802236589
1.5525702092647398 0.1862671132908775 0.20344981696380168 0.02310651776211909
1.5518580953261112 0.20624292923093548 0.2313793476362355 0.05715456207850212
1.5451383450774032 0.23512195923509788 0.26765371742056787 0.137900203672829
1.5378236465454278 0.2442929489171014 0.28198391157491354 0.03494147140174928
1.5377322648713925 0.26234781163992327 0.31428251192802703 0.14751632743735296
1.5516681967574604 0.2608135973440065 0.29880585614781346 0.04771578380585138
1.5280451737203018 0.2721637226834687 0.3376384195989656 0.07122051864921848
1.533457275483017 0.2853656748352253 0.35004337106270494 0.056529308346112306
1.5358713324175421 0.30728232880450135 0.3655755018608843 0.07215652841213606
1.5315772255819475 0.3113917038619692 0.3785009633324279 0.05459103576341222
1.5167793924289457 0.31869925492972245 0.3999946082949593 0.013779511405390726
1.5200227441003942 0.32203984815305314 0.3964332179294687 0.04802331787050423
1.523663659855907 0.33911613257006434 0.429547395489911 0.05539249318084239
1.5276782933823323 0.352459223524094 0.44007119542203804 0.05842181660071234
1.5107638076459435 0.36331517683693343 0.46393868595697985 0.014234973543400371
1.5007061575346767 0.39256549739139074 0.49975958955150784 0.01649561335572002
1.5764692751162215 0.05506727396882664 0.02578013819648652 0.04821763386640763
1.5463980055563438 0.19662478103688838 0.23263708479427983 0.03538106900498225
1.5139052292838626 0.2875395656436758 0.35492594074905776 0.0025256037808298803
1.5340178683228476 0.23848114967034847 0.2782037744426487 0.0391767330147427
1.5475906618833837 0.15146763228482651 0.15328090425797902 0.03312926056734271
1.5515772346485897 0.16482267813020482 0.16775175987206206 0.16284069565351084
1.531980930070112 0.22327541962331224 0.2558484263246096 0.04358450900932244
1.5586757095293506 0.08829323741159073 0.07550502672769109 0.14234507096486543
1.5542760295090639 0.258085578809844 0.28811523531846994 0.07743996695667842
1.5311739036779242 0.38515281309377003 0.4757836893722071 0.06021946859792959
1.5802205962100426 0.11767867927504091 0.09401462777904587 0.0387825702840724
1.5857557010536667 0.10284809167514808 0.0800903570351283 0.05107838139865664
1.5847811226269195 0.09601334379697936 0.06065727632639754 0.09168148339189743
1.5725748425024213 0.13769554543082743 0.1336166937886733 0.09691834799251015
1.5303097796739877 0.3182433854899427 0.38937873945451373 0.06929629256530333
1.5246015426959887 0.3708377708091134 0.46596407307717214 0.06911870066795689
1.5260559933715219 0.3798739573297492 0.4771001183351581 0.075743854059026
1.560493753650693 0.2031541975507495 0.2005136756622508 0.05509568006119255
1.5782440565687963 0.15994886687711732 0.15116567472188117 0.05447258345306625
1.5358830823268244 0.34800651923550946 0.43642107248106665 0.047169550212571375
1.557344091406182 0.21903925812656297 0.2346903169843721 0.07565339143171694
1.559864927221435 0.22279101774358506 0.2622381899231628 0.07034369478594578
1.5696796292821353 0.1860819632565297 0.19758856810927491 0.04026567105471803
1.5842701895921363 0.08462737087604331 0.05166203959577313 0.13156986336893522
1.5751870505456442 0.12364140664592956 0.0981442244908 0.09890161430640916
1.5494133234738203 0.2728038296367663 0.3273731596515894 0.027174579301774224
1.5945575683868043 0.06043099742433461 0.011913586566115374 0.1359915304263836
1.502764216156941 0.4369766126738788 0.5011754035258249 0.015091506889252615
1.5822661907795008 0.08517378849859875 -0.00034746695345175965 0.13388943681611415
1.566025997302663 0.1939736164463618 0.14346703548198111 0.03293956381430994
1.528769056143944 0.3596142167818454 0.3787167376354396 0.016929664262233895
1.550530007115037 0.2883019880255356 0.27774090842057725 0.003814573792352961
1.5475539038773485 0.3068017269516795 0.30099113785879 0.010193901515277801
1.5712783460298578 0.11668445711210237 0.03761306833986203 0.15893160776479065
1.5278069441910807 0.38631305723125436 0.40361448229145896 0.03543259987548357
1.5519266318881952 0.26417458496005847 0.2427709326299336 0.11574525151947829
1.5574478442444804 0.24198067391353198 0.21684267618186504 0.10834108571312843
1.5767164051824063 0.172645976980863 0.1164866573696605 0.022649235506931684
1.5320856915974386 0.32759406367803784 0.3322939479674596 0.03251174579975751
1.5327790349933783 0.3469147239562447 0.3705490736314527 0.09546821233510774
1.5524644446678295 0.08603933641276525 0.006155582427854452 0.00024060876457204338
1.531838384110372 0.23012370644600472 0.18860811599381014 0.14468616779376942
1.521995947965145 0.2541555825800737 0.22713557223441133 0.0086683988654508
1.5101753178006692 0.4961323758507903 0.5224433861567049 0.007881053387910274
1.5017882102557243 0.5580248482775008 0.3998011614779775 0.18709912024105738
1.498439273844807 0.5886882336283782 0.367545216798936 0.0924427437679141
1.5121477210623042 0.5915957400800556 0.3414470875287384 0.22677224879945007
1.5127692148722944 0.5932373735336437 0.3375454698076336 0.18180101955186864
1.5134677840258997 0.60095775165691 0.3231793569227173 0.2303408015650016
1.5167602671923541 0.6013354463702811 0.3442298726892777 0.19088037163845847
1.5133586106126988 0.6301403584772697 0.3078695315693868 0.12110808955944194
1.5317591808932822 0.6724705189223121 0.2537856644609615 0.15407392354167107
1.5302957730951434 0.6578984650804037 0.23899215538830298 0.17823470297898766
1.5419468639529956 0.6808566667926343 0.23412287428727618 0.18911128214628523
1.5297006071093013 0.6746329859746888 0.21680036827308047 0.18690997137766158
1.5232556470370047 0.6826791203184464 0.20681946520234806 0.12638509839971776
1.5466037848120033 0.7055810542326418 0.21690556372414085 0.17557789495410897
1.5400233470731035 0.7028792739436368 0.19274882102504148 0.18026278845661453
1.5405260588923193 0.7076734301775507 0.18823321089513967 0.1845646110560179
1.5403883043015438 0.6994441246899856 0.16903476638772424 0.17796990360976203
1.5405084217969547 0.6988627210675559 0.16480584476560017 0.12164750023655281
1.5475408721695758 0.7213932523483358 0.1694686984982067 0.18237332004414222
1.5450101465060826 0.7228370429090424 0.1475871651243081 0.1468251466291995
1.546483844267005 0.7444346531551818 0.15998483322255178 0.14523989759200326
1.5446244341361455 0.7505351563915733 0.1420914936326495 0.11754613638842784
1.5458434202398192 0.7449557561112393 0.11785843499404781 0.1394082574187388
1.5560544995203514 0.7604399120042789 0.11601647514658017 0.13418194181069928
1.5560967603089468 0.7611852970855157 0.09313781980512116 0.1434959652570629
1.5618911934918018 0.7998243243837259 0.07822960876904578 0.104571446287401
1.5521880383239899 0.778522605921653 0.08027742589840782 0.14457728561609764
1.5537700030419603 0.796136272550784 0.056644335196244816 0.15923594740052233
1.5674254800710246 0.8316370228425513 0.017347722365105518 0.20778636959894964
1.555138069117031 0.8076785485290553 0.01946800393925313 0.08539514997938522
1.57125848134005 0.8431413871117446 0.01432681137460278 0.2051708816935072
1.567319613136752 0.8221267285058752 -0.003212424481191032 0.11038696793535228
1.5020747861619703 0.5423538177774394 0.412731078021339 0.23833900201739322
1.5062269962558148 0.5369732874209202 0.42856381945815575 0.2404958202790405
1.4935542976231886 0.5230254017462059 0.42168812433842784 0.15979641914080386
1.4916647463365427 0.5221689726102601 0.4373647031406549 0.1491837765519341
1.587757143244098 0.818982044788826 -0.0013054020329715643 0.13593653167181496
1.5954545556474138 0.8395026235805874 -0.0025582039707716954 0.2591024433004573
1.5846479932893411 0.8512883289840568 0.0018597177017912014 0.20041929054226085
1.540263571651439 0.5767584064825921 0.3652280442003711 0.17400579128256033
1.5418519037629217 0.5938443614577918 0.3518400428183866 0.158751934590066
1.531928383214763 0.578611089657247 0.3742692318372391 0.15238830426690164
1.5296876011677678 0.5623584989011594 0.3878007363242145 0.11699941723391337
1.5376210499687772 0.5598050138810021 0.4038971011621045 0.11256937603035748
1.5360015687686799 0.5499855946047567 0.4037032312667962 0.16460942376775828
1.5325689280402546 0.5442271660401103 0.4103072215683449 0.1760633462422422
1.5294584372075144 0.5385396460245386 0.41099641114865404 0.2515677648334973
1.5374736854473987 0.5229216746943912 0.4299371028607057 0.11842741129172503
1.5232104533542152 0.5165383189326281 0.444848137808714 0.18251129732462332
1.5336672637330246 0.5091770356392338 0.47764409040205275 0.07310399495117254
1.5229487445920482 0.4925402734936848 0.47729415428048305 0.09090432639270199
1.5202305070906974 0.4824085893268993 0.4926787209001707 0.038752847065973976
1.5172574250714388 0.4807944099435594 0.4995061678365899 0.03660167668056903
1.5206402516427027 0.47246580615855605 0.4884645698372127 0.009154823522089904
1.5376338013724598 0.5751530655279613 0.3505221271290949 0.1728884259716098
1.5350696455512967 0.5706046872548464 0.3462763700107521 0.21378165067236837
1.5392334796951124 0.5718425425283327 0.3394609535588894 0.2172031867998626
1.5404373377670806 0.5864910189886962 0.32615811419214047 0.19456689220846554
1.543893123212049 0.5992845845650464 0.33198199789187094 0.19985546190634773
1.5462322306073364 0.5978652784100037 0.3178132773975861 0.15520961442491718
1.543232235757641 0.6182956145803887 0.32214958661524246 0.1648509283059415
1.5427252506247657 0.6234312997454553 0.3110026349552333 0.15434813736649933
1.555043002313706 0.6361443365464715 0.30091774056069337 0.05706308556667776
1.5476824131183624 0.6265332491336347 0.28372950930867713 0.05476828799881583
1.5441048476078698 0.627994132226687 0.29465548884366644 0.13702769632194503
1.5572189381916892 0.6406173016470488 0.2760736169510275 0.04969451673564596
1.5614405176524115 0.6511811082627889 0.26330614560789034 0.09311939845013985
1.557065632547632 0.6423745307621878 0.25774916066743375 0.1358114716843063
1.5647354611888604 0.6625331575672402 0.2521466854672102 0.12555204796509473
1.554294838528494 0.6495703477639998 0.22683955234866687 0.1235965812306134
1.5532490047746963 0.6478885094189685 0.2412306779140086 0.15786750714830172
1.5614104235406556 0.6697413001346396 0.22324600814140322 0.1641707944571074
1.5622395158972808 0.6706104529871159 0.21921222930740986 0.159001628867142
1.5628897186814787 0.6863434331554227 0.21725459906351738 0.1423913577082519
1.562013816231994 0.6783271623270156 0.20349713293350236 0.20415876922577053
1.5690321463331816 0.6985397245953939 0.19359218025531974 0.1314374408400519
1.564586477319924 0.6911047417862443 0.17304604326945078 0.14452431342909078
1.5663579689509617 0.7207452677902918 0.17426004595816671 0.17751450111611564
1.5659522210510244 0.7087361145601148 0.15476985026370793 0.1467647891504662
1.5736932722630357 0.7202374889766318 0.15989592014101342 0.14936217579075284
1.5678351612053638 0.7320152227375472 0.15655305206355913 0.15963958892122232
1.568017262549025 0.7421814059284388 0.1343688332924635 0.13309794493803412
1.569132766436887 0.7420864322559352 0.12327777779698114 0.1301956524990704
1.5758921640257388 0.7480855651141572 0.14377375904658835 0.16537209478269999
1.5757856490191156 0.7544377995112199 0.1123296236652497 0.10599691176216262
1.577121829277244 0.757404134341332 0.1032991042167625 0.1406240958979439
1.5822524050019566 0.7792635062973894 0.08670800003411865 0.14074811059256004
1.5860933285753693 0.7652851801183536 0.08664891647374182 0.15576800086189357
1.5821699278219026 0.7682912693837765 0.07581247708480486 0.13795889230258324
1.5865356059337137 0.7894339038068593 0.07557327221065466 0.16981369571254473
1.5832441463419238 0.7780513823975997 0.051489846413716615 0.11657477542698741
1.5847074950738704 0.7932688647144903 0.02723818005188097 0.13658405000977733
1.5960587170272316 0.8158044016471218 0.03747863687048709 0.09059247279924984
1.5893167334573979 0.8132875868086588 0.021452751033797873 0.17972014736708197
1.5935434338908039 0.8276523287252814 0.0164773093059104 0.12825562473094534
1.5676169522814751 0.7367166058267154 0.10423208809905456 0.15635783989255647
1.577998065946038 0.802498451649123 -0.002499554157998544 0.197650938032677
1.5497230939785303 0.6781177959473411 0.19038368961901075 0.18080409953534884
1.5479828077530573 0.6625399921090223 0.20739266567089368 0.1837116651803647
1.5309099080615902 0.6303044118350981 0.24305366725125838 0.032181631815735426
1.543476550693645 0.6275044860348017 0.26239157942716707 0.07104556737545069
1.5413637387182473 0.6205689052665941 0.2725116338110688 0.069044133135261
1.5310598732697815 0.580797119204394 0.32298201399436816 0.1851959154185214
1.525672580811643 0.5521274216545812 0.3579525352521758 0.011290293032744753
1.5253597593300812 0.5280411286971834 0.4012326407467267 0.21348003411936742
1.5199546989330108 0.5183548289394827 0.41295653717511727 0.21365542528140105
1.5113371386705026 0.5061831172797272 0.43012241567304055 0.08717017719806236
1.5161919743920438 0.48316555415440404 0.4722326637147297 0.04985452822291249
1.5367564339314348 0.6323284883148854 0.30982018867122946 0.14184587251995984
1.5544839294681194 0.666620158715464 0.27351915728233217 0.08914236598060031
1.5367143311756564 0.6499127374061257 0.2929938588477242 0.16913311814894716
1.5356601281135869 0.6722293582131444 0.26004202592340236 0.13148366805330763
1.550116541823826 0.6723332318857 0.2495472722082176 0.1596645177288152
1.5554469498529697 0.7017258072180513 0.21087967128906657 0.1865888819808466
1.557679038044563 0.715440374780986 0.21361356289125752 0.16087729811251128
1.5490516339709581 0.724619995274115 0.19436948740778476 0.10964041081797556
1.5580298971773452 0.7436389823435932 0.17981652624146485 0.0706025579094399
1.5556798312072488 0.7501333818298908 0.14949677750936222 0.1579951339904051
1.5594866545377082 0.7572054936422761 0.14432205698262912 0.09822185500153482
1.5732788450054698 0.7714220404517582 0.12286886347132192 0.09983793710794622
1.5621153316047054 0.7567381362147623 0.13284167083507087 0.1657288703443118
1.5672142966862193 0.7930071648471856 0.08199119228911922 0.1388941658285419
1.5703742859343608 0.8010835176764669 0.07689702730967879 0.21053074978480907
1.5699427090737843 0.8194011665093469 0.05693053265721559 0.049253367227197926
1.5777977105024685 0.8304002210639387 0.03502062468630972 0.15349275205979504
1.5715471483828256 0.8370605610470954 0.028485114965186333 0.1723497277637072
1.5185610808476189 0.6305751311813722 0.33183601856173894 0.09747520980799725
1.529254451007473 0.622312043897212 0.3319193627479699 0.16609864665446492
1.5377912321796434 0.6180497387286943 0.34703558083541 0.17554966804353597
1.5324248742495186 0.605529613383528 0.36969357971472255 0.14538397401496891
1.5351839842914865 0.5847389690552421 0.38652511247891774 0.07325293942958719
1.5221196555087626 0.5656883139198925 0.4081332754577908 0.14102163872355097
1.523732577864793 0.5563257956315374 0.42269085776064014 0.19326369342071764
1.5196648339167338 0.5518205752151423 0.43413118672105994 0.1598887940576999
1.5142912332329677 0.5181561801647006 0.47948025693028823 0.12942203259766258
1.5030917251340234 0.5202675042710351 0.4910689602843768 0.060082570302413825
1.5182013857897056 0.4925204322738488 0.5066292116452156 0.04625873979187253
1.5481845927070643 0.7326291651489051 0.16624956638842742 0.14898822968815711
1.5427606084755925 0.7001483237915942 0.22396871240187533 0.1337892313428393
1.5068429987805834 0.5697978718019906 0.41325834702254144 0.15217141415614321
1.520643032154923 0.602056094108696 0.3543767679440425 0.20113786682489637
1.5180608627110792 0.5860376016376717 0.39492340662102887 0.0695705379728519
1.520634639228383 0.6610051208835356 0.2819071136138079 0.011218100110150116
1.5105834458129186 0.5572067087173773 0.41897010295105114 0.2030313785756358
1.5113184642812791 0.548017855637267 0.43000552794795943 0.21512643621722072
1.508574811430299 0.5719335553972564 0.398874549880342 0.08597593115420739
1.5001343593140495 0.5370053045652448 0.4570606032499114 0.07754147996581741
1.5359966631965951 0.6786090944868921 0.2565494518696301 0.12944029741161042
1.564152734761087 0.8113979990682072 0.055558479479734045 0.17464820377778603
1.5616580004923841 0.7700742736183256 0.1092528147123879 0.14948965049957805
1.5546115713955204 0.7976750695925049 0.08480027966448798 0.04814236938750013
1.5226205764595577 0.6235166223690369 0.33911185064514643 0.12560219782898582
1.50758578633601 0.5923995456041096 0.3762905467713233 0.11123328283500902
1.579421459080119 0.8517686892439815 0.014809166392290482 0.21345306110971127
1.5917779339308322 0.8378687606637838 0.012820936015473365 0.1942924034551446
1.5809547606501932 0.8115211361888005 0.0682182813273533 0.13272883972566432
1.5743539662779729 0.7506877410689402 0.15538644915355798 0.08340159722635045
1.5645109577821015 0.680242260927756 0.2324287629364927 0.12274135993795274
1.5794088466517315 0.7587406400966373 0.13290867997606168 0.15445011184818896
1.5569304849317005 0.6440725522766039 0.279211429000929 0.04625927757012242
1.549188124423748 0.6438599187954749 0.29702157589285516 0.1538737522418985
1.5380948609599108 0.5859004942022248 0.36865098670115676 0.20066240031063118
