x y z curv
1.0345345779776263 0.6057414845666913 0.16780214619635847 0.007557647660451315
0.9994393690186558 0.6035045636072697 0.2466373860071803 0.013132054872309574
1.1926844879218552 0.6085828419134162 0.24604572451006396 0.013233702281580656
1.06200462344371 0.6104320560376012 0.3220173720822596 0.00858855621294433
1.0662764023288358 0.6087934827705458 0.1841283755344488 0.010586453761141318
1.1751921054532668 0.5997640260250247 0.21559804091167756 0.0051036607049968945
0.8781350555161161 0.6057661627182034 0.10200891405250652 0.016778726835783464
1.1053583922812873 0.603462120852819 0.30566476599328635 0.00921861471779462
0.8935889675985871 0.6038992768130235 0.1093038091309535 0.01047158521799678
1.0829974890872875 0.610292394457348 0.20629961753556147 0.007187559386676347
0.8382277523583685 0.6025823988995141 0.07875303866107129 2.2942290637082856e-06
0.9464986180419704 0.6050921401964617 0.14455671271843273 0.008684079218176854
0.9084061869415379 0.6011246477912773 0.11879675033369115 0.0019658005516973603
1.1100916025646548 0.6008527387938478 0.32402574205453044 0.002624464007973249
1.0907504776478871 0.6064533916460321 0.2869117411174436 0.006924741139732603
0.8887405008480445 0.5974481586180103 0.1732329124519101 0.0028098475662193946
1.0328380853613268 0.6065555423132425 0.26515040965901027 0.015826764783630255
1.0434074668700755 0.6092755449929763 0.19806453469423704 0.010114040332296717
1.172198029930933 0.6042565126347874 0.3788637843009199 0.020866649780871514
1.041018399532411 0.6063192957081953 0.21518322697575543 0.01933053888278258
1.1244916486128826 0.6032096959394518 0.2630726307801064 0.00847007254367352
1.0929068464833167 0.607557015193558 0.25159065604854597 0.009532644239955737
1.154306627184757 0.6022876191164956 0.21418629734340802 0.002876953185955929
0.9745353737686367 0.6073107714723343 0.15916791089598697 0.00629694359331134
1.0135573977732122 0.6091211670100094 0.20968251804122826 0.011394130464452566
0.9409214694259606 0.6066685880944527 0.2364780903431973 0.010289403868362612
1.0627663032591907 0.6011124258187281 0.3071569019728427 0.013621674011100069
1.1329234841228066 0.6066243731533173 0.311903612476031 0.010386472506900078
1.1501773115817442 0.5990686473570647 0.3733747905253152 0.005649886253789644
1.1637510051298254 0.6037948624309262 0.3470465922935285 0.012321399704401246
0.9610264168306097 0.6012293564133226 0.1660381785720863 0.0033138687452026285
1.152513786183981 0.6061144284878627 0.2324177056217834 0.0042368663273577994
1.072853371091707 0.6072421461278442 0.252758722701869 0.010121475999504427
0.9273774628727106 0.5959339365252494 0.1874102076569216 0.005486384604671182
0.9398882577715015 0.6062765035934783 0.2216246208175326 0.008196766550456076
1.1920101496379312 0.6076822741283413 0.27693201440950205 0.017712991297717674
1.1372499603414294 0.6038893297433537 0.254572854996416 0.00926768002500364
1.0873040214114649 0.6023519958311354 0.3376272471707558 0.015202905982337495
0.880352498923718 0.6076732991782637 0.051182043354390507 0.03813168610848466
0.9679942579654182 0.6029729820958207 0.12340591609877559 0.00595882692596628
0.9129746867128835 0.6060644597234724 0.07458739715497022 0.006772420660921165
1.0568973674445001 0.5949325272974363 0.09110131437140108 0.001519109897105941
1.0745006918366795 0.6042153738568897 0.13452326544158993 0.006323447522290825
0.9369974351705869 0.6045885219256611 0.06618839922971974 0.0070844935814851195
1.0214658688628013 0.6058996359008393 0.14521201864394265 0.0054641192929894685
0.9524174296879373 0.5987447386867945 0.11371516092862667 0.006312776212115012
1.1606392809488812 0.6011377049179917 0.15632829496157713 0.008089280623501933
0.8513962459022177 0.609123601292579 0.04733133243771208 0.0017510756762184397
1.024595559203445 0.6059210472686671 0.1360743984099559 0.005041839160941318
0.8980878472854741 0.6090971041704908 0.06399159978223062 0.02003089589066515
1.2102948812138274 0.6037860005608747 0.1466077821762264 0.03284873819587459
1.1515703978508784 0.6069114611999435 0.17232168373773743 0.0036589752097051383
0.9517843986056095 0.6058504328611041 0.07198146203135772 0.004256375580149981
1.0881820792083345 0.603773707818128 0.12693208347969537 0.0030254922739894894
1.152742208727046 0.5953649441576374 0.1211805570948115 0.006320213250167884
1.1637228047932162 0.599053333986372 0.19398870011970487 0.006870881477036871
1.062515758076277 0.6057421426001132 0.14095713974045612 0.0038051171716088476
1.1053521244784994 0.6056204442156548 0.11107210522114012 0.004335331102066734
1.0533959880885166 0.605381564195409 0.12770510028780252 0.009143717968559235
1.1305261419467048 0.5993784991199061 0.15838540610806742 0.004571017738619882
1.0553939695770447 0.6013170651625513 0.15689542286113692 0.0034477129276076256
1.0257437608640796 0.6044608791361312 0.07869416830434099 0.005052400503927866
1.078748206569294 0.6060657643741771 0.16289574501011542 0.005768557786150685
1.0052495460672146 0.6092087768027209 0.08869572825300552 0.004852129750083077
0.8965321009875431 0.606372893909622 0.08815394652629002 0.0239163633569582
1.1867500288866943 0.6101879489629191 0.12247984726476543 0.003908739567263766
1.0963205078007128 0.6045554616408068 0.08801657048138097 0.006841849572845253
1.123522502236712 0.6031719150016573 0.17256911625299748 0.00697432635956655
0.975925455299253 0.5994732508683875 0.09340685382080122 0.004468647275760179
1.0953475118433205 0.6061951944222671 0.15305730251050909 0.002533915843900245
1.1965304921403728 0.6038384970609166 0.14373816117039706 0.005969683020129412
1.0822624374384708 0.608413986742812 0.10873286690768177 0.010464481259799688
1.0744784141991979 0.6056062662706452 0.11280190530260432 0.011517695275735162
0.9817304464054206 0.6061186574786193 0.11227058902235379 0.0044324206952274636
0.9339337144377343 0.5979981959800089 0.08199516984310411 0.0010339489586404086
1.0999096436347686 0.6028111770025799 0.1300707203331105 0.00397018761155554
0.9880686617080247 0.6061214496343221 0.09972954382397986 0.006793729473947172
1.0364403913523819 0.6030768504382836 0.09676899480320318 0.00998796911315676
0.988656076851947 0.6069842297220764 0.11523224989973245 0.008027067771776626
0.9269726689384975 0.6032201037838464 0.08602264879124583 0.005120162462365981
1.200293509944011 0.6067206971477864 0.1812369468150492 0.018496115214328254
1.0135184605539571 0.6060129491660526 0.087689138438022 0.006612265768580802
1.1174397716307198 0.6036819893163023 0.14682279561793166 0.0037928091058838363
1.0257526640562886 0.6023954085242809 0.11428436364047873 0.007452642519502536
0.8946982084848463 0.6071352176664805 0.05196632654950003 0.011351564405685473
0.9048221035715418 0.6042386516962708 0.08760312657219625 0.020970140500445114
1.0827208683323806 0.6083390857876074 0.1493350928587807 0.0034906348372051436
1.162281533154208 0.6002970851433396 0.12955185509089637 0.013427028657138133
1.0303345834928574 0.6066711768454137 0.1394907139130611 0.004904935964856178
0.903164780673557 0.6075424017857033 0.07628622046841453 0.01765665207847637
0.9740261890569272 0.605055579855991 0.02623017665874498 0.0024493691951562925
0.8447905561414317 0.6078333679464752 0.00046523909583059096 0.0024343394151666816
1.1132448931092123 0.610319237310876 0.041281402304319634 0.008495851470204112
1.1849887529028258 0.6036762767723038 0.021546935901187378 0.00907821751498642
0.9201211447660443 0.6046149847595355 0.04204047278954192 0.01090303925611738
0.9606536702879668 0.6051678952541848 0.05731131879378496 0.004113139437342166
1.1889775101110955 0.6030343258087213 0.08704526954395439 0.004801083529702221
1.0131869718107722 0.6044254997626298 0.06652746258142736 0.004815351636747298
0.8323826606881355 0.5992662079258143 0.026975732054615547 1.9012428816461116e-06
1.0777390766719952 0.6063247218252598 0.05556254327849297 0.00859725387394958
1.0093458372996775 0.6053040251769963 0.053084736912552825 0.006301459942879238
0.9197275308802987 0.610785086665675 0.0003355075450674673 0.016266048285248958
1.173419666668332 0.604675374987521 0.10159201200729662 0.013415939084837871
1.1419685473810914 0.6049818491849945 0.09849377409302135 0.0069050266737200145
1.1695073410118628 0.6031409976458529 0.09518257919779984 0.01345881282021807
1.196067495977797 0.6076160041946844 0.10533884955911602 0.009775771304608395
1.0974119436000596 0.612110705351624 0.04040463137282804 0.012163994885171019
1.1734143567360067 0.5978625911075289 0.00904666171648546 0.005325309053274883
0.9237084671395659 0.608015127078502 0.010748504253497078 0.017056077919966613
1.0331514763267025 0.6038311697270635 0.05729477924673621 0.005690665247059314
1.0929864001031033 0.6072192570243552 0.033167732024975374 0.02034175905509088
0.9479976286488779 0.6053962729523467 0.02757409471178888 0.0039863601240391015
0.8540108296356205 0.5997844697100937 0.026549253533683505 0.00926125812923816
1.1299738092040799 0.6058660239647624 0.060570709182206244 0.007438303466589202
1.1174372415756466 0.6059381265950782 0.08489963019278557 0.010911832315568627
0.9894530201408169 0.6036045563474922 0.05663891466152964 0.00541680869344385
0.9620331431163478 0.6079834703827242 0.03610266683984581 0.0020439043841056683
1.1843190776450598 0.6059481345646052 0.04599738228011413 0.010973228573163836
0.989683862588662 0.6095277917098195 0.01216226855624547 0.002617479709040144
0.9918480255093136 0.6056111239398667 0.03340764013730676 0.0019074553806616263
1.045612641667464 0.5997920490851427 0.046649040395996495 0.00875423716823034
1.1683407719103964 0.6040929169524936 0.000533685838125929 0.002958781780884345
0.8938960473677089 0.5971314707824924 0.029682756972790894 0.005765931940330024
1.0357147860722324 0.5982152242698788 0.02766536710489385 0.001912902483407349
1.0312050190986666 0.6052893666095969 2.041903422597257e-05 0.006926341476777069
1.0842002487769025 0.6060027859738021 0.07383544260498366 0.012484728693497328
1.0239549282772076 0.6040804343584752 0.04696035662281141 0.0081235897368426
1.124765955087033 0.5995210308193738 0.09431299615468085 0.006351673940254997
0.9547124876795516 0.6062709865269931 -0.0032420232979569266 0.0007130860462451214
1.071413679790025 0.5978391712203339 0.036214424424020855 0.004819191974895778
1.0968910680733377 0.6077212238923443 0.011028198186823997 0.01803166499141423
1.2050038757686707 0.6038884172330121 0.053893420493011164 0.00876766246922905
1.1172952693648712 0.6048442005288249 0.02422285788528343 0.005181600730187434
1.1531798040670165 0.6019544638584893 0.02049090460867271 0.009685167818358964
0.8923101661421291 0.6027832119433019 0.00923971522515527 0.02537216798108771
1.0346218387377166 0.6064837327207527 0.06993228820367402 0.0030352989341425403
1.138233563382619 0.6059108143942901 0.06212208645605791 0.006605676020146491
1.1367402081566496 0.5997593950620363 0.003565254441077294 0.005707910964824668
1.1590254736017156 0.6018469418734852 0.07905194082548356 0.005772240610225931
1.1403621473630232 0.6063049058955716 0.023773073977514252 0.0051801739818102075
1.1568532810147716 0.6034696701517223 0.06621174999244794 0.004877547886851851
0.8794086860693537 0.6079448893162998 0.03263183630130104 0.029683895167917727
1.1266197258531618 0.6021509404928873 0.07021843335545207 0.006534029486683307
1.1110293427026356 0.6116857514995171 0.057719214826676905 0.006041094121810444
1.1333372644118307 0.6017964939488369 0.07649618141533053 0.008343634578229507
1.0665244546205157 0.5960655519378643 0.005049179121753126 0.002015272771127576
1.2117262024975857 0.5990137186457182 0.07292938405867899 0.021523125603339965
1.1285125088338832 0.6068846227862721 0.0402328386844794 0.008379354246107399
1.0196147447846626 0.6070114574455215 0.02850098126325259 0.0036624655575086813
1.1691065148647974 0.5993079717896143 0.04893693922296265 0.0044234842973627396
0.9100307719020088 0.603406947964429 0.023307494831128536 0.02429692237999429
1.197363068935715 0.6089859362749713 0.031077642099436743 0.007380508636261349
0.9009326867024242 0.6010691989652746 0.0024392168518717347 0.017586536630923716
1.2165227538529462 0.6078346186407337 0.005117271812074822 0.04682557954660127
1.103622562109003 0.6055061798572557 0.022974592197951445 0.020651177605728557
1.1759210489140945 0.6022484629987925 0.06896745136212377 0.005713902391553927
0.3343979194959706 0.6714005812579125 0.011556458428453504 0.0047642928717677
0.179218994898507 0.6757185120459851 0.03841603410931433 0.004650634576597736
0.1417312139979281 0.6731022204207352 0.021198804609577643 0.008139347211415399
0.2290284322335701 0.6684330540008359 0.03435251281633953 0.0018026051481030993
0.07176985713396472 0.6770883159102491 0.02697676911877961 0.0008335834993872593
0.12872187874998162 0.674045112535918 0.050605210519295195 0.011006479567082963
0.3697141133510355 0.6705822862301168 0.005183032260727731 0.012087031702968126
0.19493808791930464 0.6702956286231588 0.05590638846346354 0.010411875524536438
0.18549476442736262 0.6743675025621454 0.09629719690948853 0.010648719447870072
0.3558597666999294 0.6683940452130055 0.008568020385919313 0.008764413092367236
0.37437262909756225 0.6725061283678352 0.03396630511235899 0.014290761969886219
0.4036629369088784 0.6752556359478644 0.01911164323220378 0.006923872018754982
0.15210799183013404 0.6690305243886789 0.043982517268528656 0.011137273978483183
0.12169046658764934 0.6755512755750709 0.07724408684284749 0.005396912341955976
0.21782061270920416 0.6692638145305663 0.0005332339215104558 0.00769294993495695
0.11358876889326588 0.6662803947827621 0.0024236650080551357 0.02072688656263513
0.3517721892746312 0.6657615886686465 0.022609939396365554 0.008394572790309926
0.336311910825036 0.6681413140046306 0.04495528310796669 0.008636934911506394
0.27695162312681576 0.6698282160138624 0.030255320307085352 0.003095157741749264
0.16834245190796232 0.674883827500538 0.06926173431283407 0.00601044104216397
0.3330077775147587 0.6707951616030549 0.03575707679587601 0.004564662765808288
0.4309820478641928 0.6668567990528337 0.03622594999969548 0.005975207778994095
0.19074993446556024 0.6729091043292117 0.019328890862409284 0.006324767449869141
0.21817202343619427 0.6777429913083673 0.05679044430899823 0.013245535538668593
0.2659583723655877 0.6704272245954646 -0.00017276367926471851 0.0024570910373888045
0.3057126772638632 0.6699247923381955 0.006205986398279709 0.007300141463941918
0.22947981060130343 0.6790355745374486 0.07918600527718321 0.003914956776770765
0.2799747264991347 0.6684147513056484 0.02902074715349975 0.003052925761325618
0.2653377266885032 0.681549614037379 0.07102977815087516 0.0055151479838370316
0.19584440699861413 0.6747336459113258 0.044406610388333656 0.013097137933319939
0.2555780930173994 0.6733147384974061 0.032053579690746646 0.000594964672941665
0.06277959611976738 0.6833098294104213 0.054518776750088205 0.006323975846380402
0.3230939863112509 0.6651843918491857 0.015626390275934873 0.0065878895715937025
0.3025806774590381 0.6690849248903142 0.05893539728071233 0.002919960043169702
0.43902631064385267 0.6704180829045109 0.004227566953718614 -4.2974858080711077e-13
0.194984750668029 0.6691736958150383 0.07641863205127938 0.009005153892652879
0.2128036735898249 0.6734513500805449 0.007889087432454218 0.002800800481186951
0.09009095650408101 0.6713086605998229 0.04150986247272777 0.013953074503697158
0.06038021488603093 0.6700996296716529 0.07280653273740242 0.015050647944851208
0.11304909476382939 0.6729048760296638 0.009610347781811156 0.008752060767649937
0.36782608262069005 0.6691521929901123 0.0005003599961188583 0.009713924188826521
0.13716010535660986 0.6644770083460886 0.0770691140921463 0.012813407080838057
0.13240539887350328 0.6638573007639813 0.0014991793281663333 0.0050213018215162376
0.06033699165300921 0.6691992434953516 -0.009510374451931355 
0.08780791786422587 0.6702737708417077 0.08624883761841767 0.004084624128790846
0.3832664867280676 0.6677392187911168 0.01706166146728327 0.01167977881311429
0.1343308054866343 0.6677225226004616 0.00829206237653783 0.011254275243638543
0.09597115319494795 0.6738863525296622 0.06979250949913268 0.022751183306014444
0.1364839927987237 0.6678425012511373 0.05624919331233131 0.014873259707119245
0.10827225289407824 0.6706108907462776 0.08306892640629226 0.00879664434341764
0.10625519308523383 0.6667106401149429 0.034499926048928986 0.0075477599045836235
0.17320351327612626 0.6731626203209253 0.00874342090413506 0.0008622107020047665
0.15898715012479367 0.6686365635306059 0.004893916743197253 0.00782956389565461
0.30882419499988084 0.6651827947400925 0.03139046493009809 0.004602259739364617
0.15270016589767535 0.670119909376176 0.04870621706230187 0.012992648235129361
0.31217493081125064 0.6673544741217426 0.04641186276132606 0.0024886548503820576
0.2860098632308404 0.6674697373239442 0.047625109904947116 0.003642685715695933
0.2515154786041138 0.6687943440573583 0.010440502090174296 0.0053640592631664106
0.08447848056203425 0.6696256632138857 0.014432579675534867 0.013266413448509219
0.14461436936114042 0.6657740473993898 0.10246742336604331 0.015550528744480463
0.3655071901499767 0.6716074361714061 0.08679362876156693 0.012964709362928019
0.30002834226462544 0.674831575214689 0.124808815199663 0.022091412588570385
0.18347084496599628 0.6718403825011138 0.1728904641614604 0.007080645219416351
0.22283479148747978 0.6706614338025593 0.11198305483436338 0.01060673120211225
0.17485246532345022 0.672008125302458 0.12468743429673577 0.007951140638122025
0.10016819287067967 0.6726257195651191 0.14712192420658324 0.008574031667383039
0.07614830590509765 0.6731798180711979 0.1304471556684308 0.004726289279509626
0.4426728044608085 0.6730792286494676 0.06411376350649003 0.0039712940840105305
0.23703828602552549 0.6769230426376737 0.08424414661238287 0.006863301094653568
0.4147682335892651 0.6708213036917314 0.08358622491032532 0.0035962258836045925
0.2730318943238298 0.6786663265502868 0.12168595137876864 0.0053302296062640656
0.0938920579523402 0.6734509229991033 0.1896533940963391 0.004788481793399849
0.1629477827463213 0.6668826691092983 0.1530054345879325 0.0148329108960467
0.2437420535154663 0.6705869824304629 0.12590654163414552 0.00418584927406596
0.14784871663783178 0.670025453243082 0.11861473542188859 0.02144235443702389
0.35225531840559593 0.6674709334443808 0.0725099902015589 0.01647117987644731
0.14898129758576217 0.6650849891736027 0.17432258993011923 0.014934245724702247
0.30067213002391513 0.6728528071165533 0.08405190084186191 0.014933107406746958
0.1911024138724642 0.6684140035629199 0.1618573441059377 0.012503717754285926
0.2885631755431559 0.6671482085245667 0.09959109136114247 0.01019452157729021
0.23569616415224998 0.6673347455835184 0.15070594341419805 0.013362096382858417
0.10650750090827536 0.6724612531617965 0.16213876754695522 0.007432376278758958
0.09763146461474168 0.6690800078254109 0.11066358261658046 0.006514931756010442
0.29058280641288164 0.6698274521684449 0.06718334503300172 0.013199323887874346
0.17515797883409404 0.6663317206639491 0.14340228562030438 0.011222766506612039
0.07143105682920808 0.6641415948530309 0.1707605609217439 0.017682454880049433
0.10713289782936082 0.6701011234809392 0.17375283565564392 0.010096217292249923
0.27087815806987836 0.6731442100533163 0.08700692515104864 0.02067843403422794
0.3600470888641489 0.6770278641823048 0.1011060418462291 0.006111801932532042
0.38562085980365435 0.6742012515981024 0.042475905215007305 0.023994525583934636
0.31844366969021876 0.6713648579948309 0.07097870071976235 0.003186663596813057
0.08761679144977423 0.669382517622362 0.15023399777211496 0.0128184420962518
0.17510732505488352 0.672841438031608 0.1108903889397905 0.008927290013972182
0.38171136750164897 0.6679814919055761 0.08464006283526677 0.012687269521098322
0.32602110887317215 0.676982111069645 0.1120675629267334 0.00758599719928782
0.4248855561483129 0.6696643405735062 0.07661891604884509 0.004325729220775294
0.10071728106488657 0.671146616989041 0.21060325963540746 0.0035335612621676302
0.12964776871809963 0.6754218043961231 0.12675060301209942 0.0035600227937551145
0.2546422109370525 0.6733457658206716 0.08873766495527602 0.017249506305256932
0.11817759356035189 0.667692288891241 0.1954407222194354 0.0024761661971677675
0.3471842879126454 0.6693037869861429 0.08268979227889478 0.013136996163417862
0.2198483817110203 0.6702142504591727 0.14960295419293906 0.011067258125059007
0.16447427333107673 0.673188530755804 0.1027808253735219 0.007405055121649776
0.20173976761554444 0.675263792853683 0.12924925781298247 0.0041882014974063625
0.07068577058685539 0.6692323371820896 0.1507621030595155 0.00921787260169436
0.22870492926309338 0.6658993958242255 0.12866336771203163 0.007667879661854363
0.13903251376474007 0.6767387346597635 0.1447356363378589 0.001611692424990481
0.31583045074291005 0.6749961632501136 0.10268707193617592 0.006737500158858029
0.43015987883409457 0.6713654335196657 0.059751110890848294 0.0038216657118583346
0.07826582717570173 0.66902745795497 0.11084178113427545 0.003543810559404989
0.3150003894615719 0.670272071918775 0.07706575205759778 0.005641278948948613
0.2263774116008664 0.6666719278298825 0.15791783103183502 0.011097143906147718
0.1503515728203766 0.6670059334394771 0.09870894159373819 0.01556121285299787
0.3939971483288773 0.6723232620272095 0.08921389776382094 0.005812901004902171
0.16403460006884135 0.668258260682897 0.11956479223683006 0.016295454089551107
0.34264464946508094 0.6716845736562014 0.09011621093987016 0.007895932207084176
0.4448562510993695 0.6739849766818998 0.0650277063203128 0.0033617791465573622
0.20050104147996123 0.67075036528229 0.10191525415128738 0.011890059651081765
0.23536063510563726 0.6725831775305557 0.10801469889702596 0.014729860365963746
0.41176469186958276 0.6684058352455008 0.04436720109477069 0.006476120324363113
0.13126986258191395 0.6687705099184371 0.17954703514726839 0.008162173058374293
0.36814204649226323 0.6795474658910904 0.055786092386334654 0.005086192684757644
0.19171778975800555 0.6729955602887489 0.10710899626431668 0.008289956581867508
0.3321648197332455 0.6708852039883704 0.07222626187006725 0.00298778791651607
0.1466941644143326 0.67085905583548 0.13234370930982026 0.021886332349573084
0.21270171185302078 0.6683412890257835 0.10258587479485218 0.011347970655528181
0.0853281139725016 0.6710483908026339 0.19802628789003104 0.008036506193922028
0.10651473036367592 0.6659607962711783 0.1196254122681869 0.00320881774560255
0.40095367974648194 0.6752445667809223 0.15761735034822588 0.0005164551324006609
0.3716746880543167 0.6699434684105509 0.15267611803596146 0.003061233345028382
0.13851265518777822 0.667984897543469 0.34770185330467596 0.01155644074897951
0.3000748349297175 0.6705980635943388 0.18846678995154892 0.0071161757121548375
0.2035745578536511 0.6672093500048845 0.3178943639508336 0.008834991082238184
0.2702161075194052 0.6706004687450079 0.278863956450515 0.015709191467329894
0.1715010358031833 0.6672494527289413 0.2723523154570935 0.013486772193704559
0.11361999312901856 0.6755727313560376 0.3839177983671544 0.005498734997597921
0.332206083380173 0.665937377903088 0.21584500068482074 0.01578020059465829
0.1506822746836009 0.6701627419140329 0.2656494026089128 0.0237333248304867
0.3261886495869389 0.6688152874273797 0.15642688209428995 0.005457014423406153
0.16639684107941397 0.6695260375546154 0.34549012095428067 0.012115012897258548
0.14843270170322326 0.6688331630703539 0.2907602022930824 0.007369978886220399
0.09671807482284375 0.6713001314590903 0.30730476836321907 0.005339328524501945
0.2205969316482185 0.6714180012843612 0.27725382698568335 0.010925553549254301
0.27812172852642836 0.6727655396613884 0.18173020274114007 0.008353258112085085
0.32318168723903395 0.6693143444467561 0.24418129049650014 0.008835701578944184
0.2483270345031458 0.6724028049477667 0.2171249911107264 0.005144948882489697
0.1903636438378143 0.6693231768080072 0.24731296112612836 0.005636880837784124
0.14108729566619232 0.6767044275592601 0.31322415442352797 0.019994858282028887
0.28069518434907664 0.6742880234776415 0.15686591964938382 0.007108183384387004
0.3219115393727107 0.6700747617317535 0.18766622295498517 0.005513140068744075
0.19145129922957954 0.6712775823383712 0.33580102014098395 0.011293404523429041
0.13021555948418903 0.6723701334467902 0.22550522063026815 0.0031128654692236806
0.19035286559070275 0.6743447588787647 0.23062502965992834 0.005947419919359896
0.40720080418629095 0.6741005772811045 0.10684669354282074 0.0020843129688565805
0.3526384660579087 0.6622324444277264 0.1863141809341524 0.004510304014514687
0.11675231367567679 0.6747593651284394 0.23719608139636628 0.005761224978056456
0.34376605778024105 0.6663795213254767 0.16837994588455787 0.004644009262195696
0.3739716312646038 0.6698271662963765 0.19517474399600854 0.020172930269692933
0.21024139413011633 0.668501653739308 0.3343372103357524 0.016431290281311104
0.27880550373534846 0.6656270662283157 0.2070474297040476 0.005042051574308877
0.10827622748138582 0.6742577239606204 0.28596888936666975 0.0022509089755179527
0.10019391865117083 0.6709040066239355 0.3993958838940978 6.455131981842454e-15
0.36996952355822305 0.6674953648796333 0.194515072291044 0.01880410352687415
0.12312843001213747 0.6769077766384287 0.32468513508672775 0.011928940961655319
0.43258680789607934 0.6765372738508549 0.14619770280012725 0.001128978378706997
0.07809388239740198 0.6731428629668751 0.23540061853491195 0.01269377457418115
0.31789335386791556 0.6714931957192364 0.16301389934023056 0.0072466401072426535
0.09120885897226624 0.6668575390710014 0.35596987688719084 0.01009627041672053
0.1581331415215238 0.6664641089589507 0.3361866163928546 0.005430886970377794
0.2412322863074348 0.671818358526113 0.299370321252795 0.01667523086089217
0.08833283374105928 0.6671295431562583 0.31533780788373195 0.005956679266873865
0.10103033568373719 0.6715641964690814 0.28093607163305356 0.007254324591586018
0.21235995319527742 0.6678989173966289 0.3230152159924854 0.013173823903963485
0.1998837204885167 0.6697788459521851 0.3035715298718718 0.010425317457293758
0.26184359694136083 0.6672801669052105 0.2357112024447704 0.011435543906408408
0.3307738887746752 0.6713168529721989 0.16122239080576434 0.010165058192996767
0.23637960041676456 0.6750487059794893 0.2064811987673754 0.0024623855492639578
0.1927901944781965 0.6689838224352173 0.25784104630517624 0.005555659823992314
0.24882926264996436 0.6808095606951817 0.26185825851029576 0.00862694002345473
0.15474688672658649 0.6699776915361816 0.21996304519063242 0.006247054635113134
0.26377875606351914 0.671762968228347 0.21568527370902177 0.007838012276093726
0.2714679822595071 0.6658563957681748 0.23455919155635332 0.018632580244568993
0.2688873209277636 0.6772893615261735 0.158273615925101 0.012899273558811312
0.09923725972671245 0.6686951231401723 0.325451166611479 0.005241986712926614
0.21037955467487057 0.6680540040856314 0.2901530940741747 0.009823528600139436
0.44317474573632515 0.6732020800205938 0.1108463892730187 0.004046465156411029
0.38677947114763567 0.6726157060849297 0.12828280244796084 0.004467888815828687
0.3143154455133708 0.6678256499123278 0.20211199893169252 0.005574555019283062
0.4089240742738694 0.6742020845567931 0.13502912605553172 0.005922078050370057
0.36388573062862944 0.6698164279850725 0.12572071051742054 0.006566180821444591
0.3627740579846761 0.6722109144382256 0.14148360493375683 0.0015336818925191268
0.378228330008692 0.6697925154320808 0.17202202037420974 0.009551080043233313
0.18013916684278328 0.6735884238956698 0.34574889130850534 0.01204037649398754
0.24824343513621283 0.6797208793905998 0.29200843199552245 0.01062887435101036
0.205999352983193 0.6722087820299836 0.2698534271559338 0.00881241717917728
0.08487897397647229 0.6666293338028968 0.3434223210405707 0.011445738682483447
0.11619453305384388 0.6746809173918326 0.3480505206980866 0.011416277642010928
0.14737143285019014 0.6661959699439716 0.21467180146188117 0.004163846987619513
0.17860141726707246 0.6781338486170269 0.31415919713890367 0.011710844248782035
0.15680080340725858 0.6739501788960334 0.24639316078457973 0.008725030178315336
0.17457728469511935 0.6778244885803084 0.18328168522493263 0.003815637621777765
0.3726843044452804 0.6712392314226746 0.11056358204507785 0.005829144233510787
0.17291353759145997 0.6741996912180181 0.24935507858987951 0.006435794400185409
0.4347727721193901 0.671368877394499 0.09277097671386855 0.005056694520466042
0.16181457727350637 0.6719012291340166 0.2582869646493323 0.0051544202901093565
0.16267156442660086 0.6722117450809956 0.18687235278437053 0.0109819916551232
0.302860987916404 0.6742458756487263 0.2579172489296897 0.014571696108775402
0.21763767175321022 0.6659404720470873 0.30896732146645034 0.010641024640464196
0.43286618761716894 0.6707609408438316 0.11938397763012867 0.005303931594790042
0.2895877817371806 0.6650299912420921 0.24382991318465136 0.011306686886636956
0.21256961052854023 0.6737707942659792 0.22194314873940185 0.004804313736381551
0.1803524843334222 0.6732495337597333 0.20958145669658265 0.006228004614581001
0.3130995277414315 0.6664336946888332 0.23308932771742236 0.008143363284316227
0.2905828743186761 0.6679963991590189 0.21151825437935387 0.005174420889750278
0.11686764294087813 0.6727903565529011 0.2968915631131503 0.013892559256681898
0.2106175323179431 0.6736483675683455 0.18145592397497173 0.0055227202772042076
0.2373897608386468 0.6690842580295725 0.17340159255481022 0.010951440562487228
0.2715865626794326 0.6702838386109337 0.21826410165602186 0.010250386906208137
0.3893502131922641 0.670476495437048 0.16008573588201105 0.005782464043915681
0.10361064521333907 0.6692415218844247 0.35410766396481164 0.010079767715763426
0.16288773798008657 0.6793061637348091 0.30015190907577954 0.014210389493774522
0.3841130486534846 0.671539933338386 0.10826878432695772 0.005739761880930013
0.2627468771759166 0.673655034978956 0.15405139133572415 0.013317612038919725
0.09375392566312621 0.6730725375252286 0.37882998581472865 0.0027635778164438163
0.20540710168407686 0.6759613301345382 0.19349860535332436 0.0060794547440831
0.18561841455462386 0.6716992351157908 0.29482558545851983 0.01217600767889562
0.22372402464316887 0.6689000944987493 0.31975886229112266 0.011121774737112157
0.3510415745318831 0.6706349456154493 0.1147685368834485 0.007931665709560014
0.26824225928726997 0.672089864713678 0.16988145891596243 0.013134517788738307
0.12508977300416763 0.6737977157828514 0.36238911503938154 0.017080433834413163
0.1588644196046904 0.6688807278547756 0.21419273607878228 0.007778821023781058
0.4287836844748726 0.6742450956853054 0.13436090748253587 0.005703858692714959
0.3223180120719508 0.6705900776814097 0.1896861013484486 0.005284101914962251
0.1729015544766129 0.6737211389490577 0.23042344536452272 0.010883263346220983
0.1416106518448894 0.6725945506220397 0.37104235155842147 0.002825667101927065
0.33064135168067416 0.6670912704208699 0.2368207802948122 0.009906939665479328
0.07658563894447266 0.6688079883176405 0.26444936413261805 0.017981984625222006
0.15434965420732716 0.6694019244591154 0.2714493536949032 0.01675842853475081
0.2257731758407101 0.6730642501648854 0.2423521814177846 0.012252411636478852
0.42492572199892464 0.6685556738442079 0.10647411728123028 0.001451564952270148
0.2987445964046723 0.6663648800232556 0.15814311928582184 0.001863780239110356
0.09450777544598253 0.6731167044984637 0.22625938302842422 0.0036428242805345034
0.26533402506509146 0.6737523216795825 0.27658955366764676 0.01444954603553921
0.13445663042972236 0.6750333915689966 0.2475556216462107 0.008253201868626166
0.3504577161523561 0.669037756342383 0.1211043301299126 0.006078049320278316
0.19051058675711907 0.6673782641607631 0.2742060741617643 0.013769790397176853
0.3410818214266612 0.6674047275758407 0.20407074937856434 0.015512289129784534
0.2178094273451394 0.666858989355384 0.2896537989378283 0.010085622699961187
0.13570228256890807 0.6703225485884695 0.2524253740250385 0.0081030871843182
0.10296688078670066 0.6760278371871454 0.25138157765947416 0.003185078381055058
0.17011920056768198 0.6744751597319932 0.201449155851902 0.006690115650253212
0.2119346582707137 0.6751731590874129 0.16961427342261326 0.003952527216477455
0.3895471716892238 0.6701271290204346 0.17756069950595676 0.014854789245164361
0.1210011056218768 0.672445415704579 0.34380562302072026 0.016110039285401796
0.19030179291603191 0.6696738354221956 0.3276884188342325 0.013600764783893523
0.34299872879503013 0.6707618292803255 0.13166122930823326 0.005008659184364347
0.21369778519574012 0.6768803888193593 0.2500201952882855 0.004809145333058984
0.0951347158236018 0.6712162534497598 0.2550752832946323 0.006827881581643967
0.3016250521097675 0.6724188402408049 0.23203709604469905 0.007674811383924974
0.24485656438999417 0.6691012906072741 0.18091222810347923 0.008630980122267325
0.3279290766757484 0.6664910824357576 0.21942821117507086 0.012215535149682244
0.30146035087062134 0.6710082627082935 0.21293295143059393 0.00498259226488321
0.4444719534127797 0.6733258814209 0.23754295194440933 0.009029080721584972
0.43793720126813956 0.6714268693869944 0.26957801711681323 0.010150782764755282
0.3499458817296217 0.6692317961281672 0.23659342901396857 0.01518598366217757
0.4415736452429163 0.6724044919927656 0.29126423896284565 0.024987616790040707
0.36893174474304885 0.6689640050729992 0.2684946465140382 0.008013141727679527
0.3132669704857801 0.6739183214588665 0.2699857758963672 0.011036460257926565
0.2747322948261292 0.6683669451223535 0.30565773853050326 0.012334852099424313
0.35891529524966137 0.6784190127359015 0.22406860191360092 0.00784775836244341
0.4170718024061671 0.6689098811341379 0.19706438473436136 0.004154946215155912
0.35341980070736034 0.6739820873446813 0.28472699956899145 0.003648310790728222
0.45182786545519316 0.6713952341285851 0.1938886176785204 0.0067335921203105185
0.34444399852127344 0.6668022944148143 0.30773913614744197 0.00948945712676802
0.39505477157485186 0.6776625416690838 0.19793103641540766 0.007532940233190034
0.3130138668096563 0.6697717312706435 0.30067164679751357 0.00721456044196213
0.3910992042618908 0.6677583147339787 0.2757751375748583 0.009795580749207949
0.3306360796210888 0.6686621284024973 0.29610687591840384 0.010673417683241026
0.3691845258580124 0.6708156623067064 0.2781611550729767 0.008366501517612372
0.24672956417640476 0.6763689546988373 0.3353276386232038 0.00899815782231998
0.38388890209644405 0.6660570056887809 0.23158207352620064 0.011686148522317549
0.4071009616229879 0.6701429324245906 0.25574635677478086 0.01109360886787889
0.3112070511154992 0.6739547266283997 0.34919175515678674 0.004840630152682872
0.38320454066937193 0.6682665797436556 0.2524187836017655 0.013694957320494678
0.19662233676975732 0.6694789094346763 0.36854895970710533 0.012027118080507456
0.2881126538251634 0.6630704917069505 0.2798664228615678 0.0103927285522506
0.21755137980837932 0.6665195648993152 0.35044815607821495 0.008366835185197794
0.40660782595357997 0.6764104123268845 0.24135926340629724 0.00513448220149226
0.3131839194938015 0.670526798415743 0.312214020024931 0.0032262800206322357
0.2784595058681708 0.6674131998599195 0.29181890431722257 0.014782694571267503
0.17530981777746574 0.6694865351660217 0.3648479203344233 0.010597276176734532
0.25869645298193084 0.6739798450952824 0.31438337393504034 0.014778188678758694
0.2887034624087463 0.66678655131494 0.3182523700559194 0.0068432914100568796
0.17928859661927243 0.6824437080535694 0.39603654081258916 
0.27924777341310664 0.6689506601186125 0.30208906406592556 0.013303871550140423
0.22553041081729686 0.6729397617594355 0.33384798571203056 0.008017166208623288
0.24189334532374507 0.6697291676231532 0.3222101576002159 0.015316234336717307
0.41111778497004814 0.6716497633200017 0.18695879288839617 0.01106864486676371
0.38035794807269824 0.6738433035710713 0.21088514560626026 0.026637324468929875
0.40487618597396025 0.6723688558880764 0.28288802075200503 0.005542210078378238
0.38180196497145036 0.6690062850002219 0.3075841951333214 0.009795870928775804
0.36109311785787884 0.6732967718119927 0.25348953145767034 0.013922809731860155
0.294677287920019 0.6699031830470535 0.34010453904966453 0.00837027571342501
0.2832315815566407 0.6693862031908141 0.33199358491908015 0.006171701532775179
0.46212852890436806 0.6799144837421283 0.3012731642469428 1.8109059196869452e-13
0.44818609235161366 0.6741373720632924 0.21993963377422227 0.008275411932166798
0.3876297724808654 0.6704546911140964 0.321696248238062 0.008268564781310907
0.3281210858377734 0.6682773292519685 0.3349407024704194 0.004901602535342649
0.42539574121347656 0.6681685433161593 0.29735296013289375 0.009658368619761657
0.2641542301799659 0.6773360747414238 0.3342192189902043 0.0060073480182781126
0.3976656808817613 0.6680454357669728 0.2745535434613675 0.008226982330107798
0.395639078897232 0.6686090830130454 0.3108878610744536 0.005178168889456805
0.40518870144910024 0.6708806399588313 0.3213684598160217 0.0028678641116994916
0.3367928934915053 0.6730699060970116 0.2536723249872215 0.013399701924806563
0.44071457196665204 0.6693216004889792 0.2046936259413464 0.009964962014875242
0.3979779638706491 0.6690367010333169 0.29330549315924836 0.007507618974261872
0.3532976527959116 0.6749466352306148 0.32582325844983245 0.0033793011740985953
0.3458519803633598 0.674938220943982 0.2616282267151582 0.011408722095736694
0.3034509995582212 0.6669348305060682 0.3106540476133175 0.0036802912760990616
0.45259036693794674 0.6791485464946874 0.17363319012452608 1.4354655914411704e-14
0.4228799401632193 0.6697976276977923 0.24149632275446523 0.010743660869847764
0.3644830909210812 0.6648849728800305 0.30226285826376004 0.006456268465690568
0.41675969999626555 0.6758887089945729 0.22999887658732968 0.014683274099983502
0.4283037067290623 0.6782493375913946 0.2780727772967834 0.0027660151738536348
0.4401634266647321 0.6696636845176512 0.30809574678218554 0.018294773530711295
0.015746954041410237 0.6439026244939849 0.041382354384062486 0.050096883947306846
0.053218845489432225 0.6737192539730271 0.09213019647891287 0.01869582810415015
0.03783467109601025 0.6720327008223294 0.05105216465816528 0.09305289371673979
0.046534710328634724 0.6685684367293392 0.07109886191692953 0.014609554809974341
0.05267253546889991 0.6476969569748634 0.32270918818171807 0.03171877129873757
0.04230030590303825 0.652717648655514 0.2293357278747163 0.017929932070960334
0.04539253446550666 0.6539753984520459 0.24723217934306135 0.021442013074260056
0.05661799349800673 0.6505876227747033 0.3508374501308902 0.04610994458901182
0.05144002349593123 0.6614858053274684 0.1902032172648158 0.04547360006051097
0.02456762164875699 0.6349232538859355 0.09555751706520463 0.05918557688768127
0.03528482659114615 0.6289452879386548 0.1648255014812642 0.03134052518553608
0.06164595707468337 0.6334753445705199 0.43430729802608903 
0.015143333101173623 0.6697520114013792 0.05589588143716362 -4.902909556872269e-14
0.0341710032369284 0.6674239562133388 0.1007743089074095 0.04599770924999489
0.025050612448387532 0.6708570288979876 0.009927841863090179 
0.02946166686435124 0.6299430057640495 0.13304583685182483 0.05667163178160092
0.03279408856377065 0.624534385516156 0.13729030760564712 0.006531095714956182
0.036598981860737366 0.6290407751970263 0.2209462396129104 0.07219234900221291
0.04356317329809887 0.6251940694148631 0.25081971187630536 0.06556156191590658
0.050666109833924985 0.626214285427306 0.3352725774014956 0.018244586455633642
0.047106781029380415 0.6344499204098006 0.2786632789606088 5.8321474072321e-05
0.03483150287241178 0.633720848406586 0.21135180890041963 0.05095312063407337
0.06067937095689625 0.623029478340803 0.36129747987961913 0.060771208686284085
0.028020268858575507 0.6141523927904043 0.008920162047620545 0.0023943360688223145
0.029684628907769742 0.6110262947513833 0.04240224213159677 0.030789888073812742
0.018670447536776307 0.6209536697949202 0.012835062907942254 0.03860484529484201
0.03620816840959785 0.6236826771474713 0.12543597101110476 0.0219566345799708
0.045547426021155815 0.6164088794397174 0.11733841573066012 0.026702694094445555
0.03537770773578655 0.6168290531065979 0.10551891500206846 0.021113359147084808
0.03992275607851669 0.6212364480586284 0.16276509875597545 0.019477819738923815
0.041479760025463594 0.6229359591644263 0.17599762223817467 0.02806851212393228
0.04455541450555269 0.6192162892392417 0.20703939468694288 0.002551682468690602
0.03482010267443332 0.6073373965788297 0.08925638148457703 0.011509384828344536
0.05426616160693809 0.6101462931553012 0.1051758775604399 0.04335806181258306
0.058043348476976724 0.6311677392608032 0.3839661729880253 0.014072441372600112
0.06019195679440707 0.6507530152399171 0.4074383814687897 0.06306873887381802
0.037886821108289545 0.6522885193997179 0.1716058409835826 0.04675341078182153
0.07438946056571158 0.6193392523832864 0.3976835157801045 0.03587201421698218
0.07075999175898598 0.6072398255106025 0.3249760936700965 0.026607924509138285
0.06865879746009067 0.6188551030102079 0.3731202834854054 0.03521377048947634
0.06907998940387679 0.6709208748030671 0.24137673491390135 0.010660867795340789
0.05292286918833559 0.6153736411331188 0.2733309759070061 0.03622704807553816
0.05801191123522186 0.6126256440841592 0.19625549954233926 0.01623223706070637
0.05135477070346427 0.6115211932965173 0.14374289642698881 0.017438092122974237
0.062076182830234465 0.6091488988645878 0.2970207033305881 0.037391184214062324
0.06642307803477472 0.5991615088610718 0.2555221420664264 0.010115924355831274
0.07884926901436205 0.6073055356691704 0.3120623111016772 0.00472043020769624
0.09444848339496886 0.6073023034559901 0.3931838943841287 0.021197209323264535
0.08294491928064626 0.6089683192941284 0.29651558782386744 0.007237792042241503
0.08328655201845533 0.6039847439724518 0.2671154993972015 0.01774924587783826
0.09124569550571428 0.6063140290125903 0.32647780436515333 0.004683600241207071
0.05152296415935243 0.6136556332080327 0.11910809779927822 0.013642492877253392
0.05161254390522724 0.6089274892829757 0.16142963255871157 0.022817929993035405
0.0709726044214559 0.6067572281974922 0.21497282957975705 0.02197235448696245
0.06203455733009781 0.5978419921988866 0.16755063173670484 0.009549567336181638
0.03567634804927278 0.6120152942844156 0.06713397606709981 0.07387544266584133
0.02508397105909274 0.6152783826723318 0.024096153985540845 0.05595304167903832
0.06929202470954209 0.6065434140531114 0.34877375818706385 0.022436371590913873
0.08381045376872351 0.6017968790668503 0.37614272946153077 0.018166240385240704
0.08566865499138014 0.6093371858777729 0.420061399061627 8.917574927565484e-14
0.07653529349230369 0.6699039318986464 0.3948859556700646 0.006997603659347318
0.07191490711840595 0.6604918609221595 0.32443944423981663 0.014852131037215572
0.07338176582338465 0.6656626631816613 0.3499935682559149 0.012418117300199512
0.06803427884746903 0.6667938164090531 0.3642469539193394 0.014854377197938171
0.06760656125455736 0.6634059391893762 0.3052665507904049 0.006928948139957608
0.05876829908477641 0.6616090539900407 0.24755366192900238 0.0646124396853598
0.05598849292382906 0.6604712704011716 0.23365627810486927 0.02565882800201625
0.06320481044518533 0.6588970051521822 0.31816109802535375 0.0512754491838971
0.06457396734692243 0.6744934727315168 0.28241529718514174 0.005057485820893256
0.08073462984439667 0.6617449748771264 0.3238546219870324 0.012948652093993384
0.05970030260311389 0.6706171002330543 0.2147576385377623 0.00994192806598512
0.07939456525762192 0.6661188722372572 0.35535233122179183 0.00993087594116415
0.06729221497461918 0.6699071072661216 0.2187957404903346 0.01607031510016619
0.05667715390287801 0.6740547781095465 0.1539176445105551 0.012352852509028777
0.05002261077219429 0.659992004196942 0.1949134847229753 0.0350100708737548
0.0368006172512198 0.6685005057504464 0.1290380231420479 0.07483094535207822
0.07480791770376602 0.6689319562504108 0.2972958119846281 0.01766025818143742
0.06532172413621401 0.6721220282771742 0.12668206643611224 0.005834956849373592
0.06424836125347688 0.6698078856722122 0.11108592789629895 0.005058183627293366
0.057425031761442015 0.666777070793351 0.17547227754205982 0.02295806434187199
0.06009971912270543 0.6687320492751934 0.21079172633141893 0.012936759177035876
0.04310357881400682 0.6135694255696702 0.00855752881801661 0.012518982797443767
0.05555269243434785 0.6007779561186981 0.030747483048139842 0.005439676131017933
0.05312249128454511 0.6062289605863036 0.09106069224366169 0.02247671620675073
0.05113252275798759 0.6013467880442315 0.08382141051688446 0.018459117052971947
0.05039543716037632 0.6028387436788857 0.06288212381350795 0.014515194192078999
0.41682742568885117 0.6054481410246857 0.27122594468934824 0.0006849932254923311
0.42513094678994007 0.6005792692254925 0.21980007945481733 0.0013776804476728253
0.3555856465234093 0.6019143402846706 0.3073251511425601 0.0026832348277707634
0.4420880086250361 0.6055727604895841 0.29134354974426335 0.000351883134422017
0.38942568631747004 0.6026277667264083 0.27820680233842626 0.006260066220712721
0.37885202475986796 0.6015954373578378 0.2948260088178742 0.001995717741919014
0.32243660866997065 0.6033543949221567 0.2520533873897404 0.014454779171787812
0.2852058430029198 0.6017070939377175 0.3269861530372615 0.0030128540687766746
0.3925435470674366 0.6038248425300036 0.2294799177002778 0.004480698360604076
0.43893293604226 0.6004194078290378 0.2392051590935766 0.004226757806639742
0.2996656063172026 0.5983562324654947 0.2805753378303428 0.006483112530819705
0.38606777433104195 0.6026977026818822 0.20819977746272134 0.009882496472059214
0.4033798413152481 0.6046416703999209 0.28084495093984585 0.005329489378012523
0.3436095458204649 0.6014191909022447 0.3240479818550979 0.0027902356067310507
0.41752811622380076 0.6015678190266784 0.25318038093526857 0.0023856278451797382
0.35069899647021774 0.6079406115240688 0.2642941229190836 0.0070340396414663815
0.37589478650289465 0.6079077770866677 0.24998181670984504 0.0027512273309379075
0.4302500600060165 0.6045356770238689 0.3005266835490287 0.001964904717656338
0.3179753227649469 0.6074141765660197 0.2930979010091651 0.01386952316092956
0.41948149770064186 0.6047181481393454 0.3075611686436946 0.00018562302219940317
0.3657957822132807 0.6029921437846133 0.23624233681974618 0.006508128610749912
0.4482980480675486 0.601897070720346 0.2528922368234299 0.001843814362074979
0.25213216761202684 0.6018184727256004 0.33044443844384375 0.006105180848769739
0.22929298213011945 0.6047945903398931 0.31568402863489226 0.006256861673530675
0.296032991289758 0.6021021121845892 0.29879484445390686 0.02467650212724293
0.22705289808776927 0.6030072992814818 0.34690644414003025 0.007061019782757803
0.41066728165692556 0.6016916475273512 0.22985701832191122 0.0025139979746549223
0.38118082836327255 0.6009411202488057 0.3142249872599242 0.000371946666362627
0.4192743730525268 0.6001874670145949 0.2522951691463669 0.0019483890923490252
0.37365508633879657 0.6076228294710382 0.2619129393234361 0.003569482228227217
0.32449475294681934 0.6023464104739799 0.2706306131250907 0.006817596461257853
0.39330054328218833 0.6009013402465352 0.25345114683682185 0.004258088983849067
0.3253568161207409 0.610715541034465 0.3016046263592324 0.007357749304951318
0.44779631182401924 0.6032293747857878 0.26708163891140474 0.0021156440031516828
0.40089437765821084 0.6032962528962443 0.18491785709992162 0.017236469283931893
0.43582912274298663 0.5978932995413995 0.17832494918551345 0.004735914864205955
0.3434232942727102 0.6070828932741628 0.2417979377012423 0.007417104629524179
0.39982616884175304 0.607397577608873 0.2046812984347808 0.011314395106454695
0.3782274472270186 0.6027787549135281 0.22247490188434468 0.004778671854870665
0.39762066419038333 0.602667544033387 0.30242319809163065 0.0006494542177438036
