x y z curv
0.27849417004562893 0.12761555785792164 0.7037234062455362 0.0030028019879036563
0.18161494155431307 0.0919258689721017 0.7001297000660187 0.0014646046653957329
1.2378979582563137 0.5955229025625784 0.6976244013833113 0.05883150367031653
0.22113743473813444 0.5975763727110278 0.7017072779182912 0.10619150197641271
0.04209200649279631 0.3030123487113811 0.7023172367448918 0.0073801775576712424
0.2972643709853291 0.39639578152286936 0.7020579974544141 0.00302736441949648
0.3452144972010073 0.3685852137852292 0.701217754049602 6.432544023718901e-14
0.6874392802376224 0.3167581390755972 0.7053123102567985 4.017067878874619e-14
0.48974543701205925 0.5304817723605496 0.7097031767504807 0.0005878345788077561
0.6394728909974913 0.38670697087559314 0.7005001882465421 0.0005258334880667063
1.1466956044329875 0.577093453263961 0.6998367919898687 0.004822760821133517
0.02818229487947321 0.03364735141799367 0.7029103807519289 0.03951260404047555
1.2040885320209318 0.5867845117026979 0.7010409669931603 0.07118242295770609
1.0618128154722593 0.5975505713100447 0.6990808256359021 0.12204151004524734
0.46744312725812653 0.6039435697465254 0.7033350383663204 0.14414162947927928
0.8791116866824581 0.5617910065926474 0.7021461905148824 0.010201747842140773
1.000445562357489 0.47609457816604633 0.7054027858306628 
0.6842448147602431 0.27353316882531364 0.7029620763254859 
0.2729598397439878 0.21951603285382465 0.7044998832556449 0.00019770974147623516
0.9104001141391408 0.48775160549898205 0.7029067456921455 0.0008203969807541417
0.053835304449095546 0.5282849924543933 0.7031104065950957 0.0013711621305177724
0.9888572850062111 0.5758110302734823 0.7062770163618604 0.006803577732773137
0.7788711867867427 0.5596755378035498 0.7039385295547583 8.670804934572527e-14
0.09983845323527088 0.26798433632419183 0.7012419638492235 
0.7533758401713903 0.5981675550740881 0.698544785757135 0.0569741995673721
0.15358760575591457 0.40129566190350774 0.7014494760905248 9.182301157434244e-05
0.9436918731884952 0.422364043273668 0.701597835873786 0.0011950895596129852
0.42559791441035993 0.2304133737077011 0.7020564312182671 -3.3365496614942784e-14
0.16217776876883647 0.5143239300399328 0.7018788687037898 4.25009703800525e-05
0.6704469609698948 0.30843776626278613 0.7075039923805579 
0.053973958926105126 0.24901289365580415 0.70060049805519 0.0014261647525811339
0.05558420377423336 0.11118292805830247 0.7036882459188523 0.0007983699694482543
0.2550754250291331 0.5579046666977553 0.7059860880756469 2.3745708679141097e-05
0.16275759450207172 0.08742751882168714 0.7019747589443911 0.001755585001919182
0.19468024097327055 0.4854857743100459 0.6983239548540885 8.495412462153671e-14
1.190651993260173 0.5240954769516505 0.7001641629676129 -6.339801912429878e-13
0.06758724518235038 0.0354036492212802 0.7065363300518792 0.01937117016387191
0.11645338731819857 0.43606961168462055 0.7034168365765849 0.0020214197033784306
0.918393469245174 0.5409785867035618 0.698297814290829 
0.2300143984757503 0.5620487964987609 0.7036880297750345 -4.15947802527972e-14
0.0663836926050032 0.15663176714789542 0.7015885563206177 6.175483688065603e-05
0.2796149835865117 0.2206090500456536 0.7031412367249292 0.00010651091757250422
0.8697712806236192 0.4367578048427646 0.7089705631815245 
0.3276558250669635 0.18766554020643367 0.7013294233536503 5.158856170924886e-14
0.05919387891077082 0.28096202912488183 0.701259268751677 0.00015689178462331571
0.1676413658076949 0.19054642697885038 0.7062435329785164 -2.2239602007828126e-14
1.5067447243373955 0.40670071947281394 0.7071156057036777 
1.5046144624689344 0.11746534982431027 0.7038899345398795 
1.5112010442885089 0.5541135274910319 0.7062366987599856 0.007172103653213076
1.4956840475150452 0.1792945738455397 0.7028265186938282 0.0010032271063075092
1.496148417206429 0.26311346974675975 0.6993770287808502 0.00073862606608214
1.4965502568156106 0.03057696431021719 0.7096934166788518 0.02355631437506674
-0.0006228201635413502 0.15906774366361404 0.6887400313666381 0.05458612255164844
0.0019703546682245388 0.22950572167027095 0.6881107239878157 0.05497681180767233
0.0016449518945104331 0.3707325619918815 0.7006551760643726 0.10018739330991626
0.0013104692265050472 0.13248916281225845 0.6931202852696265 0.06884840255344775
0.006776639034424433 0.5588914160271675 0.6855183235709427 0.09961512890671163
0.0016378785402583933 0.09480265031364689 0.6673065244291753 0.07783695024242766
0.007195404223214967 0.45134069692620393 0.6763310041379911 0.10614637056365
0.004834774803717981 0.44585474947747883 0.6702968537081139 0.014038424535273031
0.78325863986691 0.006410763631311691 0.683171198707961 0.031993395246369016
0.8232825326978213 -0.00010313133934068078 0.68801277516523 0.06194025666716231
1.156728436121909 0.004870687712279657 0.6789919209905192 0.07558229105204628
1.023145287963215 -0.009279176624404535 0.6866349280699171 0.0901295472041653
1.4300299320465004 0.0039002947698770244 0.6896929833773098 0.09718648400041349
1.310934625098011 0.0069197916483426224 0.6742243341056141 0.06566614549604374
1.4417994429985739 0.0027755344629554887 0.6853742130728886 0.10629546633942127
1.1662007969061474 0.003771314555247848 0.6737255521893881 0.09082901526140377
0.188539521564665 0.010952504463421938 0.6938107815286129 0.0933496169427401
0.7611165733454092 0.006146115918485612 0.6700059697885175 0.027627730645659154
0.10095861352393319 0.007968120740274096 0.6877769276046397 0.03459414950137981
0.34573261204193534 -0.0046235213842320275 0.6961978093168182 0.13295379538426327
1.512732797544206 0.008998428730651398 0.6803359136906144 0.09105641391767608
1.51472670219753 0.5898066441482425 0.672196304973788 0.07525276769378747
0.48425769073313596 0.6069239374822732 0.6822727290353274 0.10784101377497148
0.908540072519423 0.6078076783902505 0.6918426095447209 0.10319344304843153
0.6546245072362015 0.607345437237578 0.69065663459382 0.05275177477290796
1.1185053768813016 0.6064808314863258 0.686466731578506 0.029004783085705747
0.4039855264366819 0.6029656515841576 0.6688580041221789 0.03201012724383597
0.37574400755503096 0.6051044087247861 0.6824282921686768 0.0980448753519215
0.21039312209667416 0.6087985652935678 0.6814269485621249 0.06000099078250581
0.19328471899937408 0.6065836638509174 0.6875548339464318 0.04779640591403178
0.4444615970999557 0.6144788214387014 0.6888313960438043 0.056598495429044694
0.972504176859913 0.6005793896298802 0.6954365174665382 0.0944289645577324
0.7566514432199062 0.6115783609464344 0.6860300371848588 0.04879181133723444
1.4174940854055573 0.6115476274335625 0.6782072574452811 0.07868960705812064
1.3694341692814838 0.6123229670613601 0.6780929362906375 0.034539332748127385
1.4909319588427192 0.6079478077234531 0.6777829287355831 0.051296579688965824
0.7319070700489451 0.6088419695714852 0.6744656963907474 0.04412601228257784
1.298842950710258 0.6055713939871761 0.6831631851930683 0.07379944274976911
0.896101460285353 0.6110784267625624 0.674935530257378 0.09691292358682121
1.2818963493032196 0.606165445510522 0.6830117718799593 0.02072996553435726
0.15490767145973644 0.6060844092701114 0.6706836438439169 0.05670007990333179
1.252090454264095 0.6096368287276606 0.6885359576335528 0.03559770821239427
0.05701743782018379 0.5548997561029626 -0.0019102064465372115 0.10236705858497952
0.06959046110834784 0.5640644735675066 0.0002767716196299822 0.16400968121590917
0.08157817063488301 0.56920139062579 0.08341047946455929 0.09619426059233728
0.07357290226791875 0.5631651893089488 0.059152687809350554 0.07213168484251098
0.08643860004703109 0.5563770611420367 0.015422333900504017 0.10287416542738413
0.08565078457882412 0.5598539696003285 0.06432102253274603 0.08154098535233663
0.08921820230083034 0.5598110688040804 0.050177770016187666 0.09613843927120204
0.08948919909023996 0.5493885126931625 0.03266213174452187 0.08864349490946426
0.08831225930279453 0.542565650271453 0.05741025621503719 0.01848864243482486
0.07968462272600255 0.5453285289853811 0.005258138699793282 0.06379637821683251
0.08977691471073658 0.5624427976134003 0.0840473302141155 0.0927137021625029
0.06924215548481003 0.5644908251688279 0.09100071572034178 0.07428103050505457
0.07127063871747245 0.5332496207600991 0.11382786730580849 0.07781294649597618
0.08613190230523518 0.5551360749795965 0.14853805503565556 0.058383651773144696
0.08393709732505707 0.5541680791898943 0.19978640999284136 0.10718452536883072
0.07653303984770075 0.5511885059894378 0.17254156125616563 0.10855733368359866
0.08347861302470902 0.5517488190979701 0.2613066425992989 0.08559017959898693
0.08558535544225566 0.5533066986684639 0.201361577732913 0.06598270637582748
0.09744476410562454 0.5397957758678613 0.35753001670484363 0.05985652894870342
0.09759335000686657 0.5167392697943548 0.34230004513888374 0.06666253488695548
0.08652792962081676 0.5425222941912532 0.31288710179328233 0.09051389037355374
0.07246117477172928 0.540600186108078 0.23021542565647388 0.11694641827251889
0.08405472697660482 0.5294004062131478 0.19689434402427639 0.07606129079448636
0.09863418114212077 0.5226600844934595 0.28018358701791707 0.11620596159581532
0.08786098700390976 0.5261573659037923 0.24509441314762614 0.09070328079409999
0.09393643397330903 0.5386121041968313 0.26486818386305727 0.17858623146030528
0.09507226896164751 0.5229103488744488 0.29436236389364534 0.14756937727646213
0.09496178184735773 0.526964487789051 0.43499824838135503 0.036346825727405524
0.10221302781001593 0.5043629452091771 0.4941215029473734 0.028036513321170728
0.0927396311290354 0.5235913736815094 0.4128959841565813 0.0620364678833826
0.10212492830918 0.5397031861702084 0.4763291866585954 0.10806834920472184
0.10759170523556369 0.5326479877521548 0.5498238953962938 0.0072232634361970504
0.10655359228390693 0.525390612657577 0.5667806363231425 0.023685309467725568
0.1054715318689369 0.5331353684469801 0.5284598360641853 0.010571966669078685
0.10272324125034515 0.5280061060608742 0.6014493695585967 
0.10885494077275522 0.526445002512053 0.5606699950576489 0.018409744145601623
0.08857187831258621 0.5383762185727984 0.17478808325250247 0.1405352868177709
0.08916889659911113 0.5321363065259428 0.3743445966175168 0.048782040944570684
0.07964238007462647 0.5550949170299759 0.15302834152518724 0.05860842363037611
0.07446767079851284 0.5357899357933096 0.09887996401196725 0.10413407750642706
0.06610179339808485 0.5537422988712525 0.11062626486642017 0.11029575683884861
0.10049100822285056 0.5339289901485976 0.20169005112510566 0.02128510046471941
0.10883780709539138 0.5252316187567366 0.32921747221797804 0.059065153490107894
0.09599073449876801 0.5321382062772282 0.2459980527913731 0.0962255488666709
0.09561062453191345 0.5516747845626766 0.28770209782393 0.16887267684795365
0.09652232442702831 0.545846010401894 0.23630761056279065 0.04848928515826802
0.09184948079379003 0.5451721054542263 0.3136985362430318 0.09802897190487514
0.11600566199430623 0.5274184460890992 0.4742691224785341 0.0912237678992491
0.10040933342479781 0.5357542539090121 0.3701616026233552 0.08409067146211457
0.10817650895394043 0.5456822501236865 0.3998460695840849 0.004017948680834892
0.09977534296269358 0.5331179041037228 0.4521684012911317 0.05418963000461247
0.11933854508868351 0.5242384630836568 0.4904646183271483 0.08942644544768798
0.11522544756325695 0.5421056600657231 0.4519969481471897 0.005696121045152767
0.11447509775950936 0.5372613675827335 0.5011310750790798 0.11588549519448904
0.08398155963912693 0.5496954663835305 0.11650078561077103 0.09721211963137916
0.0843486143324092 0.5560280329467627 0.10177074891544986 0.11983291326891823
0.08632931558582364 0.544083968739834 0.18353696771102998 0.12132903681732823
0.11114816425676262 0.5281605243412695 0.5158155482051131 0.05722262765740873
0.1021683330707985 0.5403181658957974 0.3087175655775577 0.051526852089694215
0.1017072954519883 0.5407740830013593 0.33946011969275625 0.07758905774656111
0.10356218614679884 0.5382305349510692 0.28153636191895764 0.02984348404851124
0.1120852225435552 0.5372945912389459 0.34350409521805614 0.06552107123043036
0.11732884930705682 0.5209101260488321 0.5194131814836436 0.047347273896251596
0.11605469469224627 0.5220572541756059 0.5670854180153885 0.0007977991567726266
0.11072462877762397 0.5209826813289892 0.5379011083395394 0.007736557935278701
0.12383202267241863 0.5252012644172428 0.5073659001332252 0.039184187068021493
0.10811521287840307 0.5347078413270288 0.36520604328849054 0.07240753806936999
0.11819287722683255 0.5206613755604638 0.40199479223102663 -5.088982775791564e-14
0.11708089713747698 0.5243406861753657 0.3543054070252282 0.07208675592900514
0.11903787335672901 0.5249460076308677 0.45995705109760127 0.0836851519486402
0.08792044999285017 0.5510009457548952 0.14469015335848523 0.08220038102681729
0.08612088500003628 0.5333300167917356 0.16176485359744672 0.04653017606804462
0.09129286284588202 0.5479931498295377 0.11776902692270153 0.10030842203120326
0.11046947276043789 0.0950380562827282 0.5461244788568176 0.010920402072829802
0.11832240323760398 0.10568741653603521 0.4978961253947113 0.021669549697329576
0.09605981209083134 0.09408957410077134 0.4415012347143803 0.035545953703967986
0.10048847631449782 0.09067030171192185 0.36064939435740506 0.07656396918774404
0.09388974207161449 0.08661780429138242 0.30006052324226734 0.04087142811218657
0.10175488782996243 0.07876254461175114 0.4413317735744135 0.07975452010439223
0.1082627776792861 0.07362309845847059 0.47709059007775656 0.029302492277201973
0.09073778914070423 0.06808985498433649 0.29994861352328117 0.053219198554180905
0.09508618681291688 0.08795022739677874 0.3395402795228744 0.08521675790106557
0.0770933429807596 0.07515619329834106 0.316272468287667 0.0694545140614813
0.1070920495923053 0.08353957397552975 0.4991362891483078 0.036906656771335554
0.10124711276781424 0.05986572099546136 0.34000769816337995 0.08129728961059514
0.09997373885133246 0.06740751853741345 0.3118044016526533 0.09159702404772214
0.08097523622584826 0.06961153283176134 0.27641070868506185 0.10016275175031567
0.10483658586794926 0.09195525857743138 0.5560069684939585 0.025631504626981185
0.08722246140768986 0.05903582177862037 0.2541057322094193 0.07896432398409813
0.0896882835966286 0.056447298883130624 0.2130917126720314 0.09555485037022628
0.08328637976409412 0.06261035459267557 0.1887111456617097 0.0722772447914096
0.0755456415451244 0.04419185077412585 0.08915915124725211 0.07087323480289671
0.10311575944954143 0.0813434794685341 0.5275787019375658 0.010672955496960866
0.1003232333570924 0.08387532361078329 0.5225828607792657 0.058449672002040653
0.1164082282612405 0.08774195297428591 0.46407089186177836 0.039315787572707366
0.1090342886133437 0.07120908722764326 0.4549043826715233 0.07145913271540122
0.11526997233214153 0.08193860701940073 0.49394638065608176 0.03766322738853536
0.11011230128866054 0.07450270004338413 0.46317153432947145 0.058614634383156554
0.12107621648436236 0.08579935973985718 0.4817404062329975 0.018526592541218752
0.09168735176231126 0.062443203123185215 0.38971341257920944 0.09394412747030306
0.10115270606427366 0.07766169829281694 0.36233100618623926 0.0721593628005953
0.0971937227990313 0.07366786372856927 0.2935159237654111 0.06412316277507707
0.090793370734442 0.05620292328952045 0.26058014077755526 0.0657777571119646
0.09682434332230318 0.061304291937558604 0.21831745623832965 0.10086948836148028
0.09753343546684028 0.07599328360175435 0.19971282329957643 0.14746511618768268
0.0815311042979182 0.052142033425463905 0.14853779724408253 0.05674600962586058
0.11642767224315732 0.0908529235224054 0.5725603000739026 4.8872151815915333e-14
0.07936211824849859 0.049672839727640083 0.11538403276138127 0.05331656586070309
0.07783991341316296 0.05142006586204698 0.1411179519166785 0.05748569658017217
0.08226981415966535 0.057969504237671964 0.17602010447598138 0.04917354290673327
0.10851012620809941 0.0667414902040582 0.40319174781056205 0.028506233250776662
0.10497593137868774 0.07144723737784738 0.38238650713799766 0.056133455053611635
0.10887683916233998 0.08162538817474463 0.4383795254516081 0.06645811075508275
0.10691638078455676 0.08346500497653657 0.3395332172990545 0.10245819257875698
0.08991508313990768 0.06867116303448767 0.34868898611544114 0.06582309471948913
0.10169620099056659 0.06156364092432186 0.26110224059042986 0.09113833894316666
0.10841215795107693 0.07680890618005834 0.3144054618018655 0.1040130297290866
0.09459222243970365 0.06810682909466245 0.27483269011467 0.09588038946243349
0.08896860024941328 0.06135791061306559 0.11811499730716302 0.10063076983708223
0.08662287530047655 0.05656850639361416 0.1585136855187549 0.06280032130203847
0.08619843537493331 0.05817066645281507 0.14121572788953501 0.06427831324778872
0.10403118313301866 0.09196424591673812 0.38526676654376035 0.03613698441987928
0.11731788362743317 0.08908875999139121 0.42280898235135633 0.011264082925710375
0.10057254045913766 0.08671389206737423 0.30147968899630556 0.05023605998690871
0.1049269708751649 0.0771498148936399 0.2887352556288658 0.07580606227133332
0.09576843412046948 0.07196555127064777 0.2539860258252845 0.06936366543856087
0.09608658468245629 0.06825748807797902 0.2314138582297155 0.11076756092082245
0.09771065630493116 0.08278796572502793 0.20520026313679712 0.15430355951136762
0.09020254991523816 0.08354090468965009 0.2500459042295132 0.06348896857552125
0.12688570400878824 0.09234421357567141 0.5457099537693196 0.024026157217246845
0.11608399339306966 0.08308578585553279 0.5287024200235737 0.06207955137279759
0.11503172914195359 0.08425343309744876 0.3709876171744721 0.03885874531692471
0.12037598046356623 0.08476030367530087 0.5207242255470163 0.04880834182606547
0.08784532514499402 0.07100192843955888 0.14319356500343927 0.036519596703806854
0.07908505150490602 0.0596879809755856 -0.0040036479544069805 0.03406109301708542
0.06751790153288835 0.041337214205140485 0.000551125333753166 0.12662361555043625
0.06628444119005014 0.0490459276585115 0.08246578142799499 0.08580395433737487
0.06982773216441428 0.04344674716639225 0.04297941201030056 0.1239358639897751
0.08332422574508785 0.04781123621269586 0.034239248044967106 0.13025447965518838
0.0872687060094969 0.04564439118871174 0.04534790765384735 0.10256057803409262
0.0776588184169035 0.047071559790751026 0.06320371990304824 0.09603584882003627
0.0892223667635123 0.04145813012833999 0.015286546608359135 0.1239983057769823
0.086885009049134 0.07036039088369926 0.054783020855097835 0.09104526016839046
0.08415034916234074 0.0568232423564565 0.06769154980160269 0.07967287109311585
0.0842475684176956 0.0685287889069838 0.0451342342180409 0.12614017904468675
0.09014995831389648 0.07240759920553934 0.08028219014222021 0.020793518169510587
1.4402445901606775 0.05647378300140573 -0.0019529637036493287 0.020306276176320276
1.4379963798615594 0.04777217804822953 0.01270326573740037 0.0405760553712525
1.4460957103655907 0.03885350875209691 0.03727231491362388 0.04860385576169871
1.4269575075128016 0.04811798994525879 0.04934524491111214 0.013138534325816478
1.429135907359901 0.06575198418465743 0.05637155752347775 0.06265562920767724
1.4301322474319569 0.07343573366035078 0.012912144100842186 -3.0522806456914036e-12
1.4325084114956461 0.07457772662384542 0.08198014192246461 0.031132806300291534
1.436546598107682 0.0663439230043035 -0.0010971784191563354 0.03480094123820289
1.4588433268212704 0.05093370540167655 -0.006513849900915727 0.0798779933554746
1.4442552749616955 0.04636079551512011 0.07557190540690775 0.06819609936821813
1.4415120845170921 0.05782870474989833 0.15430918769000967 0.019424335950085258
1.4388311952851351 0.05129764684823368 0.11349114796221271 0.06449648335171515
1.4267193717501254 0.06067169299535729 0.17986486566143117 0.01440568329940002
1.4421591334902686 0.05987736597377393 0.12778217184452556 0.016313750652354766
1.422917649127991 0.05816278418524795 0.1556128887162492 0.0007791448687156461
1.4340920835148443 0.05566428630990314 0.2308895541748712 0.05421072606796
1.4363759486162642 0.05631452357210498 0.2106536300275065 0.05819513509811123
1.4296854696790307 0.05722877626929046 0.20287873572002535 0.060029931889603996
1.4278376548339022 0.06653633677174221 0.3084693459288074 0.04939785049177546
1.405672648978238 0.0753053641587215 0.4354888516645364 0.043371514464016686
1.4135832282617828 0.07602006003413717 0.48892806375006426 0.016740803622422806
1.4157231364309313 0.0767344541043754 0.4652287973576637 0.0261170873241765
1.4167376513769274 0.062040980104267285 0.2851508519653158 0.043067094028965434
1.428328457961263 0.07371128859685089 0.228957271595933 0.06865871662083092
1.4124947824985181 0.06950534531925268 0.34388423076159463 0.021279629419409373
1.422955550753379 0.06591456449071569 0.2181045151331287 0.03753785389616042
1.4249731838703923 0.08093141652624528 0.2622416793042559 0.004882474647308929
1.4174365645451528 0.08461859768905117 0.31159983717524187 0.006819123050493637
1.4264014098013085 0.08461561699734124 0.2210745639853702 0.02477580652674868
1.4243522596061688 0.06298312449205758 0.17874812533906861 0.010922513964866185
1.3943249651004375 0.095797682830792 0.5008207418936922 0.004715623424665805
1.4175997931266469 0.07792609812009832 0.3954210207766373 0.018348377349137503
1.4124224690486529 0.08968872688548282 0.39452152097043325 0.0058117114658895585
1.3992333473660057 0.0862958730403341 0.5354675765005213 0.027643765565379848
1.4105994642654558 0.08495865069674641 0.4492843554031499 0.01913424904902821
1.4051210237879421 0.07951123995388415 0.41946485170049963 0.038536363451207825
1.3988914840945392 0.08374192893968772 0.48270131794731325 0.005207494753032947
1.4113962742529276 0.08088641827042273 0.361236615271492 0.026829215170753335
1.4292151130479842 0.057603673991003565 0.10956207628030692 0.06972966710542221
1.3889764601278758 0.0935922615800445 0.5599043856511903 0.003607814514294607
1.4298526911061156 0.05573717920461822 0.09155312259565875 0.05123262992649862
1.3985674483864832 0.08454060265974071 0.5152898084968417 0.029859989674865788
1.3934085769095077 0.09041346570524764 0.5317204068964038 0.02445377151017492
1.4119390402436796 0.07981244434413134 0.5142176986424383 0.029278426557025478
1.3907782544869778 0.08568263380619158 0.5843999304805847 4.2980662640071645e-13
1.4103951961257803 0.08311225163766138 0.544997447332214 0.03169355748878906
1.4318922975362458 0.06869307159150592 0.24632654564760326 0.05141013767898854
1.4364289454396155 0.0659604952227903 0.2554493613722599 0.0414819468116058
1.4368676669987612 0.06602576961913896 0.28328088129917955 0.0443651824397492
1.4166507833329247 0.08025023515852947 0.36765672468810695 0.03038948780331713
1.4231494284184165 0.07510843987082663 0.38511127063027484 0.015987004007403383
1.4227811201265534 0.06349846841325499 0.3408603487150199 0.03864833648745313
1.4400004608407198 0.052678952252894616 0.19220218534817632 0.00952216516761109
1.4498055685274431 0.057181859404828714 0.15403123905829666 0.019318881396333615
1.409606240893018 0.08040001379853291 0.5627645931253122 0.015516014535747183
1.4092775546464775 0.08334501066691012 0.49585542448674785 0.028966260070411528
1.413611494390658 0.07386099645206415 0.42092745568035933 0.0391549306804474
1.451241770037616 0.05334933055574673 0.1034762343683005 0.05547915447435941
1.4140506906970527 0.08567917065082839 0.5375511296872921 0.0283635315382791
1.4299935202351155 0.07106210157526396 0.4316452014879247 0.025412542615365654
1.4332057879957445 0.07742463563159 0.40610904218394217 0.04376262708173403
1.4255055040141607 0.08878672656139036 0.5287339555640086 0.010282103635482447
1.4112716004450405 0.08177061924302412 0.5613411426394543 0.017301658690625783
1.4276019522495014 0.07561909829939459 0.35689038322114996 0.01942465239193904
1.4323473909610234 0.08445544407168804 0.45405220722927353 0.03387719318569653
1.4571206259993763 0.05403005134602546 0.09342224972381818 0.047236783157753474
1.4057568629159911 0.5101387605851355 0.4351581360553424 0.026328575826280756
1.3998780108242503 0.5333591757038555 0.5691913701757635 0.06467920803691046
1.4055483432795044 0.5308978836084511 0.5742248434344539 0.07146915784043094
1.4089161222850424 0.5211589247788344 0.43323530903366236 0.018164023774900732
1.4118580017344777 0.5342792953426497 0.43540964677956123 0.021943294187916525
1.3986545428630415 0.5261771537134597 0.47218240256805016 0.012030265269483975
1.4139986296163078 0.5268226224759952 0.3959780151597703 0.020116570952177913
1.418218561765376 0.5406108680260012 0.2905285405490355 0.07875087808030057
1.4135944249516106 0.5315528946259208 0.3347307889661819 0.05815373529154079
1.4153130692436406 0.5377765275910434 0.26717284614773323 0.00917629385118253
1.4219839625864914 0.5458027362694639 0.22353056285986125 0.03443210758732438
1.4257881291343837 0.5476629070347296 0.2644256494522015 0.02021193207893542
1.4338200821318867 0.550737238359708 0.2355721859406049 0.018367435318654684
1.426468762892183 0.5456037077429132 0.2383960835994489 0.020915668230813603
1.4222692326740476 0.5367359865832683 0.20863560543312726 0.005661413312744292
1.4135742825849549 0.539947365094186 0.31844821478352836 0.01612351463720526
1.4164605398356447 0.5421777704111392 0.383912383513844 0.042009490533620034
1.4249819108128987 0.551336306493986 0.18493140343990014 0.02838681578628327
1.444774257974559 0.5627767591884061 0.10593136521995906 0.07767671666065863
1.4377007766572922 0.5522452563332132 0.12436387677934467 0.07606343197709313
1.4400407998498934 0.567263290272972 0.09969171820888403 0.07587106930385096
1.3882496263277313 0.5173217117726192 0.5704831860934989 0.019864962852923867
1.427554441896663 0.5456274878134484 0.13640421360973695 0.058132603697170986
1.424377587684515 0.5485242769483523 0.15567646476898186 0.026637200707557516
1.4286915052565132 0.5355643483164914 0.09428372892684167 0.009935408173324386
1.4176886118750611 0.5389439945532026 0.23492719325876096 0.005591994778595579
1.4301046164493234 0.5391459585113296 0.11058704295535063 0.1116593329395015
1.401210626368848 0.5301594077246581 0.5469027623335659 0.036265519935163235
1.3975299195978372 0.5255159708679151 0.5308988636115867 0.00515314906916201
1.4067167170375663 0.5248168476915347 0.3684832383149968 0.01543691441104496
1.4161805540051335 0.5280849755874496 0.3432139269463434 0.060754940483660425
1.3984061479059329 0.5332913630583822 0.49863664942710234 0.034368089689763785
1.4051570547726115 0.5382857137311324 0.47600123781160003 0.05110579261827729
1.4204432578591313 0.5327003909757794 0.46074753348083247 0.05669990013597331
1.420844790525511 0.5367315503260145 0.41803781158490844 0.038747635548333895
1.4235253203549223 0.5376114486298752 0.4168600899542268 0.06627594487846188
1.4292162589025548 0.5356679059920076 0.40167130145064 0.021869163245545706
1.4439927228491807 0.5566420705876578 0.1386781599653456 0.05342154261632725
1.4151621041369253 0.5363106712665886 0.37546259012119537 0.047513386434394164
1.4153446114034902 0.5354263737692128 0.42905805348126536 0.07254559016130004
1.4292814326975731 0.5449808463892507 0.30641169660774514 0.046980495491496965
1.4298658451050918 0.5459271721996508 0.20959493606552565 0.02793937876398012
1.444047587080856 0.5454666817219688 0.16048318080344898 0.025755610476850585
1.421536866376738 0.5347707367301321 0.34096674583479003 0.054239829533929675
1.4313619972564664 0.546036975156888 0.34989786495670727 0.02493026419122964
1.4244216144180186 0.5492257723548739 0.3015535368423071 0.045784329317316706
1.422030914047246 0.5250269009973624 0.538353661531905 0.008517266677477046
1.4134275079398626 0.5297371468305146 0.5150013641094927 0.014465127250569068
1.4035884705072834 0.5344958566564705 0.5493968367618363 0.029081799434737893
1.4248439536023862 0.5288705841683548 0.5251284829723579 0.011459846014663926
1.4175420458483705 0.5225480044682449 0.4919660353072888 0.016099596373636182
1.4155950109753832 0.5199417516745932 0.31259307213098736 0.014563176639007074
1.4375288020120445 0.5566405863971444 0.191659454293116 0.0189321138145618
1.4392307537175923 0.544097691500381 0.010703734963622497 0.04828712372877482
1.4465463071829208 0.5594639789254239 0.05186393980979938 0.07843499056900097
1.4423438899312229 0.5614087063857078 0.07130045181153735 0.059504562402657286
1.4361243797736614 0.5608310327165519 0.03008819270112766 0.07781953039694212
1.4342605303131888 0.5583633873711213 0.036817162324406426 0.0834742723401776
1.4385224324428396 0.5425249917564671 0.022571000588297065 0.07820344791542513
1.438221157894569 0.5401304526953463 0.049047099624500046 0.043396624209190084
1.4442130299474314 0.5644304059027921 0.008286455133400226 0.09247383255972784
1.4527116959460127 0.5702581234712993 0.007455454250449326 0.08250674173951562
1.4506774457815137 0.5581744794881379 0.05176163534090017 0.08020531220953872
1.4645920754049297 0.5626024580988195 0.0031429687505184884 0.115645933724266
1.4659283048177827 0.5554545447802683 0.11669633566996798 0.07636279720111433
1.4611239860619385 0.5532630365708999 0.18739362935093073 0.015532499187056594
1.4613159500737831 0.5495373666540946 0.2230267543293514 0.016824669819747576
1.4582431983490642 0.5484086955622647 0.24822439289670292 0.026130481036102493
1.4509691832123255 0.5508730046448549 0.27687191501000274 0.03338710515812912
1.4616184636654441 0.5425958971631489 0.3243562207154635 0.010454323115621422
1.4572847945899872 0.5391052643299118 0.29683432234903245 0.04173061090587244
1.4527983095974415 0.5330811289434249 0.38221238751346426 0.010337008057958764
1.4445270932286691 0.5366253796935755 0.3496756911476816 0.021809019265343635
1.4523625521613204 0.5308106344736421 0.4431697866515798 0.00676462289764218
1.4668539415125879 0.5597069220048995 0.04032221673384435 0.06184602288223399
1.4515199322546979 0.5250386104971 0.49604125250234465 0.013309500319771723
1.4497198339094295 0.5222737618184715 0.546404075999288 0.016051730031209303
1.4534991632666017 0.5284643453501535 0.5261191705826379 0.013872010337219444
1.4527280049906515 0.5316378333498808 0.4751452984992418 0.010412256617998553
1.4519135744742224 0.5231260098613041 0.5174703058835797 0.007918966032867358
1.4553189433958793 0.5312140119690255 0.4762897302155288 0.010580127786014795
1.4588753227920244 0.5209741543678543 0.569637679497904 6.670162023669527e-14
1.4654173030129676 0.5237436249712766 0.5037078270715154 0.007546960005304778
1.4674939624626901 0.5311200420672717 0.5565967231510758 0.004212910994366888
1.466223174716092 0.5369419792395779 0.4227391748919873 0.02185550722689858
1.4582715464195348 0.539120739019745 0.36826769742759935 0.0142578488633898
1.4627896870485473 0.5413035824874216 0.3867769008480008 0.009772548284601938
1.4643388715806707 0.5637352587777568 0.14291661307041723 0.014083248211833948
1.46695146525307 0.5481231527826322 0.19236741968441132 0.02329103210371887
1.4584428484007221 0.5575073848496777 -0.006924023296388351 0.044239612557793295
1.4634963747019138 0.534670254676787 0.3352572200614191 0.010172344100116432
1.4573386364675454 0.5521915217596699 0.26633609439377565 0.01954337597800678
1.4704670266819397 0.5361918096660141 0.22806507486427313 0.0005327393562579154
1.4654176637186402 0.5421225026205214 0.2523074100951026 0.02439873122931124
1.4777143188723338 0.5379374524090555 0.33813503751947244 0.014824314069088147
1.46925038643876 0.5385041751689819 0.3628252243725082 0.016072261764931196
1.477514837716153 0.5327914792946923 0.37243812014909605 0.015788706070089562
1.4782525423469346 0.5285728190494478 0.43217599873810086 0.007997578276218267
1.4743403871932654 0.5320017603974677 0.4041123654602116 0.015593519690721765
1.476899247726556 0.5326002370362622 0.38382779298523706 0.03475011200439737
1.4658667717206915 0.5447914767615181 0.3140405991513246 0.012712159531160101
1.4570328311859362 0.5411342795604625 0.2877713984394487 0.0358912956541624
1.470713274422697 0.531625189832219 0.49397873108146595 0.01057844503560434
1.4740997121563741 0.5370378974250203 0.4587964403779014 0.00730936208012281
1.4713148785449723 0.5636482593333264 0.03181745787874831 0.009984510444945086
1.4621348933447977 0.5616272951629118 0.09330462278289949 0.012019966324975958
1.4568392795544762 0.5485237255651431 0.15462460500592917 0.02306487532946888
1.4661474830692849 0.5446258884286065 0.24096762849125955 0.029839996183537876
1.4791967922238325 0.5279303072204447 0.28414370580688547 0.031894271895574304
1.469427682490282 0.5443793909743476 0.19998261373635512 0.01817714250647225
1.4725698862052705 0.5235039828923649 0.536208138063453 0.01618082611761336
1.4689007931214801 0.5269975066004982 0.5256307389339666 0.016932134537400022
1.4715370246820798 0.5494401421304916 0.13978459114896566 0.04037925620336282
1.475415603019733 0.5556992107366886 0.10521036482969359 0.0004321073463728317
1.474654792996364 0.562102816990513 0.07112813558939539 0.005597786114252705
1.458276612290002 0.08672278226049662 0.5759530378064 0.036453405885755116
1.455398828073699 0.06865826771468682 0.28645449088944086 0.023551615995207102
1.4550334155276667 0.04141990890878077 0.0030994043869308763 0.03433258985819192
1.4628029143462573 0.05380359110758341 0.09358800435991893 0.052776754097523665
1.4569674854605237 0.03981053477144722 0.04635553572126184 0.060952221222157627
1.4647872865115104 0.05464728750278698 0.25761845555364066 0.007216740388210558
1.4608598934072279 0.06177888723680703 0.2758319555331254 0.012555990505110283
1.4636389476323646 0.0711256807936589 0.3529383973872797 0.06910198148458918
1.4602080487820663 0.05750423053053689 0.32150350567056907 0.0008046188134760411
1.4664106042998286 0.05300982965552793 0.16990611212806309 0.023551433950861532
1.4519196363494415 0.05310934646756383 0.11934136998235213 0.0187687243191763
1.4653253431141737 0.058756574703978375 0.18330834284150713 0.023579421810781414
1.4639017608092904 0.08712128287470482 0.5389354885822056 0.015966617567511512
1.4537569637436671 0.08762567472930931 0.5214243219548556 0.03955314110999779
1.4629455293189533 0.08029684077585393 0.5177344553065946 0.029406505688463955
1.4584394891116113 0.07252943794274837 0.3686119302938007 0.022191567456384263
1.458801552873572 0.0777667890698457 0.4177223235631461 0.0475826881530235
1.4487202641334156 0.08487224781653603 0.45853039211881613 0.03666090720564881
1.4524609049810915 0.08701253430477807 0.545363036638743 0.012458106042861591
1.454412466256203 0.0811949690510743 0.47444158106970585 0.06646694983917077
1.4541226118763926 0.07301536285213117 0.4486287793516409 0.03374823135622467
1.4576344374072956 0.0750693105494211 0.4603149924843592 0.023694433195717818
1.4638973295375102 0.08659629764333737 0.4323922231634229 0.06331051098719932
1.460092525834847 0.0693807062994127 0.4079044218615431 0.010423232152508849
1.4789513405496664 0.06030331403767928 0.061450735544587506 0.012381009247616018
1.4711961917275826 0.05204302742733924 0.044107472785410606 0.010617952058605686
1.4709273977156674 0.042785435160218904 0.02772406869671395 0.027523815612018318
1.4640230483663133 0.08383021844990692 0.5535755369919666 0.017886375346971017
1.478097578121843 0.06692270969573279 0.2202470694255514 -3.829987949822393e-13
1.4702883557761535 0.07918180027878714 0.384625640859168 0.017306931326359583
1.4801504138223949 0.08974618689052549 0.34367705433390017 -1.4241603977933967e-12
1.4650780780819128 0.08710279570775299 0.4247663567902482 0.05027977247179822
1.4675600777146802 0.06716184662979598 0.2939880310813085 0.04985700301700743
1.463307478644525 0.05772487593721804 0.23253482193964403 0.0677557379528194
1.474367897325195 0.0685665201541469 0.2966556036541498 0.027483672590128214
1.4534640630478395 0.07600915601713598 0.37384528670206163 0.01824374695540935
1.4580110329602305 0.0537917963073027 0.20927055712417303 0.022204526133748178
1.4687736353327654 0.05945871395311054 0.17840982672666897 0.02088383540240285
1.4539801776364902 0.05685096122279523 0.13285676864127025 0.017818400388413796
1.4710675001658409 0.06276540140707178 0.13341259555797033 0.012968602282738821
1.461785138345071 0.04842216865507211 0.15500958825439487 0.015038251861113015
1.465312073125526 0.052062652800701326 0.11578381738948998 0.021052833482406857
1.4670775534867935 0.0855990652953124 0.5638423324565222 0.02334683648093889
1.470516989718174 0.08025804426625154 0.4841329817534513 0.03139089509130767
1.4739596677557838 0.08455624314866961 0.5394526246334134 0.01985235190787425
1.4590773502458756 0.07182841106937464 0.4998411692257133 0.022721453801966877
1.4728836795527998 0.0894219239114265 0.4946563671692811 0.050325432242684445
1.4736900824804844 0.08247478787016932 0.3533560187934533 0.029999775198655737
1.477507029742536 0.05168613680730116 0.08725712636799361 0.0077273386626648686
1.4666164509691817 0.0544892753661842 0.07786218560313865 0.0747496744749065
1.4775522215087142 0.09399102152569919 0.5676698757388965 0.0040056912352213645
0.06296053046015387 0.42969321634155627 0.6233742691280848 
0.082235382296993 0.1705930688593552 0.6145609237462399 
0.047753341545821205 0.4595975013083829 0.6327025806916192 
0.056231235257764474 0.5629590364825844 0.017445248511626564 0.1843055037293701
0.055627740430806726 0.5715226420332915 0.04389896882088542 0.03691529573069247
0.04643612781921279 0.5546313305665462 0.0598208387479803 0.07108990987275304
0.06261446246792106 0.5600292952599931 0.08240146861349894 0.11826600933234876
0.05623933824083177 0.5553029576320387 0.06747725074606817 0.10209840465802875
0.051193856549534976 0.5469828769850421 0.020438936629159285 0.15859274621383482
0.05563396349697474 0.5494187660402465 0.14001777643374863 0.08187086192220787
0.04987969333708779 0.5571800334319728 0.11256037588880514 0.1182217743010353
0.052501827845204525 0.5548969577370958 0.1543952285799305 0.06408377229838386
0.059956975560383374 0.5630406785122054 0.003258035341699002 0.16424237351065923
0.04563275494973244 0.5447271038514861 0.18179108340499991 0.08417185401141083
0.05608260182746435 0.5499291701356794 0.25692148478201293 0.08173667035852043
0.056893731637933244 0.5595498646018826 0.185832043416563 0.09555878705253218
0.05456009193470072 0.5595126494004484 0.1938918591781572 0.08479183797635503
0.045676028377575416 0.5435577015731327 0.1868837179434278 0.0742630175004445
0.05131765129999237 0.5374167512486211 0.24439922832321048 0.14866096577460128
0.057567082399993585 0.5461952379902195 0.21511667599831283 0.13639482249874793
0.04696255688060814 0.5261052223826803 0.3033758234979558 0.11473482946355512
0.03724345108483808 0.5417771016641499 0.28834327108190294 0.06623204108394269
0.04928748916191482 0.5341830466078605 0.26222998017338883 0.13321676346073158
0.06193748476267605 0.5395088524942908 0.31600191376065245 0.11000919578825952
0.05243200331228212 0.5510336304112907 0.3335837037844205 0.04485877382830277
0.05569060558898381 0.5339077881275648 0.3591080836546358 0.06708464316740845
0.04918610654313849 0.5252031975738667 0.44648416275622094 0.04201273784388907
0.04519931305471646 0.5365123671476972 0.4011685847940469 0.045826037141976965
0.05139651720367411 0.5240300644185437 0.38018585573177294 0.032308025735895064
0.05328228008070241 0.5239321799922612 0.45913103079688533 0.057568511218201696
0.04780721244956174 0.5267807699343748 0.35678551196026514 0.05230472687485211
0.04522199493447521 0.519240029584811 0.4927622548522049 0.03163008110010164
0.06166161884367063 0.5375225805595564 0.4976626483108987 0.04813823227923219
0.05748627062428978 0.5301747973051382 0.4659710687550566 0.04777763654049092
0.04839330661789085 0.5175478878267151 0.47317308212624964 0.042258127843948896
0.05415788754106235 0.5244091626763957 0.38933164783534413 0.04155981937886742
0.046532733424943414 0.525928081411038 0.4116803547788115 0.07106235375462247
0.05572106521153269 0.5216634061103588 0.3401485013163431 0.07681577505416685
0.059307650841657775 0.5060510740775287 0.48108163788085545 0.02207331987861204
0.05284605103088645 0.5249830425358563 0.4970025832683282 0.03847129178180878
0.0528305527624485 0.5118850278682048 0.45340143774792296 0.03311588955886027
0.046785417598746215 0.5188897107721797 0.4154915988430188 0.06319001042379269
0.048109847083535474 0.5323293803497358 0.3421215452030372 0.055160371479102854
0.04865859573109928 0.5366691520771276 0.19753816204487715 0.1802347908933167
0.05547871020767337 0.5295223774036515 0.22245372918874076 0.04804319571172895
0.05786496630053552 0.5317892984475221 0.2542861441195157 0.11715886753602989
0.04978569060530012 0.535273161870714 0.32408471007289946 0.09027017131557022
0.054036323583044096 0.5323545818671777 0.1861022526336358 0.12389386603029358
0.04887989166545077 0.5414025660216382 0.0865554898710415 0.12143866930954561
0.052997904519030456 0.5462002168963906 0.04571089682963201 0.1347238374740553
0.038958838259643705 0.5384243274369916 0.12323264301166031 0.06000238067100706
0.055734819775206085 0.5255055722454047 0.512315639357808 0.06876762576045181
0.0458879818138307 0.5233967286678303 0.5669208157348606 0.13319333726542973
0.05353215703294045 0.5178622850447877 0.5110460121569137 0.04837298000261811
0.042025291527307704 0.5081173471698174 0.5461955017548173 0.11791285069564522
0.03998632878777588 0.5197999227516062 0.5563742650553053 0.15022207008406166
0.04690254055643192 0.5074014493494233 0.5968338211944247 0.0478894229579216
0.04819174467342926 0.5155225968992704 0.5752141571413771 0.14475825094383327
0.04534655884589599 0.5113782777666864 0.5657314920256031 0.14670285866197785
0.05626888495786702 0.5133848897299794 0.5066483349952576 0.05354641910064872
0.05712502819085283 0.5351836771639286 0.5206490298324797 0.03799249988458956
0.04955667278564039 0.5157045172212956 0.5885810313350233 0.18011388740045278
0.0513654224412433 0.5558956375832731 0.03210653214420228 0.11332747009392322
0.052255432374659364 0.555530590681073 0.15263342491215887 0.04282015749223188
0.06349450952584554 0.5356954008549307 0.4545633399318506 0.07947394066075397
0.06667565587236289 0.5311004447898406 0.46303105336934436 0.08212334746023645
0.05906006992973006 0.5396822934347222 0.4299050084133576 0.04436581462378526
0.07014421796942441 0.5364087661954418 0.37662970594851847 0.024264068781924976
0.06550894403801227 0.5345089585528212 0.3908248432499536 0.05102085835860145
0.06573464350446359 0.5318023459021003 0.39906404180002214 0.06543543965790895
0.06514518387763125 0.5296102199024966 0.343831416048971 0.07088089156306633
0.06110723169561943 0.5364788139502248 0.3662754615789655 0.05154990759238027
0.058910428050368877 0.5375603610496007 0.38615043672733895 0.037745229829548164
0.050689627145470165 0.5451454278906158 0.21008677275187582 0.1369195749700442
0.04933589997028135 0.5528968025275367 0.22720999819640078 0.06269076968542082
0.061820454836007704 0.5343353174555094 0.3338830354037745 0.0694913298838665
0.05638684438009031 0.5448567178134568 0.2348465923204847 0.11931134007552019
0.06577374991426096 0.5542022383027645 0.2879650248677233 0.05757575985519826
0.06419014072820281 0.5548627058547293 0.1433437518296405 0.09012551004595876
0.055263637195587495 0.550563050241826 0.1301007975657888 0.06869084757096992
0.06006398750710785 0.5252117625539304 0.5988838647707306 0.14024948044253832
0.05210311148715416 0.5264858320919751 0.5526477496272855 0.11842955586590245
0.06768764031647495 0.5280042256790779 0.5614152410708124 0.0982625271948698
0.06762761434178303 0.5245314783095548 0.4172706288751858 0.052772734261303876
0.05989071888170182 0.528837371098431 0.23275612353098943 0.07125085730811183
0.067010875411374 0.5242240619745819 0.2904539023128048 0.0885556259680865
0.04884497516689315 0.5428796264494173 0.09603234506143972 0.11501070347852947
0.05990127365648868 0.5023642331538318 0.5600701806374717 0.08680508740901671
0.06094936488617187 0.5029131887009047 0.5750452397815732 0.10602511544672413
0.0618723790253073 0.5254651193180416 0.5292658138400989 0.05791161143814203
0.051843435586362056 0.5336025600224151 0.029911789019799868 0.03996198933470317
0.06817110060818334 0.5673601381180131 0.01071906646458235 0.10849027825186112
0.05658363749272594 0.5363848842058667 0.15411792001451294 0.0833669757161666
0.04686154644560243 0.5340353332691431 0.19010021279147343 0.16056104109869143
0.04558160714973236 0.38507208190073566 0.6445346534302239 
0.0450268988149984 0.11118241626504018 0.6161608923014468 0.010016685242138177
0.05416373122364816 0.07991580319145736 0.540679268022851 0.06803332480213795
0.039450971649983825 0.09408362793756624 0.568175340211512 0.06591062456749071
0.051474511819191174 0.09329157970926369 0.520692258330187 0.0795514667435053
0.053697078611235086 0.10179860787948213 0.5810111119108963 0.0877718088751504
0.0607937820951306 0.11425009662537149 0.5897926565581059 0.09044551657154855
0.04358556611302688 0.09949115042394624 0.5993579799308297 0.16205534677406927
0.054127390033138094 0.0801133263673879 0.5084630379708196 0.0763902190777517
0.03931176623308976 0.08930531062261587 0.478873841441749 0.06993949014654166
0.05269322187765927 0.08321291830009073 0.5227448799687917 0.07023053191964782
0.05574133373625405 0.0759367895423674 0.4471703096621594 0.034523905887546315
0.04073197727197589 0.0868417674679339 0.4665412308023866 0.07012480914892567
0.04266530300382342 0.07474124076590483 0.42778219393354505 0.0761212896733538
0.045880574987681326 0.07406326365579893 0.41096689064858927 0.07245965760883938
0.05036308606903399 0.06811750585119232 0.2901649639652159 0.10518611509732988
0.06056450793646109 0.06624912756977006 0.3015551951963903 0.08449442779409025
0.05159058922445482 0.08746739889885154 0.42246814984296976 0.0763002142663203
0.04973347237213801 0.07984366072287737 0.3437385630977627 0.04256575435600416
0.043444659149988296 0.07581224887361804 0.3917358341998728 0.09327354003055013
0.042573030405903836 0.07731229224367366 0.32104353149692194 0.07185861689506642
0.048439769536357105 0.07464987696011122 0.3671973680900733 0.035472838329254096
0.05034806890673607 0.09054204576416831 0.4367782627597022 0.062435741225388475
0.04073283722112403 0.0588651895327956 0.12061382203194423 0.056739185710536294
0.05168026227814206 0.06804493190398894 0.1730785567373319 0.051732944730020436
0.05227619831529773 0.06709785479406685 0.24286967669478995 0.06096925304250876
0.05407824243768458 0.07106867922908566 0.218519432271781 0.060553782234947645
0.047740859675191455 0.07728395368743202 0.24526954194314185 0.07319957149646346
0.03684574135009324 0.05992821415531124 0.12842534124122157 0.04755350096794933
0.06221777460071731 0.05634631112044126 0.11675674917674839 0.0534881003516596
0.04787012866735082 0.0617157542615235 0.20399251147171552 0.06871344802010212
0.04929132025977062 0.0596805677127764 0.18100299190631228 0.0697523776163901
0.053270138294329986 0.06509761689928802 0.15976220349545547 0.07678846437543009
0.0512651031629936 0.06711198469255211 0.18738220382039023 0.09781312697726936
0.047120265666799194 0.0815784392069807 0.262699118785411 0.07660922454295382
0.04971902565484862 0.07757083146902442 0.21217968006240326 0.06554144603852183
0.05809560817068017 0.07466505867311418 0.18483154996350415 0.09245934467375244
0.055025786681053825 0.06944231478125433 0.13807360402362012 0.06294385325331535
0.05171786090492149 0.08023864125718236 0.30916025034843087 0.09266542236963916
0.05017881335468212 0.08556097341945151 0.2869227934012449 0.11823779787861959
0.049439693962961224 0.07991994707303361 0.37108516790871326 0.056472431124182945
0.05121475047212106 0.08571561635160008 0.3772827715218837 0.06505141057410053
0.05416037873284375 0.07504940673024466 0.40763215445003464 0.07781171399525443
0.04946244939871332 0.0891644486479321 0.4032603008612419 0.0618867139575807
0.047053949079645885 0.09177407839659192 0.445599386369918 0.03934769171065409
0.04738002807302755 0.09285071845960798 0.4860381202796201 0.10297913990566632
0.05458740354568334 0.10209441113590709 0.57371177536423 0.0820584635949199
