x y z curv
0.2142999485307486 0.2589630242757705 0.7334951637851712 0.0035932094938930276
0.4335409175485237 0.08493915476119783 0.7328459835469617 0.05075334448218581
0.4097127488538808 0.10870676981363045 0.710573824034178 0.03402377785743005
0.37572133141223296 0.12689696394043626 0.7161562812954143 0.06472804167124807
0.1604807498598024 0.3133568183534754 0.7275400888507474 0.06500142437498055
0.20417487126225342 0.27917278420589337 0.7415053358903125 0.043584904920529466
0.20952852821384865 0.25345032849797544 0.7177048691438828 0.0021023825543971058
0.7330192717832682 0.003089377328935031 0.7269098667083704 0.06951500043709097
0.7161364773147835 0.013580249050862827 0.7269991372095409 0.11707415027000925
0.6769643356387578 0.010023670462710651 0.7478787772236711 0.044937576869409114
0.7243291128412226 0.009946229570565545 0.7375039832387023 0.09190351939428892
0.6839123640687902 -0.002193042872591297 0.7276231927482008 0.0527781456971394
0.6630362705307614 0.012851619596059165 0.7389663697828461 0.08140660276721641
0.37334291434516925 0.12365648630032484 0.7415450053412369 0.069185065402751
0.3029518859466394 0.17584911564908254 0.7162071805557124 0.07454583550520139
0.3271208021912361 0.1539095971589912 0.7382796003602567 0.031541304524121426
0.34170427188868907 0.13587537955815523 0.7281320179725446 0.00972262961543737
0.33274754132015605 0.14982025797333326 0.7208981936539343 0.019338412047425094
0.3477038095283045 0.1444587517455798 0.7146589256554416 0.028782281081982147
0.31211855791152315 0.16900126832830595 0.7241889015523647 0.06612110509811453
0.35337621811669395 0.1317399332106137 0.7256020392661048 0.037508175233246184
0.8323354630608741 0.0008667563788630447 0.7129653224315488 0.09303714556264288
0.7625887268033453 -0.0018683293088053473 0.7339513270768311 0.11484532376536179
0.7889095862982086 -0.0018741596889954735 0.7236400928121075 0.07177150093107659
0.8233558378041756 -0.0022586157888291884 0.7277119038747331 0.07339440969452306
0.8538578244271352 0.002346708034288077 0.7222234615697497 0.06347323395305099
0.8431715750442033 -0.0008654434502234283 0.7285857805267976 0.06159425314303553
0.814154246470073 0.003229373962138597 0.737107543682895 0.06508307848037842
1.134473266687475 0.0804567809280474 0.7176678110307665 0.06161557482999119
1.1233645479639105 0.07566826793957614 0.7134059941848239 0.053521930904968096
1.1247835485515878 0.06809658410732936 0.7429074419797115 0.08948951509785717
1.067116879704858 0.05163221586593519 0.7382195040996363 0.08593280730345322
1.049364589385792 0.03466846486796702 0.7141890456390544 0.06410146237702319
1.0848954631212708 0.050681349207626694 0.7325783478395945 0.06784373417126316
1.0529358167638838 0.036740867591551096 0.7336939342509154 0.05970063353841007
1.1940667381303274 0.10499010210875717 0.7120146776421303 0.02621559789950393
1.2293793514408053 0.12205275328369632 0.7465251186186879 0.04092270149544643
1.2093680739461043 0.09974581391195667 0.7201401828940279 0.0360742449478618
1.1490371128251766 0.07484270051035209 0.7149479942057222 0.018861370954359837
1.1904004529830263 0.10010853232218617 0.7387705584618378 0.029109197058214936
1.1729640643105195 0.1012579534386991 0.7421488395265675 0.05550780585630672
0.8818852357958218 0.0004915369846564001 0.7350660683923235 0.08016290350296938
0.8653160862604756 0.007175880360454795 0.7513559441929548 0.04100712640932762
0.9001922479185028 -0.000632198010336071 0.7305675043307819 0.0338600244297762
0.8772402264636001 -0.0004931151941197417 0.7182709941876835 0.04722567493068976
0.9587236960541737 0.019371591482070228 0.7375613852232666 0.07383150136611111
0.9211935792116215 0.005309358666460536 0.722765010178367 0.0334997400002976
0.9280211453729551 0.012430613226734754 0.7245695911569099 0.054452855281479404
1.022976255129096 0.021002083905748887 0.7056661077652063 0.05270585961882903
0.9937389647145226 0.021644967898906232 0.7276938771408095 0.09202394235438455
0.9772266617510035 0.013915264427374913 0.7404400262610963 0.045984578075007165
0.9496226314560361 0.016686940508996398 0.7309961995969027 0.05602003063304418
0.9555872134126903 0.013966687244756044 0.7469989893124588 0.051799125544272275
0.9675008290818863 0.01834635706456122 0.7163382963741826 0.12507425050952425
1.240351090671359 0.1274700247107383 0.7290754774240381 0.05475495532861578
1.2832136537512164 0.15411876510285882 0.740011789122066 0.0242432523749805
1.2415972621311935 0.12932962438865292 0.7181694735974958 0.05415708888115843
1.5652972774230567 0.5577048105611292 0.7204674277145937 
1.396917474865105 0.2610840903813691 0.7285735359663568 0.058315431023151405
1.4252701288044531 0.30024454693675484 0.7289998617723432 0.03718786154586512
1.4864185490713002 0.37638622424167373 0.720668417478894 0.0005568615478320943
1.454464635052846 0.33761274661230267 0.7226089099866739 0.05730329215053171
1.4713899758135427 0.3568149918919675 0.7268151034776988 0.02802297219915857
1.4999703499606079 0.4106741388973144 0.7391392734835909 0.0005223148570043045
1.52982731880892 0.45200788560421623 0.7458049251988648 0.031218779159376916
1.511611828249176 0.4315928947796628 0.7428324869225499 0.1739067057074631
1.5422481104016785 0.49018102879681014 0.7175708655790085 
1.5257581158703404 0.4500077828894922 0.7195169086604374 3.604481207953467e-13
1.3886587710461196 0.24865815322972637 0.7267061980062586 0.04683686693671247
1.5851868603131152 0.6116161961937935 0.7295965081752863 
1.4777285766497 0.3665558758156839 0.7342206686062167 0.026521355892455932
1.0712686021772826 0.04077799593103064 0.7260080172711652 0.04281438334809251
1.1196559933251495 0.06589990540466273 0.7305020440894169 0.07967688702383123
1.1000600483583738 0.06113864589997282 0.7359980387750277 0.07158412289693922
1.0334257439756023 0.03731640045145415 0.7156022698308384 0.09741513362620285
1.011566113046136 0.026764616043163637 0.7300186959528959 0.14599943914877103
0.9881664738184973 0.02163940499794501 0.7395489580831964 0.1062421854509159
1.32679116543806 0.18324858073286238 0.7329013877680907 0.007776963907842845
1.3540128629517887 0.2160694307965753 0.7186695494530932 0.0009180184902220959
1.377968307682314 0.23362447543882178 0.7255790519641295 0.027133962313831878
1.2502591289935723 0.13142537103542515 0.7292875562642246 0.04357146715380788
1.2050551111099328 0.11021531160215574 0.7280127717405696 0.052090529268556306
0.9488356620850177 0.007918104361374342 0.7186608799129105 0.07679917065121092
0.8020967323500953 0.007591398999012618 0.7202849966147951 0.07479588462190859
0.8073024240527845 0.0007768806316287937 0.7320121373910962 0.06895012425506002
0.5241964832658249 0.048320146327253795 0.7295030534466559 0.05914013314805739
0.46527626400883865 0.07017874514674274 0.714995587133695 0.03680414629686217
0.698728010389403 0.001052070197444399 0.7336255428031493 0.09118312071272612
0.7448302278084917 0.0021434759075686714 0.735203718935019 0.07910247112938909
0.032419115729710436 0.5808843465099611 0.7422620744171181 0.03996471238169059
0.03457104492839652 0.5618702854964085 0.7269940707743275 0.05048453472116946
0.011607924785312133 0.6905306248728211 0.7456363165384253 0.06573974632423087
0.011311670667709084 0.6801542541851797 0.7178966845868192 0.06694255874258268
0.008581362242197431 0.6913612967024904 0.728987396559904 0.07203119918489083
0.1987530389234699 0.2692399154488376 0.7258126049854905 0.0017001325575998682
0.21249586849227045 0.26411631099938243 0.7416312900365477 0.009885062903766395
0.1788616020508298 0.2858387558819629 0.7159472821769928 0.018007540785406933
0.11064487225294906 0.39144023458586846 0.7232749507375513 0.03148848996136712
0.13272099563082546 0.3628338989267331 0.7360244088273994 0.0729827341049339
0.07929655837830668 0.46548454535277217 0.7365486655215578 0.07852233871783071
0.08597612716481534 0.440117655523311 0.7223845976916866 0.03474526941438911
0.06470193464469269 0.5014317108749137 0.7300895360389708 0.07602936659052842
0.2846360285953536 0.18242223689997547 0.7316499084005289 0.06455116505665576
0.01177494476989105 0.794360807979925 0.7164322522484985 0.03451578328300235
0.005633654524542774 0.8573515975272326 0.7414364734734357 0.039891979785160736
0.0022824772844967406 0.8415510677513149 0.7150561568503012 0.035330617761318205
0.010356053336125532 0.9039390580238414 0.737198588749438 0.044747792231891036
0.02098292392636089 0.9889026295772093 0.7307745299192955 0.033635902508787674
0.010527042232268769 0.9621034396024195 0.7106591036680594 0.027991669020268936
0.0734873817458993 1.1390017273563762 0.7296496229211298 0.06501755758556825
0.07647580896566934 1.1248541005510622 0.7214567201997218 0.07004900062085626
0.0969953009747529 1.177757251649449 0.7055243945602901 0.08140926077998048
0.04487327707695189 1.0658953763117456 0.7322684874717718 0.04232454496004373
0.05551749746519116 1.0911666261401403 0.7275516671276635 0.04501265606975243
0.1218750804766322 1.2243032541451286 0.7392558026755809 0.06280467704348272
0.4657106327709886 1.5210619701020462 0.7201116164279525 0.05713687475068112
0.47317805502376153 1.5238687052855564 0.7328734161342464 0.06869511832792193
0.5109246558160115 1.5325885199869278 0.7403204175860781 0.04623988524967165
0.5803072263659892 1.5692659755318559 0.7301952667761106 0.0819992375609409
0.17618974576392424 1.3114189020316107 0.7276529017507904 0.04147691225405581
0.46289557918455726 1.5282212811676243 0.7441079521090328 0.049894513184487975
0.6586085144548491 1.5821168872404439 0.7227746769596729 0.09383873841937801
0.255621051014017 1.38592634254078 0.7437818158409206 0.03667459202669723
1.1116775450981837 1.531152435674426 0.7147540601122614 0.017896752851502367
1.1560194075058208 1.5186465233346547 0.7416231120357164 0.008363309944998412
1.1330530400099732 1.5147119919049867 0.7371848386852511 0.06753997736087446
1.1775138207777684 1.4933709119280356 0.7408393432569613 0.07755219241305694
1.1711724660458882 1.493747902913219 0.7490054856768931 0.02355890925882818
1.1651494326201441 1.508671218877012 0.7327480727991886 0.03912040872193574
0.8519184470446417 1.5987153798950986 0.7247886478051665 0.07089027333011019
0.8882765008364643 1.592354908549649 0.7366813330083629 0.14039602103434462
0.8886206671088782 1.5825999725294952 0.7137334678473677 0.07364250618384426
0.8750791417786155 1.5887351394411129 0.7140867631543996 0.04663161509053579
1.4452634031185176 1.277008638934847 0.7144912784784387 0.05485798248075834
1.3918076649408155 1.3322907781399893 0.7250965496662274 0.04208042988454139
1.428885988986071 1.2944624221392997 0.7298248853393181 0.05204330414259712
1.4760153879244817 1.22616385927928 0.7137309174934129 -2.8334475774439255e-13
1.505126001091206 1.1784088014969933 0.7234436384787564 0.007830828506536238
0.6962235799815604 0.8958946513857582 0.7491516216295395 4.910036400520426e-14
0.8185608927671385 0.8987306331734216 0.7510637066254006 
0.7422876719269551 0.909541773238495 0.7522052389369022 
0.8449789064441061 0.8691652383049594 0.7579774218820324 
0.8785356483347073 0.9033475660514957 0.7498885096579776 
0.8939786858377731 0.8802743126991934 0.75683309587984 
0.7395137255238968 0.7268866268397035 0.7545780613536344 
0.7203393059751555 0.7274828891718916 0.7521913161545167 
0.8438270018046512 0.7105539740977941 0.7473711307467746 -6.782912986444577e-14
0.7739771920162413 0.6861466026399499 0.7469526036454145 
0.8321609152974678 0.699172658589893 0.7481707158918584 
0.8772182076812001 0.709298157691142 0.7572657980757744 
0.7897852304089719 0.6892142858395497 0.7486350370361234 
0.8717358026993689 0.6983438970131789 0.752823047839253 9.18602567956407e-15
0.7592528948858978 0.8294984074656576 1.1547108012658274 0.06368671292971981
0.8266965154658595 0.8392499570514685 1.1513795244556158 0.010228645570102739
0.7812926911434319 0.8440825523898707 1.155842646833692 0.01145070200505519
0.828500691878286 0.8232536186275335 1.1601143186076996 0.054910878038261356
0.8263757867452811 0.7636665289902616 1.1507882316678828 0.04752926372224396
0.7672318917717925 0.7596616010696234 1.025576820160195 0.028928572158375503
0.7636301070084065 0.7667571888441126 1.0482132825164963 0.01633117728580623
0.7678378755406107 0.7571632117830653 1.1477513403066972 0.04050882141288724
0.7733415012787817 0.7567997734633732 1.0691262687158776 0.030751160059689964
0.7744828548667005 0.757019622702745 1.0256118328605905 0.025948104886891754
0.7604985096474018 0.7640135870032566 0.7840733597547175 0.047055070142629656
0.7763872337693233 0.7615480234866072 0.9666700700197449 0.010749858272209586
0.7652379659257402 0.7555660921776457 0.9310949632936055 0.016691801197185892
0.7539495353176179 0.7574365201698472 0.9119362586200008 0.014359404953006645
0.7513042192409823 0.7690436507359669 0.9315314503791836 0.01581807705189065
0.757973032707941 0.7650438344934657 1.0080529766187403 0.015602270245554904
0.7507187125221655 0.7719652189395618 1.0638231320963945 0.015621584446706244
0.766226383282334 0.7599319100743954 0.950681179309382 0.017100260345200218
0.766178961992885 0.7562444433902533 0.8277579305387192 0.017217990004096385
0.7616698343049362 0.7631635550299753 0.7992377686459383 0.03592302567340847
0.8200550363786332 0.7544417082051534 1.1234751533203362 0.0456668262545685
0.8173873601384484 0.7576524556808972 1.0944443065363116 0.015502215471763073
0.8052014741139804 0.7563356761707665 1.0901113613915774 0.013621945997984514
0.803903473607041 0.7587660719170809 1.1366275972972184 0.05381648705923777
0.8019600860044738 0.7515849510008663 1.1057384257768337 0.017214730790731898
0.7801888985747149 0.7536658842364232 1.1594121729493378 0.01551039370339349
0.8030824972052406 0.7554076698081431 1.0770852491700693 0.018356346480665493
0.7901877293271846 0.7463314331287956 1.0363565960644643 0.021507036185776002
0.791125575322031 0.7604228207110233 1.1031477020532567 0.0153273985596027
0.7941602790369812 0.7526140599407235 1.0606245249667365 0.028802381625788485
0.8093536759786814 0.7626442942167597 0.9301950342947741 0.010804494385602213
0.8240788332802672 0.7533462942251241 0.9086577193323634 0.02090426026312361
0.8184165148021867 0.7550749218573647 0.9847000495938751 0.03586375491333844
0.8051398220817384 0.7547556100762742 1.006590049169432 0.01740567061152104
0.8236471924745107 0.7593103794096974 0.897120492806343 0.024254603003714115
0.8028667712335069 0.7620132350660852 0.9298472398317831 0.009566714219793115
0.7902032745713583 0.757462329271144 0.9237898933791973 0.011058068803482597
0.7986291895205362 0.7583965919227545 0.873000488673503 0.010273248912243248
0.7914594326443462 0.7560708996248429 0.9371029866622911 0.011052531363610642
0.8005244739205288 0.7570497581581694 0.9081023520003707 0.014047802070963608
0.8288395873911901 0.7554221777514077 0.8678966293562757 0.021681662310692285
0.8201554361192447 0.7528725802700196 0.8571025679843202 0.0261728884589458
0.7830535156895508 0.7551396947836382 0.8367552636063104 0.011121823260974157
0.8224574330846158 0.7604795738442583 0.8266995683407301 0.03436738891519667
0.7990180617177733 0.7616933524280503 0.8014750080401468 0.02384669624908198
0.7906248639011959 0.75622013950306 0.8876076126002967 0.01030588121195864
0.7884167789129214 0.7548147805741527 0.9100308001529861 0.012262911006003756
0.7851690357789551 0.7516881501627573 0.8981009765637232 0.007131698761498819
0.8064293603577809 0.7605040822369554 0.8913433029840161 0.01514047818855658
0.7842806634602933 0.7573753747466438 0.945701254872855 0.02407822819666794
0.7719948579353605 0.7608697817831931 0.8631405362102932 0.019357189309119435
0.7840061438419214 0.7553773896958371 0.9638197970949853 0.01760766939462545
0.7872453374239131 0.7586716041148521 0.9933711837992393 0.0170302760179485
0.799100378580575 0.7498478686556337 0.9772481007254341 0.016420690491929076
0.8063180609475604 0.7532215569904904 0.9554596455336211 0.01900260385765637
0.7808238299670403 0.7551007702454117 0.9978013063883426 0.00930703928230248
0.8076029972094123 0.752967337395038 1.0009577431611851 0.02057367914786486
0.7868615388658803 0.7519886561269007 0.9770302178858704 0.00970082178411582
0.7968055228974105 0.7587958467507055 0.8472804253639702 0.009237619660171167
0.7994198750333577 0.7597752731083713 0.8627015480252961 0.010092147689175247
0.7958302040339869 0.7634634555271071 0.8140940373272096 0.01567055363455669
0.8182324301603938 0.7610660950161547 0.8021508283972875 0.03239448273163646
0.8110377197458523 0.7536222675238168 0.8326526355457212 0.016063114197351007
0.8216428594210948 0.7568851788300667 0.8352020282863454 0.02740450961859114
0.7943307128978061 0.7558672095123958 0.8580552789423208 0.007174338216076986
0.8184507034276424 0.7569283628654033 0.8156691221689231 0.025621015096003178
0.787068610705639 0.756968630669061 0.7890371597696583 0.03758537129677408
0.7867263346591412 0.7637100612685267 0.8051519059922434 0.028885951883105297
0.8159014120564195 0.7604031055298559 0.7801853174919324 0.02858270361944633
0.7826345475513792 0.7584832890009622 0.8270484614837305 0.011125289711457173
0.8031812639344503 0.7534847541469157 0.7792303234058425 0.0269453823512474
0.776745513052187 0.7467742370289684 0.7873767710848023 0.026582264968772366
0.7795793486065532 0.7566876685554915 0.816885965180325 0.024441202805988563
0.7964086496946914 0.7556029025643181 1.096246958475863 0.014636953718212478
0.7835954330420747 0.7533823901464979 1.036867135395653 0.02487474523369906
0.8031670522983468 0.7543676102073228 1.0259202075588019 0.012248329458948852
0.8201588124524642 0.752846409884938 1.0297157848334013 0.010764809473228708
0.7888096356317115 0.7559075790816517 1.0843781620679713 0.018461479921892524
0.7793981206063642 0.7612704998687205 1.1036135521195949 0.018027300800205703
0.7940213377455188 0.7565159906669978 1.020497346701087 0.013741078063482268
0.7780927856435624 0.7491788751399733 1.1254694690399596 0.014078869026410574
0.77424032980983 0.7485903339833598 1.0572711068566438 0.026528309865648372
0.8125241410748728 0.7505236108062469 1.048482571872856 0.009846559597182742
0.791872963966837 0.7577692184236078 1.144938300392616 0.06832065700879823
0.8236554740202309 0.7541522193298155 1.0785036719235066 0.011566948152375007
0.7991684921533407 0.7566517280971716 1.134494351404595 0.04986444184067727
0.816037496556956 0.7483973191236598 1.108694699287692 0.014588065731519701
0.8210573872397013 0.7545430961995888 0.8500917335755163 0.02808190750144726
0.8228145448499965 0.7555949352250474 0.7681534245637754 0.02815273948437229
0.8423893297842535 0.7664603132785005 1.02404334579029 0.004994582742365211
0.8328324290840449 0.764242206845928 1.0004815593061513 0.008436822627001692
0.8395293050690484 0.7604129564690147 1.0133511818208096 0.007629750873506828
0.8384175539968367 0.762793140966988 1.0461661668194735 0.0037717473625031475
0.8351790856451653 0.7536882386829072 1.1462299018370243 0.05285622292195884
0.8312786123305445 0.7575720575123284 1.0594535898240143 0.012178960080488386
0.8425241597582439 0.7580869687974948 1.082495373146085 0.014745540294913116
0.8251567195705621 0.7627908945036556 0.9860167735302444 0.03514969490953485
0.8387119687065044 0.7742456398384221 0.9671302311402189 0.014230853726412949
0.8431173031375093 0.7697204197065152 0.7791730558297449 0.01159114754354794
0.8299985818880113 0.7586423563896665 0.7673694138071709 0.017809566187014406
0.829299943280484 0.7573785258994192 0.9258377753266631 0.025721048868003565
0.8291789598731656 0.7567573049109684 0.8017800356126966 0.02425806545450911
0.8232495920071716 0.7566997741331567 1.0065040346048786 0.0239695032147134
0.8444772685129206 0.7635846731942532 0.8375594779528691 0.012589129324815372
0.8511442394521836 0.7641020024431011 0.9558318064465919 0.03550552828574939
0.8408845829943891 0.7703494527673693 0.9910500599281422 0.01965002065934511
0.8325575509414115 0.7626696982367454 0.8587010265950806 0.026692255171011498
0.8353567923348031 0.7614482414346734 1.054869715663418 0.013924526580024382
0.8257321218976756 0.7468891065824329 1.1446565997861273 0.045363243641158194
0.8266127523563986 0.7498343910874004 0.9571366449206833 0.03332009718672186
0.8385169835891897 0.7732779832182699 0.8153510663132543 0.008557356028920942
0.842906829159831 0.7716881563598086 0.8533207278587489 0.011385829969049669
0.8462321326368504 0.7836934870313153 1.1575167292681456 0.0490552171632537
0.8437789701046736 0.8269722457844246 1.0542429159242064 0.019981578676556814
0.8324153439918706 0.8340114095959883 0.9955797688742707 0.02556958814481092
0.8380153140790552 0.8327480336944846 0.8835802827925487 0.014751610167337496
0.8283195644302898 0.8353259565385115 1.0529433268225514 0.021514938159178786
0.8383377761282864 0.832507210906708 1.0440064654176342 0.02268704290389639
0.8414212841484323 0.8322264656641205 1.1246011462510985 0.01638997165209458
0.8320414153601894 0.8426240640828584 0.9840335817400131 0.018638811770427376
0.8376437191766206 0.8395985739793461 0.9643502363839142 0.012423539275904645
0.8353548520699742 0.8400945163775146 1.0694879729143527 0.01697283822498304
0.8407652333878981 0.832115791549688 0.8993189147702803 0.017645855867963155
0.8331250130072264 0.8413622448299066 1.0178672726760618 0.019798128890557532
0.8266456024500246 0.8333172602340884 0.9599144373610624 0.011029015556516501
0.834532825796828 0.8394867861430003 0.8718361012382819 0.016693539764082856
0.8268025681394272 0.8349772149862552 0.8352536765558625 0.01687221462165139
0.828862458198618 0.8421812226798496 0.8051564943970503 0.013839625446509532
0.8194617889936825 0.8423134314144882 1.1138485164989114 0.018805595842395766
0.8265053184184555 0.8393166114124745 1.0339514536459733 0.01931001703292337
0.8310199829657325 0.8388319027881839 1.0455933612383297 0.027421955129670092
0.8413446635241796 0.8283773720030274 1.0968576750405508 0.02024908270067794
0.8136110773626897 0.8412846721490188 0.8097898244548238 0.015592957651777681
0.7922488225876527 0.8405179453876175 0.7905253377563558 0.013673567963279242
0.8054446853619712 0.8432896077419054 0.7895136859461509 0.010080313672160642
0.823517050921671 0.8444747564560519 0.7937835435023157 0.01585606836164152
0.8183256013031 0.8404156063126262 0.8300988103608435 0.019903487954118438
0.8024074978883347 0.843899496142955 0.7813787479036006 0.010084190007584853
0.7772224861849695 0.8423526493319742 0.8780784027911586 0.015934207874977693
0.8083021569769845 0.8383236511288557 0.8444631539490939 0.018921392075209143
0.7933254284433513 0.8390797490231627 0.8082368119350413 0.005884070091758955
0.8256111481746885 0.8392289835135625 0.9248979131656994 0.01437791124938192
0.8077540931853368 0.8400234138707088 0.9374036984177744 0.008953381628251381
0.7829207956467658 0.8448666253645002 0.8949762654344736 0.02499730334979304
0.8129741079269693 0.836973300523782 0.8997475815566524 0.013681434094313577
0.8213197776273532 0.845299108385065 0.8690865355115663 0.010030583653516554
0.820297013915589 0.8367514988349452 0.9666778252237661 0.015777152996492474
0.8099700372366541 0.8432415174262046 0.8853449839874326 0.012641908353989505
0.8246747545183765 0.8346349586217217 0.8864391338695295 0.02300643979125318
0.7813774860210133 0.839705759364386 0.9470939207669883 0.0376177641615841
0.7960472482094506 0.8366154620823344 0.9864918103691804 0.011475111673000398
0.8008806501559333 0.8430496956471798 0.9928209645897286 0.012672489629592356
0.8074075863996548 0.8422068275388532 0.9696091380325234 0.010490431801048297
0.7910489036196942 0.839894764531499 0.9198166785753652 0.0125513236947984
0.7918192530336607 0.8509963711538661 1.0367724510933507 0.023992741796581753
0.8010490043500176 0.8365360129898102 1.0078819048050138 0.012416343069979277
0.7929841105006186 0.847556609055349 1.023100581312209 0.025178442780618367
0.8095976184988994 0.835844228015658 1.0662220522838572 0.019748692293629275
0.7726694533732791 0.8398711370175478 1.04282371562014 0.010914661715962674
0.8045870603578087 0.8449153080857122 1.1184291106973634 0.02098352668452453
0.7762484414602439 0.8389524712647592 1.0828271637301705 0.02429545627304326
0.7926160477982354 0.8476575970805726 1.0705119597824584 0.023046891408645312
0.8170898375773159 0.8375738796989782 1.1421140685117221 0.02651426454321629
0.7953205827716322 0.8446132544957721 1.0998307884042562 0.019857222120253808
0.7730298451541775 0.8459228006584186 0.7767087456944431 0.0032923887316530813
0.8101708736327478 0.843324142325177 0.8328722384161753 0.018668927021906683
0.7786846440423398 0.8381302153686533 0.8296951066968479 0.024626968342584866
0.8004791657115379 0.8469354176260306 0.8665863481867259 0.00802632276028373
0.7962753376517469 0.8418060904488168 0.8516636790297917 0.011842206595009746
0.8064345986924698 0.8416710458935875 0.8393021685721984 0.021639517996813375
0.7771037691960745 0.8377270305417402 0.803911727172273 0.010429368584068852
0.7977879820760566 0.8446610403355012 0.8202382600511965 0.006390129859964849
0.7983342564216103 0.8398961938579774 0.8956542952457897 0.017062244205043316
0.7948854483116512 0.8392775880679414 0.9231324667780088 0.016348101233327753
0.8023509090333224 0.8356825979872927 0.9561405562479882 0.009097267204812593
0.8147718642254888 0.8310526690371445 0.9175282482985578 0.007613370176808172
0.8159024523854903 0.8397216024969785 0.978806079549017 0.019925388285538775
0.8000263094968054 0.8432352561551764 0.9395188034214778 0.010019959198533641
0.7938524483475826 0.839924573076053 0.9592473701055085 0.011288533445194406
0.7683383080321882 0.8398465523842458 0.9380931744998727 0.030061639871522015
0.7783417546410155 0.849573208305023 1.0054826864821673 0.024728774350207847
0.7817838985499782 0.8398633647538951 0.8820502260112666 0.02145078914244043
0.8183567386229307 0.8415941775363099 1.0188513739742864 0.019602179249501812
0.7846944221736292 0.8420776346512694 1.0535883276444722 0.02286406287363777
0.8005476853330583 0.8359379396652615 1.1423515195817364 0.028936092893591368
0.7852125450944386 0.8375640830194551 1.124474646462063 0.028133353209920088
0.7856301496011364 0.8424178622197094 1.0694663625742746 0.02239991720497424
0.7784570606537234 0.8338437162309228 1.0969647672022143 0.015346878823420578
0.7857651307492084 0.841899238800471 1.1361416074497641 0.02960439876176599
0.7986971924617162 0.8433671724865974 1.1352998163818266 0.013607962846261284
0.7952433357799826 0.847475030518292 1.065187819121085 0.029870278103990386
0.7739092756198701 0.8419954306834002 1.074584931159505 0.021933690812136065
0.7727890543993936 0.8403975786375794 0.7814715819771924 0.01326618757634265
0.771073431170476 0.8353674858876191 0.8415778344844178 0.020151204168309327
0.7647178166005609 0.834192425933749 0.9477815344383861 0.04241420239993162
0.7664373234166483 0.8296314561534304 1.1087262401018332 0.01918097596368124
0.7651151323211248 0.8386251924517926 1.0518043090245757 0.01647119673634983
0.7746701982881165 0.8442473460209176 1.018495960797787 0.026724976692952318
0.7682997595962989 0.8331842946936178 1.1449219955312657 0.04349271224042498
0.7620444688388364 0.840370162508858 0.9828758934472926 0.033570360004181114
0.7562403972909911 0.8317165501871305 0.7921700535765545 0.0253134494282954
0.7626059724704922 0.834711355505627 0.7769341660967974 0.017475044276321714
0.7672162651915547 0.8368258420664954 0.8907606499653824 0.027206295899425477
0.7500969635445747 0.8350684752245194 1.0530019889396411 0.013417213405633892
0.7688615493883625 0.8341269902981017 0.80901700716813 0.017919100251638204
0.7650749936392176 0.8401595409952913 0.9873795831250883 0.0402638540015359
0.7545902630080741 0.8287939925015656 0.9890242068397673 0.034271705290023234
0.7576556050461091 0.8325362070639803 0.8758571487971092 0.006051825614485926
0.763972958416744 0.8418887843610694 1.1233289546838046 0.013026204550026942
0.7718719656076699 0.8421792300799249 1.1213725357697608 0.022470213968509387
0.7514407985115408 0.8163160280905519 0.9593690538675693 0.014920616624537444
0.8143891021424596 0.7745902741566786 1.1515608917112676 0.08305164515085636
0.7633214004726724 0.8368933927258505 1.0776824053670808 0.012591997830704865
0.7633923439365253 0.8407554402111398 0.9245776480312266 0.015476889562934137
0.7617708132297357 0.8321652218969803 0.9044423423248698 0.025213979383547688
0.7671747206854385 0.835673861943263 1.0452826660469592 0.01033585631843463
0.7621977680773603 0.8374509825201188 0.8205170392944212 0.015394114406487342
0.7560168245574045 0.8414476252518506 1.014444901129369 0.009695334389711813
0.7661917962475829 0.8331044181809737 0.9603450495706193 0.048342003183103575
0.7526711547904463 0.8226516619339014 0.8873809988182972 0.014679327665082204
0.7658364456191893 0.8392731652044068 0.8507100794568018 0.011991162930797057
0.7752223721852456 0.8374763102178155 0.9607455875577956 0.04146504319705097
0.7723236901198196 0.8411556050723065 0.9730286608142998 0.04336623515083173
0.7617759656628819 0.7535215435279637 1.0841652082129174 0.023703222919675762
0.7611698875104893 0.7610455857065498 1.120447563514136 0.029295969195550692
0.7596757027191566 0.758305370837989 0.9562217647299536 0.009372301896164814
0.7577658952706816 0.762602555114686 0.99025615950327 0.009109336590402617
0.7655351028229056 0.7577453190097956 0.7976452792813432 0.05160243487605209
0.7780869288634231 0.7505808175684612 1.1423070807336007 0.03275486297000286
0.7780934287541781 0.7551013368248608 1.0052187656231235 0.013199746953115944
0.764759836982666 0.7565150428930539 0.8420403001355025 0.014555728507905423
0.7577908586753426 0.764617583218023 0.8772797467431711 0.0136852227617216
0.7628054169776453 0.7589856814221554 0.9167169963879381 0.02630104281816482
0.7595432501955115 0.7664895559953785 0.9844975194549768 0.008541450263360787
0.7617825145073268 0.7677844231655095 1.0540360581677484 0.01353528316144573
0.7694594447153899 0.7631460226594257 0.8879189567666576 0.01231495528860875
0.7714941858166099 0.7575420154577925 0.9056570971736548 0.025860811713128318
0.773804885211979 0.7530414078122248 0.9218740110095656 0.01899118060310311
0.7662697953641775 0.7593671954416247 0.854031175625113 0.013551829147558973
0.7750517614339686 0.7582535909966182 0.8445383202067422 0.018142658612387685
0.7701936610888485 0.7630961650370043 0.9650343087500788 0.012535756686733601
0.7556164241271501 0.7684176535572167 0.8166892081427625 0.012282851973912996
0.7693060419280219 0.759048656827395 1.0998589828625733 0.027462403909905148
0.8437005456483847 0.760983633447573 1.1313532691812467 0.05849231091664492
0.8340233292145519 0.7575528296031063 1.1085052264683386 0.014706676962929726
0.8403898764523297 0.7672346610982257 0.8997921545476714 0.025325658326582214
0.8463903987007149 0.7721820543178705 0.9045506433882267 0.016104148218631813
0.840473748007739 0.7589343892724941 0.9385208763117551 0.037321869605068045
0.825325532827375 0.7543472714251139 0.8803233731842431 0.02767337676109282
0.8374174760663564 0.8316626607514798 1.1388679938867852 0.022719787927870345
0.8416359097426255 0.8313352381702522 0.8787201648782706 0.014819665799851504
0.8151138541570674 0.8427564223868595 1.1267147814603786 0.015409772386721756
0.8343733592935957 0.8355816714454756 0.9404692610000314 0.024731726120438505
0.8372912750186814 0.8336191637123328 0.9270508461989192 0.021442505835436575
0.842907697177695 0.8290025645612974 0.8338374093536225 0.013955807046298658
0.8288873216394486 0.8380938922692992 0.8993307175598307 0.02651655971073904
0.8263881028657994 0.8396188835309449 0.7778621508754758 0.015699101419369435
0.832476903573648 0.8386291378104115 0.8457763061961524 0.014383118663690181
0.8405413934559373 0.8334621458189387 0.8164331178281646 0.007437986044225535
0.8370821312357517 0.840846797452827 0.8633680449236697 0.009558326625643158
0.821945057280485 0.8457269757232609 1.07919517617364 0.014632532155180266
0.8244396897365389 0.83852296033225 1.0997309979288707 0.021047929842248753
0.8324008347262973 0.8340023491250294 1.0907499190682977 0.02181760937233512
0.8417067832447562 0.8300115499527109 0.9156878973905885 0.021723184087536984
0.8435780094680699 0.8276378698042475 0.8880724374467996 0.013388496001760286
0.7239529429802054 0.6491067296227343 0.048023363479231966 0.02452119291932667
0.7091767019356395 0.6468760346736809 0.04470040150972035 0.044511141443000286
0.689851176548431 0.6320267103481547 0.03957397420540264 0.09378037983604937
0.6772125609366574 0.6202484211267879 0.053393028854690154 0.02838610659833784
0.653803315528007 0.6076433906230628 0.04849697602534982 0.03143337590624866
0.6650550456063318 0.616096651814516 0.04893458486287733 0.02468426848763046
0.6291653891977844 0.5794436016163688 0.050058382586764365 0.020103924536462432
0.6017605381581199 0.5388018490554426 0.041321155056093385 0.026340113651255458
0.6895407341998033 0.6448539175354916 0.053939078745817715 0.05299346276088259
0.6386795610426647 0.5983745861827684 0.04868504725853756 0.035845294385052844
0.661339242993819 0.6564359108306874 0.05020283072302022 0.020175443760560165
0.5831239029911172 0.5267040138339988 0.0411669547254925 0.07196588942106616
0.6144344006526586 0.5842870090849908 0.051803430711133074 0.05713563627838967
0.67055030126705 0.6832367177554487 0.054849826933325206 0.0014381199895590255
0.647661235579551 0.6157240856999412 0.05422227348391556 0.030783016319296082
0.6581122946308582 0.6414105287323514 0.05159506619661515 0.030169640491654087
0.5906634789110963 0.6234453656795079 0.05123095608544332 0.008928714421660378
0.5969729074751045 0.5992296119260485 0.04766222160700905 0.003504567222290817
0.5593534785571294 0.5292283141272518 0.045946562335374926 0.01770729589957474
0.6093443613530567 0.6254785320110191 0.04905349272791703 0.005784613063131196
0.5929960934257936 0.5617315405181239 0.05375173280315047 0.003829176564030994
0.5761077334372104 0.5824024553211616 0.04775460951359572 0.08566608679277525
0.6168266094940714 0.5994805185981696 0.049247542091569764 0.0053058150352446746
0.5289013677970668 0.5711931382595808 0.048053676599240064 0.1366022871535358
0.527457809091109 0.559019231342022 0.05555874382507287 0.07280565529837658
0.5476749533790561 0.577119879084613 0.05219496429658889 0.12077511510660938
0.5753908235712962 0.5977640424222006 0.04933017970835411 0.01760187078649775
0.6348141704373191 0.6668448703096014 0.053294230786428635 0.10608838944597761
0.6313357386706446 0.6447247155962464 0.05116570924429065 0.0036998237307788364
0.556344106836006 0.555963584413469 0.047031938060365604 0.06029993777793045
0.5351061360907423 0.582852108397921 0.0416272300573353 0.12382601860505599
0.5281616415560086 0.5019490380668501 0.043238857055301075 0.1430976263462845
0.5395002028083724 0.5472468757095316 0.06072801432083805 0.008670137958448561
0.5332059146280517 0.4711752471240981 0.049695496462727196 0.03048007624433562
0.5639266266084679 0.5180137772581253 0.035697328733645416 0.008712865065147613
0.5459913131423233 0.5168011637797923 0.044365356205965815 0.01824049795922055
0.5116042742669835 0.5333089172577394 0.04734713821280926 0.06869441632895061
0.4939788644771804 0.5418463085284523 0.04791870659627771 0.050508053155432615
0.5049826219448741 0.5149541059797011 0.04442393687198795 0.04719719063521722
0.5635024188794797 0.6134788149667084 0.04547185344657124 0.064493137612598
0.5840009333292223 0.62659627837497 0.04622544827929459 0.013551583068457277
0.6215108234332862 0.6564698391810809 0.04796770120646086 0.07617607965740122
0.492587018776083 0.43876303341170764 0.04759982313744059 0.14156847520452057
0.4867389295029235 0.5047247058480817 0.04803886769720723 0.04861937880606833
0.5010703405135172 0.46622489590012073 0.04726870575643832 0.02546119334057279
0.5023201640117412 0.4774550913679371 0.051008500480341404 0.058277995899545514
0.5031535464525969 0.43811154567946103 0.041992315864762694 0.04550778415925241
0.46530154694216497 0.4601890385926931 0.04537109376168588 0.02077135508087113
0.43820194662250617 0.4612979062892338 0.04580286054779054 0.09378522691013866
0.4689760410420047 0.4863529734075857 0.04794075709592106 0.07646610861323504
0.4373823632709799 0.4823965185386639 0.046027921703654454 0.061341069392071575
0.4684730638887347 0.5108218559830338 0.050096214762996166 0.07073985171116322
0.4496154455171285 0.4914413224930108 0.03560242794161306 0.09587937151799882
0.4624816344419488 0.41439328454876107 0.04409499353830287 0.026269869730301855
0.428886531153096 0.39410378842463145 0.04240784316683466 0.014989137104529919
0.43875811532444003 0.40738998748568556 0.045728311786849225 0.013646026458875306
0.4514968392112915 0.4477174048238085 0.04541799746891898 0.033795706872591036
0.42606947256337424 0.4432683011879495 0.04399256195245867 0.02351891264172216
0.3978024625739189 0.4173041373007369 0.04183751467823156 0.04221037694976356
0.3771804719686379 0.4356695704677314 0.0342168549431802 0.06837196644616701
0.39348091447801936 0.4538473047554347 0.039471397495729865 0.06727289786299814
0.41356860455013894 0.42801679996274883 0.04540473058475755 0.05566748358763069
0.404112871337417 0.4015535237044234 0.04657861716730382 0.010504929084009997
0.39822697373915633 0.4346878110119631 0.036785530343248156 0.06801938118364068
0.6455787995971703 0.6936885801828513 0.05355124000086984 0.0711959957870246
0.6295729329390694 0.6807578894985691 0.051812513618557016 0.08135171853801001
0.6415522560262924 0.6941760866803605 0.053198596838362325 0.09573955619203467
0.6499767775293036 0.7243663287885023 0.04925981493227432 0.051138641746033
0.3737918476927755 0.39854142224497024 0.042997417476456946 0.02999191957600042
0.3949622285688147 0.3813729690381958 0.045918851740600446 0.012051969056376913
0.38942408442874993 0.3977905688535951 0.04550549578949082 0.008508068344707931
0.354814188709956 0.36306519058293735 0.04020389571184617 0.03594447800610583
0.384163352132846 0.36990427114694957 0.04579912474399869 0.009918736159165536
0.3474978807729664 0.33070208374940663 0.03285952832076385 0.11452991088479086
0.3289408482017035 0.328171640080037 0.03731810582682671 0.037769787459215734
0.3816736060003142 0.35637947568918493 0.04202838977825129 0.068648123161974
0.36856413036776003 0.35365127043932576 0.04554338448926223 0.029809157458197812
0.3630957102836337 0.32809540545298893 0.03944970829201328 0.06636911754492705
0.3208985311583754 0.3488458693914327 0.03291559698611133 0.0817252440393544
0.35049432175563866 0.3775172293606714 0.04270744663857929 0.06760367983211467
0.3326088213869152 0.3438365227833896 0.035040355153647354 0.09043431254555484
0.36061812062348997 0.40876776200035253 0.04085935440406378 0.041692989307377554
0.3246765012030185 0.37859924689096314 0.03944463108842289 0.10926038102747174
0.6723282794742098 0.7204357463295542 0.05631843646157762 0.05490880395980916
0.666604301589716 0.7607039776705363 0.05326792908035698 0.038707306578021884
0.6764416954132394 0.7299337387664835 0.0546523889904423 0.08295416870572885
0.677414405630641 0.7471535555295822 0.055413622814854464 0.07381445149942785
0.7070168997871185 0.6680098612230991 0.057162417264550555 0.02032924070977525
0.6808726293894406 0.705886228492921 0.0568687261483461 0.02008008665738151
0.7684002995663937 0.6722152276912937 0.05304127869648633 0.014091873092412504
0.7253734709796701 0.6698081078309555 0.06096489729156436 0.010026317796624211
0.741347488970749 0.6606247700441613 0.05072079206603698 0.041300775379249796
0.8030069582069398 0.6707291533741023 0.05614366880436127 0.010226320195081176
0.8790312188264149 0.6660771859345297 0.057565029334081134 0.07547020005078178
0.9384181902138652 0.72523214943648 0.061469099379712386 
0.9283137784062763 0.8896710130592641 0.054526164715116746 0.0029593224916243093
0.8933209758610796 0.9205607318671694 0.05743734473139695 0.04052935087779214
0.775320276876579 0.9378397491042377 0.051786848732374956 0.03478628228904621
0.7978732516221264 0.933487535054133 0.05275333070022675 0.016104439309572522
0.7163552515972657 0.9102020992976926 0.05870080642832666 0.06913588774509717
0.7203247568785219 0.9185264168081696 0.056657974971059684 0.05117616892610408
0.6644444230216731 0.8173123861617123 0.04199935026608889 0.014652985888688484
0.6777772914586214 0.8412648439584933 0.06043949984163425 0.012960320761468132
0.6828028446304599 0.8583994150090167 0.05169423697410064 0.017312154971945205
0.6791145484926802 0.9136682404107394 0.054558124879716445 0.002153635909271639
0.6717805133377882 0.7395811958836472 0.05028685717262802 0.08144351580014497
0.7471095846311595 0.944573538769774 0.05535442679859725 0.03876495545125289
0.5971597865253031 0.9526820830004332 0.054718075947753096 0.025653417957002492
0.6352497380859041 0.941047978366107 0.05416453462311249 0.03769318096473781
0.6502714176594333 0.9084032095077188 0.05264503431100348 0.056333895948836206
0.6118899974149138 0.9225934523463659 0.04877322491336261 0.027133709689802634
0.6413668908354998 0.885350922069373 0.051678143932849877 0.03647487978753038
0.5914147140638242 0.972711572095508 0.04653888725696536 0.13747431980092675
0.6559314701085746 0.9277779339127514 0.050066179919844724 0.0351107004127993
0.5696155989349982 0.9788358891984466 0.04800605704026707 0.02872733936439105
0.6121163131725674 0.9582836806752042 0.048550411963570995 0.035244228740701065
0.6365913952008806 0.9578932358149691 0.05789930574133786 0.006069199422512345
0.5166302713776103 1.0245700525548933 0.044600474926419095 0.11668536929844356
0.5553398557019953 1.03042129606574 0.05180243728265856 0.005102047765582008
0.5476625216364713 1.019579671744343 0.04790160128556052 0.04583278739898972
0.59146163257172 1.000995380929586 0.05285261442938835 0.0030584734932725837
0.5540545717492753 1.0106824145169755 0.04892200245959347 0.13528024980483672
0.5327434399538197 1.036652682392229 0.04626200600267713 0.10404814946165307
0.561467494495928 0.9948829414459476 0.04284236574996105 0.13793208481121905
0.5338652191531953 1.0519685722964145 0.044119875580541854 0.06849298228398508
0.6218555343677584 0.9762649209225036 0.046783234861162884 0.01534941238482158
0.4803489637543522 1.071415235621538 0.04808368257930729 0.04508286173999214
0.5029346961987184 1.0631188031156602 0.04377897491239513 0.02746722518009716
0.5024315317600467 1.0739301302801758 0.04893036829058311 0.016457424014759827
0.497644764345169 1.0487414567729465 0.04177861972545825 0.028526892065789188
0.5150484365845247 1.0528370956475994 0.042055689492162755 0.04170939192139571
0.4730221088375315 1.0801437183049067 0.0407593714760538 0.058924008393132644
0.501511480279684 1.087008500645015 0.049333778588231375 0.01879791711372821
0.4525969477139145 1.1018393139078548 0.05299118947665596 0.010564582738128514
0.45112866137575336 1.1403692564393022 0.040190468297586886 0.013278897048621717
0.42237742123510164 1.1294898090677281 0.035578445790889875 0.08275767502343448
0.4326905084327716 1.1595454992894545 0.04033928998985626 0.021465077201128595
0.42210994198589524 1.1319617028853117 0.042339847414157104 0.02831794079720263
0.47035464092895046 1.12494233638951 0.04631014344603798 0.013191836399006417
0.4714324241051155 1.1118903203495474 0.04859378299605639 0.02050934454736427
0.45472037527113407 1.1279229074943968 0.041380633214739275 0.08747485025656047
0.4724622161184462 1.0999042140135336 0.051084238594510216 0.022639178650240472
0.4139770015287417 1.1735572334229734 0.04027004751863937 0.056432889230121915
0.39486849665655555 1.1534455332340996 0.04298493899572331 0.041003359865696795
0.3907830436135552 1.1850145549560955 0.044993624635167394 0.05115592665519714
0.3911786261774173 1.17267424615857 0.042111551554487175 0.07232900598034323
0.3560415023261865 1.2088378844050474 0.03590789981334944 0.04286300364267242
0.3979299134862565 1.1865254256570286 0.042519109937501506 0.052625306957632456
0.3659412662238426 1.188626314564438 0.039787536737998126 0.027738240675308987
0.3538500505216445 1.22033436056807 0.03838488500009634 0.05117311937960419
0.367160639303893 1.208505057088685 0.04995192479415326 0.029546433088334042
0.3268722694272219 1.240081736461781 0.03192195360911685 0.06056237630288219
0.38237625308095835 1.2152852206948945 0.047316558044101883 0.05229958685382588
0.33976492468959685 1.230341883613179 0.03808016546350996 0.0904552083404733
0.33469118716624213 1.241617374938238 0.04136133846489128 0.0783496784045559
0.9124328275011808 0.9228899163902072 0.05524303656254135 0.0047975960190032516
0.9801041160166128 1.026858213670139 0.04555708217357977 0.04338046562943018
1.0118802028442473 1.0743547881171462 0.040641688516157085 0.01873943622367997
0.9742580246275855 1.0131938913092615 0.05537277744265963 0.02903927388217392
0.933315816852111 0.9574736459174035 0.05440819511940676 0.04901456399032007
0.9137405790217279 0.9411489661289405 0.05544062571664306 0.0645400741209713
0.9642385243723428 0.9942066285565789 0.05747789384789473 0.06008398276139206
0.9213093986920928 0.923580239879838 0.05267597643513711 0.0008265144364787306
1.0026892598741128 1.0219700342779436 0.052222102902320496 0.01355685920964777
0.949228635937438 0.9158353180680399 0.055901452637956074 0.00029487472579181856
1.0396430488028174 1.046391681403743 0.05262767567046844 0.0021860381811738597
1.0225698733533983 1.0078173213159298 0.054572180462025596 0.006152728081223542
0.991196914410433 0.9973850195092214 0.05330340638056659 0.02442760160701802
1.0434586843616045 1.0573548616809605 0.048754606001164984 0.003707037809084145
1.0266696660226604 1.0421121091616423 0.046402498419947785 0.008642064757861712
1.012480932125349 1.0213648965830209 0.05080477227165401 0.011210196302335078
0.9712487635921685 0.9589508579367264 0.051117914477680805 0.00045977018508533304
1.0110030640297336 1.0546839107323938 0.045201344392420705 0.006284044658043101
1.018999681615306 0.9826683048446626 0.05195111628557961 0.01185830503434018
0.944656359970212 0.9777204361388496 0.05580490432046606 0.09191766708839622
0.9211484259842755 0.9881349602120233 0.04933743637511664 0.01903700815303466
0.9009358096819263 0.9510365555797864 0.05688320714992182 0.04522335849542691
1.0506544418767452 1.0863939752788323 0.04241642549102761 0.024643480532427927
1.0583017877486107 1.0347997872100578 0.05397000727692704 0.00783873679212679
1.0549958324986646 1.0851167548993441 0.044817408570345815 0.02447475637716371
1.0629135619334416 1.1036876694554212 0.0337589334157625 0.025268463156107705
1.0664584586462804 1.079600127092728 0.04715327974206062 0.025493828769437926
1.1047834394801275 1.0865016945947512 0.04536246570745808 0.09691198811656476
1.0949802095967562 1.075423147752465 0.04691255618344591 0.10750173433264507
1.0903382828759638 1.0287784166530203 0.043521484683393834 0.003958480216110572
1.095876519004852 1.0577470648806604 0.047390529343153714 0.09592836754028203
1.0018207516907285 0.957961516271535 0.05088822285493075 0.03490529106461687
1.0333043060490987 0.9792432842424293 0.04375388778191538 0.009907674759671688
0.9962007082003871 0.9442182825929702 0.05213151715515602 0.07156041728141802
1.1264686685124394 1.1057100764492942 0.04381746303508457 0.06563053444896189
1.105721047404022 1.1441016875355554 0.045071556098041116 0.054191033364901414
1.130441515413566 1.1341218929913517 0.041305465762569195 0.04308724794983445
1.0926550674502817 1.106969028804881 0.0477898793841976 0.01913906008297728
1.1008997525863466 1.1439949717099784 0.04070290010198549 0.05965177102686741
1.1368765690121687 1.086511902310109 0.05286619621430611 0.06750080247325646
1.1429389286059186 1.1214146330964427 0.04555288031430632 0.025142885583501664
1.1373799899254664 1.1484092559523815 0.041737415160773526 0.12264298315652344
1.1591390792264284 1.0945102910231403 0.047170971318766367 0.11235149921488742
1.1666898628441766 1.2020505205128276 0.040429241348271784 0.04142518012662594
1.1378777754874783 1.1767576965399504 0.044312463635929625 0.04912237602534653
1.1530294912310874 1.1750587593741437 0.04096600638723454 0.03491283600823688
1.1498597226273126 1.1557927174922684 0.04148200308666978 0.02968626223914336
1.1778950162107777 1.168200122799354 0.04316383451611412 0.06298233443738438
