x y z curv
2.7120697431578953 0.00010200905627055724 0.8049324657715787 0.02771195173452676
2.8275462625873202 -0.0027425339741611195 0.8172372838431702 0.06957256175336977
2.694802641124599 0.006991788032914711 0.8163788340977632 0.0460493852737846
2.6092199049579397 -0.002248736347442461 0.8211762883732798 0.07105927766613793
2.648714140531601 -0.00042140558315227026 0.8093676831218525 0.03666142907458192
2.6297583594900624 -0.0011731781077915504 0.8053121100138745 0.034719547417859306
2.6883172952430945 -8.564087597483335e-05 0.8117366355548867 0.036626559848143905
2.673647727240159 0.005180738443439696 0.8127159204647695 0.04253822235784025
2.6696115346084053 -0.0016694282358652671 0.8234001992349023 0.056490538440043064
2.660397850197978 0.007499511602223612 0.8063169216328949 0.033782283026418274
2.5694755967492138 -0.0039027866839577243 0.801220683151597 0.05353505933674428
2.639271590877677 0.003696475520717665 0.7902954745126018 0.06592919968834547
2.571242043064135 -0.0034483246553922145 0.8055717980262149 0.03834524403915992
2.6088622706615383 -0.010609882746782815 0.8046747459541977 0.028635929364617077
2.6644718437127186 0.009676445159665623 0.7874602882376827 0.02854099555949069
2.5597278608558263 0.0020404646005554965 0.7954289866079474 0.034011408157107445
2.46154725742826 0.003608957782061229 0.7918160465185973 0.007340516922402487
2.522680571454103 0.004857786316347887 0.8029588705716215 0.02473323622491715
2.6157773784067957 0.0053976563713962885 0.8146046683213839 0.025412512846837827
2.6208003927676207 -0.003995734558240224 0.7927157924243226 0.03692304356771447
2.5377338188653016 -0.0051257445636449395 0.8009142498006722 0.03531010310793613
2.5716606493461867 -0.0006370092328472982 0.7864897646245442 0.04691181645505786
2.6294951983623966 0.006027325892333788 0.8003909960797571 0.03053746227705758
2.5476636077906494 -0.004452034684312056 0.7910084709800144 0.04407542870356954
2.570982174974101 0.001343972362867039 0.8156867779852043 0.03143251917564474
2.49915538256815 -0.003337009191858202 0.7963008011989466 0.024068361138601467
2.6507154290008432 0.005513428547830484 0.7906800977315174 0.05971128832984332
2.5114805954052817 0.0037254985013401676 0.7932391909733382 0.026702113715203743
2.519271597989588 0.001597439209831568 0.8098143736613046 0.031336893165534715
2.5366322815304994 -0.00037961254008800355 0.8141065315541535 0.039733747975284735
2.4958236330885932 0.0012645578500550228 0.8178966766842896 0.04726170547147469
2.516568887219358 -0.002473992788994469 0.8112289123145606 0.0385196387389891
2.4438348864452513 -0.0002673786064830364 0.8138560275580353 0.08180612773895493
2.4453286956701286 -0.004853377623745322 0.7941997697514583 0.019349247149946576
2.546244148202462 -0.000632245695451206 0.8124151073106622 0.04592644154870842
2.426501375319904 -0.0028224526001973584 0.7989375563975303 0.021378385580428223
2.4356117700769153 0.0014782650755682687 0.8210968987261283 0.08460685134887076
2.427960792229953 -0.004136631593855912 0.7965156089641674 0.02364939518898733
2.234463814168799 -0.006546015497965809 0.7868363115813272 0.030918558342279343
2.3137547500272366 0.007168575977816631 0.7998785335776477 0.027703391457759012
2.3534447601844906 -0.001421361415593526 0.79782622615025 0.05674479660242924
2.2497013912844506 -0.00961488678557346 0.7973696228011178 0.044135516358647535
2.2953383242433425 -0.0003175721907288427 0.8007337502935683 0.040430596980892054
2.398877294159128 -0.005511117620072054 0.7859295057807603 0.009324403924757979
2.172469055352204 0.0020519325468380443 0.7979853418797965 0.041142799607234326
2.334168841274932 -0.009419780633518848 0.7991935427760549 0.047649720153672734
2.3589456343281814 0.013952872857643342 0.7992698000390873 0.03670881309817777
2.3850582073058355 0.001503744806555377 0.792949911376504 0.029456181601384808
2.1864767884552854 0.005004103946064649 0.794126700945476 0.03734787382341433
2.3368088486865135 -0.011346905787481997 0.8101306656818205 0.0621267823789841
2.376607393567264 0.0024503347358718914 0.810679798313754 0.048393140409388594
2.4215124364029914 -0.0019539591664251084 0.8087159506261439 0.0419641227377692
2.286228944098975 9.812903838195325e-05 0.7938128720809335 0.03376325584192912
2.3254848852891756 -0.003774032044941736 0.795794449898299 0.05310904709121293
2.307687630356026 0.001377814403313836 0.7967689128776835 0.03697303195193055
2.2214566162866656 0.001009460200546013 0.8062588698479384 0.03441373816933556
2.3198781607127565 -0.0006887955923477818 0.8127119627225639 0.04349527467911821
2.3771614531209546 0.0006854245691949837 0.8191662470640899 0.04017000331358565
2.2828355829062588 -0.004159916281187758 0.8167642826627288 0.07209758060519436
2.209177880427511 0.0025741122073702485 0.8098728584286248 0.03510733044593518
2.251596089151084 0.002027421862448706 0.8075786069886216 0.05588828511657961
2.328981336775813 -0.0030292577580133084 0.8251030257729449 0.05252785113095733
2.2412495426867096 0.0040460582949338846 0.8113463362526445 0.05269588900300962
2.298129169315531 0.006545178146846727 0.8157090610785712 0.0614190342925823
2.179636295112896 -0.005924687169088201 0.8185354302703126 0.061851647886357525
2.156087325344653 -0.003986793237934448 0.7974496449356532 0.036760168543510253
2.1153061355021343 -0.004072807551951324 0.8047492969344261 0.03436490393813483
2.1448775924318064 -0.004924169981259505 0.8042992244934949 0.03796524205747545
2.2219323748725133 0.00032244589943655457 0.8187519987795051 0.03494861773776882
2.123256450070186 0.0072614047494286614 0.8173768471977966 0.04851542434099323
2.176499777947262 0.00031224353225765643 0.799220367685265 0.035603911740383624
2.2422262893388365 0.00963898384694038 0.8228092331795321 0.05541903009522129
2.1560468563442163 0.005456811378518974 0.8235606716097341 0.04528141776579749
2.208586137975567 0.0018215545646932496 0.8174581460876198 0.030609962859305794
2.179081206526071 -0.0003106336616739074 0.812425837641645 0.04181021412643523
2.156917813531507 0.0031935408760372427 0.8107395310896351 0.04623267472084054
2.192205958028161 0.002654050280598876 0.8070814332933067 0.03881991341355183
2.1513636817453214 -0.003069211678030688 0.7917326423460473 0.030245531995370133
2.113738048213804 -0.0027853578728359164 0.8075882090344481 0.033638813000072626
2.0069613370309654 0.0004587886203937471 0.7947791180490786 0.04974578349307722
2.0802273215418876 0.0003244422702328789 0.8005366528392173 0.053516280613379895
2.0259395008422274 0.00044225686439131994 0.7943863671394225 0.032091427839393484
2.092019231271892 -0.002867929841033203 0.8062398761519347 0.06451938413383511
2.033628235041385 0.0015456560959860965 0.7874626289376414 0.0380021110079673
2.0058423140270367 0.0003435376308967745 0.7977097932412409 0.04446698934672075
2.106567365270522 -0.0017926273233686732 0.7899378767945604 0.05729624944309676
2.051084942695266 0.01164829081797772 0.8010521570013808 0.03930002014970258
2.096452269706777 0.004885608670014161 0.7938833495521824 0.05680132546642948
2.0875588172191932 0.0010438657892113913 0.8206816476285745 0.09362599866007346
2.0394425886642957 0.00372908987755328 0.8028042097271278 0.036317364526500966
2.060138084447397 0.002063331292072837 0.8119988003977335 0.031716414139139774
1.9620328576431778 0.005230632840423562 0.7897622037765405 0.05582597961022251
1.9680168919688186 0.005057950801037557 0.8027272378636683 0.044407476733644625
1.982086285903896 0.007891346072367435 0.7838002279275572 0.03431381687106689
2.093141895097331 0.007643237606637378 0.8177338055134137 0.05494744198262949
2.052816145651996 0.0016127437228690895 0.7908062542487578 0.05048814647070009
1.9681835055020886 0.004907221005428023 0.8138975508196431 0.051710369061750396
1.9967908152636398 -0.004293692696571852 0.8255930615122249 0.07721043366746104
1.9645401284328903 0.007404538019463735 0.8049647377739189 0.050730890601122985
2.0829745696122375 0.004294291839865562 0.8306670419159539 0.07625725747206932
2.0128833887231403 0.0004498664317001505 0.8094246990371824 0.041619453876797996
1.9837823128412189 0.0025685048865533625 0.8121713852711471 0.044422093746861194
1.9273894926237167 -0.0029707231595111233 0.8202484830203527 0.03982573250537784
2.022402870523452 0.003307569591701922 0.8137821188554901 0.042950407206454586
1.927253263010331 0.007682282330223539 0.7892755719215029 0.03803365658771656
1.9594182664893856 0.006144373985120255 0.8104449475139734 0.044905324271093304
1.902845669206112 0.006136868762652821 0.8033754555244159 0.02701355749145365
1.951453989463992 0.0012809170305789956 0.8222433436450988 0.08888960844895764
2.0145827304159587 0.01063848850951982 0.8259715119752544 0.023980386454562498
1.9925059172796422 0.004684356206573759 0.8096873508850145 0.04926151690220287
1.8471525650337557 0.0038623943933814354 0.805051756825575 0.03313747407898344
1.8582930091061751 0.0015806758404451231 0.8165070824233556 0.04250269629339035
1.9005375522286385 -0.003394405549516601 0.8166038441653835 0.05402814863224079
1.8282550822424248 0.007733470495744996 0.8178859140466708 0.025306448243331333
1.8811873333823301 0.003884795049412185 0.7857891330302214 0.036689673681518896
1.899312963050075 0.0010672895127920466 0.795277087904286 0.03969754348890445
1.8946185704810912 0.0052827133946221 0.8076617736791428 0.024460895701934705
1.8165981044471502 0.002041941077558522 0.8207218279644244 0.06921252916293853
1.8726610833622357 0.0055327408768042485 0.8044430885680237 0.032211067937189204
1.8681126370331287 -0.005120536327310133 0.8110451453449635 0.051538199455658434
1.8592153623120262 -0.001946344478463782 0.8017049712769939 0.03906867024653059
1.9210272849412608 -0.004444110814371195 0.8190957016339552 0.022679781315202586
1.911570674204141 -0.004243721315507744 0.8236155558671392 0.04919240594653567
1.7172490580012452 -0.0023969594131881874 0.8068980707711979 0.01660155328469634
1.7674383890872523 -0.0037989664499247454 0.7977928755110902 0.03711023524671245
1.7772235904928804 -0.006188343599942403 0.820411477503502 0.09298188905225332
1.6952484526377065 -0.005293801897072136 0.8032687420404457 0.02064524412621024
1.7431589169655055 -0.0028363310056749138 0.8143936439242709 0.06423582725367719
1.6812188583350354 0.0024287337266315307 0.785138684220835 0.02259360658227613
1.8169161455554221 0.0005789675286508568 0.7942053831802744 0.018528047295993406
1.7637455228514194 -0.002938153005861011 0.8203140832840601 0.09336001696079498
1.7680689250552128 0.004189615406230811 0.8084921592339253 0.029765678116192157
1.8082383267614903 0.002156278191556433 0.7982290440701566 0.02479847810489299
1.7864141075887026 0.0005611041609040064 0.8066941349045894 0.024240079033127766
1.7967133402994155 0.002333248841336311 0.7910031305184119 0.024146814428027862
1.6848989506313 -0.0058977943197318465 0.80154197526489 0.018655991165906265
1.8319500801344062 0.0006174573548438062 0.8033231747484477 0.028078150918692386
1.7435402914597604 0.002587904063186906 0.8018885195840817 0.02310764823571742
1.7330931574545179 -0.005002213108821887 0.8006379883029149 0.022226903017442914
1.7025301201523162 -0.002095110830363435 0.7922978997047808 0.021518804924619155
1.7903821147357817 -6.038872821080526e-05 0.8106182144506214 0.06509779815857115
1.8461088902390808 -0.005063552055365979 0.7949174387063825 0.029406042853737765
1.86603792019428 0.0027089037962663895 0.7978439009081233 0.02526574059654372
1.726861953236429 0.003533925740253186 0.8086630377076114 0.014213204449945931
1.7817726884077192 -0.0016718352164717524 0.7942365515673402 0.02847334036926468
1.7510531469212522 -0.0012960337065431302 0.8020545697397831 0.03394005409485459
1.6410083006752934 0.001634069313043294 0.8279354593337368 0.06377262167106368
1.6472672051230959 -0.002691670562073652 0.8122039031846426 0.026891719120490036
1.6862285988967265 -0.0031836375628564173 0.8121901465664574 0.02296015826920262
1.7457197305748844 0.0015745413870587304 0.8253897473483818 0.05767451940108102
1.625106287818269 -0.005197313261159789 0.8011959156119172 0.04081104898551194
1.6288212209898572 0.004009552053267728 0.7911716660785988 0.028139334170826046
1.6677812803138496 -0.0019879793845006136 0.8112258742308144 0.026490416014314733
1.7019095893079228 -0.003404115106949892 0.8248971247065494 0.07334419255056003
1.6622727450874044 0.0012528315436597017 0.7841985028697619 0.020846284167322936
1.6149589578611172 -0.006183198289019982 0.8151868026321201 0.05109399470405861
1.698115574071233 0.00017378382447535238 0.818148807995332 0.01977372084850713
1.7100765360890453 0.001874733775378369 0.7998683819437618 0.014896019251714547
1.6244433028748086 0.006202797544598062 0.795020824043006 0.02946564728964811
2.589029568487738 -0.0023386386102955178 0.8144265930751473 0.026283580997671953
2.469847982473041 0.002635025128733615 0.8087619175193755 0.04908974587917362
2.3391684252768337 -0.01060346644760572 0.8162177822814185 0.06868087306247367
2.3641295259536044 0.0056010436509974434 0.821603619700053 0.03338897819451471
1.9724325962009919 -0.004797417394208874 0.8162308781316449 0.0694373793462632
1.8803619166317702 -0.0066966506385537534 0.8097068854984861 0.06217056816856125
1.6344412928391485 -0.004507170058078442 0.8186491760940201 0.0703276319952283
1.8611426515369245 0.0032476610975033537 0.8267109678263873 0.06078474389069338
2.0394737020655587 -0.0013058230801583975 0.8215452232170992 0.06181587984052153
2.4812064972148162 0.00960250288050141 0.8265300570595049 0.05492318769198319
2.57045814984864 -0.0031238232591591832 0.828589188279703 0.058283169947733734
3.0557958754047485 -0.0019387061680491255 0.8237444697043523 0.05151877665945929
3.218036379735999 -0.2733610326563904 0.8225684883450894 0.07961719302199503
3.2203979120561956 -0.34094585019951956 0.8176914703530265 0.07776881901680793
3.226167852833396 -0.5298707588784635 0.8262077664356421 0.038400152288853025
2.958466612565541 -0.7023034671255367 0.8259819802686802 0.03688036883815051
2.7645911816830395 -0.6992224765691168 0.8252430583334278 0.08522558506408513
2.7213572063847944 -0.7088610600136488 0.8230718491838261 0.02852879583023808
2.4975039370161776 -0.7075905617148637 0.8181616820332539 0.034445955407382996
2.369545954609895 -0.7051328992125874 0.822626033008408 0.04011233323031566
2.224874980591819 -0.7046660976257115 0.8190841237581918 0.02058697048863986
1.9676630362525178 -0.6903603502629146 0.8246831837334614 0.11719131832174183
2.0280057234526976 -0.6875412004232551 0.8255748026720031 0.1378531599452112
1.7628865786127939 -0.7030239183365147 0.8287894743939825 0.08074097397671343
1.7148184399393938 -0.7015489421133922 0.8260579121761399 0.06998248737532343
1.906095563283662 -0.2509217251690066 0.0068285123818773675 0.017629605436097685
1.94427720368875 -0.25224373901434677 0.011930070891590061 0.007891967565372419
1.93721794458633 -0.24817887361264035 0.009398189878273087 0.017896958115457932
1.8814555815964118 -0.3693474044572661 0.007668885835388645 0.006001203959500442
1.8824783256438438 -0.24654434841321943 -0.002964179001967122 0.021334302055120068
1.8748252802826229 -0.3033225987317575 0.00975550846564343 0.01334303909037161
1.8768888129912955 -0.25319490414412044 -0.002207691498991764 0.0185104611407846
1.9741651576188144 -0.24526426419106528 -0.016561731805086286 0.018603371445310154
2.008979348717621 -0.25038131024374966 -0.010987107428170462 0.08608096723147839
1.9278169084230579 -0.3150135405358909 0.01124538680076126 0.014535654676413283
1.8563965260480455 -0.36445547119857785 0.008500090128132588 0.006432282413851272
1.859232294373929 -0.26863716195025816 -0.00011695224847542504 0.031123830088692933
1.8432977564490458 -0.404136487466719 0.004276782224640234 0.03488310751361987
1.8396302784113647 -0.3401437618857457 0.010657750390540306 0.01338603146772902
1.822651358943555 -0.30711697654748565 0.0039767901418327305 0.005568353178093214
2.0359822495046593 -0.26322201862756894 0.0003132042576327485 0.057497235721550397
2.0758934303186085 -0.3223292223912959 0.004598088493327213 0.021880351326417868
2.0201800803435748 -0.38891347419972955 0.004320304473253202 0.024845478785395905
2.0268205840041347 -0.3774127522178203 0.005368192389921715 0.011235314909016282
1.9016747932472684 -0.46608022734791044 -0.0007430138515186281 0.0682705804420869
2.056605219636617 -0.4049030841298206 0.00896946965610447 0.058223798820565185
2.0242715553458823 -0.448078000143005 -0.0036699403004447394 0.046917711319726524
2.0440801910438404 -0.4188579798108345 0.0032807394321469597 0.04509599030659769
1.983929224532689 -0.4593103380981951 -0.001059900621226229 0.04835857145726666
1.938640195128498 -0.47538140010603946 0.0014834693180166886 0.07236092912714938
1.9230568234360579 -0.4612855115774104 -0.00994054516052189 0.048861960224568894
1.9998739125981255 -0.46240720580815275 -0.005469037600771802 0.053516452317575805
2.025146524608835 -0.44600820375128103 0.008121464566141124 0.04357622492836283
1.826271827334234 -0.342548948321891 0.006348476614997692 0.014389901008505405
1.8163321918233082 -0.3211989479459349 0.009287764122211044 0.0021465120439879536
1.8609631132932454 -0.26450910611519207 -0.004157821107964154 0.0339594430366748
1.8353797189479553 -0.292509139528632 0.010567495678224638 0.00988087577146615
1.8285441965506375 -0.29942817774958197 0.0074449751405701306 0.009922494249070836
1.9153451388954847 -0.22998517430022525 0.01202157193211874 0.013749786764343344
1.9303698501712372 -0.22052785334145186 0.0023517495295783675 0.028561201232690837
1.9669279429798585 -0.22610972629779963 0.0015215584392244165 0.09197550268418188
2.0473798251093593 -0.2727635829515923 0.004301607760021575 0.03259797955267409
2.0215946322050407 -0.25378828046735713 0.009157126938257333 0.06440720053790013
2.008788896736844 -0.24667639792431756 0.005599411342090556 0.08561376308170797
2.0270675664694275 -0.252663907528027 0.005344700502539295 0.06013151441650464
1.9899178517384484 -0.2376533385178939 0.005983303732486534 0.10983092416061864
2.043048845525921 -0.27532541068068567 0.015363309415258604 0.013524107760933594
2.0118770121488945 -0.29343657947843954 0.013782320604828955 0.001738944534827446
2.0232708601476705 -0.3316454314740095 0.004256658177805067 0.005933264991914383
2.0431993272953535 -0.30637764488736124 0.012234642329996279 0.016899514553052244
2.0481725383334553 -0.2930584159992233 0.013528128345206237 0.02001619724101711
2.0029048808184817 -0.2653703211399357 0.009041070204541651 0.04364583939342308
1.9812812370361839 -0.3089206721136341 0.006257108766083102 0.0467515159430228
1.9648977938059167 -0.3061340826122014 0.010730991216462916 0.08029167923382842
1.996768308212153 -0.3031634952731061 0.011510765746254344 0.01705956326871883
1.9928926422267714 -0.23127662314715303 0.01661020205944026 0.05468206830698747
1.9752973914911576 -0.28974110197274 0.006392200229456225 0.006484605381294503
1.9618170482317803 -0.266134107921317 0.008951625494876967 0.045567275029152865
1.977407361412807 -0.25897337324671144 0.004792002462213037 0.08685694463704868
1.951412195483412 -0.29902421668367507 0.008150961956199384 0.07974876677142402
1.9892434360917282 -0.3312121173031143 0.014513492884204855 0.05281703735976655
2.0043076591400637 -0.3485367799537663 0.012114552183261022 0.013859601691689646
2.0023969176763763 -0.3577827117059256 0.011824863172383675 0.009024809866060968
2.023587422972296 -0.3630426989060588 0.007029717471061012 0.01496614550551026
2.0113405495815866 -0.3534402356045449 0.016511078784592625 0.0047598194215611655
1.9948096429660491 -0.4078049166432591 0.007609127908552616 0.003638573794878812
1.9921794324855013 -0.38219775604899153 0.012044818651597402 0.005389809233173908
2.0663506226065604 -0.31500005562518457 0.005084656590815381 0.01045964585155155
2.053346921365891 -0.31630056783588395 0.008486812222165182 0.015227975268200546
2.0664936453962777 -0.3252003347778892 0.01089269564611598 0.012195554806267907
2.0530388731267286 -0.36096593294469764 0.010303775098436772 0.016183471326268708
2.044804469274355 -0.34644336071189274 0.006686746989183511 0.014964492679751156
2.0349897750947785 -0.39602684363558216 0.008889477443351064 0.028979446916102356
2.0445401366712908 -0.38173343820043826 0.009542254107741722 0.02279750995249438
2.05332795054312 -0.3990511604762923 0.012371261516973365 0.04278294643332032
2.057947323208745 -0.4034170623840711 0.010215409997603488 0.05550891555842693
2.008976789625442 -0.40497355939316654 0.006092776441093133 0.021151631720308574
2.035201901774224 -0.4261262703508528 0.011185678709476468 0.05894819267084147
2.0366625980925317 -0.4216621776503764 0.018366902285097384 0.0398480084063425
2.0134799257206595 -0.4273885897974141 0.008915894227175314 0.03040274441619026
1.9791108831675261 -0.44331354617070057 0.013879825532572401 0.023684212389042045
1.9871617666064367 -0.4483902870681397 0.00460527207134097 0.026776894423242787
1.9639289500137147 -0.4234317884867643 0.0159021999869847 0.011205062882044165
1.9484775159082979 -0.44621688383557406 0.011687088495084774 0.03649874153199128
1.9633174219574494 -0.45542326357008817 0.010559576284454348 0.022006384633019065
1.9731534699190427 -0.4678758703137227 -0.00018609421161205203 0.030347602050581658
1.987454336644318 -0.3964080499447153 0.00808564285536257 0.002148245435562822
1.9649122389143863 -0.40698124663192814 0.018006665518866843 0.0291297873358099
1.9361428667416782 -0.4286804783826967 0.01262685929225674 0.003376657621161427
1.943427497425092 -0.38658438047507315 0.014245274998366534 0.11677549260614774
1.9108237549581173 -0.4065735859125119 0.01431055711913178 0.03601030709444031
1.9006911541956801 -0.4187032326691231 0.010478346127501183 0.003329997949738971
1.912353786930731 -0.45408616659563644 0.013804628651891913 0.05451545241742194
1.903864187074311 -0.4762640232179676 0.013412789599171936 0.07400638711798506
1.9180006307595394 -0.4491981067602425 0.01353260131318191 0.06608289659960066
1.8720702278089842 -0.4554221508276638 0.0072408020929044066 0.038469988449018194
1.8820639012743694 -0.4417485496660162 0.016057812768978316 0.030367980922596353
1.8793924072889567 -0.4289861623591512 0.009070492478027267 0.03240181236780949
1.8745875447199758 -0.4438093846383204 0.01022872393130772 0.04057024737245248
1.874526192015578 -0.3966371940423424 0.009974290030994596 0.007718755897185837
1.868322562793227 -0.40178998177150965 0.009294818859999198 0.01953880542661634
1.8648227742479895 -0.4129173365356764 0.009955137872077705 0.02656102461370521
1.892234885705396 -0.3511822482986028 0.013437263265907365 0.05786027650970214
1.852422745712591 -0.36175346583786355 0.012641849178906435 0.0069128044067886555
1.886395959179342 -0.34595332249925714 0.009890066252832381 0.06664653195253348
1.8634586529118404 -0.3876509343360404 0.007040975716141388 0.027531036320619654
1.8937320844197427 -0.3543683362472813 0.012986519939514954 0.06474765110143067
1.848333327625067 -0.38847114539461447 0.004401276529897439 0.017902471381534973
1.8615412035174477 -0.3372018021957962 0.006008947283838843 0.0034275704368305405
1.8293936984189505 -0.36863010056102685 0.010912600013489053 0.010668667051692043
1.8550324366228583 -0.3420968873004625 0.009551664442672171 0.0071582234560767085
1.8595175166864746 -0.2924617104107126 0.0060509248915310634 0.01730671264049981
1.8819770169149925 -0.3037800970187365 0.011485232522537692 0.009533955606866281
1.8447788510767742 -0.32169403817829895 0.009685646412592428 0.006162821594225745
1.874835901310131 -0.2901670700852479 0.012993281684454846 0.02430316734862021
1.871274510128552 -0.2686394199286899 0.009947929606178558 0.0188764988116448
1.8516769881548922 -0.27664264027464497 0.008031245732929938 0.025768521005382593
1.8779677470041445 -0.27151975460996725 0.009554113220161871 0.019844218455456576
1.8845400183285796 -0.27024083420314865 0.009115570526007956 0.019053177726679697
1.9096414433271374 -0.2568339109922816 0.015304864471630012 0.0177206404045778
1.8780498659000118 -0.24999179689090756 0.007274683560481938 0.007802191484582915
1.9010439602314366 -0.23796948377071128 -0.0003709993606227282 0.024556588187795724
1.9305955095858542 -0.268322494654562 0.011452865680917183 0.007512536640506383
1.9001545059865284 -0.2953796407171426 0.02060488622713212 0.0036827443479483463
1.9095349807063522 -0.27964965572117917 0.013622615343667217 0.01164031816056774
1.9590744569590057 -0.248437850660432 0.007825649135522934 0.0726369280312001
1.9655737190362033 -0.2648627490918385 0.007667802781386396 0.04565389695414619
1.9224228911187289 -0.2435059872536341 0.01258436786079099 0.017962919244871457
1.9310708130125291 -0.23795596146311773 0.007244136905325287 0.021845744943912004
1.95206007112076 -0.22906875491406364 0.007766475545281533 0.04258583755594947
1.94606270395282 -0.3165343384595052 0.01259978961363304 0.04040976844530526
1.9239726784481546 -0.46261575776053376 0.011665844041890465 0.07779851076786622
1.931482991918924 -0.44663090314546017 0.010576065152959668 0.08965886584210983
1.9491165005833175 -0.48355171326974544 0.0008184780504468204 0.12181584204502452
1.9604998101511526 -0.331637036821249 0.5542517494982059 0.00790910393531645
1.9722101608680174 -0.3211259018709533 0.01535117067953974 0.06912865671874915
1.9678564385635642 -0.3228632196913942 0.08789997888127497 0.037733939082676575
1.9621754749965832 -0.3226194450613136 0.433093910101274 0.027192203560080643
1.9646552214411885 -0.32863782593239627 0.21480091583179212 0.04430848290902653
1.9754254750879279 -0.3371548250977646 0.283714209846588 0.06437673086317813
1.9620763540880037 -0.32474586230709523 0.3306082240241772 0.10826509466616098
1.9700059691548506 -0.32764684635850344 0.4164653724808562 0.04692824329042987
1.9737226882450212 -0.33047340935360564 0.18149503783048873 0.034377740379548584
1.9734501407035605 -0.3346579360558807 0.45683048336706317 0.06541372846439215
1.9737855238310935 -0.3317698971171964 0.3947900884041219 0.03362683133277478
1.9684523081263967 -0.3276844715855532 0.34795591125881986 0.06196113619470388
1.9701092209902042 -0.33045936692161787 0.04567926490165099 0.12109266525099571
1.9640725684858145 -0.3251785494939413 0.5121110919822862 0.03483607525308201
1.9617036287999932 -0.3161124539252542 0.13456465646870708 0.028247568261037092
1.9677530046149432 -0.32435166988464115 0.2508801002874941 0.025356960221587607
1.9775823445783836 -0.3296341534458277 0.300826337796085 0.10728530583569221
1.961124079548398 -0.32962115690843274 0.3712286518077356 0.09439879264848194
1.9843248261642983 -0.33586399614304296 0.1939370792435845 0.02563278871326143
1.9731380312585622 -0.3319019294134678 0.405180424458955 0.05419780410947942
1.9748671484514895 -0.3267013859259636 0.5371983144645116 0.05638104364996946
1.9699309001534344 -0.3272311483760096 0.5894345847325966 0.015454327484747295
1.974900908035306 -0.3408922441127484 0.2601510325463016 0.08175335532734064
1.9622759310289732 -0.3261383547437634 0.49723013232698227 0.05162853178525019
1.9715791314423492 -0.33559286146748507 0.46764759941163087 0.0744821066780761
1.9734977189101368 -0.3273595342937388 0.5394108303349872 0.014483086139990648
1.9602330514213295 -0.32018055261356754 0.11763760864384376 0.0406448296879934
1.9718310170202695 -0.32254488215654864 0.3155479349739225 0.07054031085816165
1.9632784129832601 -0.3236540325128321 0.5745735607759148 0.01858553999424608
1.9626034422174425 -0.33319737289185886 0.4592026559184828 0.09431126886745768
1.965059508373534 -0.32779536821973726 0.5264061078292415 0.1009903735503402
1.9584745034674964 -0.3252157917052328 0.2891038164539204 0.03264450224043876
1.9485135283717934 -0.3226932097586594 0.12886975921313373 0.05025397175456452
1.963301801549776 -0.3265969096866642 0.2054108954622646 0.05359262857288952
1.9535373011223496 -0.3203638814163125 0.44435014873952233 0.041819289524323594
1.9573599054753565 -0.32176190393561904 0.08408531251439882 0.011225844043955824
1.9466003421014266 -0.3142974814884629 0.34513567663802786 0.05340691235508044
1.9695705856628272 -0.31971318956411854 0.1063479946320861 0.03691346285725374
1.950489213655591 -0.3228721766015951 0.5403234119124671 0.05319086217464479
1.955489050787294 -0.3134747768137865 0.11154804035552703 0.03616993004335963
1.9563590858855 -0.32830870204322093 0.36305778726099286 0.0615204010328751
1.9675644719809675 -0.32223811732607105 0.03390250338598119 0.0733246947670211
1.9615223044802135 -0.31723375210676086 0.07635026811394564 0.014249893177414824
1.9665924160425006 -0.32387834797939385 0.1664347801503643 0.03773394030025715
1.9568702790013506 -0.3201396160677755 0.4070320230792148 0.019476932963582945
1.955500093703778 -0.32282510194100567 0.25536199005730625 0.04737059490343428
1.9500933669985403 -0.3191306492577854 0.1555900855060224 0.036145623190547295
1.963974552729101 -0.324653145577782 0.18832549939966298 0.04528972111135194
1.9554741089183862 -0.32419806314243416 0.267322017496621 0.04933580129342524
1.9575473613370995 -0.3227276228192075 0.24306919346021072 0.07570527622137728
1.9557342550686978 -0.31961140725772624 0.05191286158623222 0.019157117060113582
1.9439113933030778 -0.31908662279282907 0.5880697576725862 0.021012762581611492
1.95962827784244 -0.32525940494404504 0.32388154794554314 0.11918048520173859
1.9525121220400459 -0.32313130096019776 0.3897751891283186 0.047083914129352415
1.961284351342329 -0.3198486762196264 0.04047764499464447 0.07985861685896181
1.9508712231707315 -0.32070300740288354 0.19985226271946666 0.06358907157906157
1.9517009468309348 -0.32348146980489084 0.5711658632436076 0.01382116221850228
1.954230207569514 -0.3179680946144361 0.5291923947403623 0.021530732548106196
1.950235711769758 -0.31931680495256753 0.4602311801877184 0.04677197349241889
1.9519245769295124 -0.32008702393174343 0.14417330294428882 0.05254235162611994
1.9542989402971378 -0.32037050954542995 0.507046727954253 0.029351990184426913
1.9505396671418753 -0.32230182345611996 0.34669382345465377 0.0740234908445625
1.9582031987784319 -0.3161648688703513 0.3030568444912878 0.03272777438157244
1.952143500230341 -0.32667004960979534 0.2181224871204373 0.09760353800592383
1.9493662479644571 -0.31306875559510755 0.4947295408504573 0.03166988529528571
1.9470076679838022 -0.31770402818805343 0.4441935046010532 0.04071846123620521
1.9401672749191998 -0.3213657234657924 0.3094935096788858 0.05649300270978747
1.9403219729661128 -0.31733796471647435 0.4124540949821813 0.036223826170395095
1.9443438338460939 -0.3204247364898576 0.06782324007206034 0.03352886743383347
1.9391854932966475 -0.32248063654993697 0.45401096753637454 0.09110348807720071
1.9465446077248327 -0.3213448799916292 0.28212584400416624 0.05512429845334262
1.947835171533639 -0.3254656686829073 0.43338549674577403 0.0660571201107621
1.9474396535161398 -0.320128325362651 0.4783298833222401 0.04065317278018627
1.938285213912113 -0.3175222822199296 0.08887899759259875 0.03684643647669667
1.9404483674173871 -0.31991415550602786 0.336456604124316 0.0797184528282446
1.948750389972764 -0.320234434784494 0.18114034257026262 0.03556828708419315
1.9355160780115983 -0.3159136280996593 0.5615150127079404 0.05312449044166126
1.9415519279057898 -0.3161333758834575 0.5856404925494945 0.017493985065789048
1.9373270555282263 -0.32225681516933496 0.15577873402002795 0.0383425905652594
1.943877807483605 -0.3175848715096692 0.5304861857695924 0.04089119893846043
1.932398444878259 -0.3130037644321887 0.2974480484308641 0.03902907379286578
1.9468844659466658 -0.32505743384407754 0.0495667015601599 0.02730123764502099
1.9526891501889012 -0.3159881352602261 0.10217210138056446 0.019795752270010007
1.9436798445401409 -0.31880526749599053 0.2515277347336612 0.051569331966958745
1.9539352118276792 -0.3188098778757542 0.19652890376363885 0.017289444703204735
1.936101536619056 -0.3153452853297593 0.39888227305205537 0.03557577132126523
1.9365852105351518 -0.3220847664441196 0.31960518025116186 0.06543857045142275
1.92839816788419 -0.3260838952479179 0.2635272121058466 0.05134750781061283
1.939304609447914 -0.3183320467631368 0.4646759418436734 0.07778697209721898
1.9446100300135787 -0.3204207587185274 0.38180052876810705 0.044529741299510546
1.9419531765203029 -0.31644553675354076 0.21348919041940462 0.059451627899496956
1.9395705073905358 -0.32337779979205644 0.508259581808598 0.06142094688717219
1.9272392457541383 -0.31796494427689176 0.11211539053026247 0.04653864428812263
1.9395944808796337 -0.31658736529705633 0.3276404865527387 0.0817014798653808
1.9405308847080271 -0.32727043332183875 0.23118057778288015 0.05251272735020306
1.94296643049082 -0.32073446979507264 0.5633013517900024 0.06470430696801255
1.9250558933538504 -0.3197606366005891 0.138200599963058 0.01354410622595018
1.9413515751601227 -0.3294360828086545 0.03703494721497726 0.03570128852701116
1.9263107066572962 -0.3188859328027833 0.4941289956926205 0.07762612392559061
1.9264096982944714 -0.320371665816515 0.5735043139730294 0.07611379434091747
1.937229097235295 -0.32086083145158334 0.028156899646914334 0.0471984563442969
1.924184827016576 -0.3299249758281838 0.38763301703455016 0.0947591685184748
1.933209095301718 -0.324210805354586 0.34793675619790715 0.059531739523486525
1.9278958357167675 -0.3254908116712619 0.2719414334967184 0.05116327470485824
1.9343564236023425 -0.32458582917769613 0.3221403325690408 0.07193463089009743
1.9320381104882758 -0.32263574359891406 0.4388219976757909 0.0634796511768909
1.9226928417879543 -0.3245299408617503 0.07552476723566197 0.06726873688549195
1.9308803907723677 -0.31949991369781583 0.5539086061057465 0.05223224949482105
1.9260735090806498 -0.32401685451071305 0.5221419779831313 0.08900685090300427
1.924061985467299 -0.3210792681712116 0.41505642339321513 0.025455555175430973
1.9266742247949618 -0.32506489836505786 0.44764803616018994 0.06522946366318277
1.929140479972474 -0.3205050056534094 0.5882052688083934 0.07967864571342297
1.9493752276719918 -0.3213873734528719 0.01992178119732193 0.038596848005285636
1.9191240485060834 -0.3303356024776558 0.11072185195559134 0.07025880618870392
1.9298728449417348 -0.3200068788920031 0.22799549136616384 0.053536656813963295
1.925299503043193 -0.3217564743267342 0.09639405843975618 0.03663711618458158
1.935858960020687 -0.31077680058128876 0.36355726268005867 0.05347969229275119
1.9263836095154871 -0.32342152714396316 0.1886091419127863 0.055462548030098334
1.924892224777861 -0.3236163642891514 0.24563800868365554 0.042679333377797876
1.9408668558938764 -0.31933142264864267 0.19992640309864257 0.06661941984506349
1.9320422845932503 -0.3217791079059592 0.4360452810406983 0.039800010770782275
1.9261411326301736 -0.3276006199860663 0.3637649750421471 0.0786464327631659
1.9271053583252407 -0.32710666006715355 0.3869780877428542 0.1241897862188186
1.9210235080194504 -0.3336485909218703 0.4818062429241695 0.059521873787849275
1.9252483430292808 -0.32053765934198525 0.4661202495892253 0.04789220953161763
1.9297234846277957 -0.3316142078482778 0.165590701874627 0.057984647113153195
1.9252874058781486 -0.32365130122757607 0.20085673635302398 0.052427393477841214
1.9330293262044413 -0.3177177586216216 0.28777161916128774 0.034928087728596395
1.9167277042827273 -0.33709940430220164 0.5347152788357992 0.07527271970811021
1.9218947431953424 -0.32979817846389864 0.036270178194801064 0.0744281314312025
1.925426158617683 -0.3289098096691366 0.37883160691954854 0.10977201364167949
1.9251762456130148 -0.3337165773981375 0.3393907244562268 0.0673375777684862
1.9233343254304895 -0.33764154365227445 0.2288668183807374 0.0903339106992314
1.923605199955301 -0.3291618281077317 0.048865008457754246 0.06342556274587888
1.9182785643202551 -0.33969341001333514 0.5524657661339881 0.08106489966293527
1.9092931518151368 -0.330124336176503 0.4079793569760305 0.013594077531836543
1.921609191398866 -0.3281594968017709 0.05764341755920154 0.059844133490670866
1.9127117263774043 -0.34156667352994985 0.35542738521443457 0.044527326178540085
1.9227684600492128 -0.3281567349774829 0.30862787267591985 0.06537880377011665
1.9197825216499753 -0.3318034558208106 0.17067630849328932 0.03777099133650371
1.917531522906317 -0.33612364108129517 0.4426774139015091 0.08389172254530232
1.9181433789996876 -0.34355848441595616 0.08543911819178017 0.035124006139849596
1.9198505382476552 -0.3284291316620534 0.11343749575864052 0.07253498597798383
1.9183911949023276 -0.3412671316441457 0.42694165550107366 0.09159190210107936
1.9123116962063254 -0.336332764495902 0.5666512365244671 0.034370123281250546
1.9204114830423091 -0.33708614747599214 0.1808595790692844 0.03954034695404685
1.912318178520591 -0.3432064101018074 0.4770334864279441 0.08121435366905717
1.9188898821016604 -0.34163320892341575 0.32175489971033944 0.07770936769593353
1.9150297198135744 -0.32906273633584787 0.5094522651004874 0.0393418144374326
1.9218775754022186 -0.3316480300329399 0.24331076514711342 0.10039499892219801
1.913099048893874 -0.33538911263183824 0.2906674106767045 0.04436964272979807
1.9097891647290828 -0.3407299734719895 0.1481600377636124 0.023942145843452955
1.9149388758286539 -0.33893463877337393 0.272351309055453 0.054923626819024025
1.9227127914687754 -0.33350087273380086 0.3260938114021619 0.06491993185674283
1.913289610965731 -0.34605343492659557 0.3699654844271363 0.08682829517666381
1.9073059686811484 -0.3430170110477726 0.45619618579061755 0.06244536285803242
1.9126685303839723 -0.3554975495889434 0.5295496448170176 0.0637337208988742
1.9188508974950216 -0.3417941833317426 0.3092408401432623 0.04148477643520148
1.9160684309207663 -0.35620784034563546 0.5016703272502648 0.0783115572367863
1.9157689985586421 -0.35421376290600426 0.46997161692931533 0.09779147000504466
1.9094723236818185 -0.3534753286041438 0.4589357396129813 0.07520305155219426
1.919878533005301 -0.34191605948329096 0.203372967807219 0.05707840868422801
1.917762005492265 -0.346296805025509 0.1747435834249637 0.08183619137537028
1.9145288696090437 -0.3371623410582332 0.03786762140489471 0.11908428566399339
1.975885175876999 -0.33239267067738837 0.4725515275484422 0.0633802922497752
1.9778945049598398 -0.33449978414957243 0.5530182511816505 0.09128869167523705
1.9868911427140294 -0.34756452537249094 0.42919376607749216 0.04245720469274379
1.9758941462279858 -0.3378795571602448 0.15499114369700803 0.04348339544289099
1.9726231127893996 -0.33754853643526156 0.34209532722779457 0.06966534636624949
1.983837818515972 -0.3456217382155905 0.21532177830028504 0.09531712122685454
1.9794354008462136 -0.34156769089280814 0.31101940174884274 0.05897732855958222
1.973239121620593 -0.3361485869932519 0.5094621408566972 0.1113050084198972
1.979855406706349 -0.34824241548985174 0.23697150145019216 0.08614853269530232
1.9790677682387836 -0.34760076466741935 0.35579182231749434 0.07422406610873267
1.982923321832003 -0.3441298646919469 0.10812333465260286 0.02437293031939306
1.979333457442639 -0.3373839475066546 0.13237175721649386 0.052909810404988704
1.981931430941277 -0.3447884114012686 0.20895352977575782 0.11126743449507291
1.9783980401815042 -0.351722834045163 0.26097521100417653 0.07069571247487688
1.9846250436093102 -0.345026779998524 0.5854347606660341 0.029701140519129025
1.982663759358232 -0.3593106374555267 0.44092503470424244 0.06700074506269053
1.9766657059742034 -0.3601502227762194 0.4178442671907598 0.049980265675633025
1.9767593471414693 -0.364797314665034 0.5251951493224727 0.1153836364900771
1.9734680126898527 -0.3654302957822405 0.3718538323244599 0.09800336676501994
1.9771322700006575 -0.3575250653851661 0.25774548612049114 0.06269880484349159
1.9729501328638213 -0.35990893066567814 0.38476471151573355 0.06841397773212918
1.9701827295627803 -0.35927671764153296 0.31273904025091176 0.09580345521612771
1.9795205235449924 -0.36389139091926626 0.14654786755445057 0.03775219452367224
1.9759348858511148 -0.3701195858005459 0.12135678705051134 0.04755393839752868
1.9764974365874295 -0.36040764422837634 0.32832479750541876 0.0935425385234729
1.9791193371932045 -0.3589930506324421 0.4760026339132253 0.07875004861873523
1.9760417873943117 -0.36241709703014363 0.502251124513517 0.127660944072128
1.977822418559018 -0.3609810537834823 0.34164507725814164 0.06563385760847114
1.972922472923665 -0.369696304348843 0.27492343546655007 0.06476183558009727
1.9758539539415885 -0.3623004358961855 0.05664439112461352 0.050928953492898804
1.9732846090746463 -0.3659817213854608 0.07471580329353432 0.014129799186562316
1.9674183187125855 -0.3715627259064062 0.18756022231673675 0.04643339019666586
1.9795595403772335 -0.3594661577493975 0.19866957465659824 0.07317875600998805
1.9708767741660378 -0.37393520184736717 0.018841757057684767 0.07412114396364143
1.9651423150705112 -0.37407898396573236 0.04996186583269974 0.02339715300389242
1.9717205048467727 -0.3691029258708253 0.22909444023803266 0.028253752136789306
1.967506746820816 -0.37097571074385044 0.25695012596548195 0.06139893696663915
1.9751673972658568 -0.3729236021758023 0.5963415696215932 0.03209799567902276
1.9747474720104283 -0.37943022120136694 0.10902881859872271 0.041814845825125985
1.9680400495819954 -0.37384913589138047 0.576359403511199 0.07838325475436933
1.9615276937537567 -0.37628775548605997 0.5161381895780303 0.016886484021696832
1.9652646092832806 -0.3655884050683143 0.4740313137881217 0.11897781347468708
1.9756684537970632 -0.3716602261902038 0.544648560617437 0.08098211032823827
1.9625075216036365 -0.3806440876798693 0.1262219139994524 0.030207200966428503
1.9690494753692185 -0.3794483464904772 0.28339414873516056 0.04257045578859516
1.965880407151887 -0.3763896129447089 0.3904529925616224 0.046123948724021376
1.9725764532599064 -0.3703394736925895 0.3567057668487498 0.039610525865052856
1.9709118693274075 -0.3674260688169876 0.5053875463267521 0.07093409809410665
1.964802262296994 -0.3739610247601013 0.4112540242780718 0.034197865960733945
1.9730150018753512 -0.37633076715447505 0.2929868499972983 0.04254684174348537
1.9702801369993421 -0.3716176667818869 0.5537347495617128 0.07480731182747494
1.958633936149507 -0.3772815083130723 0.5685418409924591 0.023257817835333008
1.9739063733591196 -0.37545804438500535 0.43539132933941144 0.03721295912786653
1.9569469133250355 -0.3817459030346659 0.22548185022570916 0.033926587946037805
1.964401994086298 -0.37841697030851845 0.08448923202185099 0.020225523871826967
1.9598729696160824 -0.3672835943889324 0.31290576911126233 0.05793443917718814
1.9597341814159044 -0.3785184237110088 0.24860847011748438 0.08282005071437958
1.9657668177505097 -0.3802865002974238 0.46114441828995406 0.046092895778875355
1.9656932958379447 -0.3693926815130933 0.3415456539142938 0.05386953392455797
1.9632891158304153 -0.3772157796824244 0.1830960031452286 0.03221565516501224
1.9569361741927143 -0.3731782036304062 0.1623995098955732 0.03218537659168193
1.9719057996020122 -0.3741191797494342 0.5246468915224167 0.013153371416313866
1.9659712093310036 -0.3725313937150183 0.26846405785034 0.07234650742454243
1.9540176547771089 -0.3758425310170201 0.3628955287292952 0.07719583076004986
1.9581679113268435 -0.3826327453509384 0.6018798239476039 0.03982667520201623
1.9633487166985937 -0.3798621262060125 0.2100713140593141 0.04963262130402525
1.953144652476744 -0.37774329630383296 0.05310015377584664 0.04332328158746049
1.9524128546525277 -0.3803647073111569 0.046980612830847424 0.03330605561089098
1.9533267393453009 -0.383191291843054 0.13178118216389786 0.03558471849606806
1.961092168631837 -0.3784842360932179 0.025628952807034366 0.07618906608947967
1.9611679746988513 -0.37927097435086626 0.37508143280416895 0.034728832647285914
1.9573383842981413 -0.38028596190477915 0.15168140175375988 0.015296050234087205
1.9624613895482341 -0.3769074926542001 0.13886235307521322 0.028131459041907527
1.9564178245075827 -0.36656819023381576 0.48973703506551536 0.09976419995969898
1.9573950444008257 -0.37819750430392973 0.28574479258950747 0.039074806170656284
1.9606195025071371 -0.3853133420496316 0.19697530721339662 0.01920209304982448
1.9537924825632733 -0.3795938989741865 0.44898847426628835 0.054889862755479316
1.9555382325536124 -0.37812643873724683 0.46109502300536287 0.048106989475517975
1.9518563431092997 -0.3824651050607618 0.3040947741622964 0.0504099682398586
1.962871944226415 -0.37745447895997664 0.5325538096519749 0.012824731369703347
1.953719692198511 -0.37783437078083104 0.39122268642474084 0.0804355468467767
1.9472796497793303 -0.38530357994886033 0.3817330701715662 0.06404479047516666
1.9562069070661898 -0.36972932222696775 0.5218204515525614 0.07975399502572858
1.9478728060948682 -0.37817968638346117 0.3248475341564702 0.04466072383111782
1.9429109735244974 -0.3726865640684865 0.519932200442236 0.07163551100926223
1.9398657550691656 -0.381503914787143 0.057172052813330515 0.042828405466582675
1.949906002530959 -0.38331869118970013 0.4040282275876348 0.08210463811919787
1.9509622062705312 -0.3728954847106281 0.4933572225889185 0.06971966594196946
1.9540925235754032 -0.3803742756459 0.15534277473084862 0.027073177431943346
1.9493192869924645 -0.3815508179676683 0.23395465973735458 0.04724944613076565
1.9492396614932597 -0.37968170436716636 0.2480331005184221 0.05637532921447365
1.9501015413451257 -0.3856228267472236 0.2710048545159005 0.0201250987395106
1.9554553477582728 -0.38876887905189184 0.43276979956724737 0.028641571038186202
1.9535342107522993 -0.3883637187462801 0.10446907363629615 0.02350066330073042
1.9662557853936866 -0.37529321807208416 0.21625305049575172 0.03156875999140714
1.942994513556262 -0.37986279167911413 0.2993087457366794 0.062243934169819715
1.942243104603606 -0.3794239218873485 0.23560233158652039 0.05287776396600918
1.9398796649319447 -0.37792475776843276 0.28369415086138333 0.045809363147701655
1.936002781265288 -0.38774638153801994 0.40333773296040726 0.044296445134738995
1.9431004790018094 -0.3854573929122049 0.5619811948627113 0.03668157335574041
1.9381427291626108 -0.379138463342292 0.18083158653885367 0.06458943664246748
1.940829382258377 -0.3794031181536327 0.4343267246804836 0.03985618242091237
1.9357472574541168 -0.37759305784395336 0.45616452996361667 0.04368427542774293
1.9440138977355754 -0.3838975402959468 0.36623748678780205 0.06520255921618226
1.9404180414088976 -0.3798473276971494 0.5016056609283124 0.05912877295222596
1.9525927444673865 -0.37920573187793516 0.5827280634518411 0.05505054576067334
1.9462482255539477 -0.3787838848705227 0.18932433206427507 0.05045587735692346
1.9416515075868088 -0.38147146062433807 0.24721533536983303 0.052409056660158035
1.9380152019481784 -0.37927530763460837 0.5428615248613522 0.044980550287963765
1.9428536617167993 -0.3840486134639351 0.5780858977712785 0.036230443465879204
1.9537296201658843 -0.38118496815613717 0.4775100134181183 0.03212051065528247
1.9413070693087662 -0.3860400138061798 0.3469576936356722 0.052870302914890546
1.9381926887521423 -0.38269630168639407 0.108827057839391 0.03240925092939401
1.9408303447531574 -0.38412081339604587 0.03408942302013474 0.09976603243053153
1.9274340170259574 -0.37718357650210577 0.34197411126442806 0.07021015017695162
1.9430060776676372 -0.3808142089908864 0.21473297309710052 0.035299439780590774
1.9434952604421931 -0.3797981716606795 0.1419515231382147 0.03397752675530263
1.938483229447538 -0.3762196159233337 0.5070236229822239 0.054531288909630694
1.9337680437468021 -0.3810739865514981 0.3146181232239787 0.053557902488703124
1.9348608240065326 -0.3842224901142254 0.03671073086999816 0.1293011430790503
1.9340839845492726 -0.37942424287299653 0.0965881424818369 0.029574812434649534
1.9380692290764399 -0.38443493831644293 0.40448175672212 0.04989314474680693
1.9314745621302816 -0.3778699447610519 0.15668700094033752 0.05897845482647732
1.933270763275697 -0.37983671251360085 0.1663204540516693 0.0827561204539422
1.9347135623204608 -0.37869284718002166 0.374875778653267 0.06392092474601871
1.930656749017915 -0.3701356909066262 0.23792606522150042 0.107621230422536
1.9384423721484612 -0.3820595695411167 0.06881424989311573 0.06272905761188584
