x y z curv
0.8734877628830622 -0.39802689499219784 0.18475731377719923 0.012086868486406195
0.8753471681802781 -0.46991037467250757 0.32427053752349155 0.012976786783638868
0.9238583448294271 -0.5278102270111505 0.30881946143433303 0.020669363683100357
0.76290219244274 -0.30047933371237207 0.3150452488401766 0.015017802779300203
0.9137266221054162 -0.5064930398602866 0.3143751561082342 0.009272368850597498
1.0117473440233442 -0.6188060497815099 0.27107911879107355 0.00861522192587595
0.8760878688860663 -0.4101890085474847 0.21914287146594316 0.005920799909967303
0.795227262287159 -0.36338460134844164 0.3365671976940097 0.009018057770711114
0.8213810485313809 -0.4068934872822066 0.3459487132035478 0.007964910782185298
0.887203206645353 -0.40995344538609507 0.2053001042032539 0.010847867815092635
1.0196547308339698 -0.6375553469599449 0.2685791625848966 0.009540520490036196
0.8131512395613537 -0.3259415953760859 0.21851009105369917 0.008349768955215907
0.8949293795406961 -0.45575205321428425 0.27368280026363373 0.01811091111446
1.0159113158521393 -0.6460883827887575 0.2997160732525572 0.011135636448925849
0.9179543112134066 -0.456727700733586 0.22546743596392688 0.014546905747750598
1.0311008758714282 -0.6669543780227524 0.29719974534667454 0.009765004432915761
0.9075809240866406 -0.4611883872492037 0.23839440916601404 0.017120747144135456
0.8408720854100553 -0.39026451478673474 0.29431950070726587 0.0042660303012217946
0.9165303743061083 -0.4757780121877019 0.23456882405921078 0.013017103333983477
0.8548456399263784 -0.44856266876512846 0.3573978857581111 0.008854861304494739
0.864121574634283 -0.4042885194126196 0.23967747559888694 0.012219029322298286
0.8142139322747899 -0.3975948962806685 0.35364937654136935 0.006625664888203451
0.9384029040072525 -0.5604655741711076 0.32786689041345485 0.016682954684570022
0.8088167146782598 -0.31998867269395614 0.2136393711778115 0.008087685797453755
0.9785129595556223 -0.5598454755944379 0.24530190736402582 0.0157135847471212
0.9510791374554268 -0.5525105163452723 0.3000903117800711 0.0047710908643350545
0.8429713834423825 -0.413628357512621 0.3301492978964647 0.004294494380030147
0.789159890326245 -0.3340255424786008 0.30335473441053634 0.020853159498066622
0.9377318833323635 -0.5169326020001019 0.24070047031781347 0.016934669777371843
0.923648303756507 -0.47672652383532227 0.21999259855563372 0.02265040662771794
0.7760503198360256 -0.32727503877290526 0.3137768598292197 0.023026205603198256
0.83623103447057 -0.4433385881641994 0.3679719376116857 0.011137124064928401
1.0385721462939104 -0.6593966286041949 0.27925418865272195 0.020086717497919505
0.8631275720139587 -0.4423828674350394 0.3249224536731358 0.011447573143245878
0.8486532160911575 -0.41123209331627425 0.28549174864520993 0.012981211575886565
0.8525205727545472 -0.39114237311814276 0.2461404625373284 0.01459472871163815
0.9684078998550519 -0.5812755714787385 0.29984732973932243 0.005517047065190373
0.820024412309404 -0.3469817359549747 0.2447389055539809 0.017765202129792913
0.7785825952047308 -0.3339233681203225 0.32401099070618244 0.015558042176292187
0.8863116624665401 -0.46708486032620367 0.2793584803900288 0.020183502909799367
0.8851393836308188 -0.40743562186442284 0.20791723412884439 0.0065852791677186075
0.9544147333547591 -0.5179590659289016 0.23008284602783277 0.013684387518233788
0.768011203067306 -0.3080630276573277 0.29416932171061305 0.018838126356819664
0.8563778438529224 -0.3742335793322206 0.22137699654462237 0.027943862076233773
0.8668811676140645 -0.38951474959679633 0.20042041259224713 0.017265337686329076
0.9386478908252546 -0.5548181692454216 0.31026485834856565 0.010252464502472266
0.8888006187047501 -0.48094413428344324 0.32059612960797035 0.015188401113636488
0.1636293755747467 -0.38731943514845607 0.1483820524479253 0.020533430396589572
0.18967408359268606 -0.29281242430538806 0.1271622541596032 0.028724695090897312
0.17134360878278856 -0.36717094461629834 0.1483123752874065 0.019794718806211756
0.15212078520566313 -0.4144894160066197 0.1389167422566431 0.03763529985221921
0.18365263245276126 -0.3284616471138999 0.11388206444474541 0.008056583857266202
0.9069367063155828 -0.29607639724159523 0.15090877443057688 0.07218201958381895
0.9000089128320367 -0.24245871580093437 0.14934366071154026 0.041442409502067123
0.8904920709821883 -0.23218435758583345 0.15537953664174278 0.04077301174326079
0.8833707285115374 -0.11074837994304157 0.15784751698256144 0.01459426365618057
0.9045577375610666 -0.3509203134809015 0.15431384309092938 0.017703530701795863
0.8784995914823615 -0.2471309076050014 0.1500032242978337 0.03210497891786201
0.9113395740861205 -0.3713663533170822 0.15475811134637057 0.020287818302760736
0.8941826576961293 -0.08720183524101403 0.14484498065371101 0.011322802351493928
0.888821679681853 -0.23167534528909034 0.14881042682582046 0.024023706249661488
0.8893509353033829 -0.1032409177242438 0.15947734637156497 0.002645632408682611
0.8799809967729793 -0.051520233529800605 0.15883501128820102 0.019804421792403482
0.9038802881240495 -0.3770132690920552 0.15879429490349745 0.012519238786717384
0.8981859886791161 -0.1936927814129879 0.15381079503973852 0.021668018069305083
0.8938025520226849 -0.25522132131476627 0.1438875782424294 0.05131124147537242
0.8849771973508151 -0.22345958799654514 0.1530285399419691 0.025086296317778853
0.8806105001885781 -0.1652143370230227 0.15728433630780514 0.004820262366744473
0.885477282203937 -0.03005746649901085 0.15815148266561835 2.6429553614166224e-13
0.8868404950426156 -0.2744316654867938 0.1351312090131071 0.02185890743864469
0.9016090299205074 -0.244146360924648 0.1492951573062367 0.03640213796604251
0.886355102337888 -0.1286311504099787 0.14984137542772125 0.011690338475800786
0.8868959064995259 -0.19857145914932417 0.15936464121409508 0.019264696918806865
0.8896246452625327 -0.17649812533342119 0.1520342787280016 0.0037731957720948733
0.9033543592388735 -0.30120189681157866 0.1541775134100579 0.0765912120326112
0.8949466433097242 -0.2821497030665638 0.1540247175650581 0.045492767624248524
0.8908156307892284 -0.31608747252263575 0.15039829683098854 0.0062070427065229455
0.8859308013364529 -0.20890692781274062 0.15881178597989754 0.02036029393238124
0.903528176644796 -0.2681792212405214 0.16042138656075344 0.035485918403410775
0.8802909736557986 -0.13944017521492585 0.1540793836528887 0.0112334848606158
0.8766384522534262 -0.12584741749377 0.15616451109112803 0.008414793923599607
0.8983379508155911 -0.3037801117911882 0.15420402736734387 0.05206441234932991
0.8852458524114754 -0.22683202152997478 0.14441269037334206 0.011416317132081235
0.8999425195577506 -0.16991774761256065 0.15198928040757742 0.004009313237676282
0.8996602988578298 -0.3958483081257186 0.1470725951961418 0.005226025622882827
0.9118080256292921 -0.36942458418948887 0.15007432441900395 0.024402253410834664
0.91278395754012 -0.34029362894574233 0.15960334559470085 0.007285610136961163
0.8906730171109118 -0.05405071382445734 0.1631277603395018 0.005899117527512884
0.8838870664290535 -0.15310071160267855 0.15015419466060329 0.004387752360948854
0.8933856034660804 -0.06669868122362756 0.15042596864513058 0.01787008762749123
0.8815298598470042 -0.08336989990775047 0.16349019876878595 0.023034728385224062
0.8907822637990677 -0.3283673240131703 0.15367403145894115 0.0112890330901441
1.0201921162509817 -0.4895498654175489 0.17208782649254048 0.04188982605958271
1.0468728518193025 -0.7466262697518944 0.3105907929525306 0.025063857614604515
1.0517370474980638 -0.6236817912869684 0.23968142992218047 0.036087633290907625
1.0543601325114633 -0.6807906858415301 0.2723549700533686 0.013421733513928146
1.0049499514187281 -0.4363338000748734 0.1477290887738096 0.01720378125471555
1.0206141353699025 -0.5254292477923095 0.19709594742763062 0.04790128674782925
1.0146767222170745 -0.5363702210321268 0.21099437615345146 0.009988964821238214
1.0337255223629425 -0.5135605516420477 0.1877824756696599 0.04727743846201081
1.00623054856654 -0.41645199892850515 0.1314504127194061 0.0019189844890384533
0.9990880200026092 -0.4014316367283468 0.13013217998804597 0.021316356086168352
1.0230847187834953 -0.597365220701953 0.23549706494226447 0.008157584582229966
1.0655073990803792 -0.7151368274342985 0.2904305935859342 0.05847516338015596
1.0451124181551248 -0.6452155707347116 0.2437902133258273 0.023916283571602918
1.0407139739802587 -0.551739450836952 0.20081480523366083 0.012074490116020855
1.0407279116681427 -0.5988913483213114 0.23281070457740552 0.0054833502686854945
1.0077202072399696 -0.40028802002641334 0.12638619385694572 0.013526264296871465
0.9904549239975965 -0.3655416847997912 0.1050015109973529 0.16374041369067305
1.015311739513472 -0.4427867853827341 0.1527588623697346 0.02510941541085483
1.016598478851009 -0.5149251612103198 0.17316677847568437 0.013810016810311666
1.001891300740331 -0.48216330288564196 0.17314818456155806 0.04572302524151866
1.0340694830568622 -0.5563958103175348 0.21108727335115246 0.013387090728605142
0.21007604182317283 -0.2656437451753955 0.0978569084485051 0.014683865865469947
0.2091649253400643 -0.2914528652790726 0.08161350128835472 0.014399943396454593
0.19464617601982354 -0.2847813260393931 0.13566831873752938 0.10430940280498574
0.20043806140175405 -0.29219683765925614 0.14557432426719097 0.10232452726339479
0.19688347444262308 -0.2593758499551451 0.12937342153966536 0.05704440267706056
0.21588997215575986 -0.27876183428942614 0.07911577388849735 0.01705962766723985
0.20468878950072128 -0.2761182145832448 0.14839158996818205 0.061775738160370415
0.5482483077766638 -0.09021306076202916 0.1385041293159002 0.010648271376370408
0.17593654988302873 -0.32452033316893075 0.1291657003154681 0.040424146348029634
0.17315825228762818 -0.33991710864236163 0.15380183506895667 0.03863393024775944
0.1932682655079733 -0.26880622703295864 0.14737989945262994 0.08053985775665713
0.17616929489936128 -0.32210774371895906 0.1339158715854114 0.04551250258771031
0.18868019429471 -0.29951255181476805 0.10877233504299252 0.03168954423174186
0.16226641985811224 -0.3839090907858747 0.11031027643014386 0.011610741930385944
0.17543612774472697 -0.3492830846203652 0.133655206826268 0.06612581792360624
0.1832014469225577 -0.30773877370669644 0.14492401152918782 0.06252809247210436
0.17314942226617785 -0.34745683856944937 0.14509821049202185 0.06220265284323673
0.18764174314799592 -0.2783974802962855 0.1190831445907435 0.03507267853600835
0.1527504775552297 -0.4008425804959702 0.149020124369942 0.06472218033296653
0.1934419084371501 -0.27656226059852035 0.10208240301350557 0.014472897735671272
0.193702031273153 -0.2570827738351375 0.14938003688688442 0.06843498123487785
0.19246610485219182 -0.3206281178346 0.09496840066889313 0.004407875696730359
0.19110795824896276 -0.2868700874165545 0.14781157588629884 0.0760453045379904
0.17546851309334316 -0.32122938386116034 0.1488752645609711 0.07182543134389124
0.15124376690955782 -0.4558296354763223 0.14516922439463698 0.005915760817043157
0.5307452742883946 -0.34439570595957303 0.6757023440022969 0.06352768474291097
0.4811969811956559 -0.4011043419400813 0.8247003855158109 0.0168881631955688
0.48811792111036223 -0.39199188709132193 0.7999005852796551 0.021106533278363367
0.5303257144197095 -0.34862595045337064 0.7499907201422509 0.13953182833503383
0.4486507834210192 -0.44035004256454163 0.9016662210732707 
0.5229999446165097 -0.3603715316609312 0.7159195772691943 0.1522637549337594
0.5117474238322531 -0.3706396115346806 0.7273761493717484 0.22870885467408958
0.4705333153250436 -0.4238677139166751 0.840708133084248 0.007168057053153178
0.5176757714485343 -0.36569880632058116 0.713557407657857 0.10530107328393502
0.5242459490097034 -0.3589241590431518 0.7728586906394102 0.11001848671891032
0.4940314402559043 -0.3949011091248104 0.7829164681632051 0.022545421866772754
0.5310834370406547 -0.33790166783188125 0.7140111733207861 0.08091422396332903
0.503239884598568 -0.37596004351392004 0.7411988485756935 0.20100483088725116
0.5362724828416688 -0.3390135976920509 0.7315198521678478 0.12216289335939012
0.5116715073557808 -0.3666886362248411 0.740469708841296 0.2109735777391826
0.5124311274590431 -0.3585975707227312 0.7036852271457578 0.07134544517556807
0.5228148029502167 -0.35043485564612514 0.7414091226753919 0.12048937456341613
0.49189541169471596 -0.3801196478243608 0.7927743538438384 0.04806192309392888
0.46329356002781574 -0.42855964478601977 0.8518153648592863 0.01429121614781466
0.5121324721555895 -0.37705336025513875 0.7236473789907635 0.16073997415729274
0.504639676010201 -0.3726062413947913 0.7548607770705007 0.10090875659345645
0.495284703846826 -0.3907066961222557 0.7847245629582328 0.07200774149806638
0.4681718344564036 -0.4167862320182232 0.8562880105298809 0.01111125218485416
0.5034120729642176 -0.3888867000768913 0.7695963293499519 0.19199709664537315
0.48041686519948096 -0.4001285269598099 0.7982900727623794 0.014480453161757724
0.49531670491931995 -0.3837172419389715 0.813599630677758 0.11492453181738092
0.5090701384213349 -0.3775346809235623 0.7483255748511668 0.2131268755082073
0.4695179150966506 -0.4136582846120415 0.8235190603235929 0.01533296019113927
0.46464208873073753 -0.41735143673583064 0.8255572200463912 0.013786260157111317
0.44086837465946205 -0.4356932751170427 0.8839936587845539 
0.4836077024724867 -0.4107844787695412 0.8012731103755606 0.014117057254881594
0.5096699294081518 -0.3711759228266584 0.764038700950527 0.1247794016830557
0.5229407771345905 -0.35764046057356796 0.7600832989466003 0.1424510592325958
0.5403046898551465 -0.34027066658870614 0.6937778099367063 0.10153417853316761
0.5002945395737947 -0.4234951735098038 1.5532777966749833 0.04235505165297377
0.5123951974857353 -0.42083193466506186 1.2823762101023517 0.01902320166225224
0.5277750197727189 -0.43119722498963764 1.0396891319515136 0.04050375172964713
0.49083193214505727 -0.38261542811949134 1.521709688604522 0.03685107110148825
0.520615355431614 -0.3843363015485625 0.8444506661774775 0.05631342528333358
0.5303850353460691 -0.41719471924488705 0.7466915384633579 0.02658130574924104
0.5073189460807742 -0.36297178231912347 1.3066704682089567 0.020439705812384572
0.5196663015727397 -0.475194771214281 0.8889470325700811 0.01779566097480635
0.5191109753778704 -0.356278386132112 0.8476349079937463 0.041711082163486644
0.5149034876913282 -0.3933133859285362 1.227564782850433 0.018971777489735442
0.5047692083604641 -0.37520956132599675 1.3407293146148693 0.019320552054894562
0.5115297086376969 -0.43953743962883185 1.26561173353162 0.0197878422379475
0.4875087285146526 -0.3841663314563955 1.427771032943733 0.031054648386486822
0.5087464720832136 -0.4028295372921804 1.521930685738385 0.030917089437549852
0.5071528460164669 -0.39952147009843963 1.3456087900685836 0.027103034858723413
0.5136812737898663 -0.3437073657776801 1.1630382907352423 0.04377133965541463
0.468734983033432 -0.37981971334847625 2.00986794295001 0.0506568694527565
0.5392912166733845 -0.34136734149960263 0.7455803824746616 0.11828102352420965
0.5023630832200379 -0.36591908818614927 1.4119245415845951 0.041335429042132756
0.47878383111639666 -0.3693554857266066 1.785108540104864 0.04042021560485221
0.507879859828111 -0.39181993413607735 1.3479815070279202 0.026436424591142753
0.5295130032392186 -0.4428774534566985 1.0304944167725698 0.036224089630979374
0.5208337304281746 -0.38611446533782 1.0818825651002948 0.02716587789973175
0.49840624019398255 -0.4046465577005292 1.5875994363159578 0.03018033014287297
0.5139189485539679 -0.3896801714561672 0.9725759816926381 0.025644556896436622
0.4921859886315021 -0.3935333971723551 1.5939916330721764 0.027630560423119465
0.5182097007669806 -0.371057920070414 1.2543581574521656 0.02735815483070518
0.5139365205415912 -0.3939671053684094 1.093511919631202 0.02278167803542195
0.5114765866619645 -0.399852655929816 1.1483485881160427 0.03740796124611508
0.49302674869538277 -0.3907643997644432 1.5653774200092485 0.02666129429195919
0.535548045166023 -0.4532235577275084 1.1030194746700344 0.03214486170812636
0.49874666023126746 -0.37159800105455987 1.4527415967347395 0.04371399985668533
0.5171843870948817 -0.45475197973843856 1.028616976286503 0.04167869440931925
0.5188607274157437 -0.36983518973823193 1.1239474585925102 0.03357116564330595
0.4827857486269777 -0.39689805031310155 1.8425216533247688 0.04174188858575014
0.49758429498521634 -0.3817612062855303 1.4766749373862293 0.03836336235960757
0.5423299784507657 -0.4607370116536952 0.8039796603920117 0.02826632742243646
0.4960894313915013 -0.4364563239344872 1.49941846541687 0.027790311701070963
0.45862878149153674 -0.3899145580883017 2.307210726949983 0.018128792226808868
0.4923467072764398 -0.40502961640912716 1.5870751514728119 0.030258259881199845
0.5364500891648261 -0.34548018941656616 0.8278042496582333 0.03805124824272711
0.5308123782006814 -0.4418479464171772 0.7219021228735216 0.0377936216155138
0.5228957451444263 -0.41133573147794 1.0360174071565247 0.026962137469754833
0.534925297378833 -0.40145963850710786 0.8137243517052011 0.02041112291271316
0.46425839667908353 -0.38212683806086045 2.0836608368691607 0.02494268401783222
0.5129822048166495 -0.4126224128212395 1.1800431453840567 0.028986726255596784
0.5248156103715448 -0.4438857333619439 0.9977708830119565 0.049936487496986516
0.543344120829945 -0.42439423686043504 0.6785851920539331 0.028749268217152922
0.5054998711707842 -0.3670100173539708 1.3970523161135986 0.040319822451614834
0.5164656537693928 -0.4455818761379607 1.0040312778873866 0.04361107170357045
0.48828923296325083 -0.40491761373559626 1.741334895449787 0.029936244482690774
0.4783716662873039 -0.3711365516013535 1.9155687011485552 0.06420310835377425
0.5096154526729004 -0.3959024591426084 1.394785192836146 0.033280267425812464
0.505316771657654 -0.41793216793608007 1.4622461632563446 0.033546294590909
0.4905224765299979 -0.3716232160296514 1.6384405297690152 0.046344769428807206
0.5202755155448017 -0.3773190339014508 1.2125682647548761 0.02242757028632722
0.5308012431823265 -0.44191502924449666 0.7687420021111329 0.03874064204959049
0.5132955048946057 -0.4626668460835479 1.0314253654202372 0.058231731327298294
0.5050944329668305 -0.35953176092701095 1.3008898682123629 0.014581560633384645
0.4884858542866485 -0.41539585150482916 1.5263274113766971 0.01899911010067879
0.49287851971909735 -0.40815970835383464 1.7114151251966665 0.02395405892393163
0.5306388104230572 -0.34712022261225667 0.9065489971404275 0.03167745120544851
0.5122625761081749 -0.3866202449408115 1.2800260390942706 0.021175233718577647
0.5109382881384494 -0.4397433941701173 1.1437132033105852 0.039143122999473645
0.4962303802646957 -0.41752808731116436 1.5130206781331625 0.04537258735190476
0.510123173698438 -0.4349443351198591 1.1766362629319065 0.03142777447758853
0.5162432657757198 -0.431673025121915 1.3047197287818195 0.03866120664304909
0.4929917875838957 -0.37015802263196723 1.6866221887239088 0.030202443652705312
0.4690415598013129 -0.3799147442597475 2.3442300854839955 0.015102834473454495
0.4978952496486425 -0.380520262265316 1.492157692131394 0.03494260106966545
0.4624565713492334 -0.38283317593368177 2.159390599622873 0.057205062622706616
0.534100849083026 -0.42441226890533695 0.8550936546012113 0.01950485759180356
0.5230946179858488 -0.36654965544248475 1.1877619796889474 0.03143969419828201
0.4714796238904919 -0.37682266058302166 2.0669983819470366 0.03825386021356524
0.4904163040450385 -0.41592658701992047 1.5769130589657123 0.037768320613473745
0.5277695424934241 -0.34776717987363903 0.9534764774294003 0.02552024338944661
0.5220739952774086 -0.39715359240606407 1.028904347360317 0.027349960088153536
0.5127261049640446 -0.39076071794481093 1.3655396811813354 0.03641800528378818
0.5234988970701757 -0.3946340867745347 0.9137909284877528 0.023017926938419683
0.527539147191202 -0.3500651939088207 0.8493092210862057 0.041098156860590485
0.49292831943012594 -0.36627905930187715 1.7231832200135713 0.03995292010012971
0.4789507560546643 -0.36535120016071493 1.6955544309397745 0.02116309838070122
0.5293439178018113 -0.3402703127760767 0.8143543094456505 0.027890074372320394
0.4866113163306477 -0.41899174371008363 1.6764378783442937 0.02734046914704383
0.5159665667089228 -0.4193301012804677 1.0591984984735638 0.02153682522473331
0.5023019119682824 -0.4201680390287625 1.3966778593871976 0.034798291580317976
0.5198802129421328 -0.4100144162263424 0.9529251925533371 0.026493038922367623
0.491273457480965 -0.3718565964694066 1.543848214817161 0.03027090675113196
0.4955464640256043 -0.4080726914986121 1.5483593525221422 0.030747249518877376
0.4976504334037168 -0.4234997297943552 1.5062783130165698 0.04261835333601673
0.48384957985202187 -0.4044258091565529 1.9056286297351896 0.049564474145286204
0.4994754711174137 -0.39940730324580925 1.2404897620290112 0.015460284721033833
0.4820196336965511 -0.4026547919362355 1.9148002254793284 0.05211271261025435
0.5166903294136681 -0.42316975006719404 1.1410593493505603 0.03027638387868497
0.5229242034086657 -0.39826489693341305 0.9071450113948102 0.020811526835262044
0.46540523798839833 -0.3795792131641472 2.1772176510311905 0.04058512463228144
0.5263622824957344 -0.35608184898187595 0.99959160011921 0.012357234916413846
0.5061197216354874 -0.4115997726030418 1.4020790261282376 0.03322729677168859
0.5325111828750843 -0.4761632544270434 0.8160669526189352 0.06007776077739339
0.5097147130010672 -0.3976405787365973 1.2318662897788617 0.020118810986268734
0.4809246304573294 -0.3902480541914773 2.0195503073805714 0.04298432656154988
0.4810277607861561 -0.3758957548684958 1.8930043603843028 0.03949300463348059
0.4901778532343531 -0.3687234123617731 1.7627271258509571 0.033422563747888934
0.5464834527283777 -0.42973802178669873 0.6940090010936744 0.03442349298616486
0.50119769694203 -0.39642551531992476 1.3142907284813643 0.016149558323372847
0.5250785731306242 -0.34311170593690976 0.9058185037044659 0.03209935445891545
0.5210949792507886 -0.34755093224122025 1.0163599220079667 0.014614444666764162
0.5293789719732344 -0.34486613043548214 0.7760823635628485 0.05413140221602231
0.5221282219008943 -0.3512035707528927 1.0706422510144327 0.03798052858082602
0.48725851943873755 -0.38369263733254433 1.6330082399944021 0.032598913346860256
0.5256224308699832 -0.3674196064826486 0.9380674786088355 0.03607871200917031
0.4588122160398856 -0.38929636364427045 2.3856180727716314 -1.5178630048683647e-13
0.5047634489450156 -0.40763463566735736 1.2674305210009487 0.020826980042200627
0.4873226824153338 -0.4138272796615637 1.824505963881994 0.04929735735128396
0.5140701372803225 -0.4084878201052801 1.302350054731065 0.016646538639853884
0.49356931804430704 -0.3847544226933319 1.67743196423388 0.027559435870890756
0.5107178909243242 -0.3630395492690055 1.2527971523952457 0.024681172343165903
0.48369775470548837 -0.38376430908215264 1.842848147613139 0.041493828419739
0.5133999221199135 -0.38412916947560316 1.3512926838669441 0.026725979663764315
0.4872774464554932 -0.4088583079104516 1.649929789580883 0.03067436377054041
0.49407585856208064 -0.36643505244512375 1.6053093432732775 0.038208461822465484
0.4903160642941852 -0.3576613989860857 1.6571471280075956 0.029186782140062276
0.4749628676436396 -0.3830580333541408 2.0074650118978243 0.05127758870440831
0.47456077025360055 -0.3711584990781861 1.9776474411342362 0.04169344526703585
0.48210595675501855 -0.40412178912642444 1.8822051667922206 0.052906090271406005
0.5201477216112302 -0.4334336935770156 1.0148483156219943 0.028451917190901937
0.5341847771665595 -0.355463926064489 0.8188232112198832 0.021669637635141622
0.5268560480905777 -0.42549025088083187 1.0266157651644938 0.02824822503256685
0.5027539046538718 -0.4119465811076393 1.3511262603899807 0.03230659072142726
0.5018330105948446 -0.42488031973521295 1.4469144657534967 0.03136956668523446
0.5005407093501577 -0.426496775330661 1.4874987518022402 0.028501452432516727
0.5317837673419263 -0.45525127157601974 0.8247578177417713 0.03500502171310574
0.45889256878164325 -0.39143465191320537 2.1755681884730826 0.03856876517287908
0.4829684652839862 -0.380580963923617 1.6382491899850438 0.032471459295457264
0.5305770051183816 -0.4488210959078528 0.9339462668205664 0.04159884878742675
0.5242750686379756 -0.4399517662210624 1.0687238684969602 0.03570433431640118
0.5357218604234025 -0.43939613087175444 0.9096947978478476 0.01690494258085794
0.5089681914634547 -0.35014307117997445 1.3193285791048304 0.021459122855907425
0.49137447178358995 -0.40228847366312176 1.6480264180022814 0.027354354595083497
0.5191704410782231 -0.4557324982961779 0.9789601499569637 0.06005823024931674
0.4771601857672828 -0.39207491531360333 2.156357052943054 0.04851588509238314
0.4922354008989528 -0.3864705236035551 1.584989641937972 0.028910487400307095
0.5305436367721258 -0.4248543935182575 0.9070770613340347 0.019933331862004865
0.4808107288230679 -0.38614484031806634 1.771125807823866 0.03199854998237789
0.5064598891918717 -0.42939917277992323 1.4688093790901633 0.03138648549049846
0.517416067022047 -0.44948064513815106 1.105503368804465 0.06174865804809919
0.5317070066455898 -0.39821487659955435 0.9027325723806604 0.020432677098904502
0.5303915746620675 -0.4136432822996303 0.8622812078802449 0.02335218615990279
0.485507838181734 -0.4067171939104851 1.8541362379738697 0.03891910488454916
0.5044912642979503 -0.41795769639691355 1.3134895601012635 0.0240057632624477
0.4875693885734288 -0.42931321484538404 1.5849777749992164 0.04600055018000195
0.5236924513462426 -0.45194901801854415 0.9298688939209897 0.03638307513935202
0.5316041696438004 -0.4504412504445863 0.7345691637562292 0.0325812634116773
0.5276811987208757 -0.4784127860980458 0.6986476861128356 0.03917992029646662
0.4983870386240499 -0.42541911228277507 1.6240696201873408 0.028274624601096743
0.5189894400117515 -0.42148338943846236 1.3414053614408399 0.02382698006073542
0.5053148299848109 -0.3754585400854819 1.378499504619428 0.033522713402055634
0.5294515729695719 -0.37836313883117584 0.8140286590673825 0.07372491966723425
0.5221412696391545 -0.36522496818109496 1.1629950193112586 0.03304204093645456
0.5117287070999789 -0.36387044995474155 1.1300727738578027 0.03772968300976578
0.5071746645958014 -0.3975857991388003 1.4080541256966743 0.03350367131226507
0.4674988599435849 -0.36904258088665515 2.1085786699743236 0.04530864479487984
0.5028164020932223 -0.42837153669192485 1.2601941641412537 0.019407812438726614
0.5021503449128915 -0.3828020138052238 1.5987445973198031 0.03062568049215279
0.5259021184821889 -0.4322734528264991 0.935224188507524 0.03783617754315712
0.5318902324696981 -0.3787019075828423 0.9181555771131038 0.025860779459706554
0.5234706494565522 -0.46502519808096465 0.8370779498145845 0.037819986250056295
0.4867235693805635 -0.38070835436476985 1.953600458638002 0.03940775731177663
0.5393441421673054 -0.42936469051436693 0.7526448629596509 0.040596343745880795
0.513081404762139 -0.3740187613485726 1.3663123398474726 0.037742996171372445
0.5216575957696703 -0.41532125092937516 1.031813439258165 0.027054745314707515
0.5271537701103864 -0.40157751729027286 0.8892457311983578 0.025671000799686903
0.5092472458396959 -0.35700130554096016 1.1987283653030505 0.031525664752128126
0.4779480981262852 -0.4026697941792299 1.828390724795995 0.03214827848891922
0.4767715499878697 -0.37364560357206783 2.134073430494126 0.03367503691796443
0.49565873565102914 -0.4161846213888707 1.3815894863413398 0.0341522212943598
0.5331140687415858 -0.4203329331111009 0.9601097973990526 0.02927184402265979
0.5305796138758674 -0.3510044239262608 0.8552067809623164 0.04692271922262729
0.5349854065901775 -0.4168232944268863 0.6921138052751894 0.029735284691587156
0.5008540507782354 -0.3733636118716278 1.313317793444518 0.018723353642754133
0.5048171207458043 -0.3824319453081879 1.187801060657836 0.0321255456844363
0.5261983909249814 -0.36311745000126644 0.8330346312437463 0.03838386815221657
0.4960724707183731 -0.37066376689513747 1.5706833544943923 0.02998020061786441
0.5015029262536966 -0.3977241808477638 1.4343909940690636 0.029653943666469316
0.5065201899037527 -0.40309861675406294 1.1952019366960047 0.027334787128802697
0.5348144250571925 -0.47390530538391507 0.6752820201742298 0.0312954894410159
0.5484975630197879 -0.37468349094320863 0.7391724448230839 0.11994600519971992
0.5162098520426044 -0.4256544486079527 0.983416740108617 0.028596717259365814
0.5017486436223959 -0.41154325152196547 1.605868531173294 0.03632254944234675
0.46547714889571434 -0.38270651380576703 2.1925998638100412 0.037361008607558865
0.5092136079926005 -0.4298819611802353 1.321252312305756 0.025703631930549403
0.5363670163940273 -0.38663058901247205 0.781351502015471 0.057464738736467326
0.5174052882263276 -0.3906335407389006 1.0517163331373933 0.02281589652129298
0.5363124692397973 -0.46362887947227815 0.7338651443829584 0.036725518797521846
0.5259692710232873 -0.44331652063016075 0.8423179387419275 0.015349253261323794
0.5108897897536572 -0.43660653215119627 1.2833194025967514 0.022981642458049543
0.4726058218692954 -0.3981248214776863 2.088462118045493 0.028929387509341164
0.47303939917765686 -0.3909384031502676 1.9788616255818356 0.03635121167468171
0.4774829872098627 -0.3879262241984657 1.8186941585615828 0.02702292231131847
0.49069738889306463 -0.4167269693233309 1.7971297377291138 0.028015382130622924
0.5403373974594751 -0.43794828603896646 0.6768278586284217 0.03826859292077092
0.5225437576796251 -0.45392841313943694 0.7415650207337808 0.032710179055928316
0.45905030883660536 -0.3897971859889298 2.339658921219826 0.026890694151041408
0.5427532620397407 -0.4488173291859675 0.6663748639253871 0.04486930998418127
0.5083415884448895 -0.41469955488443944 1.1634564107394096 0.033805566840698485
0.5233505623952407 -0.4108336819364789 0.9994639477410734 0.02152672978191554
0.5171730281296917 -0.3556751527221397 1.1317852409646083 0.04236202460003692
0.5089810668650089 -0.37422283728689737 1.2957369503382998 0.01822680001711629
0.5161913170155465 -0.3854809679833652 1.2381518301596137 0.022988263811246804
0.4772389680552851 -0.3779636971060269 1.9728878556789013 0.037889239851903116
0.5264181731076468 -0.42535483236858485 0.8881740183137709 0.015474537260080561
0.48702353203107923 -0.3820949722054774 1.781606664558224 0.038708705812923044
0.5309229393031478 -0.45269716405925997 0.9058394066464452 0.023766614114423563
0.4744178761336354 -0.37705993056713755 2.0516601243412667 0.039381984263195044
0.5199973602498152 -0.3738119490122037 0.9626173888817458 0.023193922644051214
0.5149353289780346 -0.36622231844935654 1.3631983645026677 0.039803889928591275
0.48493532962804214 -0.36981873080005256 1.9568228409184751 0.038999444130631104
0.5255447902366047 -0.44288449059544294 0.8837906031326523 0.019687836384819003
0.5080254318677278 -0.3939740497771798 1.1830451243480533 0.037979180011752156
0.532707352615964 -0.37679180458619516 0.7694051193619661 0.13590935208545593
0.49027888952937504 -0.4092530180332879 1.7012303898075818 0.029641447056869042
0.541721071218037 -0.44023812226861403 0.7128672523467271 0.03221348769160777
0.5202890031405052 -0.4319833899783729 0.9451898755167029 0.033701045085359815
0.5193454167493968 -0.36497252994306684 1.0314175596154203 0.024235348896743822
0.5113429451730804 -0.4419592730548204 1.2142823894523418 0.031468037522759146
0.5025847344281213 -0.3921515464511297 1.299285781117311 0.016393487664056607
0.5245352250200673 -0.36848473898305584 0.8364834587855 0.035772290168588676
0.4577594191781746 -0.38054652691366514 2.1881749740475924 0.036869068144972456
0.5215491934486803 -0.36379104592621225 0.8535441178178211 0.03888535279042429
0.5253411545225054 -0.36132318254117834 0.9142388086851413 0.02868288769528895
0.5120000311018035 -0.3561562647611298 1.2219228343604267 0.03804211062648476
0.5350175637928724 -0.3817950398629603 0.8353592019649935 0.03345940698981993
0.45597763907656125 -0.3785894036447896 2.367828040845911 0.04436478179932738
0.5298237821943317 -0.39422748373473243 0.9305890016814179 0.03221950760358418
0.5073002519206118 -0.3757818199819364 1.4859652574700444 0.026715002784420853
0.4684817334012625 -0.3957198984175357 2.051223664419464 0.043200982733706796
0.4993559506483681 -0.4077135727516884 1.553763622175851 0.03460697777714503
0.533264763341571 -0.4650041701148275 0.7053047045372469 0.038541213521346616
0.4995411284370724 -0.4054443702758225 1.3690113537638375 0.0363932181719737
0.5086981252876265 -0.44385212522495315 1.3316970956085319 0.050181202394868916
0.5204369116956584 -0.40058798051986094 0.9412223078239423 0.03238547268412899
0.5105666278002402 -0.36988149803704307 1.4359347065808235 0.041405773619228425
0.5193333306840568 -0.35275453735956913 1.200103373974186 0.032294269808900315
0.5134453356244932 -0.44014480075602425 1.1641759530961893 0.044990245704754975
0.5064549491306903 -0.42677576020604996 1.3605013704595237 0.03351087483646439
0.5082673769706156 -0.384339102600464 1.4173878818020018 0.034429731227243736
0.5188904711590898 -0.4133356820707985 0.9224755495026156 0.02586748361263376
0.5353455195055843 -0.4493706913474915 0.7095548363356708 0.03633515781835738
0.5091622192266309 -0.38576490001534114 1.285182797124482 0.019360256875578487
0.4780229492281791 -0.36439653983686776 1.8234712059949318 0.0395330114447278
0.5290049053730256 -0.35096996196145697 0.9163118785493467 0.030716833400935416
0.5036696167344126 -0.39141278996467116 1.4505994454023539 0.03589722259008189
0.5308925373278931 -0.43074175345539173 0.8012024021842672 0.026632120693979702
0.504504463747343 -0.3500513434541712 1.1010811813654484 0.0448822022755938
0.5171259440301239 -0.44845857138908574 1.1371829401310143 0.05392932058657068
0.5357297225639247 -0.4470102425323611 0.8126697831933869 0.03067566518069958
0.5039622713275747 -0.3822407363691702 1.611882292603166 0.033432240212956786
0.4903635893572518 -0.3821930285243965 1.6156319501135414 0.032742170342814056
0.5216268468791757 -0.3916543703842117 0.9892673781241963 0.01882965305967282
0.5160008856465507 -0.3929621692317788 1.1324463862781462 0.026037930408810764
0.480594997678697 -0.39081294406149225 1.7694945613099506 0.03043201161390243
0.4730722430948238 -0.3910854999948895 1.9550340174367085 0.04357533071781376
0.5249931281095653 -0.46260000160842885 0.8920749906403928 0.02945043003967468
0.5209562858347977 -0.4251692357890548 1.0454966702344146 0.028684876577265733
0.4832297080436436 -0.42320177023125133 1.5683669931685806 0.021776595891676416
0.48758624351212126 -0.41886015071868454 1.6790523766832548 0.03396990683795599
0.49988647916462076 -0.41600613000308406 1.5605592937235393 0.03340068319090171
0.5044005383743604 -0.38239424684066275 1.4122796789748715 0.03394789338889509
0.5065997577225699 -0.4372023722022814 1.3858805412450759 0.0393970336085604
0.47880937458368644 -0.3927249626461749 1.9944038786318805 0.04415686369579588
0.48866975585707983 -0.37480628909527947 1.6090738529168715 0.035116034378135104
0.5363127988357221 -0.45248276797495873 0.6862126142400129 0.03393664699477696
0.5155642630083912 -0.45382866414078943 0.9462605261447554 0.03542532853529333
0.5146578103899659 -0.42903155787694935 1.0587471862162203 0.021881127529193856
0.5206466703252605 -0.3487772625027293 0.9904539046177792 0.01916853817456625
0.49454925356341456 -0.3593817976950394 1.3999193132250365 0.03654285551878649
0.5199113029572652 -0.41054892320371167 0.9146126223569174 0.02733272483637359
0.5036410172884934 -0.44015564750840497 1.1733364648993565 0.033024267658077505
0.5079789748182588 -0.4346630513562818 1.3956651223176444 0.034339858822745
0.5098636381142831 -0.3559880070525385 1.2386434193983564 0.03159973082515295
0.4856685651931018 -0.39990664594803604 1.949791292811339 0.03785085569810803
0.4885934095906258 -0.37422970527571164 1.9092808319724521 0.04584514214505888
0.5074405436798041 -0.3609494764939697 1.3244657764297534 0.023385710988574206
0.49798169521336844 -0.3559838519067769 1.527571444146243 0.044192405722545354
0.5077591211017631 -0.4182579707321153 1.2119511664827949 0.02187961488579046
0.5026415685866934 -0.4225049442682412 1.5656780862947708 0.0332680029988921
0.5155984787172604 -0.365334063867792 1.2681754982717512 0.022389240816289527
0.5345722098422628 -0.41263462745172835 0.7152483225816917 0.03176527334950803
0.5320322024349109 -0.38093790885960477 0.7898973064170097 0.08425866037288249
0.48234065142207116 -0.37407018090798927 1.7785610432166727 0.045633421689493046
0.5178049335154206 -0.43426705266505117 1.0675751345328095 0.022475054611814264
0.5010382927698762 -0.42680740305273507 1.4703744812966002 0.04049840503445294
0.5183463541201271 -0.42833505071089367 1.042876019879245 0.031833171173357294
0.5262148585465514 -0.4474781006127429 1.0507027942378975 0.032996579387918536
0.5327090832398466 -0.3928105964060294 0.8038841120978497 0.057606520885674535
0.506484583865041 -0.3549928168433035 1.5970028508959906 0.05112630991497061
0.5191411459038525 -0.38893008424206543 1.026285549910499 0.026648148689233188
0.5418526127913691 -0.40093594961174384 0.75245206107051 0.03394250472045521
0.5044265494643395 -0.42747519843016524 1.3428671328258743 0.03135578100134314
0.517714083388641 -0.3708927193008699 0.9829578514867517 0.024558881986310677
0.5247094142858851 -0.41700226405155055 1.1880514795184478 0.025582233344398735
0.47282928162674587 -0.4048604828875264 2.0049982393038994 0.068708653792207
0.5096544652275317 -0.42569116929804757 1.4089707638600932 0.03389691798717808
0.5162596261959634 -0.3457051769492975 1.0328007935407524 0.021563109325851072
0.5099837568502076 -0.363242792079796 1.3176201172870128 0.01745618868961784
0.4867966989731086 -0.4007609591558236 1.807182966731404 0.024444104503479162
0.47530721362396067 -0.38707310428263253 2.093257715971358 0.02221058864608045
0.471796063351188 -0.3900476906823977 1.9247252560902184 0.03972131694583253
0.4800211535378398 -0.37928697232596015 1.9275908423655213 0.044243284645602815
0.5323611385456001 -0.44928067240165104 0.8304780356338397 0.02966525024456864
0.5200886915481051 -0.44066210939897593 1.043689491739911 0.04597593429522487
0.5354503692798487 -0.3431242449792908 0.7609585126909094 0.11070258827922544
0.4891413708116826 -0.3899676758021708 1.7860417957426586 0.03663708476402712
0.48817042366814073 -0.40925745876588987 1.7497190930932978 0.02614493496497576
0.5298331074422171 -0.4664054612397955 0.8242636044820173 0.04953947447039551
0.5313498306727819 -0.441381662419751 0.8241662291364821 0.025339239034011266
0.500384934735712 -0.3560489064108242 1.4325916613475596 0.05589260633330808
0.5141805165340761 -0.373239843973036 1.1440073670795463 0.03136658713312093
0.5219774046649688 -0.3767044314197063 1.064901141811052 0.027086185795202184
0.5440434544741047 -0.4389100228103492 0.7817418072646661 0.04238040685927025
0.5214422438052839 -0.4300762634983675 0.9296537684742701 0.03567066631526522
0.5263960530506178 -0.3637509859474622 0.8177363605980523 0.0688439914398527
0.5121912755320356 -0.4242076648835808 1.0737270488720918 0.02142978749424587
0.5175494920762455 -0.4040829427531241 1.1003187593018566 0.02393716585378722
0.4918772337388544 -0.37789101000224357 1.5329918557457496 0.03507249003960902
0.5173075258845651 -0.39788382654919835 1.0184145031302356 0.018385995650208008
0.517275603168883 -0.4298709029035281 1.0002788740547652 0.03086819478760483
0.5077862969548023 -0.38407022540452046 1.1214094596594135 0.02660792820553228
0.5263137493863846 -0.34222927587106633 0.9790214540750589 0.0201388784656945
0.508332469432055 -0.4254648264346286 1.3045906101419893 0.03395159551505401
0.5068704435454674 -0.35168895639702624 1.2676901738683248 0.0369791410067025
0.5373288464502002 -0.35121278132424155 0.8788796587650156 0.028433516113915362
0.5294005639077953 -0.36311984873826203 0.866641560132596 0.041496812640240514
0.501977668635571 -0.37511573400266324 1.466778141774421 0.04149673021350915
0.46669269034071725 -0.411443452685492 2.0220068576837824 0.06380461388701414
0.5173809932063199 -0.3575626408594585 0.99818741425732 0.013369339366200985
0.5112569456356436 -0.4201674379849879 1.2516395159091966 0.021242031160475877
0.4973095317275226 -0.4142004476103357 1.4707251829511285 0.029177688905898193
0.5390814714940135 -0.38869807727199135 0.8512366772334223 0.022627613824075885
0.4706595252363224 -0.3836572716592835 2.155830958648963 0.039972497003738026
0.5041560877085683 -0.35912922220781723 1.2911951466113194 0.024951491740048296
0.5048094653160702 -0.41324438734542274 1.3283163895476864 0.025030477093512034
0.5095081176062386 -0.4412789755030976 1.2598767317504753 0.029983107478261255
0.4947183260088194 -0.4147312383914302 1.6194726619714954 0.03379968496833659
0.508921080687964 -0.3801448031290716 1.0808745101666197 0.0286425560013201
0.49621053273573884 -0.42996956580246265 1.506773044898028 0.05265370387500746
0.51018767158213 -0.36361045550945537 1.080125463252209 0.038684777773068856
0.505584715946284 -0.3745124314189724 1.2860695193180756 0.027448056036093748
0.5013299095528579 -0.3972324845317464 1.4087767711173182 0.037023786861296676
0.45930927178831127 -0.37033767532598144 2.3329590930582875 0.013007787387467698
0.5243726862381646 -0.4595927458811675 0.8976939910034386 0.030220650792560953
0.5187653357761977 -0.38191729490539034 1.1627081593113504 0.03586204219422691
0.527716026992382 -0.4360406496371161 0.9732703119063695 0.039045971072717275
0.4945446668645048 -0.41115285468552865 1.6005039790177402 0.041296488038933855
0.47143904767963035 -0.38264128200260816 1.9868046558978718 0.04611212553145752
0.4884399860913032 -0.3671264836556033 1.7993431546051377 0.029815984634407034
0.5278056865554271 -0.4140989644894687 0.8950506544775373 0.018301843177001544
0.5183080579591567 -0.35512484614438466 1.0476567339302134 0.03698868234407308
0.4871982935094293 -0.37273694048547884 1.7081896420859064 0.0354681179626197
0.5093522905474746 -0.4192540794219868 1.4339496113145476 0.024180459102098182
0.5236585294682066 -0.40908117257445825 0.8418314018283564 0.015188730312877978
0.5025953826966176 -0.41360496127318314 1.4283173024219809 0.031094885801840902
0.5284365477054414 -0.4139129760288745 0.8675042806584521 0.0226151108114443
0.5307319597142717 -0.42804655796867086 0.7925172977709516 0.03751651656944361
0.4718327136464856 -0.4056846061704002 2.0330372574950246 0.057762749750446846
0.5236117980516025 -0.4182058858423312 1.1729121375728082 0.030227924734219362
0.5051134040774156 -0.4281229009987421 1.520645145796715 0.027739244183231558
0.5186815051195154 -0.4328687617438605 1.0934617456437334 0.032387259063987026
0.5165182507191 -0.439124694257659 1.0362782300975097 0.03867354950750724
0.4855576093107966 -0.3818464399818549 1.7997954963428346 0.031582304481590114
0.5350838919234472 -0.4193586875670169 0.773469258629198 0.036295343612226916
0.5317947585233778 -0.3605946367086372 0.792812541751762 0.03424902700788921
0.49594649456599094 -0.38065817771135707 1.7015236809302958 0.03308832207653156
0.48958311193790116 -0.3744936488752846 1.8112303355282837 0.025257162545249384
0.5218430170645991 -0.3780729837045068 1.055474729112352 0.029351360271922214
0.5445623994133695 -0.4583643643613673 0.6850337286210378 0.030491373716699244
0.5285273385057069 -0.45135150518231165 0.8960938837233305 0.026780315200656914
0.5100189567451677 -0.4500431614877273 1.0836326959018205 0.03956256348552473
0.5398693704948333 -0.35604176610670374 0.746774292519707 0.159430258636873
0.5403505002326433 -0.40050223799396834 0.7086344916962193 0.05121175351950373
0.5047935907075483 -0.4199734995271063 1.2887433041429837 0.020786489804556184
0.5262144334937282 -0.35772291555009833 0.8122831017998529 0.023412982225126028
0.5217235908457336 -0.36999882228509967 1.1045503844043485 0.030794661262166817
0.538046223186495 -0.44608514581935127 0.8636450597990395 0.01721269307865926
0.5125796492164574 -0.3537946335730092 1.119084795315446 0.04939075633553148
0.5105847293435121 -0.3727384541430584 1.221779538368658 0.03556301259559847
0.5281348502113853 -0.42970528685315407 0.9703846872455376 0.03523798872991879
0.48854315727976444 -0.4258975614760395 1.6905728621236102 0.04967986855053233
0.5001182829227155 -0.36966763702457167 1.5111355078190172 0.042113571804903195
0.497695812220023 -0.3850316093143457 1.5354590935684267 0.030217903922434355
0.4889725921796585 -0.4052740548102326 1.6286217000458314 0.026496215757704864
0.46631487576557934 -0.39060559031839676 2.075720224316201 0.027684785008444537
0.49089837233600636 -0.4009130259231351 1.4462100273914862 0.02842544703659931
0.5079131993359505 -0.3956519365426648 1.3365486401782196 0.026648879009802416
0.501416255663308 -0.3895243827765705 1.4647441848707967 0.038113606586970626
0.5055017838744507 -0.3907800211546748 1.2920919647988158 0.017522479115882228
0.5032502213899956 -0.4316045779959058 1.425282918464255 0.030453648833860265
0.5387627102867057 -0.45493685880790313 0.7618150349018157 0.049954387190379715
0.4880297264523754 -0.39192425272333964 1.719354944375007 0.031410840963432135
0.5389591089518497 -0.3908828046681945 0.7434617550960805 0.11805091065958793
0.5075533205267893 -0.3857110937942356 1.272277367402065 0.027228291260079227
0.531981348898718 -0.34582446511869136 0.806130989830105 0.029380136524009753
0.5143920521352466 -0.38601874752875837 1.216624927316051 0.023221907113337048
0.5192406165304766 -0.362306728269737 0.99373619797102 0.01437891180625943
0.5029004342872756 -0.37416733598443974 1.5722012431211239 0.02819837619265568
0.5396570993584605 -0.392887753742319 0.7383490510344308 0.1025857492398716
0.5324592956974533 -0.41836894097763133 0.8035695781764856 0.015571970661886168
0.5400275260882317 -0.4704682023228424 0.6493810025458344 0.07022728832411086
0.5192052373393318 -0.450599259109861 1.0866586531840563 0.05988304175173637
0.5126934047864115 -0.417128684537109 1.3996255525284476 0.03202566768063198
0.5250248700649917 -0.3665219680676161 0.9206373080222869 0.029045160244646134
0.4697937361930416 -0.38988300632714984 2.2077217034788945 0.01882122458019868
0.5276020903946615 -0.4090765420042878 0.8808687037939932 0.020760376001187714
0.4869744326471019 -0.40663253030608626 1.719958614681039 0.02642822241817473
0.5164218968885581 -0.3531089560702904 0.9515200170831073 0.019135338299291555
0.5019448609083886 -0.4154354738498381 1.5123806816777328 0.043157841387659636
0.5178295447123927 -0.3642536434483295 1.0034275022252095 0.017203510723906273
0.4895456471560352 -0.3828996970232727 1.864849409541707 0.034629753478066495
0.47834802486793243 -0.3752730209671007 1.941824716185106 0.04728294862156648
0.4604620282337464 -0.3832284498269357 2.315616172936454 0.027590357503606673
0.48962163042248386 -0.3665745654215892 1.7425946984471008 0.0356215389137865
0.49844421023944147 -0.4047358234254392 1.6968738029628099 0.02275769880318597
0.5145921105156329 -0.3863934403377942 1.201349783807833 0.024142708403322687
0.5168252206180303 -0.42531650161150325 1.1218719233289163 0.028095322615253927
0.5295987392088158 -0.33569768980342424 0.867985842571834 0.05612949599544099
0.5297262612242387 -0.3852572644793793 1.0332369160471095 0.02549708422679947
0.5266495123182634 -0.38938676498698077 0.8938638110754467 0.02013387088389547
0.5052653872248918 -0.3891557383666752 1.3671245906559315 0.03527255635834759
0.511971448855417 -0.40238624103560655 1.3773827775816074 0.033597952430203706
0.5031705963544879 -0.40190252224511364 1.3590158265349348 0.03407876813265709
0.5138218684689212 -0.37404974880077707 1.1767090355646037 0.035600641020408094
0.47720055175419507 -0.3648709578101761 1.8047939096775278 0.03323524551394623
0.5330868734158336 -0.4001981518698406 0.8708495937470917 0.026751175936463582
0.5288533805005656 -0.41512338074085925 1.0473298097448804 0.026855946175791658
0.48637760046581413 -0.3965235478491932 1.73935926919761 0.024106059937054187
0.5080093679181975 -0.4381221769214297 1.3524626254920302 0.04608957004916536
0.49726529968519956 -0.37347769727851654 1.5877984983674451 0.035357323215882204
