x y z curv
0.5205790918063178 3.6095149422375794 0.351417712838765 0.00047991349583262734
0.5201320721771904 3.6096724469219668 0.2985690424573953 0.005818424986745476
0.5174764506687007 3.60424265700691 0.40486058925000734 0.0038923608729384946
0.5045970023662347 3.5988817557934607 0.4277925295564209 1.1219083879948708e-05
0.5212496578980365 3.611050547094451 0.5525168099750764 0.0028771463210470003
0.5121189423374679 3.598958807133619 0.37106887842903674 0.0005237314655044345
0.514415372345723 3.6039761090133045 0.28563755896580834 0.014585574072135996
0.5488347988735689 3.6282067547623833 0.43868028246274643 0.0030568508724136668
0.5447513978069153 3.6269506074064117 0.41460819560638945 0.0040916044654766654
0.5388172701028606 3.617409119203951 0.49192369558964555 0.0038373399921100637
0.5327607151122069 3.6188134614483785 0.4334205433242076 0.0023893690341094754
0.5447256093231596 3.6272437778113185 0.4596226773384378 0.0056464188673423215
0.5270972517736702 3.615641027102629 0.3394506806215739 0.0013202684936620072
0.5523752323497118 3.6341137750623087 0.4989038484116837 0.004488872004762743
0.5214340753866011 3.6094419953851244 0.46343728936629286 0.002461408820197069
0.5150230421289453 3.6073062869920554 0.33484930472370694 0.0026234496885170775
0.5375872637136812 3.6181389056911275 0.48285122536567326 0.005563413361730712
0.5191286497645595 3.6010469248438075 0.27128700475192996 0.0031000087019093583
0.535584518663964 3.6143876159361783 0.3844998909443687 0.00046158771040151323
0.5675754598456071 3.6392628353365173 0.57293902366393 0.0010934947637490932
0.519219234458968 3.611357453746547 0.3137045816116143 0.0012299724315843505
0.5369187446952663 3.6234758265428293 0.5577202777934014 0.00017155136854302751
0.5266893367678466 3.6197481269608076 0.516087608536675 0.010207492603525603
0.5663704776002858 3.6436358381399505 0.42650387168910087 0.01570520402126637
0.5620374232300166 3.644584583081317 0.3676780111507372 0.008471153776385734
0.5588269046780358 3.6398740846552577 0.3003255476362633 0.0004242264357720692
0.5464534023102332 3.6282172786210314 0.49005251896909635 0.007512316165876744
0.5595049546634162 3.6357344532644653 0.34660158991179 0.0044657949421573985
0.5762158752010293 3.6465232871677973 0.39464645571795653 0.007199565201598653
0.531308109535695 3.620190684289383 0.2824036561228064 0.0047793926075024844
0.5383013247085401 3.6215582525750802 0.3160151889152413 0.001160026924303974
0.5599973208395637 3.640906791083451 0.4626366794010246 0.0018741147089430337
0.5392898225657845 3.6237492349777676 0.25671536666761213 0.0005721748304849767
0.5606222652305571 3.6358618600263104 0.25673602110178506 0.02074976098747046
0.5406935510308014 3.6237685049161876 0.39664556145757146 0.006209062277099383
0.6219096423247339 3.7254519191220554 0.5710784463580816 0.014245488012695701
0.6056961899445243 3.685736907570645 0.5559761111539867 0.0051816213543137285
0.6191779258916287 3.7183996230816487 0.46298073153908254 0.007741886338223937
0.608818718188324 3.6868978694917787 0.40077406483064976 0.006679292274771575
0.6040687173717662 3.696375552322142 0.2959583714900409 0.014541535447775783
0.6163225545110071 3.700695749437722 0.5516081823591122 0.003286205610303929
0.6199473611899992 3.7058091545498395 0.515627818902658 0.012498938930957354
0.602492196074347 3.686478220441743 0.5707319051439801 0.006425613246315893
0.6014341057791742 3.694686603536471 0.3174714296859829 0.025051250477339082
0.6137372607648354 3.701753510579824 0.449198120753281 0.006050570764872677
0.6237586703651758 3.712237946941403 0.5511904075727768 0.010917787097322001
0.6164840499435243 3.7039855155626062 0.3595032644113445 0.014383493469723155
0.6159633143732485 3.7028590022681835 0.3854741277031585 0.014224405352182168
0.6148044092704404 3.6972880505430656 0.526302766783477 0.005265013518687028
0.6163658086146387 3.6969748652932366 0.34884837459568974 0.005887225845014991
0.6198664913899382 3.7107368938505947 0.5413643640242415 0.019114855734775393
0.6011871194362383 3.6890746503983105 0.45665077067706145 0.01085950375587308
0.6273563488728001 3.720763102323721 0.4882762779634133 0.016744891101122376
0.6219484667818398 3.720589223952908 0.5634814961379528 0.014878605002673646
0.6112077507191271 3.6960423519044125 0.4985203820118446 0.011180989852481045
0.6050259197931633 3.691816568299928 0.44387869648876777 0.007058281249101825
0.6271774794801364 3.7239701842218724 0.458922477500123 0.010990415539535817
0.601666326540913 3.698404785048033 0.31126534242449383 0.012265379250679982
0.6262058318332218 3.732708749370576 0.4308039388147053 0.00896159877233699
0.6187456513499356 3.720359476172287 0.38678458537980936 0.011127908829297513
0.6202308656351996 3.716817261295676 0.30259935175101205 0.013958143202938025
0.6198907691249934 3.7120022895810445 0.28039985364652004 0.012736669519623954
0.6178828434027628 3.7178837971700385 0.35550564513804356 0.011788722452313348
0.627722909773342 3.736601591581959 0.3393609466726918 0.0070661750573435605
0.6300213515193909 3.7333782882937476 0.289875770253307 0.008108803461340396
0.6201333063393675 3.715800311880339 0.4089762427411453 0.011887338338751028
0.6335238187128297 3.735043983518042 0.4148598363291009 0.00603270425879497
0.618061466202326 3.7225791377065507 0.43321453080871225 0.010049186385122491
0.6246085896883126 3.7387645896550152 0.2642524461447186 0.008410529407587068
0.6316843236857415 3.7356892971509805 0.3628737030919783 0.01006802476208623
0.6323791801137226 3.7315391574442356 0.5124699619064863 0.003170785678403373
0.6200714596761051 3.7236255340129683 0.314446384767092 0.013897875519164611
0.6248256031118379 3.7288919363854998 0.4158498469873666 0.006334567666223814
0.6285384155751409 3.735424465837267 0.39007287326677376 0.010341515692382723
0.6293814789408833 3.730109155497916 0.48813159994337535 0.008905959353421205
0.6229528865521872 3.7190171308287905 0.3358559859729539 0.008861299200602931
0.6280438373441479 3.7416628013739004 0.5226972608536394 0.00793375427257333
0.6326762477711776 3.7531425358491726 0.5064364958546236 0.007693639252080703
0.6423890968869657 3.756543897288154 0.5557929526548211 0.01713967407361954
0.639825403721418 3.760842582893207 0.47283912756687346 0.005748127913036269
0.6350399858757434 3.7372513298195704 0.3726788596316753 0.009268399476692642
0.6413344365759396 3.7696748202211166 0.5074910502558877 0.0073478815374372125
0.6370053081917204 3.7415829410091126 0.36312760062400407 0.009362745587256504
0.638389041577973 3.7743737049970343 0.525473786010139 0.0074846636587846075
0.6315470914308327 3.739698433657677 0.4384457988406703 0.012094269816743617
0.6362325129267926 3.7516358073762093 0.4951712147872636 0.008270029788219103
0.641320001421557 3.780287551737689 0.5692004822430993 0.020099775728333314
0.6357515709597895 3.752863345534104 0.543542466838484 0.015030342379716545
0.6342563293064077 3.746521321131761 0.3694414986681634 0.011360881511178448
0.6366413609991535 3.7535497595409923 0.40854114646964595 0.0076789342082419325
0.6369205982829251 3.746101422467878 0.4500000239629306 0.007687585719538693
0.6385600648456289 3.7440954976629546 0.466603138722538 0.0054411595056608085
0.6403295666424925 3.7553360187979776 0.4249177351556568 0.006957134837874693
0.6437872354176452 3.777101055995127 0.5436475773424232 0.01496615453057079
0.6407085577392717 3.7330307796373194 0.5615989811037965 0.021573683718038777
0.6303890642631133 3.744459341267371 0.47712125203836403 0.007095428392493802
0.6320593273592736 3.7466955605804397 0.26339679083982587 0.0228584966424475
0.6492171004206936 3.7837552664705862 0.501600571473976 0.007651810056657331
0.6422662821439213 3.7703269410013482 0.496627943981752 0.007913361286801245
0.6408883708422252 3.778446220044388 0.4159659231009485 0.012256403187089517
0.6503711840231118 3.7748760318053978 0.34569630713633553 0.006137713037206446
0.640561680441598 3.7648611380620705 0.379857050795482 0.011494388764683618
0.6545304515623409 3.788507227253693 0.40158048043246114 0.010722195242203834
0.6445638553838928 3.779302364057283 0.5639786997467435 0.016771452133553622
0.6465111844524727 3.78687218651097 0.48199426360938236 0.010732117041621407
0.6478641049016785 3.7818648436107662 0.3739845719703458 0.01546896683499707
0.642681735129249 3.7608101508414946 0.33601986165230224 0.007245803743145699
0.6427740978114256 3.786788938670882 0.5504028703014782 0.014677608009522208
0.645808154369484 3.77747997090016 0.36016799017760254 0.008648211269737324
0.6407923011944943 3.7629744390148927 0.29729700723548214 0.01149033693997192
0.6358193220799665 3.7503300513328615 0.2731946892706388 0.012110063158551274
0.6341948142546445 3.759242549929525 0.30612252572679016 0.011177467125314677
0.6446091436446019 3.7756968589290754 0.3290622637396516 0.013352890434784121
0.65103455250423 3.782094149189085 0.2895216699819292 0.010888898614459882
0.6445461841530982 3.760965192762755 0.29413790782597893 0.009952073174628817
0.6426384758830685 3.7598755746010983 0.3976783563405846 0.00879469153907164
0.6354229198537604 3.7567144025106813 0.36173669074308756 0.010117209658746785
0.6405673315027464 3.7817022014051456 0.2665571636410803 0.013257081150842521
0.6430984359329482 3.766216468381416 0.41820226944111494 0.01186975581551491
0.6523941508537482 3.8158055243992908 0.44852429349091677 0.01328921168854444
0.6513664313519743 3.8050234479247576 0.5210108373085616 0.012751646941782832
0.6523048043578586 3.81371632192982 0.4297077148171774 0.015232490799480235
0.6494524497871642 3.7973111536808104 0.4619880560413777 0.011491594413027285
0.6491174891574778 3.79372327739496 0.47912709939431886 0.011696114831021395
0.6538890344292405 3.7962565469572116 0.43152325219121757 0.018663582461435704
0.6583656291788138 3.809415449018688 0.38352391775107236 0.01904155641045079
0.6518647097904939 3.7952955715770433 0.2710022123316769 0.021255052057470473
0.6470240147327762 3.7866109485802997 0.32529796776210335 0.01287493437831417
0.6484240869160086 3.8010352956084072 0.3967762755291311 0.017319182887318825
0.6465351214483793 3.7744475072505383 0.49370945976268593 0.005947727046990754
0.649508231328913 3.78990587930053 0.5199923576313034 0.012151459278157823
0.647810218104606 3.8029872268976934 0.49684812654303867 0.011240630717019322
0.6596230204861753 3.8339616973926045 0.5567422219797498 0.012410257471516375
0.6552320342717177 3.8003517657841748 0.5520610815239322 0.013361111897612153
0.6542126091369759 3.8226808049030416 0.5531845428003859 0.027396557659383543
0.6557443124239137 3.8343163956120234 0.5728917204214758 0.018877607750624244
0.6478658055351206 3.7849047509367 0.5387135016179523 0.012331679157812083
0.6444790994945918 3.8041092555316003 0.40795268795707995 0.019612255710919412
0.6478828527670396 3.7984533790572845 0.3526064292874472 0.02002492255717888
0.643973880160892 3.7886772948901486 0.308981123498669 0.01300702499519465
0.6489276555429573 3.7978104168898055 0.5741184084401186 0.017694123500087783
0.6491938588031742 3.796711954649051 0.5385706436806794 0.016391823850084097
0.6544299748413106 3.826682083504802 0.46214387331798507 0.017892446221297233
0.6524020048968038 3.8346426004859113 0.3748251661652041 0.016994326117753377
0.654089494130277 3.827078315955908 0.40540121096742293 0.023743137358249483
0.6544918061726466 3.835638754164014 0.2989990993979602 0.013187691109743131
0.6597029934452886 3.8229314748665773 0.42632194510918925 0.008317907928117858
0.6539504794711631 3.839476284316569 0.23921995400738763 0.024142276695841045
0.659031077312894 3.8140321364450536 0.35234512487112435 0.01564327630821206
0.652850396677964 3.8091686125083792 0.25955965301447087 0.025179381388581546
0.6607393180373706 3.836149102022696 0.527560409562026 0.011709283357242237
0.6485459852152229 3.795886364203977 0.309943882034444 0.015156027868089597
0.6537688228950692 3.805323679606053 0.27924135490490526 0.018001684514918015
0.660572687443548 3.817103908980795 0.47931789487630305 0.011994792520141554
0.6521535542334919 3.8284168495298903 0.39120941427737954 0.024329775723975884
0.6478184165186852 3.8236203641631143 0.36820733395374455 0.014968976916644465
0.6554722420711322 3.8267894327812604 0.28124137498165946 0.012960171404789358
0.6504580841056525 3.8252234101562452 0.3270761583949101 0.010936345078524257
0.6584965536402767 3.831183410971544 0.45325135553539564 0.01880124883630679
0.6552566640380588 3.8053267837144635 0.33418819728245125 0.012619894250850265
0.6525289173511816 3.801493092605886 0.2888627489061515 0.01618591467322866
0.6591975998403494 3.8404335490837163 0.5659552956587095 0.01329552888920882
0.6572232991788298 3.8140129280227124 0.31708415866603507 0.00904881378533309
0.5821271539558602 3.6634514908010787 0.369660512280522 0.005081917199483425
0.5875442231316352 3.674692725216665 0.44799586296418664 0.004098279869603667
0.6028806978347323 3.67687121064176 0.2848257057221092 0.013748790519725594
0.5986116861665245 3.6858230019505243 0.4285810203941144 0.021387514271432935
0.5995050265474662 3.6793857864244957 0.47316628878371403 0.005673903282528967
0.5937861393011359 3.682674159494909 0.4372306724683278 0.021251489323754702
0.5803236719568517 3.661930267611524 0.27201628297129543 0.006119264401000437
0.5680988368372251 3.6480485730262724 0.27731238146793546 0.008072630069355522
0.6037820820455233 3.6843068810688506 0.29192396266354576 0.01913568150486556
0.6019615503512084 3.6942698485562704 0.2588601964416587 0.010635014372334693
0.5863264802872455 3.666679336078382 0.39827451280587267 0.016167717536984982
0.5893041167556535 3.6628516717796917 0.3080833663250836 0.01658521557107716
0.5851804422657542 3.6715987415188165 0.4204537916463346 0.010583632193000658
0.5905272907995981 3.664769142437044 0.29029726503637787 0.02271699944656301
0.5653804861568369 3.6470594498379914 0.2903398404943043 0.005396186277654075
0.5850282628064726 3.6682482732689965 0.5472078223289424 0.002462795796341491
0.582431670194994 3.664712611050678 0.5576524671541541 0.007653615953405865
0.5659836487767997 3.6561089375712523 0.524320551044719 0.0032476363661228616
0.5765488648417355 3.6603730589537116 0.34220306643916354 0.006224130080773078
0.5791306432292723 3.6540443830328004 0.45882139553802015 0.005605535303202691
0.5810059880871119 3.664411059174689 0.5042605012963438 0.006476995749662842
0.5753153867770385 3.6615538143900617 0.5204178701716647 0.004442163289163431
0.5742152152821217 3.6514330683586462 0.47416245919604094 0.004584848602950968
0.5859367492356866 3.668920159461009 0.488694638412962 0.008349872854682822
0.5762650938240077 3.6504622567559344 0.33155345269045666 0.009603066012934416
0.574700470075885 3.6640403786116593 0.4295928119987484 0.009823591715248608
0.5896209294798795 3.678818865276425 0.5044681377958684 0.00805853183612217
0.5712698157537265 3.653967091030713 0.5588479208667465 0.009404450014202634
0.5700506813493829 3.652666280784121 0.48784185774074273 0.002655868906393405
0.6599177857220783 3.838167180849628 0.48035643239644554 0.014662833239762009
0.6528580999217013 3.8396917703579168 0.543572973336815 0.01407403141154045
0.6572371047517614 3.845668900534766 0.5087319697017954 0.015745713074413782
0.6503364346482339 3.8085443508233197 0.5048781905720192 0.010796308518615178
0.6472557863232921 3.7765963588739013 0.4379009551328051 0.01126592998011006
0.6488362757474863 3.8178445796821183 0.5158893004052182 0.011721626429801707
0.6477563405629428 3.791063287481002 0.4141401477516766 0.015117415203431827
0.6466817424852503 3.784014997974007 0.4297005472093727 0.016399140952791057
0.6492520329018886 3.800822674800167 0.36103219745196635 0.01804757117260953
0.6459609035598071 3.7865411525704 0.5311235923816544 0.012426533242864038
0.6582844390199905 3.795874257145213 0.4541002376522897 0.0082553344395189
0.6597533514341418 3.817014281698626 0.5356681072430752 0.012287450277784136
0.6469622588381558 3.8056095563380725 0.3949221266120743 0.016812102561098566
0.6429983593328437 3.783802846580965 0.3511345361712782 0.008578270206600482
0.645528559248395 3.796687876163244 0.4905499650455388 0.010853660108273551
0.6601958030342824 3.805080509717071 0.5563196501084712 0.014444763882109536
0.6499056700438566 3.838690888907185 0.2685243160288666 0.012692071534951567
0.6565952338315201 3.8296228758163466 0.49907067178041525 0.017153371806775095
0.6519425263790362 3.805252043315451 0.3665845191945403 0.019455431589924722
0.651782101064764 3.8125479011977808 0.28792603410406564 0.016814126962263882
0.6519247336610465 3.821145016371858 0.4564803409281781 0.01664811608413766
0.6577350267099631 3.836604826588942 0.34078096580105177 0.01229403665695861
0.6516000863928312 3.8351582582845536 0.39157169424911503 0.020214998700691707
0.6490742214678366 3.8270121465532805 0.254530872822385 0.023017418895915256
0.650905054351719 3.8254906563753615 0.3054612994252523 0.011426003631039227
0.6504505038028406 3.8173765717994184 0.38850878893740126 0.024011350493256353
0.6397886566295898 3.7620803860592575 0.4821125826713839 0.007903049911130621
0.6328955368700133 3.7568063201156305 0.5189754685218945 0.007972643757116937
0.6426988137532319 3.7761295438503306 0.5619158580560306 0.019420003016620748
0.6435529241012478 3.7666608170707265 0.5490904467913977 0.019122078677837263
0.6206079687665234 3.715693784034658 0.2561113143854499 0.020013821114307377
0.6406246423871375 3.769418663057455 0.4612564749988817 0.006452779633835266
0.6317166665293809 3.752005226502097 0.2985771559018944 0.008496282077173244
0.6378495216459595 3.74351513295168 0.387506659217815 0.008126683961113686
0.6367657501500816 3.759744697749343 0.48650645952130156 0.007551352519691862
0.6377735191857777 3.764657863775618 0.3561645108995218 0.008811281561139438
0.6391156375723749 3.7739409977907514 0.3034905179412477 0.01290718660167024
0.6224241780791487 3.7368486951353006 0.25240761474359374 0.024136237216427013
0.6353123750233047 3.7577599907145864 0.26871992260476457 0.013529415553090571
0.6413891569185843 3.7700281888546003 0.4508547566405476 0.007618119350817973
0.6387551031118951 3.7761984455680735 0.2660166675762425 0.012007625647666156
0.6427022774266136 3.7762905774515807 0.3787500359673466 0.011384228256655634
0.6246442097245053 3.7332263549655402 0.3007675142876482 0.008406666203449082
0.6471169805761873 3.77650956208426 0.39464662744338813 0.013819516301504093
0.6295883642319243 3.7379611448962473 0.3290092776652799 0.007142938330220986
0.6379892095868923 3.760109330197002 0.37671627634725974 0.012178177742856806
0.5896949780963993 3.672312008905316 0.5194011212911303 0.0035800608053788807
0.6193864337049818 3.7032946457796068 0.5006005796244104 0.00984886998072266
0.6015336917487745 3.6893382246148234 0.5028565433373441 0.010527154531169914
0.6028842717384313 3.6882648291910645 0.4809122458026239 0.009639127434354551
0.5881195142020764 3.6741645389195097 0.3640764430460099 0.006885477676767806
0.6049321598367129 3.7005402578963644 0.47543764294643326 0.007718783766063574
0.6014041838103398 3.692701376481037 0.3686203967208902 0.02218004562857492
0.6181045097183302 3.717450851992548 0.31154825136743924 0.012322789957437299
0.6093377994670456 3.7130467309915405 0.4225709620931814 0.009876415440106444
0.5879465224967748 3.6768475405975733 0.333847880972448 0.015217457711905264
0.6155490524543676 3.711646869401862 0.3828084403334998 0.011871287371287155
0.6020760031180933 3.6991496573620415 0.31108343712811837 0.012199960455411238
0.6146501714639848 3.7099908653142983 0.39301567597216913 0.01422030823473543
0.593338681073867 3.680768547581082 0.3057626208531617 0.00961315006207373
0.6029748290099101 3.697287888626058 0.4225349137036506 0.014424106487754553
0.5790596806359507 3.6671538801483963 0.4267086547555654 0.01138097697372555
0.5504085773892988 3.6338556940672992 0.30147763189335 0.000845419662651699
0.576811062404293 3.652291051042315 0.30521620741220507 0.012193169163125853
0.5849763864859743 3.667275453095524 0.5319832920339091 0.0030619288047286676
0.5542585053301889 3.635188679647398 0.4764041302304007 0.00358988468113349
0.5566308759436958 3.642090685858212 0.5396144708672548 0.0050234162581850325
0.5542812506109058 3.634153384595794 0.32113727259458885 0.001177157670152174
0.5435403281853417 3.6209852529680124 0.42501456547003785 0.0011590172031421225
0.5638420413157477 3.6514260427527785 0.5387022775852996 0.00865035996979568
0.5250321062516294 3.6138677311561027 0.29667871737335666 0.007475741813567646
0.5277649972093071 3.615912969505105 0.444502697580095 0.0028138007672881323
0.5280700403995748 3.615723022619561 0.2847127960798178 0.00694898249644565
0.5338506407529827 3.620737434945328 0.3272702840867032 0.0012578007771714352
0.5315050749876296 3.61692716516279 0.46512827801059287 0.004763339163634347
0.5084495194662446 3.6037261064313184 0.5240821166549195 0.0032692146384107825
0.5289024146164305 3.6236103052381434 0.5361386208015687 1.6479609494022194e-06
0.46467613508881894 3.57830837787264 0.49748955305502496 0.0004001035238445099
0.29148620465929204 4.168490033431561 0.5674135972563233 0.02107789040666521
0.16076754003162896 4.116941577981017 0.24525801633611985 0.03582479770848748
0.05349754830669469 3.9591941875444903 0.24518921952671366 0.053804566769994594
0.04720095045763832 3.908759834339707 0.30196890133396725 0.00897609963383433
0.044468999814920314 3.894641215187054 0.5335021845964696 0.012270410984659877
0.05314100056935936 3.917855864560571 0.42709032590630164 0.0056127437564260285
0.055365814821121344 3.933479125265438 0.39185027817686224 0.0051828381444699685
0.05050945302151379 3.913190628321339 0.44373586340727195 0.006630026877550386
0.05310709246706704 3.934101645503585 0.3552517395768482 0.015839238593803946
0.05115537622524435 3.909428037112175 0.4704196937875102 0.007630115392536827
0.047725062751287496 3.901247858064714 0.3027031119628496 0.009751007812476082
0.04568049676818716 3.9014025355312514 0.30758783371577003 0.011097233680476468
0.04200029682503667 3.9037641888547383 0.2636877509437262 0.010895886066671816
0.05149033821318992 3.9103700716169976 0.33881778690227937 0.004667765672303763
0.04996136482399009 3.9143330900514415 0.4002716212273876 0.005021134821400596
0.051372313112688986 3.923618085172314 0.25333162606222315 0.01036097615864503
0.05006283702053042 3.9086656431839644 0.49726788628274304 0.010980048180607915
0.06126111652663973 3.96086910915039 0.4397663378202572 0.009524474407618572
0.05556897964426565 3.949175344210529 0.31383823435765457 0.008200075986824297
0.05746542975692019 3.964513843399886 0.29924775679917004 0.00983970699046229
0.05638459439241099 3.9511673585708453 0.5112760898756045 0.01941376263410198
0.050775970004363985 3.9256923765702307 0.457383403199545 0.005004413019522511
0.05050163498659335 3.93959111258391 0.385694809917036 0.007108944625266221
0.050238456294038274 3.9441938964042493 0.5287263422449613 0.025293625790746267
0.05269105865257201 3.926979140845936 0.5067625793464715 0.012154990927268464
0.059800908017089247 3.9592904245569196 0.3691862257688335 0.00993690910221093
0.062284972710290966 3.969473911651474 0.38606394357724544 0.013946380084988113
0.07054129799563025 3.998727001883118 0.24724689903674305 0.03530370439165902
0.055230620353418386 3.966055610665086 0.4212085652012491 0.007608017249336484
0.06890348676273697 3.989471608998827 0.24634076548255057 0.020766024414520665
0.07537161103587879 4.0025426968700355 0.31815967559786135 0.014547955745893073
0.07488638487022725 3.9962783132032285 0.2604433523643394 0.02525357869157784
0.06993182030413915 3.9761258489341484 0.44881810303836994 0.00967937886012816
0.06468120926254105 3.985821188355468 0.34813717813052286 0.014399603227111464
0.062093752122171594 3.9772286682455147 0.4916376126358855 0.011854271972772935
0.061553711767007406 3.9668980038158366 0.4035141870137042 0.007014989705732955
0.065570573123267 3.970990424264476 0.43033815379488266 0.008058246237818749
0.07418084433594083 4.001362683480938 0.31493060649732724 0.014704488152257486
0.05781820628695656 3.9688770723216447 0.33237242270115197 0.010136039563174364
0.07161143237781739 3.987501766732841 0.376007903518968 0.00676685897615833
0.08149172519581536 4.012458862154827 0.5572598696600596 0.004400272131222736
0.0692718554363301 3.9972876130236665 0.4610685210574564 0.01550067308294253
0.06587940869593624 3.9784568498270545 0.553610951809688 0.01517096928541348
0.06701774640481928 3.9853663858086983 0.45418521369189696 0.013863560985959788
0.07303569331033251 3.995632357964321 0.5069541129164967 0.00901907341564405
0.07542932112364857 4.0114053656643485 0.5038372691177798 0.008763771979689135
0.07156227620429897 4.001364701009443 0.5459783041443744 0.005249789572640639
0.0871585285334645 4.020140228976117 0.5230015766420433 0.00643821890189326
0.07849316138869059 4.004745479280644 0.47006725555468 0.014689404192663753
0.08358279316268144 4.015220238153033 0.5379507060590343 0.00546325492014725
0.07745774769771535 4.007435452228204 0.3978500823296856 0.018697610795507403
0.07844586648972429 4.029419136415569 0.31713243905488026 0.015298354120632133
0.08488139797478772 4.015847252108376 0.45948758123505434 0.015725099300701064
0.0910234474779598 4.021415955346932 0.4182060345681389 0.009538110781528547
0.08257927102487216 4.019499157702113 0.48648151113044613 0.012194762307011076
0.08762379495938685 4.026759701847886 0.3980354881281604 0.007398073417752403
0.09822113412642769 4.039466394502422 0.3747067347854341 0.009623675477223368
0.1115772360295712 4.0522760435411405 0.4182197034700904 0.011715174253615996
0.09067468128815087 4.03632300967842 0.5705096191428991 0.005055544273185205
0.09225629991138236 4.0311558464556665 0.5102561367139371 0.01553689793610826
0.08891027847897222 4.029241654063388 0.55025720688876 0.005140210996873351
0.10535372040541645 4.070396921701632 0.4799141852402669 0.014585687681955041
0.15589347295376046 4.103117155241423 0.31550657690511574 0.007051448700318749
0.15073192048187817 4.103011799122333 0.47447321346843324 0.002643330817438848
0.15947672363735774 4.112748480082447 0.4538611554965806 0.003022739629014456
0.1623728361335046 4.108889502334757 0.33903536946147195 0.0076075226036986885
0.14159992188358567 4.091587455278745 0.52995550829003 0.015376782498212005
0.15109190855225502 4.106197597754765 0.4912866615842825 0.0032038926271037984
0.16165308641223525 4.114560225087787 0.4959530189417204 0.008329405996411821
0.1523205128788385 4.102774395159045 0.536639685553027 0.017833407420747696
0.14569445259897276 4.102188669937419 0.5149860392894635 0.00546851573565782
0.12178246529340925 4.07679400513257 0.2923460442061765 0.007794909929782805
0.13650010015215866 4.08743753150105 0.33232684450088723 0.0007877402153879132
0.1273451557674325 4.0779093213813615 0.4056891105825627 0.016178769630055715
0.1356815584781448 4.0838084465982165 0.41463923065273367 0.008845279636436821
0.12552068253138612 4.080337275878284 0.32701721666325545 0.0030182831467273482
0.12149871279339214 4.0675566170321575 0.44685679866421013 0.007855527243315091
0.12499347818577773 4.085507066107111 0.46613332330554147 0.018284426512959518
0.13370213951430493 4.088595102233161 0.2745515618463119 0.006409521900772019
0.15210975987601155 4.103586620462749 0.2905708836433665 0.009225522018866977
0.12760898750169036 4.082165460590069 0.30307053373582216 0.006759351208361558
0.17627779691376963 4.130283430065128 0.2612787785744431 0.030469700530249003
0.1878903299158147 4.126584854798751 0.38634481241019997 0.01830953432910312
0.19641309189040915 4.135751747158254 0.2553097782591593 0.016700520498218057
0.17742520078879245 4.122454703489263 0.35041867182667913 0.006027449546262617
0.17070596431255836 4.121091158951372 0.35840733051244444 0.019146754413164588
0.19649967121975104 4.137143908830264 0.288918715309456 0.004102758103215523
0.16467991000237364 4.120244092590557 0.4948715550827901 0.0068576016225934296
0.16666091804392089 4.111945216567524 0.3271794590866445 0.007773817077890409
0.192559113943656 4.135494430704156 0.48315043202701174 0.010510034599161121
0.20562508976980698 4.140286975145233 0.564909744031384 0.01876584260768991
0.21689224015178535 4.143754406915659 0.4837108959870374 0.012981880322982926
0.17788511123933665 4.1176354972558595 0.5590638085801717 0.006148923714862953
0.2059129440382877 4.140807089305817 0.3455926543793204 0.002016387251777178
0.17564170959174258 4.122197659866806 0.4499802691105391 0.004513120000300972
0.1932487856507377 4.129962570232337 0.5587380333538848 0.016651511658925554
0.20949384039310487 4.141427052809135 0.4017300755229383 0.012292716698725437
0.20287372275394067 4.129787804649612 0.5148242555632865 0.007451582728915573
0.1926969702711683 4.124785271233904 0.5063568639968117 0.00734566015344556
0.26980308491787386 4.166886943208047 0.26936023939671905 0.009558746400696962
0.23318138579128603 4.154677098620261 0.47178142003459084 0.010122477238503777
0.22197571442824993 4.154232658450279 0.3949988937408458 0.02077959530642606
0.21762465044543436 4.151427636288357 0.2534828046656541 0.015388363793002964
0.22455830586810335 4.150000603111842 0.2683063127610485 0.0065650644162245485
0.22635319903213838 4.150355860144197 0.2908812963561081 0.006734523599426666
0.24817327758398583 4.162760028862441 0.2755633484090653 0.006194169968047178
0.21701452195432658 4.1414851037114895 0.4156629420556295 0.009056864425649132
0.22421543267801158 4.145237778287315 0.48397038714890583 0.00718883322529964
0.23219677996855062 4.1542399130411285 0.5549740038121943 0.013726642764162486
0.2477851796884918 4.154637753853278 0.540867620652115 0.005584060258760923
0.2583105990312411 4.161984054556161 0.41707248265787994 0.016507392125391682
0.2657449121249272 4.162964510177686 0.4129510213431379 0.02566062146255377
0.26390609204966037 4.167480775518268 0.569679890457766 0.01646739183120619
0.24200716770207034 4.158007293855738 0.47528996801206796 0.006335431123920332
0.2530531762350902 4.164361564954706 0.3883403650204668 0.0263721529243232
0.25476403720493235 4.159960624207281 0.5428343632840003 0.0088478258907648
0.26419856069073794 4.158313686753551 0.39523576911327285 0.022440255635539804
0.2635604209550744 4.168524249285664 0.3195821495532134 0.008578654662002675
0.24283614149446422 4.156582022193831 0.5059193611516696 0.008431902021644667
0.25683319398837073 4.164429505639311 0.3683921526244101 0.024030622398983893
0.2663303965113593 4.167224251501769 0.32836818640601956 0.004769040360942048
0.26040746119512626 4.1689429546635886 0.5187917560986917 0.021379274247345734
0.32765198301230497 4.183744046642375 0.2751695635736258 0.007776455441327522
0.28843316593027774 4.173909109081341 0.2835017649079617 0.010309389394253679
0.28748670762210143 4.181367950070786 0.3951056589417078 0.017322121609612166
0.3227485721052126 4.179250928926326 0.26034047735142274 0.01042152068560468
0.3025667781866829 4.169785291030123 0.3642651999303345 0.01970296245818286
0.2862084415764924 4.168761519753676 0.3334471817736128 0.00848039378134806
0.27699773499001396 4.17348671382927 0.31816082061472584 0.004162070995520055
0.327630407103279 4.173207183542042 0.31689489658342196 0.012421534643244933
0.2950952304344299 4.17164442175057 0.2962248539247958 0.006267592675237911
0.2915620768098679 4.169703244279048 0.4183291327804215 0.01230606194905292
0.32287501533041524 4.1771846669261885 0.5207013015253651 0.012604773728118622
0.3005632460424998 4.174406580856403 0.4512939753929448 0.010893240989899342
0.31518339617096086 4.175171738225732 0.4459887395290341 0.011631831010129354
0.3125883500376501 4.175116655861739 0.4466611997920197 0.006079567294471954
0.32514963805109665 4.182773966244424 0.4967897572842865 0.018346843328466016
0.32678002870575973 4.1842948934672295 0.5048785293191387 0.00946224384159382
0.3213375889478631 4.172005245146879 0.5442991565449312 0.012988056764171542
0.2946196056358781 4.177807392798776 0.5568014705644462 0.014314011887424455
0.2707906765143757 4.175628779302541 0.5635612323283631 0.013313512692625843
0.2974386766179703 4.171092216487324 0.517254387471388 0.015501747869899891
0.321904196983044 4.175635988454962 0.4821772300664624 0.01287658160175363
0.3177506314276391 4.175182779717583 0.5505762636048284 0.012090263023996874
0.3249736551599225 4.173142072598189 0.569289937550853 0.014449829500765328
0.32953744636838167 4.181188761654848 0.4665882552848419 0.015680541601983268
0.34162797400913136 4.187921055723036 0.3141206611319826 0.008266637723265819
0.3290425348206681 4.1740530971852525 0.55390063006384 0.010932775971578535
0.3111149886677683 4.174670395272815 0.48009235516875637 0.014273449071013735
0.323769397951461 4.177541888306116 0.33533807310026176 0.01875111612054786
0.2859087818449561 4.181850166659031 0.4985543253504402 0.014149533063651906
0.31355691462843793 4.178954345836858 0.43830455081633696 0.01564450399001599
0.28231524789967644 4.178519342228416 0.5436961324926051 0.017816382140181695
0.30013124565540245 4.176930976652794 0.5316169067673348 0.019749534631482067
0.31505542470091397 4.175117192746551 0.4850770760245565 0.016368584136632662
0.3274544082404308 4.17476212718102 0.5618340508051369 0.014571052678630724
0.33915021652311145 4.1748792581407725 0.5753366461660119 0.008961430985629687
0.30465953030297915 4.170844119859087 0.4590405164767101 0.009987385350287602
0.3372695258825938 4.188799569171062 0.43499586713904403 0.008236896907400983
0.3164324109512414 4.174541713446556 0.557313182880132 0.009876392602545692
0.29996243944395107 4.181806574542001 0.5603926056486233 0.010717129816024091
0.3105316960304487 4.177015041011819 0.3967039020803651 0.02027230074631398
0.326810840993147 4.180398605944808 0.4236803934236665 0.008412353059598613
0.3193182075087229 4.181014816957902 0.3610075046180185 0.03302492463817241
0.30815291079790647 4.173682299422221 0.4205962994306782 0.0123868935019161
0.3009094710539837 4.172202926710624 0.48338806855193067 0.020214658237189657
0.31772681058443863 4.174700428437347 0.5259961287616781 0.016557474665342152
0.3187660714415884 4.1763556500661165 0.4627373459898778 0.010849134308414124
0.3050335760181432 4.17442302632225 0.5697430999897306 0.021118193236265313
0.32582928262226024 4.179705211188496 0.336922485420985 0.024832457279157224
0.3088157983455696 4.172107068988342 0.4740592785489001 0.013968814482429237
0.3132423042418848 4.179873599363072 0.41526746504855927 0.017922640808554904
0.34254646945856804 4.186064525435437 0.5196127616175148 0.009427871278201445
0.30825339094035553 4.181435130603583 0.5037609397133777 0.01607782747404813
0.2868041159554995 4.173247344547567 0.5324288799530885 0.021663261277893545
0.293955190710801 4.169250071284201 0.5162495439534014 0.016041477120539153
0.3298968684781689 4.185352585471246 0.39648778277905355 0.020941013522790534
0.3304722638479276 4.18400387091398 0.5133721089017906 0.01260155593504757
0.2781537938112777 4.170979373792074 0.4973123105858032 0.021556829282919254
0.3141256477633653 4.173549143489875 0.321773235849344 0.01351182142047349
0.2767560204130959 4.169311887342498 0.33082082901913157 0.004843485446225889
0.28379601937797516 4.176192406734039 0.26283326903212934 0.009492697699485766
0.3072919338780653 4.170156348660086 0.38060509298860884 0.033151226889567356
0.28690272300160313 4.171117613364598 0.36224409544111613 0.02121084691798592
0.28893928779749983 4.1739323496083705 0.2837959453848268 0.010314247846785547
0.2985792313929484 4.173423436059761 0.29122077376831224 0.009114179285695159
0.30770371575223765 4.17179166162742 0.2717165626571155 0.00882772486214405
0.29268029858734773 4.173564913197299 0.42991891433282686 0.01309236229388825
0.30340286298248437 4.1743126360062455 0.3495437984484911 0.015794544426184838
0.29019438860879965 4.17219964794087 0.4535647054634792 0.011332523566604275
0.2989655143272099 4.173924208474028 0.2718613790305231 0.008924131877882362
0.283334105402879 4.173505151277021 0.27003954275106906 0.010199949706906122
0.2881072581762974 4.172960870012838 0.3145354987280443 0.0030716921018731024
0.2871476664291612 4.174615881829328 0.2571869448769473 0.009854378493538032
0.3118593587153855 4.171152773932093 0.3653435587082591 0.02323052878495405
0.29465877512705413 4.171172590144957 0.4687293142372975 0.013546954400756117
0.32455848045327146 4.1727172676889825 0.2970170270961699 0.010556007504894615
0.28339155468581767 4.179957259799789 0.4812320347698845 0.01511016416431982
0.3067371346683877 4.181613128902923 0.25983816301892226 0.02221488341991118
0.2971221050796955 4.174889596030849 0.3190161503593433 0.004090052613200997
0.278333287389157 4.172733413732258 0.2775073260190694 0.00949170056518131
0.3014277427629008 4.1742421221842125 0.39791390154368333 0.025923442223785592
0.27525504880680934 4.175356266934515 0.4642102806412379 0.01632517778673835
0.30146408133266256 4.172919333045667 0.27948346200876667 0.010499668025410538
0.2820034841331566 4.168406346576002 0.4262795640376144 0.015419753924996484
0.29673640163827986 4.171118504087057 0.42509222566020094 0.01243898755304779
0.22433060692901427 4.153221440513599 0.5072048178145749 0.008856539260166534
0.2678080960782034 4.167325330292746 0.2981963937061585 0.007198224810692973
0.27431684630881353 4.169066779648846 0.34897431073827445 0.013416367225427621
0.2413599206173362 4.156455538432865 0.4566418683487561 0.006141750726255645
0.27393857441432473 4.163071363139758 0.3980803115536741 0.02035856867473415
0.2561129734965603 4.166143731484428 0.4740371526784059 0.011890389894005742
0.2778412439328265 4.172381979527363 0.44445903001085224 0.0070443218620878535
0.2543909309086723 4.160380680714629 0.5681979317571192 0.015026081146549422
0.27602521151197706 4.179205581644917 0.3703747535422297 0.016973360757147983
0.26750999219804883 4.162891086314997 0.42439003389226465 0.020385101624247757
0.2570237519165706 4.168370907299537 0.5061801691672323 0.011012444056864027
0.244020649915402 4.161922375453073 0.501031597372808 0.006240816758351434
0.27251475344796844 4.175312760818978 0.49023374853732454 0.02166872981331892
0.2697599584509308 4.171202772413339 0.5273687326116072 0.02207333004240739
0.22176360419517463 4.147914332166854 0.5631161880423607 0.023125185876568928
0.25220183086530906 4.164670445393014 0.4540666957852635 0.009056087052176939
0.23846173088892678 4.154191357991654 0.5712439184436838 0.017610791258726836
0.27200264544494634 4.168849809646131 0.33196156293931844 0.009849517373020956
0.24904265877901843 4.1618101128929705 0.43394797756932946 0.022208543710114267
0.2308433821953148 4.15608468678144 0.5190040025491942 0.011678826375120306
0.2716504875974893 4.16472430415213 0.5731355918177141 0.022349245154215467
0.262040781538072 4.164314139676115 0.4403049214084363 0.0073008056735004365
0.2499233791219507 4.160241132756258 0.5373301839680217 0.008302240878228043
0.22526881482082306 4.14582032296776 0.48526531980387755 0.007230194594579531
0.2836706094566365 4.171477552119009 0.29028862332424993 0.007971090986500359
0.24904285296818948 4.16535107902488 0.3477057455774467 0.009428502467294026
0.24042618508858357 4.1598133613092925 0.3473152729516551 0.0079402093907653
0.2462879913863125 4.159414789573155 0.3256736649653081 0.005854820953336648
0.22643611685800902 4.153457521194684 0.34513011680206274 0.007301683377155164
0.22099166860032368 4.151193557786212 0.46195333514205683 0.007040274941276725
0.26285442140416293 4.170651104825899 0.28774822446019527 0.008735967685842184
0.22458410858450883 4.151896434781707 0.5340801377637256 0.02421918319133629
0.22598009551013948 4.155971145527259 0.3116079696823952 0.005843091933313321
0.2378714471189932 4.154261424347014 0.3021436128844597 0.0054961475304903
0.23823094545030918 4.162555959237686 0.4331918168903289 0.01866575906046443
0.23804897004122344 4.167953931992956 0.40023021837911543 0.020568063890419028
0.26010412336658567 4.165275650966965 0.3638198622400979 0.018365908549629967
0.22684559150667913 4.153986585198299 0.37976514785281196 0.01973689968638735
0.25077378412383744 4.167477259286166 0.29854504340828586 0.005256317306213097
0.24378022013628567 4.159558970981465 0.2660097017523611 0.006510893716601793
0.2555869206026029 4.167726351690778 0.2704358387405496 0.005030135358715304
0.22991760759203916 4.153828162763354 0.41791260431375654 0.02002709178587827
0.2382824576171578 4.1659563761565135 0.38135686261416013 0.018816083763704663
0.22285287566632395 4.151735662801805 0.38061602139449524 0.019270271200490255
0.23788640900640143 4.164329002197723 0.3659269843322575 0.023683472017996626
0.2360655487628295 4.154890652082638 0.2752523939903201 0.0073702081400872236
0.2236436922848707 4.1524643724315835 0.35867750210013466 0.00918352269017004
0.17974614602043798 4.127767576687765 0.5124621056591987 0.010183663118029427
0.2129477728812561 4.150920869865461 0.3253647278192559 0.002864416185161888
0.18350534178631647 4.125989742282253 0.5560533555979369 0.017996173203633344
0.21888143174793936 4.150884882455058 0.5320549594705698 0.028448018779872842
0.1900491264131897 4.132949486475192 0.4450387414942884 0.007946007064339082
0.21003994344978227 4.1500892986872095 0.38655173003885396 0.004884739486854906
0.2159658083725954 4.1434453120628145 0.4726516401734608 0.010232766642947158
0.19864440090782515 4.140457860890718 0.43657851796756847 0.00733805793223145
0.18466160191221304 4.1284821268571195 0.4670476543677054 0.006154084610293895
0.1921462069631688 4.1338282361133025 0.4247951822664888 0.021601837136588864
0.2047138330030012 4.146558985353556 0.4374307865204812 0.0074399545224342715
0.1961229330204083 4.141345077199852 0.47059595488609435 0.008646401361461704
0.21348644306057155 4.146554330495807 0.32983146005031333 0.0054908232427835265
0.20883423494713804 4.142373122544993 0.4559833806229631 0.009373629931042845
0.20224487333046706 4.13661563084037 0.5320034143544936 0.016567253315225332
0.17781760037399685 4.119363874376899 0.5335337844935097 0.011346928733173183
0.20899878176080278 4.145619028169352 0.48629142995480695 0.013971331881772995
0.19347908908975353 4.133380680144218 0.4924256388387505 0.014688035785620154
0.2051430727130667 4.153943952725203 0.5533959299043292 0.003922445718136155
0.180639241393535 4.130022953066176 0.48706106749446165 0.012281073756362048
0.16711662231124655 4.1161040416022265 0.459267316299186 0.003219471853620268
0.16172035586347913 4.120824899561522 0.3998674943543315 0.02873002283110969
0.2091795363300657 4.14149497695034 0.2930284875852447 0.00570968065876858
0.16853397702908307 4.121716401343629 0.2751471960544093 0.008479662942334175
0.16571504716522117 4.125681416250356 0.30324134147476134 0.00448766748387774
0.18466001624002895 4.128010451079552 0.37016202654055747 0.01419094876040212
0.16327495889888638 4.117175190475437 0.4469899512929918 0.002878650008068721
0.18748596361703984 4.132633106421394 0.3366830982994491 0.005467084831045927
0.18408873418283722 4.131137323120461 0.3079566908547789 0.008813774765698511
0.16336272712293948 4.111634757471546 0.4331908517703086 0.01762131302545606
0.17040803518466105 4.114527092182288 0.5253935113389592 0.013876333213489701
0.17946956644998083 4.121263124258704 0.41420580572144766 0.020998227655891776
0.16338354812879913 4.1152988555479 0.5495225028253599 0.008663233376181691
0.19329387400083928 4.134421944201381 0.34292212193449356 0.004350662101192334
0.18193924124285107 4.131298464436656 0.44312234093792313 0.005551103951065491
0.17717257743041376 4.12705670242803 0.3248524389980099 0.013178046822833795
0.21232613523261495 4.14715410681933 0.27591022526879383 0.010340290585783387
0.16871086365847512 4.131041210065589 0.3936080916186933 0.017161231208784346
0.1899645799581922 4.1309630910494475 0.36821233675637605 0.018035724491368536
0.16357951312605923 4.117930231308506 0.2836005175079138 0.009567827596158731
0.1838326515601672 4.132830930471931 0.2582618277675337 0.025237591270056894
0.16875821719064998 4.116986164375649 0.5128520953598266 0.0112502378275892
0.15395860515157994 4.112789985573074 0.5603315641400636 0.011755808051254653
0.12679708518766886 4.08701684657006 0.507423588595791 0.019979426323808273
0.13639504211922196 4.0958402959610005 0.38667390585063954 0.025146258276382682
0.15575686699717797 4.106646777049331 0.36955922807975355 0.004766534381006371
0.15454032281766314 4.121094902737641 0.4042563661488006 0.02465639420117841
0.16229905038573716 4.1138596863534636 0.5378776236063203 0.011697334222965141
0.1582725506433528 4.108415193060245 0.52790636679046 0.011040349264225442
0.13496145937802265 4.093594520228569 0.4074580061225286 0.008135420641466587
0.14581693049166344 4.100508162322018 0.5107787033553064 0.006263693222836049
0.1362065871597182 4.088994187882504 0.5313787555820805 0.013880082929049803
0.16107926674769896 4.114404840228921 0.4783812034207129 0.0036996007225203516
0.13577657332037957 4.080369428035795 0.5505345476828842 0.017764262764425606
0.15853841833246152 4.1094707102233095 0.5187322357677463 0.01326322446529319
0.13816457137050753 4.093549014909692 0.4434800076479085 0.008664961507175533
0.14675288375934903 4.096572984132257 0.42450086158184985 0.011487301112838187
0.1389451424308242 4.094945247660993 0.5652562080037496 0.009067918410624768
0.1519755509359305 4.10188549987506 0.5487121722401841 0.01995549600908238
0.14874356444087847 4.1017327751856305 0.41955256181499545 0.019364030411173246
0.1189618921696537 4.083870788788464 0.5237640551456029 0.008318834417220979
0.13148342053308015 4.085158610483852 0.4809081889871682 0.011194539102745697
0.14979166612222025 4.105843828226682 0.27319265154243966 0.005842393327431419
0.12452871897444176 4.073545582305071 0.4080598279400823 0.016269498470782358
0.13755940342555012 4.090793829041892 0.3488310240089466 0.0062236045372351025
0.12604266404276196 4.083509756712871 0.45472316164410337 0.01053464621572313
0.11690365793632437 4.066167921638547 0.5541511690487162 0.017039777380232955
0.11867953911039449 4.081563859286057 0.48616938259163733 0.02517194972593644
0.13749728930137878 4.100599783693201 0.2836101951072848 0.001139284428411201
0.1524403952749476 4.102536866647779 0.32362429429892514 0.007824952381373918
0.1109990146717464 4.085404952480047 0.3757586105943287 0.008597526119096997
0.12645181148256432 4.0830231356665285 0.2949038815255861 0.005893106510446101
0.13738624907172547 4.091685811714839 0.3625282751360954 0.00518692514786475
0.12003687431713868 4.06934693417917 0.39840307477112696 0.019729969561994617
0.14082351972196414 4.091815213342794 0.31260865014677625 0.0041667404870289314
0.12667966840983483 4.08112523651533 0.33642101361038823 0.0011141114536090057
0.11453259396713127 4.071751608277585 0.28118838976092275 0.003819422433672054
0.08710031889894379 4.019643253766133 0.5361450821756562 0.006670406592363968
0.11567589445379349 4.063287725714058 0.5174583272889607 0.014458559464628066
0.10271710737757109 4.0525347358223165 0.3723220509569068 0.01205790504980708
0.10439263764673973 4.048505421186152 0.4065180943532076 0.010880063386131428
0.10365912030198311 4.066550416228459 0.3414613626701654 0.0229154902455945
0.11071014864766071 4.070311102674144 0.3837157708108038 0.016247496840230073
0.10903685920706649 4.052925381271316 0.5052690651631164 0.010770134768695162
0.09981401194199509 4.043293088514924 0.5145347712974444 0.004693363086230927
0.11504204743734084 4.069092796935759 0.26295036278818507 0.003046883188470777
0.09618100025276577 4.041494286107018 0.45764365194650997 0.012907250434718574
0.11647199090265432 4.070369128451505 0.5264328973585307 0.015520020310397026
0.10593519497328414 4.055544963090321 0.39280043239415924 0.01938262615926275
0.10629052098382802 4.050611027513724 0.5709099135303691 0.007763375720741577
0.11022622562386271 4.05083985106125 0.5558267725428016 0.007241981849729849
0.11514301539410333 4.059551925777683 0.5386876859179573 0.01475760369061814
0.10377576702352251 4.044662931435421 0.4993963331426614 0.011872997491558776
0.09662245910265363 4.043708304236873 0.46180596267808866 0.01890892814826722
