x y z curv
1.1241520364654867 0.7438502060237371 0.36523003966085044 0.008527772423442739
1.1262941791328318 0.7381069009694341 0.349224395941599 0.0015307811941643002
1.120599370569824 0.7533752690859924 0.39198454102578223 0.09468193581990929
1.120697294596539 0.7531127246877392 0.37004949665908604 0.019854718635263023
1.0978498692867964 0.8142088433737326 0.3967324578695644 0.09149708190251378
1.0798185101662165 0.8472308198996323 0.3683957591426968 0.0112982510869816
1.085179129110411 0.8374135769643817 0.36422183377744066 0.002850322512098578
1.0934093429511273 0.822341062106581 0.38882602193906457 0.07309962387686972
1.0776502452129553 0.8512017016235065 0.37711392535800703 0.042104058348185605
1.0678475015278777 0.8691540905528908 0.39263087072307273 0.09004665760193589
1.0928153285050428 0.8234289185994542 0.3370484804438171 0.001855016007885028
1.0816311696213496 0.8439111811759745 0.385767058655333 0.08926277273224256
1.0754679160647367 0.8551983400034726 0.389646444454337 0.08161106436250179
1.0869600784856757 0.8341520109298675 0.39149064968928865 0.08378127074574658
1.0968004402375697 0.8161307296385124 0.3797075278488183 0.055816940514192045
1.081110158388313 0.8448653422346069 0.3583390196926337 0.0011645638292372557
1.0915265530409233 0.825789135199807 0.34983540575221195 0.0017371936790652655
1.0673445099373786 0.8700752510923216 0.33592168815039003 0.0012957361087361195
1.0676706862170247 0.8694779036945048 0.3574352703290681 0.001327215961103564
1.0812356850734477 0.8446354572202726 0.33722968992465463 0.001245808637687492
1.084486445982549 0.838682131699229 0.32696048321349586 0.0017316842507653495
1.0671684909218007 0.8703976059276759 0.3759751161945144 0.03923332286926137
1.0937642335633033 0.8216911283225459 0.32677479669626885 0.0018501605173675145
1.0638988973764412 0.8763854208551078 0.36703528795263624 0.010768985745878134
1.0747652103956553 0.8564852496564745 0.36719022239375926 0.005328264381912293
1.0798174834028758 0.8472327002767415 0.34631570610638024 0.0012126575618619394
1.0586913594924194 0.8859077444388108 0.32823561310112315 0.0017098048793896185
1.0520607792497567 0.8947651632490916 0.39356257655084376 0.07912785068168794
1.0363764375887827 0.9157169921645938 0.36861097436159174 0.02049550864018788
1.0243093088215993 0.931836790043038 0.3906988118928921 0.07838021251236606
1.0431319058233162 0.9066927425178116 0.36887199588203656 0.01110726663037747
1.055303892774122 0.8904328704959233 0.37312580824931724 0.027866416616079265
1.0424648927869133 0.9075837676768654 0.3558862549651357 0.0010041629440380158
1.0275716536583266 0.9274788072625074 0.37409240558845197 0.027031314808085145
1.0297544405580212 0.9245629451453747 0.3366125990631419 0.0012157034806404168
1.028633573726738 0.9260602480346978 0.3242477607682467 0.0015970849504809879
1.0101749401132538 0.9507180973626012 0.3827281669932919 0.06646098741988253
1.033903945149179 0.919019855600574 0.3254447135902119 0.001560127364056293
1.0097286707516542 0.9513142434754935 0.39222639769937645 0.08614100931767267
1.0480706631888124 0.9000953346307775 0.3347949532032688 0.0010931564328287944
1.0145339221485346 0.9448951786948581 0.3351402459090791 0.0018722101742950279
1.0188462231605087 0.9391346185777678 0.376338304040042 0.05435893706617905
1.0308501093439664 0.9230993029060388 0.3508851268401615 0.0010804547957403185
1.0136809174217114 0.9460346596808521 0.3719463464247865 0.022243270319443464
1.0358324608040155 0.9164436601226634 0.34672510488973834 0.0011740980245093667
1.010408088565767 0.9504066474723505 0.3469021725237017 0.0017823736596298684
1.0108366502729502 0.9498341560179604 0.35968114956750274 0.0018890001715111127
0.9914421400731466 0.969658766060505 0.3695958812033191 0.026271852116369756
0.9844034436459553 0.9766974624876964 0.36372834785392577 0.0010804580518614859
0.9674390302232506 0.993661875910401 0.3422565514666404 0.0013929232466471301
0.9975544103277625 0.963546495805889 0.37105366909414805 0.025169850592426424
1.0063068454311492 0.9547940607025026 0.3357351895056495 0.0020644057187046917
1.0034276734246164 0.9576732327090353 0.3772476019105348 0.041582171418820986
0.979002434368027 0.9820984717656245 0.3545386860208371 0.0011507229123460512
0.9629463986251194 0.9981545075085323 0.3309181108514786 0.0016296290570337398
0.9919713817363509 0.9691295243973008 0.33825395106633305 0.0013353549430654775
0.9885338903177455 0.9725670158159061 0.34635520600012826 0.0012877455577769523
1.0072478379710708 0.953853068162581 0.36845338445694026 0.016189630807924748
1.0021413327219892 0.9589595734116626 0.38747483892559853 0.07845877662084647
0.957389510257237 1.003711395876415 0.32272403986435627 0.002278342809133522
0.9741264031564366 0.986974502977215 0.34717666544447967 0.0012756197916143346
0.9665033200523584 0.9945975860812933 0.3924414931024794 0.08309364947029833
0.9585690150351404 1.0025318910985113 0.37509667111513373 0.04104397868511806
0.9599621673212799 1.0011387388123716 0.38349958637338344 0.05566718295673339
0.9925105725407032 0.9685903335929487 0.39340271871698135 0.09091970520414658
0.9751524225337785 0.9859484835998732 0.3818649296456009 0.056444801955065974
0.9581572396487229 1.002943666484929 0.34432818705899276 0.0014769561182094509
0.9776291934491904 0.9834717126844613 0.3680115904199578 0.012219838868768908
0.9725787436970346 0.9885221624366172 0.39927732532897797 0.08874855241785642
0.931081634715148 1.024874610982928 0.35061870098391573 0.001318687887044726
0.9114731035599053 1.0395533726007806 0.3965548250678893 0.08565193708605082
0.9202109970024566 1.0330122679219065 0.3668454054944291 0.010053522087475826
0.9437612250052161 1.015382789193402 0.3798831376146288 0.05958912894578313
0.9354651147616196 1.0215931791332222 0.3996478164257438 0.07907095650845271
0.9236248369892166 1.030456699482312 0.3759515452651855 0.0505810452306602
0.9306736482317925 1.0251800258192088 0.36752110205120675 0.009542964137763121
0.9507785986929932 1.0101296493875307 0.3425775093041565 0.0014392002284388367
0.9341674617632022 1.0225645899378182 0.3778309962628897 0.05259241269455767
0.9416063264905824 1.0169959259121364 0.3716087505523833 0.016356500641158803
0.9119479294619165 1.0391979224056374 0.37627389726591465 0.03580276603936857
0.9490829340890561 1.0113990079288697 0.39457213022261894 0.07253274796961078
0.8961717498084719 1.0510078218080925 0.3586257441640083 0.0018960208644480357
0.8875876663520549 1.0574337857809628 0.393951116850771 0.08515145032121642
0.9216106285004833 1.031964516973622 0.3447167274757835 0.001240065972364832
0.9284799224085014 1.0268222282952677 0.33845142375250414 0.001262324033911277
0.9219313750820592 1.0317244091056017 0.33389161571755055 0.0013774132555385349
0.8863818495075078 1.0583364489063016 0.36118996381225804 0.0016894227817617622
0.8962511629947125 1.0509483738453198 0.3831795500181987 0.04834963467130111
0.9060464645904169 1.0436157033887739 0.3424137384753221 0.0012640593532003246
0.9155188275452133 1.0365247817552043 0.3563043174143864 0.0013100522975197692
0.8916807377909016 1.0543697510779042 0.33243988180108847 0.0017877494417079163
0.9364678073273409 1.0208425729286221 0.3228503205063323 0.0013237123467933632
0.9102884314968054 1.0404402069420118 0.363382252909745 0.005818749549726708
0.8869918503050801 1.0578798080583272 0.3503534479679549 0.0020775680097749106
0.8859612446524432 1.0586513097367192 0.37843616868666996 0.04659601420604445
0.8548410396754423 1.075663016758469 0.3719296804372114 0.01773015670428362
0.8486358933525956 1.0790512821960403 0.3638796423838192 0.0012292512231272636
0.8353633132561911 1.086298657530682 0.3917562810172177 0.08636241909684059
0.8362984758529279 1.0857880202402501 0.359796097310437 0.0012553279257979
0.8372540061047986 1.085266261371318 0.3806463162531034 0.058910955301029674
0.8238111458433208 1.0926066166887038 0.3746146788943998 0.022406197505206386
0.8618446540730234 1.071838754868942 0.3929639312225254 0.09823877577387624
0.8611203647121886 1.0722342466882218 0.3820770584835618 0.05792931437735118
0.8544978267564435 1.0758504251467111 0.3992973216159058 0.09218301674899848
0.8333235468810277 1.0874124539748111 0.3488845936373244 0.0012483850509871623
0.8518396991075209 1.077301872312161 0.38002871330012744 0.059678815070741284
0.8185828075035684 1.0954615047398184 0.39306914391515346 0.08421368745975341
0.8430242308828618 1.0821154810084852 0.370504800325655 0.01691770503024479
0.8169515955170967 1.0963522136623078 0.3483721625721953 0.0012694425767468746
0.8172378632735587 1.096195899677972 0.33603178480228757 0.0016232662230194104
0.8764593241359524 1.063858543141556 0.3550497264883821 0.0017069708065468201
0.8658242753681594 1.069665717749852 0.3294316446759789 0.0015802371674843699
0.8364303467541997 1.085716013297343 0.3369192005169093 0.0013486365817631085
0.8523942737388125 1.07699905172454 0.34420630281932346 0.0012801601593954996
0.8752743498017233 1.0645055879286056 0.32367323157365946 0.0022183508022911858
0.8457882280247908 1.080606224739852 0.33666488101452924 0.0013407026658193459
0.861069324862467 1.0722621165481336 0.35272463325268866 0.0011362103795022381
0.8454973809538574 1.0807650392184782 0.3516637292351388 0.001175058078995473
0.8752399437550351 1.0645243750470346 0.3341901590042526 0.0018213355443287107
0.8288107673293951 1.089876617458898 0.33031886577944347 0.0015203425344650285
0.8527520345225912 1.0768036996030064 0.3547583012703256 0.0011286606945567256
0.8714452574986196 1.0665964300188409 0.36434450590195433 0.008029537507843037
0.8449534160333069 1.0810620664670971 0.3227769028378343 0.0011423846058536671
0.8785265757467626 1.062729738626845 0.3874570102138012 0.07400363600657968
0.7442700943469633 1.1239954261715537 0.33528591418743625 0.0029591917946016903
0.789803958448903 1.1070121678943738 0.3880588419146582 0.07892786763753522
0.7569103419522363 1.119280856169604 0.3595904798680228 0.0010566342325922257
0.7561261287882641 1.1195733526438385 0.3947337393078651 0.08251861189492239
0.7415761552502178 1.1250002138030313 0.3947038426712307 0.08073370276322613
0.759417968776124 1.1183455594436875 0.3801137989935024 0.0562022066397354
0.7372103340560678 1.1266285814014023 0.35311602364627137 0.0023109284194681905
0.7549170921517467 1.1200243001280799 0.34866313241207014 0.0015455722458530665
0.7803584974607942 1.1105351437426116 0.3922134352704049 0.08645343209907559
0.7398519805290705 1.1256432979159603 0.3803453793466217 0.04548008355972155
0.7719949869184233 1.1136545728191118 0.38223368268843116 0.06827107164830928
0.7807019840048337 1.1104070298474433 0.37716617466649116 0.03298995987519868
0.7410712590433333 1.1251885304076905 0.3610582878169225 0.0018934053969481878
0.7445660805826592 1.1238850289806614 0.3480772419747399 0.0023141666130302484
0.7489826040620764 1.122237750402014 0.3734559805784121 0.027596645399514945
0.7694595880199226 1.1146002279963776 0.3907182178355728 0.07955723066988286
0.8111935829340093 1.0990342480703679 0.3724687634111321 0.02669424919751747
0.8071955715246741 1.1005254296711178 0.33823698028380766 0.002026854029324778
0.7802529990471512 1.1105744926281513 0.34707217657761963 0.0012156557410753785
0.7861651714405682 1.108369365681055 0.33645253519133755 0.0012548724526616807
0.7987799726437568 1.1036642866991921 0.37216624856206093 0.025708534706719847
0.7556283450944834 1.1197590164174802 0.3383904792519382 0.0012755598649834604
0.806209697809342 1.1008931416645185 0.3496805936898517 0.0016520456857305075
0.7651644401234119 1.1162022358097672 0.3424273569762623 0.0009698670573626127
0.7658109200254064 1.1159611112014538 0.3328803597784596 0.0010665723456571045
0.7539563044567121 1.1203826555168905 0.32705777527272967 0.001228625236573706
0.7693043202958025 1.1146581398804851 0.35067573252088746 0.0010409418320195705
0.7431802445747472 1.1244019192406116 0.3241783564806463 0.0026035367049183763
0.7947432907015006 1.1051698916672812 0.33469073528552135 0.001860312145431804
0.8021300950743833 1.1024147552653538 0.38203340381050455 0.0654113615669305
0.7330982339879284 1.127556400303912 0.3350491513697753 0.002505444160772867
0.7241766482816586 1.1294971747030809 0.37024049732105074 0.015938579079749333
0.7293828637310112 1.1283646305575303 0.3486543852069766 0.0021303496873475015
0.6910527378486598 1.136702848614116 0.3840855048130165 0.06488002509783426
0.7253105696970924 1.129250504915198 0.340556077806535 0.0014817347769256924
0.7265359976739096 1.1289839290705295 0.391440241795333 0.08589139537579063
0.6689349559682654 1.1415142830668175 0.38929467010804963 0.07510030702180624
0.69868815795909 1.135041862735024 0.3762220909322913 0.053525500333695054
0.6799487644171134 1.1391183729474028 0.39160568603323104 0.07009517292885067
0.7259037059837756 1.129121475866068 0.3808754237863266 0.05198885189800217
0.7304960171027811 1.1281224785861874 0.36087809416296557 0.0022872479251334972
0.6591795155356683 1.1436364516663855 0.39341472694691504 0.08935768681441869
0.6880557033414367 1.1373548143113077 0.3400440635921052 0.0014700220148349615
0.683017785337218 1.1384507475466776 0.35136596127047337 0.0013815285697573068
0.6683788628069524 1.141635253868036 0.3756313961604346 0.041547595222777386
0.7326242193187131 1.1276595160016287 0.325002400784387 0.002599948130098815
0.7159530555538416 1.1312861098499039 0.3335199944672266 0.001116667121761259
0.7239420188786096 1.1295482152639993 0.326172371342583 0.0016333737522992969
0.7051304216215704 1.1336404324511618 0.3527948251778349 0.0010937234353316759
0.7042618297145451 1.133829383271339 0.3301608909460763 0.0013868661485288384
0.6786903772969327 1.1393921186230593 0.3397373048021071 0.0019225097716747677
0.6646326228350675 1.142450199424796 0.34063802194607923 0.002335808584322174
0.6695622748291812 1.1413778180452994 0.3605882878706386 0.0018698548645456933
0.6780868323480294 1.1395234119406537 0.36795833401930395 0.012373228562654461
0.6570489360190626 1.1440999314016433 0.3281168617203134 0.001506378805236945
0.6927122542866495 1.1363418424966063 0.33234375267994104 0.0015655521457033409
0.6818587139934353 1.1387028883728585 0.32816560796710037 0.0020283240296533485
0.6605430321136543 1.143339836450826 0.3662985039149756 0.013122662183789166
0.5934501844897561 1.1486803990881151 0.39102527511407426 0.06453520428011864
0.6248367744386016 1.146435597814409 0.3917269073901263 0.08936994616614474
0.5842657747531202 1.1493372775418955 0.33761176897506684 0.001795021137645805
0.604988567571676 1.1478551620336592 0.3618372828099599 0.0012539894324901774
0.5783906192230798 1.149757474722875 0.38057608001447596 0.04766446710838744
0.6067756262997661 1.1477273497509124 0.3880978704773713 0.06532570308961112
0.5920698570070947 1.1487791215328365 0.36503522456540194 0.009690973584139732
0.6115746492489553 1.147384118681642 0.39828401361536275 0.08405773310185027
0.6461056809031944 1.1449144236951478 0.38283587841823064 0.04862560791084111
0.6272500924592246 1.1462629948213672 0.36556772395893067 0.0053741285410189065
0.6230718998973955 1.1465618234612376 0.3552144070172223 0.0012102044578762474
0.6481900613489482 1.1447653466566052 0.36818931742863104 0.017850153252141124
0.639589597742384 1.1453804606810962 0.37346581519486466 0.03549340430318774
0.6351148152578313 1.1457005017380335 0.32574662968137286 0.0021853413530151054
0.6567627530385468 1.1441522189082498 0.3490424803049308 0.0017974278329833603
0.6259814216571441 1.1463537314651715 0.3353518501980551 0.0015350052981893526
0.6313276611058055 1.1459713629076616 0.3469680006374779 0.0013992633088594864
0.5984412921418897 1.148323429922845 0.3234357967542829 0.0012541186892501288
0.6039558048301369 1.147929026289745 0.3438130398065866 0.001131362272394079
0.595616042326593 1.148525494702557 0.3369940463719896 0.0012879838454351578
0.6454487982448073 1.1449614046201422 0.34621935217727295 0.0018074016989743957
0.6223027033484294 1.1466168371914853 0.3256044304224404 0.001664600120825694
0.574999988079071 1.148495264783861 0.3228202540236557 0.002226276471163322
1.0455229648930013 0.24822206386932819 0.32249999046325684 0.0023456979257775296
0.9888623411921723 0.9719944160771616 0.32249999046325684 0.0012532611683197322
0.976026154464856 0.9848269395763161 0.32249999046325684 0.0014559487939779384
0.968904242919477 0.9906933619649536 0.32249999046325684 0.00200518311818696
0.9483751831418441 1.0101784176588404 0.32249999046325684 0.0020646382733060585
0.9264718889460114 1.0279130959214093 0.3224999904632568 0.0015380053606384805
1.052425056341368 0.8921212686726364 0.32249999046325684 0.0019267199566019948
1.0143880254602626 0.9435630457806294 0.32249999046325684 0.002266003368903242
0.9923820151252949 0.18270297211349787 0.32249999046325684 0.0025557747993975037
0.9633818738399994 0.15271036822065262 0.32249999046325684 0.0021822590590921524
0.9516279228432807 0.1410442827617125 0.3224999904632569 0.002581126120774051
0.9103801614982183 0.1117119085934005 0.32249999046325684 0.0013728364742614963
0.9254777829516643 0.12238306326324425 0.32249999046325684 0.0014200030551005645
1.0960600685023612 0.813390248257698 0.3224999904632569 0.0021473407624485502
0.918813424426159 0.11640703991836723 0.32249999046325684 0.001483318636914761
1.0774680365115898 0.8488571983886976 0.32249999046325684 0.0015058735667544286
0.8541899104012132 0.07576354117223802 0.32249999046325684 0.0016914383631503787
0.8349338335920441 1.0843805089930034 0.32249999046325684 0.0016875801025995904
0.8547529114438902 1.0745076041026411 0.32249999046325684 0.001580548594798218
0.8318907551713348 0.06239562363781113 0.32249999046325684 0.002310912039894248
1.1182560428326065 0.7581684003579616 0.32249999046325684 0.0011788362220011969
0.8040507503077617 0.050204046300774866 0.32249999046325684 0.0026133806829298956
1.1058588782341536 0.7886584469370252 0.32249999046325684 0.0011902573664672464
0.7949990999213609 1.1049227382588818 0.32249999046325684 0.0019571726609755122
0.7919040254209838 1.105619749664399 0.32249999046325684 0.0020260874997408214
0.810556558149758 1.098306883271836 0.32249999046325684 0.002279004214275507
0.7181152200175434 0.020965156455081707 0.32249999046325684 0.0021033077905233248
1.1364246529516373 0.6900371793228693 0.32249999046325684 0.0016510978903816849
1.139832295380795 0.676414087829088 0.3224999904632568 0.0016514851570681602
0.6683354096750717 0.0091232150462601 0.32249999046325684 0.0015176180331103112
1.125025563481891 0.7358384138964912 0.3224999904632569 0.0023793013488138874
0.6437625689144322 0.006271294021572006 0.32249999046325684 0.0019411472227743544
0.5818459951353138 0.0015565245426983274 0.32249999046325684 0.001981544545983744
0.6733340839751643 1.1385336762966085 0.32249999046325684 0.002597117276182402
1.147646393534874 0.5988324787137042 0.32249999046325684 0.0013357849500527377
1.1480531329041543 0.5851400422892219 0.32249999046325684 0.0010224916721830193
1.1446024434673328 0.5029430058099996 0.32249999046325684 0.0020026404968426234
1.1452292910621544 0.5356004520085782 0.32249999046325684 0.0016453441803465048
1.1484344742664625 0.5714925434833615 0.32249999046325684 0.001318612124456843
1.1260740650912733 0.415471803502355 0.32249999046325684 0.0016637762183478637
1.1334727621375507 0.4456254568049277 0.32249999046325684 0.0013051261442881884
1.1385786819051562 0.4722557696325719 0.32249999046325684 0.001545953718273475
1.0986142155924123 0.3429010078539327 0.3224999904632568 0.002577355597324203
1.1108450255834221 0.373491467495216 0.32249999046325684 0.0018208939130844263
1.0682242984627153 0.28342451087876325 0.32249999046325684 0.0020003514166009122
1.0720200042770398 0.29233836175873995 0.32249999046325684 0.0014939263638702308
1.0762224336691313 0.2997011373690309 0.32249999046325684 0.001563928503861507
0.6901866843320082 1.1364798109968592 0.4000000059604645 0.08982571727517011
0.7115152387169104 1.132246094791172 0.4000000059604645 0.08406341222906973
0.6809306838041198 0.012447193888675472 0.4000000059604645 0.08975468705891036
0.7668463242097316 1.1142161577301566 0.4000000059604645 0.09930476113115826
0.7869850801938059 1.108050274308255 0.4000000059604644 0.09628618277826369
0.9123952844358698 0.11298270288007722 0.4000000059604645 0.08627684072830707
1.063342257628304 0.8756809087394927 0.4000000059604645 0.08902182301401568
0.9572333565491663 0.14677402150921398 0.4000000059604645 0.0786332096110258
1.0208901940149162 0.21497078084776033 0.4000000059604645 0.089691739917206
1.0162366230052622 0.9422383971677057 0.4000000059604645 0.0914147849019538
1.0957540652780071 0.3319993175294101 0.4000000059604645 0.08538849705941556
1.1464546754431173 0.6187813625860059 0.4000000059604645 0.0833361352590519
0.5589955956912247 1.1468553450533567 0.37823939280918484 0.052200768827995035
0.5546744693287382 1.1465462919641847 0.38857591872908964 0.07799410608756849
0.5482928906271072 1.1460898723999122 0.3589972673750247 0.0012483517863159065
0.558393286064464 1.1468122670141667 0.3607008341873914 0.001665691889090201
0.524206774011386 1.1443671991610846 0.3890665749850184 0.08682269810695234
0.5446969309087032 1.1458326842581443 0.38088906478879514 0.06522043522539529
0.5746604223046821 1.1479757156813166 0.3336103308743703 0.002084801896513295
0.5676150621837854 1.1474718215280248 0.3575463539549485 0.0013790027268082666
0.5684681412883451 1.1475328349561116 0.3760549025453429 0.059824980903356334
0.5118825371197491 1.1434857522503639 0.3879149960375734 0.09323495154320291
0.5325816504988816 1.1449661822115145 0.38161445884836537 0.07034079947868337
0.5692959411444664 1.1475920403764788 0.39076136700572267 0.0941008502862692
0.5635343184437613 1.147179960945117 0.34351079773073884 0.0017191103730476766
0.4969779509145894 1.142419755095195 0.3380064620543289 0.0014853900626807949
0.4990454778775539 1.1425676275574304 0.3920631864400735 0.08754468159124182
0.49788513070365026 1.1424846378810072 0.32809763735869024 0.001847187175807572
0.5445217366252744 1.1458201541143909 0.33777830264073394 0.0011770681320908707
0.5185453121305768 1.143962283373691 0.3756122767498523 0.04603525411038867
0.5266830611676777 1.1445443067323822 0.3682226182278324 0.02464705623282619
0.5191732457182917 1.1440071940749295 0.33310203251799897 0.001257820757520443
0.49496741774673925 1.1422759589100613 0.3498663665510804 0.0017186644419624085
0.5269259276861372 1.1445616768904125 0.34553941617777006 0.0012971686003153808
0.5104803292408904 1.1433854643531192 0.32325564299128434 0.0013140503378309422
0.5067296800696625 1.1431172126021794 0.3367474131745061 0.0014622545086332187
0.46536515436289766 1.1360574240158046 0.332469891705452 0.0012202104421944224
0.43421973839420225 1.1292821541414828 0.3422639333665081 0.0014764203802208763
0.48593106784160933 1.140531264216567 0.38766847732107246 0.08560603221654299
0.48921104852516034 1.1412447802709347 0.36851528802865485 0.01170810187965544
0.46905021539775393 1.1368590598982595 0.3439525654776123 0.0011716870479138335
0.4475859132269807 1.132189787218866 0.3342412636957711 0.0012210877784441475
0.4452059509137626 1.1316720581579032 0.34410341512661546 0.001166249219721971
0.4858843055327571 1.14052109169992 0.34946470877872354 0.0011704428861709136
0.4752442742607066 1.138206494797062 0.3836142540113997 0.06674811593501974
0.44311676303822045 1.1312175831979545 0.38497563481180985 0.07500526848371802
0.4193752777906843 1.1260529397097776 0.3988007819989049 0.0880336380937047
0.4740708137051046 1.1379512241030034 0.3920026130494635 0.07711870024929414
0.46177284583652256 1.135275965204579 0.39427500990512065 0.0813254003142741
0.4284091998010766 1.1280181489625773 0.3701868480742819 0.02477086999056267
0.4240085352817752 1.1270608430857 0.38747321856186134 0.07906372661080997
0.42010508628149834 1.1262116998138905 0.37539864478546914 0.049310870268657096
0.42161330133579067 1.1265397918846987 0.34021827115298875 0.0018369250428724164
0.44801612031206467 1.1322833730327855 0.3740816928383265 0.02961852932497805
0.4668897588926645 1.1363890813984243 0.3869648327412991 0.07501291177249243
0.4329869802887447 1.1290139840562725 0.3914554265828481 0.07741766040499076
0.4294807725158188 1.1282512553156805 0.35090610763365365 0.001172496589322362
0.4047577138550405 1.1215036950635788 0.35758654912543736 0.0014166596786129488
0.38352005218885227 1.113582452825608 0.32314106728461545 0.0015635193483686356
0.3538402265427268 1.1025124446383132 0.326220731263695 0.0018939305571941622
0.37388623609758 1.1099892233950572 0.3326911830323158 0.001337034755153085
0.3586205086800264 1.1042953985892034 0.3341924298554734 0.0015723379995491481
0.39831178548759794 1.1190994868767419 0.3654451126344467 0.008644168119556343
0.4119333814614763 1.1241800820511458 0.37812546703115146 0.051978428354416364
0.37579720068932365 1.1107019766951762 0.34230445568737017 0.0013146059991130362
0.4037873744411578 1.1211417769922192 0.38024041889293364 0.0549342431246445
0.3848501027967513 1.1140785363031362 0.3347538373943675 0.001464063211436085
0.3906250474114672 1.1162324803636001 0.3452786044995165 0.0013248016435599623
0.4089194111508403 1.1230559286813515 0.33908624960661 0.0021453411877637558
0.4082911307440886 1.1228215920875457 0.3686710371624153 0.020566490102750086
0.3820362154381689 1.1130290100535878 0.36084189054199445 0.0011157206767687675
0.39732818305437323 1.118732621952444 0.3879052992594564 0.10091529365603581
0.4049848108967219 1.1215883979233832 0.3943735877977677 0.09227987891356328
0.365334022724236 1.106799411123543 0.3901224976859397 0.08862890712084964
0.3560912353861616 1.1033520279506819 0.3678033146897545 0.017360867549011953
0.3477915888243674 1.1002564182767516 0.33735708557428323 0.0020681760695076433
0.34700516665170533 1.0999630978242045 0.3683848340357597 0.012580656959656116
0.3381449068835558 1.0966583901300146 0.3320003261406692 0.0024596324289613987
0.36662323351469556 1.107280262129061 0.3797176657531175 0.061134703177271627
0.35358981609078005 1.102419046321683 0.3792703817412112 0.057790750151381944
0.3529918275279125 1.10219600800718 0.3914872976615328 0.08765086014715685
0.38385731165938797 1.113708244167666 0.37907504660007457 0.06423758272079129
0.38294259522443896 1.1133670724052482 0.3891911346496964 0.09313397446830966
0.337133408371598 1.0962811205010645 0.3840042440202879 0.057751078979301367
0.35657641939713247 1.1035329923214916 0.3471854770837425 0.0016465154135163697
0.33991063852128744 1.0973169743117177 0.36412933277480825 0.008070641184121154
0.3084762238174919 1.080661873184142 0.3333080643615754 0.001424431986667388
0.3230082122706892 1.088596942961349 0.3578231209819863 0.0016960551997817238
0.32505627938808146 1.0897152727437631 0.3246140843768103 0.002634527386322716
0.30967912306301165 1.0813187061756415 0.32270088272713016 0.0013218226010284551
0.32452516661545683 1.0894252630920271 0.37128726584362126 0.02764445971181949
0.2932791263414886 1.072363626232496 0.33555284215165865 0.0013302459902976185
0.3022837456590013 1.0772805226938282 0.3429870167245531 0.0011430906299739103
0.33149680387056174 1.093232066838039 0.3444961782200787 0.0020295850259393613
0.3012747506853082 1.0767295694951733 0.32941161346657327 0.0013890517663495037
0.3162808460108583 1.0849235213328834 0.3685861020211126 0.02493592555567746
0.3107380223816623 1.0818969092211221 0.3481420511849485 0.0011511121417390991
0.32936028675104556 1.0920654396776777 0.33274915167715097 0.002653164271186351
0.289349760114872 1.070218028932524 0.3455793703817708 0.0013324052837203658
0.31925163390687455 1.0865456950171037 0.3465683959851443 0.0013512092444082364
0.2694784032863635 1.0593674420696302 0.3424180888535735 0.0020513605634171744
0.2880762686937399 1.0695226496786867 0.35564329269367306 0.0014091404991423263
0.2730102743402175 1.061295990481755 0.3310649557932317 0.0025379128037442506
0.26999040353585435 1.0596470154892446 0.35513543985699525 0.0018267087036354986
0.3066229004261071 1.0796498815714504 0.3791556893104294 0.05086297003032733
0.29430187036477956 1.072922086983767 0.36651816029422346 0.01154573181570386
0.3167943300675706 1.0852039049729212 0.3790018318318551 0.06819437524490035
0.2679091512632054 1.058510565232583 0.36449762130952434 0.011250310708226961
0.32618360567841137 1.0903308397602287 0.39273402132805985 0.08247858063324641
0.30484404524045616 1.078678552694666 0.3927975424864035 0.0816356004752315
0.2973356257170275 1.0745786435165907 0.3864962796455483 0.07548657214999788
0.2693776506089816 1.0593124269195808 0.3896720333575907 0.0919376697421846
0.275543207666815 1.0626790773698498 0.37946615228069525 0.05830008515540999
0.2797416849113417 1.0649716204723048 0.3418503291103817 0.0017635385891560074
0.24105635795553565 1.0389549602706651 0.3887893527921684 0.08286698357747789
0.2046711259186002 1.0117173193706324 0.37744541223313277 0.03203508900626685
0.20915745705659883 1.0150757444693481 0.390309485022321 0.07584980560475307
0.22236438003050674 1.0249623222158506 0.38925408382699495 0.08498578563794057
0.2293641934517217 1.0302023164019738 0.36270983894805126 0.0018974924915087221
0.246125153284874 1.0427494125593337 0.39583516914515005 0.08625915974421175
0.22627275478999473 1.0278880946307036 0.3542072821199803 0.0012940884986959375
0.24337556754930853 1.0406910986584312 0.3764814813666987 0.037344537036252436
0.20945542104446352 1.015298797495212 0.3522219948144324 0.0014069171925894294
0.2172544782767637 1.0211370980462862 0.3720119145148648 0.025740243967081335
0.2157760638695983 1.0200303709905694 0.38242424985918133 0.05705475183585359
0.206527390990778 1.0131069018638792 0.3394903730812833 0.0016762584459901562
0.23509887012656303 1.0344952411739956 0.37308712735228144 0.03105902746875942
0.24122821358678426 1.03908360977236 0.3651616290250502 0.0021812264107207565
0.25140284573273886 1.0467002432570693 0.3297076590330795 0.002248618099492088
0.25785731221220004 1.0515319958755602 0.34505810350450067 0.0021393404284753294
0.23283080706431786 1.0327973905964494 0.34605127349427245 0.0012829873474608025
0.24391060931927636 1.0410916258718377 0.34693558491168874 0.0014608542845071665
0.21669591809173191 1.0207189651695874 0.3252692473601939 0.001750511040032082
0.2522611538188393 1.0473427645802003 0.3387280059468608 0.0016966064568544445
0.2258291389987797 1.0275560080411104 0.3253952192327614 0.0014951506975779097
0.25981857214674753 1.0530001765306842 0.36514200613009723 0.008711652680853301
0.24244105795417825 1.0399915336056658 0.3225289646717897 0.0020095187364979118
0.2558403982906588 1.0500221531716454 0.37721896795576076 0.05199827319564219
0.22233847019849162 1.0249429263604253 0.3357869792912309 0.0014429222901573833
0.23043005716345455 1.0310002119052672 0.33494597737272885 0.001315079499139059
0.19870732480208983 1.0069870179287683 0.3869710074933498 0.07857179670308878
0.16526602709835347 0.9735457202250319 0.3419123643133612 0.001333956811511302
0.1970319431181733 1.0053116362448518 0.360158723486507 0.0017912990159971722
0.16309612659411574 0.9713758197207942 0.32335594094837733 0.0013236899239798012
0.1989754729352553 1.0072551660619338 0.33174204257920525 0.0022579829845905336
0.1805423797919803 0.9888220729186589 0.36578831847344484 0.009707420235151852
0.1705452011619225 0.978824894288601 0.3376079925703428 0.00144087756730552
0.17824008751956674 0.9865197806462452 0.3286933673638087 0.0016143022524128603
0.19667702529977288 1.0049567184264514 0.37502923067416555 0.028459241820096973
0.18652090564105062 0.9948005987677291 0.3361346679436164 0.001670684457372099
0.1697972712181532 0.9780769643448316 0.35206150589543295 0.0011905007953979024
0.1853282828263314 0.9936079759530099 0.34713742779307044 0.001329984994431844
0.19319853483494667 1.0014782279616252 0.3442992472772047 0.0018540731521319606
0.15222364083681264 0.9605033339634911 0.33019048035293236 0.0019345694130071206
0.16871078010416451 0.976990473230843 0.3794916947913025 0.05515235036976424
0.15112482740033598 0.9594045205270145 0.3554776096930198 0.0017613981496240833
0.14451528197834637 0.9527949751050249 0.33101675895546817 0.0023734188989634657
0.1647619115070409 0.9730416046337194 0.39048229317331307 0.08759043768208098
0.16117662406970693 0.9694563171963855 0.3568651902701708 0.0011837265878629627
0.1467406125054901 0.9550203056321684 0.3678703471772422 0.013378249885343528
0.14386348115498024 0.9521431742816587 0.3487003579541385 0.002271849274475147
0.17586589381864426 0.9841455869453228 0.375943402993072 0.059306734246115746
0.15573787813707748 0.9640175712637559 0.3423428343101803 0.0015844653533521962
0.1592436671847985 0.967523360311477 0.38699220522954736 0.07577358851762273
0.15283963635024522 0.9611193294769237 0.3892802244430955 0.08814825482041684
0.18084801517904137 0.9891277083057198 0.38569762614119624 0.08113446685625934
0.18824585016351006 0.9965255432901886 0.3889934187773813 0.08518154481230887
0.17263134279094763 0.9809110359176261 0.3895472622276589 0.0968192689696573
0.14458461477916013 0.9528643079058386 0.37744968479355634 0.04850464545683143
0.10821894815848736 0.9051684333233883 0.331204036394125 0.0015268985996779452
0.13102229906889218 0.9356301468447579 0.3347032180162183 0.0021177765249495765
0.12425863997178276 0.9265949551932385 0.32288729768677876 0.0019176434354392974
0.13927409093781265 0.9466532513409627 0.3408127427130509 0.00228541380353786
0.11667794480611593 0.9164683310257349 0.32502541744693264 0.0016490040636051417
0.12538144888967567 0.9280948524552891 0.3400812078796845 0.0013807426756481831
0.12695292075897555 0.9301940933114942 0.3594507561336457 0.0015481330331437143
0.13245343170953094 0.9375419164211461 0.3238304923031741 0.002522887787762563
0.12193174278503857 0.923486584157123 0.35951354223372656 0.0011928195220232475
0.10292667152022945 0.8980987787158767 0.3265691349438611 0.0015983056394189847
0.1300857433071682 0.934379054695077 0.37231488244281097 0.0377162801986487
0.13279692444474778 0.9380007690405685 0.3587857320685315 0.0016374107876165503
0.11360828193230432 0.9123677410976744 0.3478691008685397 0.0011449791418419422
0.10464844886548648 0.9003988042009412 0.37916924211929215 0.050910824939205665
0.10396046541520124 0.8994797658169612 0.39089535909359807 0.09317398104189366
0.10168958788690347 0.8964462282907917 0.352551895998735 0.001314573084838895
0.12978647062004026 0.9339792731499926 0.3933984413738016 0.09613041692426509
0.1096512512314566 0.9070817664144761 0.3871533450913874 0.08256952002481921
0.09907568991752616 0.8929544690563657 0.39123956080718153 0.07801872575816064
0.11730444897663635 0.9173052426988182 0.38477147532767053 0.08375258481017284
0.09480185707646002 0.8872452962179398 0.35581265554529784 0.0020062496425721464
0.09588945471907094 0.8886981567183942 0.34564571331342403 0.002038340369512652
0.10795021135648752 0.9048094429492397 0.356395320580274 0.0012503801647190088
0.09680923976512738 0.8899268458125672 0.3336756419052906 0.0014285698828256752
0.11609108448385723 0.915684377339106 0.3649700501449953 0.011861527726361676
0.10992778932606662 0.9074511780965071 0.36717321215219945 0.025582785702336866
0.07097211099978301 0.8445162132048656 0.3819964717270041 0.08169311779424723
0.08688972088982534 0.8736671254991766 0.39058202945953857 0.08189197517076106
0.08003502330812166 0.8611136900658033 0.3804067562346512 0.053252636619569874
0.055160928847023616 0.8155602086672245 0.34851166255303334 0.0016853326662517785
0.06087973771037046 0.8260334202080879 0.3795131260307121 0.05725061268568969
0.054787868736906664 0.8148770004075896 0.3751362192603437 0.05206432047215921
0.06034983499022564 0.8250629762892981 0.3675549085153853 0.011750101908956057
0.06981499408325961 0.8423971127883552 0.3633158607024509 0.0011948731546110624
0.07245151350185824 0.8472255353257048 0.39239726977517786 0.1013864955319328
0.07614485445895779 0.8539893810950842 0.3889955812164877 0.08607842669321673
0.06511117192349955 0.8337827097357348 0.35875253833606613 0.001156300186590982
0.07519192056740365 0.8522442137937829 0.3662000233487892 0.010986278534749207
0.06727138093004557 0.8377388352924113 0.3925697881910657 0.09822790244595112
0.059171780278579195 0.8229055311820029 0.3287234928669115 0.00237370665019673
0.0697072868680005 0.8421998618438244 0.33591266094829036 0.0011434123693382437
0.08295139611359167 0.8664546255741521 0.3605293550562782 0.0013289085448710766
0.09020234928965722 0.8797337486049202 0.38003078326449546 0.06355443438020361
0.09014015718353786 0.8796198523200252 0.3353248481439818 0.0021796584447768314
0.08386308905907794 0.8681242657573707 0.32549496788262994 0.0016667495402216475
0.07685697897203077 0.8552935391544046 0.34378853941551046 0.0013499015254597442
0.08688459533501428 0.8736577387508024 0.34467718905545397 0.0017607690487754185
0.07988732086617108 0.8608431933668202 0.3681939415749259 0.013371191030259286
0.08919958378335163 0.8778973215578947 0.32317003447324477 0.002041484432650329
0.08528072294870213 0.8707204671636968 0.38139938047039146 0.06513114980973299
0.07470122414483871 0.851345570814332 0.3340968371738182 0.001498545576675974
0.0784753930862312 0.858257441915236 0.35641643918399163 0.001127772280253517
0.03554341814530683 0.7641363584439225 0.36057184728171343 0.0014727518048525611
0.028043937886716545 0.7440294838377244 0.33539693571421014 0.0022166412723630584
0.03367836365422694 0.7591359563503355 0.35016873891952527 0.0011306370803047965
0.040140844860703455 0.7764625302972026 0.3775226729849922 0.05479614084985912
0.026002872799465684 0.7385571793102961 0.3888304335845331 0.07929890275077355
0.03228321635684931 0.7553954235669581 0.382344939176149 0.07311995555596512
0.038552104456242735 0.7722029545675777 0.36972057911131195 0.044194496821323086
0.027084752511740567 0.7414578096158142 0.3609246887939931 0.002424280518232544
0.02935936063621901 0.7475562669435389 0.35039101383737736 0.0018535469419933633
0.03648537239632258 0.7666618342578304 0.3788342377974396 0.05527130699129507
0.042701730304675625 0.7833285264365758 0.3874385076305443 0.08919497398475444
0.04170193628769483 0.7806479762866594 0.3468103094958588 0.001147368963375191
0.04968205552127556 0.8020434932077585 0.3243818303998176 0.0020096459813385
0.04640301776616127 0.7932520571751679 0.3689387553088772 0.023638166046556913
0.05272473150223722 0.8102012191176853 0.36616462287206364 0.01590235347618386
0.04000570514054072 0.7761002068675869 0.359954641432126 0.0011863888541142357
0.050503027058875646 0.8042446019769794 0.3795109481952609 0.06513966501680217
0.049096720790117156 0.8004741508485231 0.36590290754993715 0.01085468649134872
0.04850743367581942 0.7988942117453219 0.34581470839443906 0.0015402271398197828
0.03434636038241454 0.760926923989144 0.33166278722229686 0.0011084622590182092
0.04683575230293187 0.7944122627852369 0.32262401610624974 0.0020693394268225303
0.03712520520664246 0.768377291548527 0.35198576161868567 0.0011711543460879428
0.04484106861813571 0.789064311547778 0.3524985698208293 0.0011114260854090837
0.052566825284393236 0.8097778563762352 0.3856147624932714 0.06641023050800714
0.009462707243328223 0.6640413051615097 0.35505905054272097 0.0016165455290597804
0.011326684645908237 0.672609871821803 0.36000141714551614 0.0015490092614401487
0.0160926544181221 0.6945186833973255 0.3922004596206159 0.09233034206782303
0.013021631608265822 0.6804014180135757 0.3735174386803326 0.03796679781387992
0.015294683443586816 0.6908504696739076 0.3774832040926534 0.05788717012388137
0.01419130045731665 0.6857782994552112 0.3860621616431011 0.08737402244267073
0.008171975797748313 0.658107907891414 0.3855871422426024 0.07605821492959206
0.00862032322245568 0.660168927939328 0.3675609935563118 0.024956510323174468
0.015221109960606851 0.6905122577983391 0.3635846798328619 0.007974252768494965
0.023079693766515124 0.7266375880213466 0.3928609089373579 0.07632337461118398
0.009377453648809158 0.663649400674548 0.33165177671996376 0.0028755305571708904
0.011086865236399193 0.6715074396818177 0.3726242552721901 0.033108564611355126
0.017100501104182965 0.6991516802893023 0.3806049768880579 0.08441109485676558
0.017698726963039684 0.7019016804461873 0.3251401902972305 0.0014769736686437572
0.014698743353661227 0.6881109770282346 0.33496398298346575 0.0013023031434632874
0.020643331637886866 0.7154378109860295 0.37810066886921906 0.06182416506112197
0.020865297061821955 0.7164581696709769 0.34943396817672084 0.001596492770055133
0.015741145800550884 0.6929028242044203 0.32593702771935906 0.0016130426415798874
0.01567992096747148 0.6926213781617911 0.35216795122136035 0.0011850783397681995
0.024541481779087337 0.7333573197153067 0.33260494227260057 0.002292862499628251
0.021188899334661577 0.7179457454551097 0.3608203665700169 0.0015615172789711475
0.015107856781148631 0.689991641284247 0.3433086434644109 0.0010788268987767507
0.011583287083403431 0.673789454303773 0.335269760941671 0.0018056776992186536
0.01896280692061762 0.7077125627913569 0.3458966559440827 0.0013910527796264882
0.02168305425857469 0.7202173391987897 0.37105468054513135 0.03027480804989039
0.019254743918520997 0.7090545756417694 0.36618819244048606 0.010908329753602434
0.006106953699290326 0.6324230580526954 0.39718926170475044 0.0870054319920489
0.0022586912119801593 0.5786173234838111 0.3716057226302339 0.026182665280927452
0.0030377154773427186 0.5895095048209829 0.3783417596018658 0.05931642294757697
0.0034994233261340306 0.5959650233939375 0.3665214083217745 0.008086223359353523
0.00443759980345672 0.6090824431863903 0.3795259702543603 0.06462223623754312
0.002278221623738067 0.5788903942929184 0.38244173546439314 0.08004432494241209
0.005596424162572792 0.625284923158628 0.3831174052313816 0.0758356344349416
0.004917980034013513 0.615799035742826 0.3723411035018995 0.029882346121849614
0.0037154123006852046 0.5989849435456498 0.38271857344601196 0.07427516745861805
0.004028726621323013 0.6033656497028983 0.37293784044675227 0.03521069767668108
0.0034239730283112573 0.5949100904959915 0.34559072258678636 0.0014581684752776154
0.0033470784053023376 0.5938349632953299 0.3560079764833749 0.0014758703514621038
0.0062443553187113785 0.6343441835186122 0.3391540964449914 0.0019552261654891996
0.004308063957061603 0.6072712955863306 0.34208959552824153 0.0013428959024386956
0.005584458738621685 0.6251176246889315 0.3699028378055289 0.02209751566932434
0.0039728144235992476 0.6025838951111031 0.33516154054642183 0.0016332189530014094
0.00556538550302769 0.6248509460371701 0.3344123508082315 0.0015455098399012978
0.00720289430377734 0.6477463083410373 0.3867806199119001 0.07458178844679521
0.006300173087870058 0.6351246178266883 0.34956072837170427 0.0017238807201247906
0.005623305183880082 0.6256607689077602 0.34391103463696915 0.0010995924912140605
0.007120361770110344 0.64659235285738 0.34620533629186934 0.002127495906510815
0.004914510278287012 0.6157505222237366 0.34646944709247013 0.0011651153420927957
0.006216641635743228 0.5160432805187033 0.3946917709263442 0.08612108101527625
0.006206183989264752 0.5161894975068874 0.3467193440397289 0.0010576370639274078
0.005010248506982982 0.5329108587272705 0.38117170774473197 0.0722336690692739
0.007661889456979086 0.49583607768051313 0.33389625449644317 0.0019895595159032447
0.00533820888469245 0.5283253739558093 0.39308953577074723 0.08210168022878847
0.00518627343133401 0.5304497089516585 0.372484290694516 0.037407442413896555
0.0037434851869885596 0.5506225224149677 0.38546006608395383 0.06818565449181395
0.007153715063302495 0.5029412833755587 0.34207155983056875 0.0012251165004246477
0.00681565014813932 0.507668048026438 0.3873109893024989 0.07914056466138183
0.00341797753079772 0.5551737136621598 0.39427287140084044 0.08527135747817353
0.002015438648221481 0.5747837675727974 0.3527039704428011 0.0017038224121818041
0.0020743469780345465 0.57396012158496 0.39496971089138944 0.08225361838494873
0.0047458515405755285 0.536607610973836 0.3226733826192983 0.0014746296304136521
0.0037912892070001516 0.5499541349490525 0.3550549729131865 0.001113571142008139
0.005609491867187746 0.5245323426339256 0.3240857711307526 0.0011364888219297447
0.007122772157681682 0.5033739216823565 0.32581629279170754 0.0011981907501996403
0.003170115525201337 0.5586392769720452 0.3387507374941088 0.0017224578627129832
0.00634541949509024 0.5142427309612803 0.32286244854252 0.0010448796557281867
0.002470783182735394 0.5684172197496595 0.3758193887997353 0.05382614903108313
0.004821542093732853 0.5355493188677272 0.35228915370964475 0.0010070849320477043
0.002593173608837171 0.5667059781692527 0.38644906424833947 0.07457754392309274
0.005930545478406679 0.5200434270662919 0.3319517632327418 0.0011000715229705696
0.002460581048217759 0.5685598642141945 0.3334852060883048 0.002763559637949383
0.005152854979514459 0.5309169599134199 0.33582277763220025 0.0011817795866954288
0.02404069027533684 0.41894475805461195 0.3526031067613581 0.0011739005394066295
0.016588002123056757 0.45320421589074245 0.388927545569931 0.08459568798428353
0.02241490152021277 0.42641838906781737 0.39261450194834485 0.0978289851706697
0.024217013897036527 0.4181342113686774 0.3871475462846066 0.0905253757214806
0.0223059289868087 0.42691932776767555 0.37923420393421736 0.061561578331099424
0.020944852516751197 0.4331760959276876 0.3562593715279794 0.0013446963930311899
0.02393760069343929 0.4194186532602342 0.3294116317668508 0.0016912240329782474
0.009869051625324185 0.4840907358385404 0.3916575050419433 0.0874676209850046
0.012453691544750975 0.4722093367336965 0.3912450055686003 0.07523584168083576
0.021955928679589252 0.42852825336912437 0.36929028346782355 0.02889407799221909
0.019431184651832804 0.44013431547699366 0.39130750245350776 0.08855918199320326
0.01396433028049061 0.4652650418678414 0.3795126815120723 0.056720922551803235
0.019978687535707685 0.43761748509552484 0.3321198006522862 0.0014599869524264484
0.02197944499959339 0.4284201505802808 0.32744481043512913 0.0018509055408389339
0.01862801842671144 0.44382641138423096 0.3231121714245377 0.001458128495060637
0.011674979721235382 0.4757890175601466 0.3653994581750038 0.016318293377400348
0.016856073690082053 0.45197191066611564 0.3427424335773755 0.001256106310123623
0.012317940045225436 0.4728333763659953 0.33102863790648757 0.0018358814213630349
0.01379325525996183 0.4660514611212524 0.3690553384898703 0.03078454630448428
0.01921847206241053 0.4411121395640377 0.3420627286425897 0.0012075064534725858
0.008257202487398675 0.49150028745946367 0.32338038037171063 0.0021102374432749173
0.008404129706900219 0.49082487386659074 0.3451185849097598 0.0017931383316962327
0.014978536381744076 0.4606028112132005 0.3533739383796934 0.001140855543928065
0.014985499440146245 0.46057080254721783 0.34251066941473296 0.001354349464346641
0.030533029265438324 0.39929698342251774 0.3335098448178849 0.0014870556959132258
0.02871436587257295 0.4041730062308104 0.3581698373656602 0.0016474028512202714
0.02529498533517071 0.4133407156354279 0.3626133423858293 0.003919304440780375
0.0335807826572823 0.39112564445403014 0.3566946686325273 0.0011078363750505176
0.03694988608663139 0.38209273312505654 0.3233289135367816 0.0013967829574751214
0.04076361421845492 0.3718677374340725 0.34535867809830356 0.001245921588294073
0.03677918012746813 0.3825504132838242 0.3244241580701418 0.0014823567090185375
0.030975909901406497 0.398109575081423 0.34697185732508096 0.0018228482458798898
0.027074689026393477 0.4085691477771599 0.33569055270103976 0.0016250407365346706
0.04273135212303887 0.36659203059292 0.3231322358553602 0.0016854919360521261
0.027844047007834584 0.4065064202378222 0.3237993491943792 0.0018217913097347779
0.04323917550470591 0.3652305040997236 0.3597965355409978 0.0012980908029055366
0.05280873344801767 0.33957353922105527 0.3762638490092371 0.043509768126681954
0.03848334491942082 0.3779813729505503 0.3762453758871113 0.04969226094806796
0.03426701716666761 0.38928577945607235 0.37764114472897936 0.053932057256830306
