x y z curv
0.06333996843268616 0.28386457602363147 1.936845037830124 0.008134200898015486
0.06554417301890189 0.28584429811608403 1.7373238160017068 0.005813193468944387
0.07837668464231731 0.29539115895115176 1.944802291064863 0.007196737986964801
0.07765994090486528 0.2947990985678168 1.9739188718098595 0.008148330686778067
0.061220453689016754 0.2826236684659277 1.6701571602872374 0.007993926922263646
0.07596212784897649 0.29403369993778367 1.6021166970252545 0.005936712662211862
0.08117251754480603 0.2973729774586061 2.0579250324135625 0.007542542280027575
0.06755101589108806 0.2882317526021411 1.1509218370645835 0.005874025565724909
0.06840599609825739 0.2889156905800135 1.1316265107653614 0.006602482724321581
0.07026553535949201 0.28933697018139787 1.827377817295095 0.007089705502813384
0.07315286041232744 0.29166935104465985 1.7465265982229414 0.005831206284575401
0.06519447337692261 0.2865987454800087 1.0296820676920282 0.007564810165972478
0.06291492984968065 0.2835807765065491 1.907547931503084 0.00661868192681191
0.06953368938761553 0.28853404485936407 1.9943698214540362 0.006900668681221148
0.07053936670867371 0.2900893652133525 1.4521875398822106 0.0057180343427730195
0.0711630221242715 0.2896766794737312 2.068813991296574 0.009983385369290002
0.06396217583264191 0.28499718107328453 1.4835473941282795 0.007597762613783644
0.06157644356003919 0.2823233019348934 2.066969064244615 0.009804049894063473
0.06462912354952192 0.28616376117820497 0.9819135523250065 0.007049382029851283
0.05203281664749376 0.27519878774954065 1.825948148902841 0.008069859494107868
0.056782610280202414 0.27935710673797637 1.3609765485540295 0.005317894510068624
0.058507354509676486 0.28087878598601 1.119538276106577 0.006169519550338644
0.06037632959640042 0.28245366147130935 1.316968329245038 0.007544504456770129
0.059513753774697586 0.28177685995052215 0.9156481257183268 0.005616790442191921
0.05167822317882316 0.27490520751183467 1.7561635978340115 0.006239026285413573
0.05515186387565759 0.27800824631969856 1.0320394223394942 0.0074606441874614775
0.055891568199698816 0.2785873188031955 1.3843789045307742 0.007079537261985406
0.0530079277616217 0.2760409010720786 1.8022187339289926 0.0072614564582513625
0.052509089331407535 0.27562134046402975 1.7446808727452092 0.00577595464208191
0.05843008335083621 0.28076534483021687 1.4109698631418475 0.00696426721442521
0.05761722516103522 0.28008861305413657 1.2741717201033387 0.0064998069742532106
0.05242108020695559 0.2755491653229249 1.7230790809237624 0.005919244049591023
0.05706350724826753 0.27957187632880204 1.5265675363858986 0.007142064147426917
0.05829743486349895 0.28067650940676053 1.2547540889499615 0.0076693697462967185
0.05711842274409156 0.27962187132043287 1.5093024461201368 0.006954811370395157
0.05567935012656294 0.2784283322184006 1.2389905052021724 0.0075980203437753585
0.0531197877184855 0.2761605643910932 1.656545912159765 0.0075818736165246415
0.057888651664076446 0.28033815160861897 1.1737594118118713 0.006676743988460775
0.053029221878534226 0.27617300708930326 1.0967713704662947 0.007640354746627736
0.055726955895384025 0.27843875670752505 1.428068807592707 0.0066320472465176035
0.060011172274592475 0.28216094859762547 1.1855102553685066 0.005301566948743127
0.05763341205107081 0.2801568747141029 0.937279349898898 0.007496832251116215
0.052195671895988276 0.27534652546388916 1.7780049270289624 0.006612083730429236
0.05630210816463876 0.279005473765948 0.9800716170504333 0.007575607772253884
0.054503478924271105 0.277441997874922 1.0868612292540367 0.007840216804183316
0.056064135071937686 0.278763614910968 1.2111567064963031 0.006218339825880498
0.05146310937932444 0.27478180233726174 1.374773523355675 0.0076949594762142845
0.0590159920288348 0.2813032020997963 1.1991979160705766 0.005401045813487047
0.06406163551451119 0.2856819487205394 0.9444296755311515 0.005512242621502077
0.054374377695221764 0.277292606447739 1.3249372282887837 0.007944830274633932
0.055351374838827835 0.27819314508545456 0.9490792079134214 0.006620859131833167
0.05753688976501329 0.28004203131375804 1.1348106772626552 0.007245034771576231
0.05132241848851295 0.27467280142552186 1.300704533948959 0.006138790782874681
0.05637121394973313 0.2789672861854185 1.5850745765219056 0.006108836454184978
0.05460628055369629 0.2774729915197095 1.4425798553512188 0.006655144243325553
0.052156634406261414 0.27531479940161335 1.7666374044442041 0.005952221056944993
0.06313483675148783 0.28486852146367503 1.0477990509471835 0.007394105310575214
0.05644996091778819 0.2790543361544008 1.4651073008837197 0.00867040548799263
0.056583421549216445 0.2791894358150379 1.3388582830450435 0.006741531768250413
0.05355571375513428 0.276628780823479 1.0771937010779555 0.0069954318712144295
0.05372789786700394 0.2767886273103881 1.0039032049335272 0.007285033315855086
0.054282285205075234 0.2771537840682324 1.6947218861419031 0.006983960447299982
0.05929793240915745 0.2815686258854077 1.0563431545397999 0.007193673901061876
0.04983948365921053 0.2731137094708129 1.6713756716952486 0.006015189435511492
0.048998119773482514 0.2721114372563418 1.150892614133101 0.005213463726343407
0.04595972401625755 0.2687771756395054 1.2332302274261435 0.007488824181022358
0.042071197804975105 0.2644890727127366 1.1946414452145997 0.006340694850019814
0.048561387983028295 0.27167168712343154 1.434498143716611 0.0068245269638001205
0.04532783044486362 0.2680452762114035 0.9856955276393748 0.007449169903456925
0.04487239061604291 0.2676169224245098 1.4894195972075257 0.006606373378190344
0.04486700747935716 0.26753603277722626 0.9737809029029649 0.008081022648999637
0.04255247051367286 0.26499041277680635 0.9972702516225889 0.006083488543915937
0.04843265561320338 0.27155527797675166 1.6089829080617204 0.007326679834487691
0.05042737760246792 0.2737574892973667 1.646084461184365 0.006265545591514928
0.05128327484768908 0.27463257928922763 1.1816130100530635 0.006751411899984102
0.051073345624426766 0.27439148722034246 1.1135558958439147 0.006848628332960966
0.051402194196311 0.27473586622813795 0.9912040919223635 0.007399340998373651
0.042856014406324416 0.26535755302642616 1.2231872302477251 0.006644252665585053
0.050532590460347235 0.27386006448496164 1.5546154450340282 0.005651641047042477
0.04668463459124329 0.2695717557757076 1.207263583738837 0.007203677520420497
0.04767383683776362 0.2707212419965062 1.6204200724789046 0.006621199256348521
0.04423665474196186 0.2668637847821036 1.1249005759207853 0.005434700324932641
0.047992141987354256 0.2709852673299915 1.025209022256608 0.007997686743094465
0.047562040460218585 0.2704949562328046 0.91078968719448 0.00684487380622498
0.05121087146269544 0.27452189732873944 0.9687638089371315 0.007463715830614782
0.04687514573537927 0.26980089557959663 1.3402090426323972 0.006217013312650729
0.048088582540205066 0.27117030464756525 1.5674323791086877 0.007393257189751143
0.05035601346040424 0.27360916900676546 1.1664576792501646 0.006701866090379386
0.04597000569022658 0.2687927700702167 1.2626098228040348 0.006354107425368659
0.047303414858910486 0.27020738177172093 0.8918995978128164 0.009797861695764179
0.04451696960826537 0.2672217376494525 1.4635953142516231 0.006666135453512266
0.04007680630585281 0.26226761489206135 1.0226443681563657 0.006601247948895385
0.04697999514782721 0.2699193063396117 1.3604222943813638 0.006134010932006075
0.04291001118934215 0.26542149382749347 1.2539580919917503 0.006551695329999846
0.0438732534604231 0.2665055462554922 1.4136761818227273 0.006450656020404187
0.04514508627546232 0.26785542662910694 1.0641775908632523 0.007137834736178464
0.04735163621156129 0.2703775239293968 1.6969556739561775 0.00650510697341477
0.04887838301008568 0.272057012855505 1.68360712320997 0.005646524038947933
0.050752527157507145 0.27409688648278097 1.517486486050309 0.006103192329956531
0.04571037107637662 0.2684588488964078 0.9325562850379858 0.00742356245244012
0.04148003592763285 0.2638220738967302 1.0849718521273863 0.006547523019027855
0.05032502099051406 0.27362796785461907 1.5305589780799584 0.006317321211153899
0.04241029698966667 0.26485061093889417 1.1126683269992532 0.0054660622942655
0.04927730834107417 0.2725285466700969 1.9050428440046254 0.008337206200085434
0.030667496256963068 0.24861408964031018 1.7887086384790205 0.006707437905847451
0.04350967552629699 0.2659216031182462 1.475696442686997 0.0070271927523738046
0.043712777691930486 0.26530054699511635 1.9610180523683407 0.008424294871087949
0.04499222834398475 0.26723197682561506 1.8163558189494777 0.006555679711297886
0.035497431831324346 0.25492525254775034 1.7795739425187893 0.007128210921730722
0.03388878980522747 0.25290952551278467 1.735359079662739 0.009227416065106736
0.03925290950730102 0.2612798389072446 0.9794082983986194 0.0076134922439533475
0.04180359325958331 0.26352493838712954 1.570627883586679 0.007509709517483162
0.041658942920327235 0.2634533455191691 1.5065649718599068 0.006711316308303149
0.03832065396249426 0.25925718528936326 1.4219759702667554 0.006802755075999754
0.036257572942451174 0.25620568768479457 1.6207849075054934 0.006400879401081786
0.03289552968702347 0.25112196447410406 2.0055520118837125 0.006439740561072215
0.032443774684216345 0.2507583835211181 1.882182578008353 0.005545570445410154
0.030402743026380206 0.24852402200944568 1.6490066496831148 0.0074118583052661885
0.04198768416699323 0.26289322240137525 2.0482149343357676 0.007423805262737958
0.03561286042386253 0.255708092138432 1.4330603085119757 0.00709065447967677
0.034885061035600545 0.2538917032881848 1.9086062711982956 0.0067835785988077215
0.03671645870265001 0.2574227601231699 1.2815965034883519 0.0052654536248256945
0.043158892824200865 0.26565623874264416 1.3706129365609514 0.005755065254224827
0.03782900947771696 0.257488837430341 2.0398301797996234 0.007568746856615098
0.029202240275859135 0.2464765481195665 1.9136267021709739 0.005410610575186861
0.03210298637270057 0.2501227374618646 1.9871225206577847 0.007097445967964045
0.04722780170612411 0.26971135125200346 2.0541993298007193 0.007887447179620677
0.031570530686067216 0.24992542032953868 1.715026973691736 0.005493541271284465
0.04363226579980888 0.2653593097671828 1.8713293091231407 0.007399115155891843
0.04137615972391345 0.2634086057232998 1.3291520517192628 0.006077329120726763
0.027703394978089393 0.24433743151328297 2.015422672493349 0.006426520919530715
0.03889431547641362 0.2605855708131196 1.103754215558279 0.006180067085481583
0.04206633992948599 0.2633871735835163 1.8337322345481948 0.007553419416538333
0.03655575688806713 0.25649347881644535 1.676021030267416 0.006765602685109596
0.038196251330126614 0.2582559380564287 1.8817526152888586 0.007294308203706376
0.03901893404638173 0.25975132122176975 1.6498471702442647 0.005254639251403881
0.03906372035292404 0.25950733018793853 1.8155166220103331 0.006336083627112383
0.03815297836372115 0.2583009619695558 1.826182941456322 0.006612004849109255
0.03522279909990417 0.25561377536078733 1.2062077871296961 0.008733257111689397
0.043995232847770516 0.2657816175429203 1.899120009322363 0.00782756325645867
0.03438692867813137 0.25304283096145186 2.018023649941991 0.00601882936350173
0.04266045540761988 0.2644816531142631 1.6582790858840932 0.005620557853941002
0.03764185932058366 0.25777951430530305 1.746922615503963 0.007408763831402585
0.0478350535960596 0.27060665804242445 1.9972583098870516 0.00900565876925672
0.03740449746554989 0.25834173407102995 1.2693751269885434 0.005883153961379979
0.03157019374038301 0.24997908811104314 1.6853804280953542 0.0069207002836343574
0.03232851358272089 0.2513242592395246 1.4898203831123296 0.006103696870881583
0.038829394512729015 0.2596137288090747 1.58989306179385 0.006332097963425907
0.032194098778200196 0.2503026717425415 1.9535925846568878 0.006351323175691348
0.03757457069532548 0.2577966211490094 1.6895005530908334 0.0071824416067965535
0.02878325185448223 0.24568037631083914 2.0506824355584916 0.009542693168499521
0.027350148116764023 0.24410298975331501 1.8916362964477051 0.006609292436352201
0.03984016640623341 0.26100265822301016 1.5506251710825714 0.006313549822501485
0.04004859309016211 0.26174374837294434 1.2933942633808864 0.0062763740819020255
0.03556621314352816 0.25548477832530314 1.5221102051266397 0.005529343621024782
0.03742626362403073 0.2578748273343573 1.540747766574043 0.004632494296072087
0.03152580252141847 0.2501531513720611 1.5583083021996722 0.005261029179360747
0.03060086788290775 0.24807354157608544 2.037311352453652 0.0072959729765388745
0.04223945081343153 0.26455855354183516 1.315516641518341 0.006649586949544624
0.03349184850093273 0.2528061102251839 1.5085790759046735 0.006757773160188191
0.04521558727752479 0.2676187645757244 1.7639188808191228 0.007000102000944495
0.03158664655308174 0.24960864396248722 1.9001046609024679 0.005857730702583248
0.04887315776276903 0.2718755313107853 2.043289391454562 0.007238521449930775
0.029138365466714757 0.2464833510888321 1.8642880983120476 0.006133433036528989
0.03360924655942094 0.2521843734843567 1.9330748829371585 0.005982326398297996
0.04054578096363151 0.261221290347518 1.9346892436182297 0.006685660610916733
0.03917603506593863 0.2608923036612179 1.1368549875134646 0.006439451032356961
0.02729930941741169 0.24387881879833803 1.978162876376502 0.005982440417972417
0.04384291792974742 0.2654927078776475 1.948657453756461 0.008126631619055242
0.04372835683202442 0.26519670025773806 2.029042917958067 0.006625235962395162
0.03349869969476388 0.2524607269276301 1.7027156030693569 0.006887938042304226
0.03890488258510136 0.26047917484781197 1.1695969267979807 0.006993016304469857
0.03546157872801562 0.255736665313031 1.3093786211448055 0.005101177920190125
0.04687095909956561 0.269739120600107 1.784173203239678 0.007393809801387433
0.03862623303764242 0.2594002223355388 1.5618071790363999 0.006884690860705034
0.030784296935406585 0.2488459283443108 1.745082173132838 0.008334568042563478
0.035661753014335225 0.25569285289609334 1.4763230083627135 0.006685854182519965
0.044588793331734086 0.26720221298514096 1.5445833516796776 0.0057527657624445215
0.038526897134110005 0.2600698221258026 1.1239836322759302 0.00561411521119266
0.0377623883079015 0.25856980671893337 1.3999674290209956 0.006654050566287992
0.03671691858889509 0.25648603808032433 1.7951787319789738 0.005631854221249706
0.03645364450367091 0.25643106537273297 1.6373035552075448 0.006446062920450709
0.044616940576763575 0.267057670621673 1.6438808925901363 0.006431442232664265
0.04303338409612309 0.26460098050093717 1.8591937575862658 0.008099299152813905
0.03239111893746179 0.2510818529908637 1.6673455382249187 0.006535608840615953
0.04885568374682734 0.2718875228488662 2.024241252394505 0.007299722335200876
0.039633827424926216 0.2616742261106071 1.035315567712423 0.007449113372410179
0.04736019544323922 0.27003485015623385 1.9714844440618269 0.008257871404177108
0.03267835566112755 0.25184899252206505 1.452117395627219 0.007931883857495797
0.038506000864478744 0.2593844503272942 1.4845948776519604 0.007538400222896187
0.04143918597122821 0.2631297367710251 1.5269565965081442 0.004643115810941426
0.03405432429105809 0.2526837618993101 1.9772639145363171 0.007483446967737154
0.04132980113828058 0.2626359693235605 1.7193959165505939 0.008146670882090172
0.03870999028348308 0.26010805264537884 1.2337774802192194 0.006206104883157054
0.046974391821396996 0.26968963181351224 1.8851475704136982 0.008462025594602688
0.0365173666418022 0.2573888804882889 1.157994352676374 0.006448261504584351
0.045522355589074325 0.2683399031873884 1.5878427329451048 0.00616476304714921
0.0443438376900762 0.2665095810974124 1.749178512484846 0.006928377690426406
0.03735462880817538 0.2570036697752585 1.9669248836959505 0.006904959653246479
0.03857450009125924 0.25868219422722355 1.9182921020651622 0.008141936985208492
0.036341257470760197 0.2555151635088668 2.0588972802364784 0.008915375817250996
0.04251939142207333 0.2648588019137317 1.3509001060994825 0.006321893637418313
0.04404400519290107 0.2656478926732943 2.0072181350541687 0.008443018156572899
0.03493767744349464 0.2541456449658924 1.807036963226404 0.005567282417635158
0.028660693016176263 0.2464227421627842 1.0459185651345406 0.00548393243881868
0.025749692727795138 0.241882203358721 1.8355977185897667 0.006834873657441149
0.026950652294352014 0.2435593440596112 1.8816037637579497 0.007005570286656694
0.02864585514869525 0.24637020548049987 1.1056709328339998 0.008158072967143234
0.036466084499022014 0.25754708988169606 0.920016169125166 0.007299574226425021
0.032934713735339974 0.25234420485833453 1.2991536945368323 0.005986163051465155
0.028409792527796955 0.24574424855677157 1.6583890717263026 0.007606332127858658
0.026823643839316534 0.24344065136190868 1.765494095319306 0.0072262981797084945
0.030295136842408733 0.2488062594955151 0.9170098389813774 0.005447281667608763
0.030259132938143127 0.2485703913100226 1.2674975373369137 0.005714602335831034
0.02919080093472766 0.24702592338639445 1.3261885696134792 0.007784142433112107
0.03074254071220905 0.24914840237008234 1.47005218560149 0.007952153427133854
0.03177099636610127 0.2507343076486665 1.2256900041510461 0.00817410170592123
0.02838804146148798 0.24586657117049046 1.3680480789574871 0.008106936212010729
0.036558154032884295 0.2576406101295867 0.9900054971832555 0.00581354620320051
0.026820636816012867 0.2434052498159545 1.8245367838176398 0.006136179982227448
0.028564156346766033 0.24620782702897437 1.1940891352384635 0.008175766359088472
0.028428483112642455 0.24589478977161228 1.4231734179513102 0.006738970507803235
0.027151956586496672 0.24386320542401896 1.8462017348470818 0.005855438779033264
0.034732568960671936 0.2550847891138748 0.9321874346821185 0.007091293091545362
0.027427936156340607 0.2443850231838966 1.598143291796298 0.00754179027756356
0.03148162488028093 0.25026281575392806 1.3423623950498853 0.007344876778397619
0.036440027357571694 0.25751865314639855 0.9039412379649838 0.006609239763012646
0.027957028382941018 0.2454416018120765 1.0160663215396484 0.00631518554739721
0.03615922103973389 0.2570469784343155 1.0439663083804014 0.006162726544824793
0.029034446486549403 0.24697321691659224 1.0061488845042013 0.006009697589736659
0.02942772702821363 0.24740699472347732 1.240080556200259 0.007208882789420671
0.03319051536582216 0.2528843272257392 0.9621926244595205 0.007141215478019741
0.036115340512716615 0.25706537534174595 0.8912234636050242 0.006862756464902388
0.028655149080773226 0.24610227906438442 1.6386095592047758 0.007122027662203221
0.030801173659348265 0.24952985124811533 0.9043324459893054 0.005017066386342168
0.029960493839791453 0.24824067572259 1.0904762989130943 0.00729283651010409
0.03656199910362451 0.25761088537962684 1.0566900093562464 0.006499554581825305
0.03330517823833369 0.25289544526491226 1.2490981982395262 0.00653782528265814
0.0275627575061889 0.24482305162199142 1.1297938124136078 0.006729377631705345
0.026008570816565893 0.24218696476067805 1.9531326543890635 0.007380443113221991
0.03474445184257759 0.25502312039957364 1.0810256919970291 0.007097617534848009
0.027870390250999116 0.24534702875936942 0.9626618207022738 0.0070118073806993645
0.034275805453253275 0.2544315391317298 0.9438486034175844 0.005977597833706036
0.03069773581907338 0.24904844428717776 1.5392216382072101 0.006713394626120055
0.029205342482722114 0.24710585350592457 1.21370369869528 0.006854219579875551
0.029665670798872158 0.2475974058564756 1.5181882465157506 0.006953912565867261
0.02713370570372015 0.24385989274738426 1.8034604781747186 0.007143947181592067
0.027785156090672104 0.2448089327462975 1.7539257621527615 0.0075465787540905495
0.027151586902763317 0.24400524297447962 1.5759126650748863 0.007241415982676177
0.02903206926707868 0.24675515512028046 1.413197935260221 0.005478165271368215
0.034592036234125684 0.25484192385732707 1.01517649903331 0.005366305856664062
0.02504811056409827 0.24066168071724778 1.0362322585822907 0.007902247622355555
0.025841116229315543 0.24201130867443874 0.9858712545724778 0.006688178351220939
0.02456899476295124 0.23986773399506497 1.3826648259134968 0.00577026985413288
0.024189618791735618 0.23918722357132194 0.8938336758715163 0.007280135082874367
0.025316020751546098 0.24114764656343263 1.4609063314288222 0.006981880463511569
0.024584575049738655 0.23989807827344983 1.4380237221375924 0.005960301681177255
0.027364143984868045 0.2446030292635013 0.8841051366829688 0.006659755298382233
0.02507211527090194 0.24074663956146194 1.6839405747063887 0.006218362821841811
0.02469534663434788 0.2400618688953614 1.066911891456833 0.007233316809687254
0.02557189033215393 0.2415852928552625 1.4767190948481077 0.007397293590271138
0.026839799961103687 0.24371180377399218 0.9345281718218805 0.0044305805102592055
0.026059869995834067 0.2423968698355511 1.1671824162428375 0.007332669121427276
0.026521324446454306 0.24319305404696578 1.2972692185346855 0.006960848348942092
0.025920220448952945 0.2421454690924879 0.973955447820341 0.007154820901460687
0.024620436757416642 0.23996318569953726 1.4957143203560364 0.007321598190069636
0.025856209626031072 0.24205652330347227 1.2723534626631263 0.006315918029288869
0.025268763592764937 0.2410983164247405 1.9216691244036868 0.006066277066198306
0.024645987214601085 0.24000909569469056 1.6469868012688416 0.007876772077590601
0.022383207286600402 0.2358184371354391 0.9516454070853599 0.005445219158619357
0.024061608725310463 0.23898147516696722 1.0910506181643114 0.006520813613921664
0.023628495292003587 0.23809539803194757 1.536161254968699 0.007339351853761851
0.02123128491204081 0.2336356031868263 0.9384372517515387 0.005969443458649309
0.021692728832364103 0.23450640106025195 0.968623849003155 0.00621508967477698
0.022209206280265646 0.23549380031453002 0.9146205136566422 0.006909783786130047
0.02389793067940449 0.238663577607799 1.142453831217428 0.006868056371959863
0.024420402587747057 0.2395674766240371 1.7418391764939787 0.007040606957232866
0.021984360222518512 0.2350465751573732 1.0577308811655313 0.005920762820262616
0.022648516232524403 0.23626570077624962 1.336813990510331 0.007009459844412749
0.02205205216946891 0.2351545888342257 1.198036377944269 0.005952027407397916
0.02266502776755024 0.23634281596435644 1.021383885293978 0.00742309037665602
0.021246815003026154 0.23367003655279117 0.9041471636957585 0.008099321534416757
0.0213531451344587 0.23362175942498659 1.3103089899678024 0.008611605109324575
0.023088887749572958 0.23703874820722237 1.5549844149977265 0.006030476655942913
0.0205181629186178 0.2321559775360273 0.9876432424713445 0.0073218268640768075
0.0227025182716039 0.2362185656968122 1.5691321809414482 0.007407461575739245
0.020405264717140617 0.231880028559529 1.0335717378993063 0.007785341331330966
0.020309950964714656 0.23155184391950123 1.182006818022416 0.00647283024814465
0.023252472695991157 0.23729068433218756 1.6587752876162587 0.006769449159901148
0.02171625351392991 0.23443339430074178 1.2499881452893595 0.007773238721991865
0.02094651458476021 0.23289767739905368 1.1649852956161424 0.006479786824987463
0.022431189025118876 0.2356889307213364 1.5256967549938243 0.006828111856655786
0.022097018177541693 0.2350980375340483 1.4014771644983117 0.005817804366352225
0.021405594459942417 0.23389420569315067 1.1228415835000982 0.007652108130137315
0.02037614650872656 0.23177546582016068 1.0838739867691576 0.007375862568853567
0.018866464644993173 0.22869944070035725 0.9766797333323289 0.007276955375612168
0.02241748321211547 0.2355978042486413 1.5925080498290587 0.005268424372725638
0.019686144565342102 0.2302352760676241 1.1484848438464152 0.006649162677639859
0.022929537281044837 0.23656106922535652 1.6978256719155318 0.006394374196345436
0.01713612968760502 0.2249040578115147 0.9043182934020042 0.007927540033800789
0.019556186923626047 0.22982419021749034 1.2091848787504207 0.0067048258434895
0.021109103619897707 0.23306348394485785 1.3617244467666458 0.0062411392124194455
0.016445311024481525 0.22071259864973197 1.7838091083691792 0.0069814812519469974
0.015807389603766892 0.21932502027148587 1.7312262073171238 0.0071731500003723745
0.01840307853205133 0.22591150858807904 1.6209094510714155 0.008396688350500461
0.018312100984902074 0.2257531361465991 1.5997843509295093 0.005343519974578474
0.014687301902783344 0.21820081603005126 1.1864596393864413 0.006321432535116953
0.016828639863872483 0.22152750858062276 1.8219196757169305 0.00670173102248762
0.014153125167935588 0.21632840071042114 1.3874113395792347 0.0066472577820853905
0.02277959224368363 0.23601791648458045 1.7793241499342567 0.0060069040486938384
0.01826041777774206 0.22551644476385596 1.6383738960249947 0.009052530335030168
0.013629591299330451 0.21444970312790396 1.5993886645582949 0.007336576306071692
0.018987637845870445 0.226455454304822 1.9199606249702417 0.006783761782440398
0.013058462465856367 0.2132908879433421 1.523527438774328 0.00927114766256013
0.015405985483984228 0.21832674284537598 1.7412951875828127 0.005981353104843018
0.015022323337738556 0.21644937830298566 2.069246671568998 0.009529146328441068
0.015017586224470239 0.21684740101545735 1.9280631803690114 0.006451703547301736
0.022276013843924813 0.23445842043226398 1.8978508231243103 0.005544193445779325
0.01689503926350599 0.2242795819154476 0.9282644647415139 0.00715319255353524
0.014549354533574421 0.2158501020098083 1.882165339996059 0.00745826640306112
0.01572815677685921 0.21827073002583364 2.0287946039234437 0.007792868879715638
0.019422756141900872 0.22801181794813974 1.7455255915333052 0.0061951632228489355
0.014743941725020504 0.2159644096127441 2.004732267934112 0.006726836279499954
0.011595649438220853 0.20889945956301045 1.820019837557205 0.008621910922830118
0.014840489753907091 0.21762773078864683 1.511580791142257 0.008673450777057024
0.014793966847220431 0.2170458344207982 1.6734942935556845 0.007460137215270347
0.011477277258468997 0.20821441011607464 1.9576913368035251 0.005678866212719988
0.013599134629648107 0.2139131768649986 1.7590323958779879 0.0076202325796399595
0.015631389213333485 0.21941074499596308 1.5551594232391017 0.009203293007285887
0.018708326399734774 0.22641873408094698 1.7001139507185368 0.00816759457558003
0.013828462516661276 0.21441974597252245 1.7752649446817137 0.00565405325089222
0.018845970610299332 0.2259615820811837 1.972321723128422 0.007284685917908459
0.017215398480638716 0.22427147781922246 1.1977362896171426 0.007137072492362504
0.01140331694904093 0.2081496988258121 1.9184371225325676 0.006721331082054228
0.01646991993679217 0.2218453857653292 1.4137038764289434 0.007174823431324379
0.018331818583097834 0.22722632254573016 1.1082361039434971 0.008429666777232324
0.013054258955403108 0.21175985262531127 2.047936707970634 0.008911232583329457
0.015940017368932705 0.22101410385792675 1.2592256791868635 0.008609023246805713
0.02093339733968443 0.23110715981180222 1.935743848062667 0.006185243206768071
0.015917540781677328 0.22029912021471681 1.4870452630986435 0.007244513259608677
0.017772338619232653 0.22369425255854145 1.860381553299661 0.004861909855725411
0.01598747224644244 0.2219761177807004 0.9670216018680339 0.008098096705108278
0.019584720592867283 0.22919060987387796 1.4738969218426488 0.006520032999570566
0.022529227677192013 0.23555940217829135 1.729010452191451 0.006579806707166778
0.018324132209797443 0.2260061419769408 1.5225618978318296 0.007652878598394971
0.020812856862700103 0.23146741784844066 1.7111832918261511 0.0066351670049969854
0.018887211677532163 0.22765365902243062 1.4232157945801136 0.006544423584105411
0.024474924796059817 0.23926882935999663 2.0696438924142493 0.011125241382736295
0.01564674465240757 0.22088179534227564 1.0607164936680573 0.006977368918497627
0.017698357842797767 0.22563568194670963 1.1293832585263788 0.005660602175290802
0.018395986665436116 0.2246846198828306 2.038043129784542 0.007194911971865364
0.02191387652885779 0.2334208132584001 1.9541678642015552 0.007282815584073933
0.014622340679819162 0.21570602890645996 1.9925985012531764 0.007229105033829239
0.01685140647807941 0.22312544813963375 1.2898940343706815 0.007835260558313541
0.019017330636498214 0.22632296392463291 1.9903612014690786 0.006732568093499816
0.018056460605465903 0.2246330854582114 1.7731798493252886 0.006370350121758754
0.014431972264837882 0.21627181214403238 1.6390447981118492 0.00882872788115201
0.019209232066850636 0.2270231682629902 1.9086723758747621 0.006379051267135943
0.02031046614288825 0.23073317844666114 1.546146130019677 0.007754558515085256
0.024283624573335192 0.23894238278807453 2.022959690937935 0.006479697880046492
0.020901865978282985 0.2320615955060495 1.580402051351158 0.0068435621266182516
0.016049926051285177 0.22114928417862265 1.3041064314334871 0.007927167713966173
0.014431098695993782 0.2154874667721967 1.9087637020001709 0.007011690452272362
0.016986081602641756 0.2240642273046744 1.0783064014226929 0.007532797658085498
0.017156998080196526 0.2227204734119404 1.6839157333873198 0.00620704967735088
0.01690410576333419 0.2231094958567632 1.3392630680792998 0.0063531916731599915
0.016051415787444664 0.22075722053137764 1.4405319850738296 0.0074028070499714445
0.019267279209159525 0.226758345973319 2.048304727036157 0.008510984808901875
0.01386076534169646 0.2151735561054136 1.5422374804778638 0.009005203537711557
0.014649344287247741 0.21796665148451144 1.2356035502621823 0.007419811196711054
0.015249080118168331 0.21947258205629538 1.21559110631995 0.007935752501443348
0.021732413874806913 0.23352531621213585 1.7670792885938593 0.0060853814559186535
0.01843708458879568 0.22587267694492152 1.662606544279392 0.007724393581977291
0.015942950469508874 0.21989323982133863 1.6481466482009801 0.008173752801640864
0.01461060281956188 0.217644795643809 1.314331341161588 0.007379879817567224
0.014547202641462066 0.2173274141392491 1.3709896419630145 0.006875048126380753
0.021268983573948345 0.2320860029793094 1.8775869332976822 0.00603120910952867
0.01969033379271181 0.22938718011486958 1.49403443143408 0.006857181435486695
0.022011958538080523 0.23335318421645504 2.0591333594266468 0.008522467451133834
0.019565938173469983 0.22777747210621743 1.9455185826675154 0.005835354694911058
0.015439444820829542 0.21960648174552527 1.327887650003202 0.008348710922450113
0.01522937804726137 0.21758438644468867 1.850249469514429 0.00700213325323107
0.01647069299981601 0.2203277346682561 1.9376408638513922 0.0074405931681862224
0.015187220674960054 0.21859228701543 1.46762728477422 0.007348838882900455
0.018431222996446547 0.22668082040998722 1.3790753738132167 0.006035069913627483
0.02248554623091978 0.23512095641807146 1.843826813440273 0.00735182078838884
0.021674993188753308 0.2331111051676514 1.862102409544657 0.0058997469185932214
0.021892854844901322 0.23323611758072516 2.000352692850939 0.006874139929488533
0.014392363295773548 0.2163544726073282 1.5775712674697786 0.007465029263990376
0.02056158574169404 0.23053296814537466 1.824219783295622 0.007506345003693817
0.01949069724453323 0.2290467358370628 1.445237276849484 0.0065074753943413985
0.016582100618017362 0.22199973691646735 1.4538657194819362 0.007614961797090346
0.010273502084238441 0.20520080212182068 1.994736162777258 0.007375769870001111
0.011010697421979989 0.2071420502466577 1.9390499042295193 0.007584727187313905
0.01906607298208262 0.2281674122122916 1.394961202626094 0.007287811123710019
0.012577131307594844 0.21111351010198462 1.873622083488359 0.008506253926841732
0.01308938803679659 0.2125666945319125 1.7989762990481017 0.00613508042024575
0.01803717775602427 0.22656705341440875 1.0902866364288417 0.0074716952316533775
0.010687494302780579 0.20627848204721855 1.9677675606000493 0.006083049237257219
0.02286678573534674 0.23555363076800237 2.011994833575408 0.006339861546746157
0.014036194475207153 0.21466731079598847 1.8628262703684455 0.009566300315564318
0.1448820486854964 0.31797991106224477 0.11872131224038175 0.006092428696859642
0.14333220725271245 0.317508011021302 0.05581209502530763 0.04581993326556702
0.14929250636176583 0.31866671000550045 0.14365217935268865 0.007441691726694609
0.15090473464804144 0.3186019467797727 0.0785924905958274 0.00973501803278191
0.14928646581265675 0.31860896934045313 0.13027806510191664 0.005794281880809973
0.15061867209443552 0.31851224956192514 0.066371283938855 0.021529683019182098
0.14648306980876186 0.31883470274794834 0.24063940547616688 0.007600986405410178
0.1447323696265415 0.31859969487673767 0.22575602673088468 0.007312003064628299
0.1430354089207328 0.3176387243360762 0.09162811221341816 0.007424641010478862
0.14730606240194669 0.31871380060819793 0.2098602973847169 0.007337453091282839
0.14142943739760278 0.31810784040261664 0.18976141466619528 0.007486518412238555
0.14199677118285775 0.31807276893683734 0.17642493884397387 0.008108239794372139
0.14404326477132084 0.3180991694639181 0.15328227264806907 0.007016067280831851
0.13515786960402953 0.31697454964522004 0.13150384452532263 0.006397581251723486
0.13895192784069937 0.31712804757485 0.08000658284451548 0.007417676323604251
0.1319382808462185 0.3160650900428379 0.05980341145133541 0.03600799257667605
0.1304976874889327 0.3163318199195703 0.2185823316755487 0.007545211940794346
0.13003452627423767 0.31628627808984067 0.2331608267379654 0.007062696413724252
0.13740114420280897 0.31773995106853603 0.2038713761555925 0.006698826710393524
0.13117381708141546 0.31594380139477474 0.07105504240353946 0.012417622981705685
0.12690048213350907 0.3154386522137099 0.09609278057962325 0.0072656906539981785
0.12873858542171016 0.3158484962985232 0.1555020361295673 0.007717487328794811
0.12833879581291383 0.3156607873189872 0.10769404623744716 0.006337945696152889
0.12292260394373568 0.3148756376009545 0.08217665818129902 0.009609786937956695
0.12212955045251064 0.3146722831420899 0.04715581202643001 0.0522708828433563
0.12379099310383851 0.31505588842991955 0.12390079510164542 0.00977209859115195
0.12237867464933969 0.31473672886602033 0.16903240062073635 0.007886551987153883
0.12302722682445644 0.3148694116283714 0.1787206702325312 0.00812892185074763
0.12657937142996822 0.3156158594940308 0.18852798203019952 0.007150757826483425
0.11211855392084435 0.3108447724908113 0.0749748898523597 0.008515142156669696
0.110438192776912 0.31012916475556884 0.05617284511772193 0.046837221595334134
0.108442666319183 0.30936267839134546 0.11387267083936295 0.007795387474158268
0.10928504388496647 0.30969289497128466 0.09590856816903714 0.006965208491691277
0.11191720016379379 0.31083698388191544 0.1475855233353979 0.008349362383184731
0.11923846736621316 0.3139237883753987 0.19966952226410356 0.0069517720505131615
0.10696213188826491 0.30961435932124104 0.2286599647046737 0.007040743020655393
0.1062626104688979 0.30909436039096744 0.18787820085290405 0.008363683276456615
0.1157845002716738 0.3126529557945842 0.22351987041536614 0.006588985492810369
0.1153522361931369 0.31258468741051515 0.23566961246869605 0.006582495593198714
0.11040571378958874 0.31042297717514894 0.17094850917553966 0.007884222666185034
0.11315516096806494 0.3116794295444896 0.2150256122435423 0.007008938635154562
0.08688071722650939 0.3006490168287294 0.08269739353592134 0.009158190049974892
0.09731333325904884 0.3049851057799326 0.0847537678597182 0.008495024872738626
0.09659913362010272 0.30509772629178994 0.1416752956302462 0.007479548749112954
0.09340074404725457 0.30318954909241785 0.060378665138511076 0.033487544019827946
0.09328139526352755 0.3037940247258635 0.15150726777455387 0.007680848212053311
0.09989619185046214 0.30693923334863743 0.20798522755888468 0.007930985827008508
0.08913543534312049 0.30149591805219017 0.07056839946860541 0.014033960846447681
0.08581310287333532 0.30015039204690036 0.22887930544127066 0.00766808426113786
0.09189593824371875 0.3031659440854881 0.1658083144169002 0.007730439098138714
0.09313688661008991 0.3037825823069861 0.2192950384243746 0.007265582120958833
0.08773245830964048 0.301099962079011 0.11935464035973994 0.0064977837854457874
0.09390289334110008 0.30416187763476826 0.19059244411647294 0.007587262784457411
0.09243061341480716 0.30343141865699547 0.17917112187712994 0.008687972654423542
0.09914357069755873 0.306762114863284 0.23679168169175865 0.00701276285872446
0.08988771054580177 0.3021692379688521 0.1345127984298073 0.006666117615823974
0.09567428366488565 0.3050412463939744 0.22776261964074873 0.006977662396059786
0.07397352592750117 0.2927651401578468 0.18937891835967308 0.006459431381929432
0.07716638698367584 0.2948843924734962 0.11971836890833544 0.007827014134294959
0.08199338587395304 0.29808401069230805 0.20020576695630626 0.0076446608048602585
0.07850842717537956 0.29577375969594405 0.1514458794337913 0.00711308172639638
0.07397025238556015 0.292762202014169 0.22260997616364875 0.006854149281360175
0.08287983465771387 0.29867430464383005 0.09784607694298002 0.007558329951413397
0.07328279498798551 0.29230675852248394 0.20059149197824547 0.007016336723363942
0.07635104888533684 0.2943425333885088 0.16700278087453624 0.007099881056027377
0.009871179152036747 0.2042578139425401 1.9849057969676198 0.005701924637845335
0.016128229648249247 0.22255900672890538 0.8819087048439569 0.007610732984211928
0.011464286674488386 0.20890018575255628 1.7101651981644546 0.008507407902548005
0.01431610094571983 0.21746468040935393 1.128787608959113 0.006489590926314437
0.07067911672053398 0.29019282498562315 0.15154958379643993 0.006616321605852887
0.07507253390033367 0.2934075431520533 0.13225797423499658 0.006045680565998153
0.06687760623341335 0.28771241528721525 0.20537762503249482 0.007141835818300827
0.07912210411940063 0.29582564894634655 0.04728091770110907 0.05277015901809414
0.07355577914029618 0.2918845065577343 0.08797337328159072 0.00788299091961773
0.07100192095077425 0.2906471244918155 0.17702178719439826 0.006002854035907199
0.07327908962787966 0.29145567634073666 0.06127864294928569 0.024888683132304964
0.06723434453994706 0.2872395522175325 0.11332903732250119 0.006287371265097917
0.06619113241033303 0.2872383252864767 0.21670980911192045 0.006192947774797202
0.06571909435746622 0.2861383414703361 0.13132316294525093 0.008229380565801246
0.06579921315690897 0.28580275304183106 0.08147611652941164 0.00896959417307608
0.059947752705977186 0.28154826738771055 0.14188536960103243 0.006665051019018734
0.06175058532494815 0.2831081684725606 0.17872470296521495 0.006032539641375776
0.06239057775747538 0.28350065571541705 0.15815048643831012 0.007313380559165116
0.05970873607445342 0.28112552254406753 0.09194132980161193 0.008392739065143108
0.061218305159891226 0.2820881142001582 0.05109573559396642 0.05122983965693964
0.05688892708104548 0.2792264975538746 0.18740627625984158 0.00583444403594757
0.05860925959881014 0.28089109036732507 0.22852124572930854 0.0075954042828525
0.05499881134192496 0.2778349908787057 0.24019116401243867 0.007095553987781652
0.05492159870997079 0.2774369155695365 0.16592174902016607 0.006018359914936093
0.05442062527332627 0.27723097955901915 0.21639299207656523 0.006885586243403793
0.053250560945107626 0.2760565983056362 0.12411367224767172 0.0076105304542175185
0.05676625187850288 0.27868838211927155 0.08121671181315213 0.008985776691865817
0.05126464281454152 0.27442088847617624 0.05130560738175094 0.05751813351228576
0.05616145464794743 0.2782590530171317 0.103834461010194 0.007276782178717489
0.05170542878480248 0.2749939568274106 0.20416164474977108 0.0071799041177998775
0.05083230252614922 0.2741571999640672 0.17657148302348694 0.006811197818910824
0.0497589695965394 0.2729645787875225 0.1900049851611804 0.007952817427949859
0.04905463476930032 0.27213901760400666 0.2524868301412504 0.009144927755143577
0.0478113373293001 0.2708506619197096 0.15168767287372187 0.006522516021544309
0.05087704489354879 0.27423843940163734 0.13661928319520128 0.007244768662413648
0.04722571499915172 0.26983861671430687 0.08251337173886103 0.007798236153677345
0.04669794178929418 0.26929214198139023 0.11865219179874234 0.007451414983078309
0.044532428651144845 0.26629398051278574 0.07364497583183148 0.009082507749898036
0.04099893453407992 0.2628724710534869 0.18217533069121494 0.007262862296995589
0.04239577468619315 0.2647887103857428 0.25629444893127745 0.008198190441441856
0.04054433864533538 0.2624446280765438 0.19673349257004913 0.007727579098576555
0.0420493190027527 0.263922457244087 0.16067081997395521 0.00770309249961836
0.04419552878564136 0.26595338267462854 0.09411679930181088 0.008411144522715438
0.04100711551463013 0.26253877986627394 0.13918034868246415 0.008178082574633733
0.040368926027577676 0.2611273679280924 0.08064595169798662 0.00886425206030839
0.04018702556118015 0.2605879726703108 0.05011814978264206 0.044430380623779374
0.03808319828510602 0.258575044674097 0.12371069829434905 0.009246612820710128
0.039663637303830795 0.25999743954331217 0.05936327106938275 0.03359476231062813
0.03415454397402515 0.254080940250401 0.23991748049830627 0.0065366482221839
0.03419031559728722 0.2540015084602296 0.22601348605872545 0.008150400217908292
0.037636420764589396 0.25779467865864397 0.10818160109810085 0.007797405875330078
0.03845050205621639 0.2599729065181207 0.2171981760721308 0.008637249258420422
0.034907575472874125 0.2538420315381884 0.07297891595181828 0.010126170283057189
0.03343788104806435 0.25264139599881297 0.17597532251772197 0.008781562661169147
0.031682369360126875 0.24950999982458041 0.0544077238224942 0.04529889260754305
0.03448868749444422 0.25347777063832305 0.09915567363833708 0.010502324202913629
0.027949632878620637 0.245386265447358 0.24616411549540443 0.007351679498547561
0.031813245066514124 0.25015263127330845 0.12724079223769919 0.009531294881665365
0.031954595692073054 0.2508850951951265 0.21535919770077577 0.006628378909115187
0.03137033380513028 0.24930116190753943 0.09032680587887747 0.010692687092795498
0.027010438823940053 0.24389246854412547 0.17972751826632583 0.007775999602154463
0.027598481265827646 0.24453579374927797 0.1493254443388463 0.008034778380020103
0.025920681352415292 0.2421507303496755 0.23583356977151934 0.007026433688404936
0.026192909757884922 0.2426244602990976 0.21015087120828813 0.006026335441039665
0.023046378112166824 0.23603342446763784 0.0978705852722377 0.009558583676802755
0.02290097223593714 0.2358395933554726 0.1389165126914934 0.0077900877946696775
0.023637875802578687 0.23782770711559495 0.19350433435766065 0.0068574371876290625
0.02365287865696395 0.23758537399979018 0.12077644711256724 0.00967671873470418
0.02196178684819614 0.23335460153215173 0.08210218191733101 0.009175431942901621
0.024996109180961967 0.2405772508454359 0.05525265953442153 0.03821577544400464
0.02202117224023802 0.2340985432735918 0.16267547656156867 0.007180880610860575
0.021507740911104793 0.23378964855349493 0.23269752408232688 0.00601532405101997
0.022302295886395263 0.2350662435836524 0.20750714720103589 0.0072925163477842855
0.021699956647027466 0.23441979592239526 0.2600690951292496 0.00729886617706965
0.01869533299310317 0.22767576393236355 0.2138500097668085 0.00827995515730776
0.020062377249612257 0.22901701891394652 0.07119514347591954 0.015858098012432466
0.018133753426321852 0.22497893763712723 0.11619863101274874 0.008657713433650327
0.019113420520395562 0.2277211314624541 0.14365537447529936 0.006736964518640095
0.02086550287667864 0.23068709258234912 0.051618583779733065 0.05328945698109724
0.01820187389215138 0.22694018430466564 0.24703547875863985 0.0069204825996012544
0.017658390902703824 0.22479701740652647 0.1849822532452276 0.007849800139396908
0.015944744420944675 0.2220059216027936 0.27895555880305467 0.00497924845644388
0.017045036698317 0.22207597916796928 0.0944647529033924 0.006607199416000509
0.01535986581887732 0.21859912044296312 0.14130199054295398 0.00798105435778191
0.014073864768979562 0.21618974793045184 0.1929853422550559 0.007016037204556248
0.014341502669674688 0.2171947555006063 0.21966074189554752 0.007573973969376631
0.015299645043725937 0.21798556184253104 0.10650213476211165 0.006220356912541771
0.014750372771624502 0.21621929830498163 0.07378138458848482 0.011054765671390875
0.011180159197526744 0.20811862526808797 0.11232899291715849 0.008509833656595668
0.015942821029099406 0.22028662290502915 0.16212387349645885 0.007911857209445754
0.012757675768564219 0.2127092184119928 0.1704655405059975 0.009482214642277855
0.014425536788333984 0.2161070343162802 0.12372901430737103 0.006251063214984604
0.013893888781600545 0.21433718675660013 0.08757915591021491 0.00833934366604159
0.01538308839054798 0.2202039616077864 0.25642449915953686 0.006833193982702764
0.013517977365398802 0.21429636737115854 0.15200292217563224 0.007304591766389694
0.014122120807687093 0.21448484299650275 0.057598015189620655 0.04425133193034371
0.010989895047086742 0.20700869267849759 0.06396953950715256 0.022750919063217932
0.010946822700816346 0.20753196969999943 0.9812775380698835 0.008499552156600282
0.01246136691731001 0.2120824454161014 0.7100147452177371 0.0065753955866885
0.009980255403711471 0.20462790063053593 1.0592722785405584 0.007910697142444504
0.01330728029089024 0.21462400757221614 0.6311544949249366 0.007927930886598161
0.013539576525178844 0.2153219458440478 0.6875306573838336 0.010835444016205058
0.012248135408273627 0.21144178745893447 0.7331359099822656 0.009570595464446567
0.009991831665162182 0.2046626817191572 1.2768958583609356 0.005907451921731486
0.011235704853747053 0.20839992139623298 1.0053243806208216 0.00700538849228242
0.009645513253243407 0.2036221617354463 1.4582528869285702 0.008693482265210526
0.011367308406093558 0.20879532666904305 0.41318685346340434 0.00705823697378151
0.012021030741803421 0.21075944734728116 0.9105802443373835 0.007615395314884048
0.011370423644622598 0.20880468646000977 0.8264582417943166 0.00584285555500046
0.012425999534865301 0.21197618347062364 0.7875409078685139 0.01291593721296458
0.013622175459429 0.2155701158481903 0.7755818190957122 0.01444268871306639
0.009848553884661857 0.20423220101498 0.24546326694234757 0.007234009140591353
0.013319989516829455 0.2146621926733027 0.4853716868982355 0.013729234665985164
0.010275670240872241 0.20551547989566196 0.4600279970202046 0.006863370451376657
0.012988844766625063 0.21366726223290372 0.8560078608902629 0.007214997014968692
0.011707769080827036 0.2098182469745651 1.049975816921749 0.009934406345685
0.010376204011578733 0.20581753544297848 0.8613295539670413 0.007672770631887853
0.01306772890829415 0.21390427107499732 0.5658013528001895 0.00795208529888474
0.010603042760922488 0.20649907660177633 0.9236568078512766 0.008442769334769238
0.010525457812160254 0.20626597120846207 0.48362232722038173 0.006559295737298537
0.012673365148625208 0.21271939796786626 0.24860473352138474 0.007825224323940132
0.010870483694350569 0.20730260776303458 1.2553115067172613 0.00672310373624558
0.012185212391472449 0.21125273410755688 0.7214865753832947 0.009184390880028466
0.013766316328969038 0.21600318971912572 0.23836668613853887 0.008038908438104878
0.01226523953307941 0.21149317711380639 0.8850678265268749 0.0068728720416219215
0.009724322872128748 0.20385894667247723 0.9501904797782711 0.008941480645121125
0.01049794737453822 0.20618331559697506 0.13000819338328534 0.008071292507215945
0.011293159405412865 0.20857254464439412 1.068413419786484 0.007890916012537252
0.010237931935645142 0.2054020944694508 1.3554566316922407 0.007845478084192848
0.01192855824801528 0.21048161205346289 1.193697163480351 0.008553694539316804
0.014581307841427556 0.21845184657964153 0.28987227823156464 0.009037949766525612
0.010360810281008045 0.20577128469877481 0.21142957307593016 0.008987609706334292
0.01317220727561472 0.21421817823477038 0.436537118380825 0.0121277572284276
0.009568246624659148 0.20339001274091134 1.230135804357407 0.00694126142484184
