x y z curv
0.23529491797643587 0.36368894477926084 1.3302301583233158 0.01831849814321797
0.2216031837560276 0.372245902151279 1.3320557171667358 0.03868841977882678
0.2808614672504072 0.3743264570152432 1.3312224679599405 0.029457076298626875
0.2580958824124756 0.3710310805851418 1.3332162492015347 0.00982808890750548
0.22426543468361182 0.36352550819971885 1.326359367406226 0.040527034584450145
0.33271142494231654 0.35495576080757474 1.3304063726963073 0.007010716912213291
0.3340324522002991 0.3458275844569495 1.3223124472152505 0.018532254887265957
0.37327586183072925 0.35701914225081355 1.3221893172390278 0.0006201572216281763
0.3361259500666955 0.30798302806036937 1.2915683032268908 0.040909335011783704
0.320494121054832 0.2908119813959282 1.2820954352461253 0.012180365288083243
0.3257172688626872 0.29500450781772014 1.2894845317026842 0.011574344342222938
0.36221321897233877 0.3325661359746665 1.3026813729229056 0.05256526661353071
0.35138702721093257 0.3094912694355433 1.2887899785558314 0.046692574510023635
0.35021219919519786 0.2961016415394401 1.2788993651902452 0.04946046680534127
0.34269771065273535 0.31912706227683535 1.2964995584935346 0.03000164500846099
0.3577102558223887 0.33045699017876673 1.3078329069390688 0.042146579059526505
0.33052002999091457 0.27491360962896094 1.2707024152544877 0.03567820899698126
0.33532183471472543 0.2807797207753412 1.2738407876406326 0.034620237341226545
0.33818293986703374 0.24700387308955815 1.259060504055396 0.011353716825891438
0.31418960255014994 0.27508318353088007 1.2722217370426843 0.012257887505436178
0.316669067996902 0.27225612955715295 1.2699875266650162 0.012778794445476723
0.3757400982535575 0.3777400736471187 1.3198034913420456 0.005226754364301831
0.34474257201628344 0.3865023839627746 1.3379414216460863 -1.8252587345259892e-13
0.0345031929650882 0.3838849014161517 1.3193492363365522 0.046690020219529844
0.04272118864707419 0.37483664310592024 1.3217431232940635 0.07475649494360109
0.03203106080388367 0.37127253445003067 1.3130234706875203 0.03416377458397182
0.20887585417249147 0.36901334040639083 0.8655510552165255 0.005436317404494952
0.22197510418278604 0.3741336172917607 0.8766801767112979 0.002831025793096755
0.18837115032425655 0.3654459435629888 0.8761111677103961 0.0018571614029255306
0.191693225850045 0.37034112378289663 0.8866075951172064 0.004747921817403872
0.2593837504558568 0.3702579222389 0.8844163558953784 
0.17732894360669527 0.3672933843778117 0.8729585980522511 0.004607911233436633
0.17340927631196298 0.37291362253128946 0.9040104466519876 0.005446861487690989
0.2274391829951754 0.37289563238211154 0.9236712713499371 0.002299850136452044
0.21936799278378677 0.37337510782301375 0.9161015132140881 0.000778723377396257
0.20468526013639612 0.3729617087150949 0.8982802066475502 0.004486422918658597
0.16061706178723328 0.37233727760815943 0.9259216071788238 0.0003311718599605342
0.2591645549172614 0.37291153304438784 0.9049713827404925 9.149615322861916e-05
0.14803385114512463 0.3711038126020403 0.9323878988475748 0.0008651784503654164
0.15598065567171981 0.3725746006619551 0.9217873781328397 0.0012359316098383766
0.20896801339027193 0.37093529475081266 0.9323275101935995 0.004072500426922416
0.17649822865595383 0.3690635690339283 0.9256209968721639 0.001483420304115691
0.1872693990417435 0.3681439294500443 0.9291556887409316 0.001454878809567076
0.1724411020180743 0.36892328245851885 0.9741533659408603 0.0035882977856057678
0.20224559532041575 0.3670925815310767 0.949648322625235 0.007404399743175506
0.242258200713567 0.37629562825034996 0.9613961616297645 0.00014419850449522265
0.2540721014785571 0.36869947239636186 0.9426803849677431 0.00856778779220697
0.20310771843407216 0.3682252083905332 0.9563197856088549 0.006893791841029312
0.2285016880681364 0.37139907169129593 0.9365830561249785 0.01479628333060262
0.22330401060983793 0.3713683191615007 0.9382793924279829 0.012051105887777658
0.2597442716673464 0.3676152579286304 0.9333472980126485 0.010125881437135756
0.20979019111927694 0.3787591510323481 1.004724724078071 0.006510054663399874
0.14222221412169472 0.3685979915860915 1.0360816284143286 0.0022514666890452845
0.2067000519961439 0.37365117596266867 1.0286715764932375 0.009770053563364642
0.25778358545663216 0.36998587842991976 1.0309752140954809 0.0003523124874785418
0.23240589372713058 0.37319076355289177 1.003396165745381 0.00580105221178454
0.17302083513269906 0.3755528209986817 1.0214220714537618 0.004352997722394321
0.1896959157967547 0.37085289516436004 1.02506134896543 0.0031244360046866365
0.17961919554163033 0.37616182546519933 1.017074962870598 0.0042903894557895
0.21903300225284494 0.3757014398391035 1.0191729552067061 0.013857930328238283
0.2178078729524809 0.3783296175554903 0.9852120965364244 0.014334169644607625
0.2259531054864783 0.3750481867160009 0.9663938061604687 0.011143645772917635
0.19106273899606763 0.37859192988603524 0.9771871035727587 0.0032057159202164925
0.1517923985274213 0.37261236165384765 0.993922110401043 0.0023929434284135015
0.25608443817691223 0.36619062866438196 0.9979112154271537 
0.1993947001702791 0.38102508128422746 0.9933816047230406 0.010302463855169168
0.23559549985123482 0.36663698891146723 1.08453515301668 0.007798362762880959
0.1853660283644547 0.366429874610966 1.0530810228596281 0.005595076058241832
0.2592133931379126 0.3701678208578527 1.0483981267901623 0.009811627514151306
0.2110628559698335 0.3699395580300471 1.0611367289604872 0.011140902509409517
0.16143234608075827 0.36928169765923985 1.0484465256780684 0.014053368364869227
0.2531544817296114 0.3748363594304845 1.0629595682118294 0.0030755174453020047
0.2306348624517908 0.37335315627131566 1.0681328034812458 0.011201259874449815
0.22538397036842112 0.3782118813303564 1.0416957374303932 0.0038079906698508335
0.19440222784732225 0.3718888008049514 1.0635018574182236 0.010240397602482689
0.1609070964427294 0.3769439097305216 1.0851717833909424 0.001238991898308311
0.17395109014181898 0.37442897394011604 1.0765932029879852 0.006525488010812254
0.2117781350211991 0.36668147949182195 1.0804447125918286 0.007203286890565255
0.2133383212703874 0.37195253041809684 1.1039656319727875 0.015028024430749999
0.13847381278366644 0.36976169052303665 1.1011248315987836 
0.15389969559362102 0.3702814797559622 1.063029855665801 0.005275315907266299
0.21078215110682552 0.37083331609117154 1.0943668791770795 0.01012793107049424
0.25055190215891515 0.37070476797330026 1.1158343229510528 7.807463425883204e-14
0.14937012791508955 0.37421109456998214 1.1004625593158457 0.013500725201600415
0.23095265960137198 0.36440520523169856 1.1189040707167448 0.001329492748176884
0.17272280978848537 0.3664361524157594 1.1243298947329299 1.3982097679144072e-14
0.20295814366641463 0.3724075246062542 1.1189446091797792 0.008281872284995627
0.19123567397856933 0.363404304801415 1.140337322523056 
0.0441425709293623 0.38848532519700857 1.3124183486432845 0.0977335291142514
0.0505721664479417 0.3914940857688494 1.322313429327454 0.08888227308099558
0.04910623006813933 0.3934183481260443 1.2569771001705856 0.05898871556166593
0.2927941111034555 0.39388076297951674 1.329723726157638 0.012945523688309687
0.20701231529032654 0.3956835255242856 1.3302640410704158 0.03791973859643107
0.04557607559788838 0.3925682740183638 1.2598721966057913 0.07170796653167585
0.06460130481520758 0.37746867740820317 1.3325410182750712 0.029006798396757228
0.14726091285951348 0.388091470745202 1.3408645387614266 0.02655736009975405
0.0787218908457715 0.3877683368891611 1.3322406110705782 0.02026716454273417
0.16982695711715032 0.39363857956449655 1.3340716096659746 0.02357397471235627
0.3356388321769146 0.38376919831660694 1.3400229176627574 9.65784657166143e-13
0.381259150073756 0.3836095152607553 1.2362797803157541 0.03486564966860744
0.3717671292439475 0.388840812675759 1.244624875011643 0.026777944721936838
0.3729171186215446 0.38770714238280973 1.178890897197699 0.02448065359572867
0.3808110641482406 0.37750113910430383 1.184333508524837 0.04121368477388922
0.3745624897774616 0.3885287850191436 1.2138115269666252 0.03754206217549385
0.05879728131806472 0.3937167509252645 1.1631313063136952 2.4001706459372387e-13
0.06019507049586262 0.3965007069983943 1.121980768954225 2.4001706459372387e-13
0.020171232387860945 0.3824969350462332 1.1389791569605547 0.07706759666681486
0.030420285113393036 0.38668627435262903 1.1455859992726514 0.06680276426794662
0.051827871498451104 0.3919015365358606 1.1549916587448155 0.0003706510226120121
0.037409459884106565 0.3879446363761578 1.151280813718619 0.0057673890263481445
0.3805082880637085 0.3809369061711496 1.1727510632313733 0.05337377804635798
0.39124008967250373 0.3886674122679306 1.1464972599545928 0.002344582450142469
0.3981749130432193 0.393992511399372 1.112158233168196 0.009206750591225145
0.3990710926921123 0.38479768327053077 1.1238950726347319 0.008941826399331991
0.016892644599554363 0.39255009598062596 1.0845034670980873 0.0030274159334896266
0.013572689988350773 0.39203769568046387 1.0470183160209747 0.021346240411768313
0.015868131150115355 0.3856666752735106 1.1100281136719687 0.004471629761102055
0.39320927138424033 0.3893813560447939 1.0650253250219879 0.025702368037241703
-0.001401300476351848 0.38741560620587123 1.0286087057518967 0.023985522088438602
0.02269946433136225 0.39751100572875053 0.9904479854161514 0.004389906272031752
0.39768075406116826 0.39161885639786864 1.0319648563506578 0.02476493891817697
0.1625169411346808 0.37684204427679296 1.0043860712618267 0.011229435254702193
0.39307723941985795 0.38796893748034683 0.981390093405403 0.0021128427008307122
0.019431177592532857 0.3929781495066329 0.9561965653498632 0.03287259783140889
0.022700664627517755 0.392191556831678 0.9070650713132181 0.03724048274833249
0.009339516331313434 0.38875342689891024 0.9507756988729502 0.028985824346070124
0.4118932623926825 0.3880402264944828 0.8867925650851778 0.003946590922918041
0.37341576743865834 0.3967501189772853 0.895626821435183 
0.401448888984797 0.3871114584734504 0.8484192295961772 0.0010760371578814984
0.005125566647753762 0.39224277326461615 0.836543671097376 0.010284123066433245
0.03015457095729446 0.3964386551413638 0.8690047511518116 4.250132008577377e-14
-0.004974024397227074 0.38604761333105353 0.8985338121352177 0.10156290409765467
0.38610915231575244 0.38628409166221084 0.7569697058846812 0.0015492486896500762
0.32930784118953366 0.39863886679470606 0.6418543186378359 
0.055864781825448274 0.3914199535023844 0.6460349001159778 -8.427665707917437e-14
0.04940682110710923 0.3933065858966013 0.6769303836734889 0.014555699091299109
0.008033679937808926 0.39116716149524855 0.7985664190156804 0.010619666028975802
0.06856154312961796 0.3930591675705634 0.5835814327587044 2.72529465170329e-14
0.353052052847355 0.3867536789115741 0.6062172449573618 9.099913604944466e-14
0.29818936895352727 0.25300617176363643 1.2482360879369758 0.011927754587543292
0.2441340569663756 0.25792170284062915 1.2414404855839034 0.054975415616224856
0.09847729426312014 0.24572289346137216 1.2370381429931971 0.0080410828860214
0.15107069286083427 0.25712391943749247 1.2491859620131902 0.05007553312240945
0.08068370641639107 0.09224344245205815 0.8803897006338763 0.03610890935919734
0.08663173016404291 0.08994298558266431 0.8429342629162941 0.044767571023389005
0.021511745822809576 0.38960526614070967 1.2351162575071808 0.03063007612435142
0.025930287005708444 0.3741448972201639 1.2197086123246352 0.0066620258227100115
0.026498486097857998 0.3775477988765879 1.2285786901667926 0.07401702812907623
0.023029632004784962 0.3624614287934612 1.2006409559298499 0.01639672277292441
0.016564987471566168 0.37685885856148 1.1879143821187848 0.011514449483420485
0.016007871327558616 0.38486832281745614 1.2075926214400543 0.0031447309977665487
0.09114739739271073 0.06865205699386871 0.854256180118537 0.09824668941870539
-0.00190207185333464 0.38874057239038745 0.8764809881208085 0.1393178143018558
-0.008436703320389663 0.38293564451076256 0.886698586582227 0.08052901948454674
-0.0012086158875406511 0.387916599745386 0.8545982992852459 0.0950429558831175
0.15686045532683973 0.009646345347190909 0.8379908632670268 0.03575173163686778
0.1307391269585382 0.03369957973688778 0.8604304564620593 0.022662643851463854
0.3566455471284132 0.23096993673687424 1.1823367467209016 0.058769406444125476
0.36179698395300297 0.26984847967398395 1.1784225138695865 0.004368229795863347
0.35783629522609894 0.2393232093542874 1.1762348147114627 0.04166388462899068
0.3619490075712942 0.2547541580048838 1.1819559875626258 0.03208100450623088
0.004101535080287939 0.3552415642447475 0.8933648446738904 0.008583227562301782
0.0010508122971905828 0.36048954360186364 0.854674142946868 0.007056486006141443
0.00033478577521810996 0.37168663460013696 0.8977121936755846 0.08983734725524262
0.0005434173943588988 0.3739145737527906 0.902491679705882 0.08954439681161307
-0.0024227385992718472 0.3746564497631603 0.8795545544537404 0.009641493087335367
0.0003639471557695907 0.35917681687623954 0.9035981792715967 0.01166369376102845
0.00540020227502915 0.36214082785045365 0.8797299247602763 0.006365552004369612
0.05861944095814603 0.2566899455282181 1.2511203175898986 0.04728886275933938
0.052952642514591634 0.2940181124194107 1.2720142886570514 0.05089172677788751
0.0576021079813787 0.24536404590774527 1.2404481218659895 0.06690928801741063
0.052435555205001656 0.2503084527122274 1.2373930801622783 0.028828371248504837
0.04954001751014442 0.2642311581357952 1.2289359120009602 0.017619470931204556
0.04478264072865447 0.27664792476829164 1.199642317129319 0.009930068390773735
0.05102425713921716 0.27727929337260415 1.2515546694357766 0.03774755400329344
0.026177625102801437 0.31273725851549083 1.1935215693576953 0.008977475783202215
0.036858272797241805 0.27760302545005733 1.2273639412865927 0.009302982136608058
0.03711704482331649 0.2872738105429627 1.203104562054575 0.010565095048748507
0.04440529633095675 0.2823785225776212 1.2399350567313174 0.010095252559283197
0.03251495386229143 0.28325386585694873 1.1852815081426116 0.005591076019962381
0.032557983681208096 0.30224086347534307 1.1668826666625693 0.0045393825788757
0.021471639911584357 0.31673456997049404 1.1416439272235266 0.012085663469447694
0.027196277084075474 0.27996331945144537 1.1270734652626193 0.013327864189036384
0.029323493431475313 0.29938441969659 1.1410620618236185 0.019665561912111485
0.02965131324543442 0.2913219846661433 1.156466597858095 0.008672199102860902
0.022026672179124837 0.2876733466500743 1.1302398526004933 0.009391007761556176
0.022664364111924733 0.30947861769415286 1.1292205667263377 0.013864344106687871
0.0029631911585713258 0.37111882452621 1.0573925702427611 0.023441274120935204
0.011776545796160826 0.38083575332003766 1.0803479599855863 0.00964212701868867
0.005153106144249121 0.3718890079658606 1.037300767313886 0.0431977079015846
0.007194597816094179 0.36625413813503777 1.0663538042753664 0.022626335115627814
0.01293974713286052 0.3955617365595929 1.0292637091376065 0.03456009639521728
0.20700606262715437 -0.006491313720045216 0.8325662388386909 0.030372262866839344
0.20761383286504867 -0.0025382208155008564 0.8434040601128208 0.036116281974727375
0.19343316952067818 0.003769361583190788 0.8532199446568611 0.029492787778898886
0.043274289488747585 0.318449460023803 1.2766066974901278 0.05080516188029236
0.03590755527816114 0.3388099210906131 1.2860934404809263 0.011558269417555245
0.027309308722433714 0.3355916242470295 1.2413163400993066 0.0018361903000373974
0.04026294612000778 0.3369189525471859 1.2989172366996309 0.07104136847113796
0.04580034423051157 0.3080344322446964 1.2941425882314375 0.042713582677742966
0.048305761033380606 0.30882297964320243 1.26672181590065 0.04171854782666034
0.05179084521222074 0.3022723802813243 1.2806297379556972 0.07585740294904797
0.4052386442560686 0.363311759985526 0.8322341261353935 0.009000953057980486
0.372682951235315 0.3482841783079553 1.2820357492088303 0.01707241294465655
0.4070490211060014 0.3852855899065412 0.9271123483384186 0.011127770714581224
0.4057341198221746 0.3742591236197916 0.9244417381682468 0.007663241990645607
0.40598923764254996 0.3832473389442556 0.9486870746567748 0.020397455122683282
0.4089834883906012 0.36627664943514154 0.9410418730772379 0.004577221928107144
0.4083789057344974 0.3571976892408638 0.9361486879581175 0.007358538696929073
0.4086898853152967 0.3484040371713227 0.9381812998627678 0.007161093864940943
0.4028897602058691 0.35723011078112593 0.9529580933092296 0.008064014633853861
0.31625156690874817 0.09210952357154362 0.8852732924348269 0.03862976986404839
0.3086066520402936 0.07328327850522438 0.8624148631479772 0.038920039339728936
0.3141756143102237 0.08133777937339033 0.838131042421256 0.009876891149554546
0.0031591980583966068 0.38194465602480615 1.0049248976706928 0.04530753382881546
0.017901072725072572 0.3410570411571366 1.0396689500406926 0.009719215814467596
-0.0011013605236657956 0.37352039864662334 1.014231544911414 0.02403572072122396
0.004586587074132435 0.36932180422257105 1.0286504707375617 0.03404657168994982
-0.001629518615710501 0.3773272844712512 0.9759241899677887 0.03573287934727593
0.0016282331754999325 0.380905622321156 0.9890070093098371 0.03908665928089931
-6.114927442505552e-05 0.34333798262851806 0.9569530584010827 0.004026587822400363
0.016031078032550744 0.3461892347074673 1.0226456760200895 0.01582983357819151
0.014662384002760903 0.34169933223498455 1.0046867435054199 0.00996937369150124
0.005305264791789492 0.3541733839505294 1.0092288348616423 0.010660884348228554
-0.0016003270131716499 0.3636310290449716 0.9784050340140615 0.021348372824720678
0.0022698733801323314 0.35800231343284117 0.9833406502210253 0.015779163201056424
0.28934203770805 0.04903434672772956 0.8322905423243082 0.0034946867986626706
0.3203315106967978 0.09061133925056869 0.8656614135851457 0.04739373197570897
0.32080117900378474 0.08940540781709888 0.8822043357791445 0.025675194258529817
0.3321498106591274 0.0993506472638131 0.8598141796745117 0.013159903174656429
0.33128963695083213 0.11896179982217453 0.8345272390364511 0.006057391937594988
0.3986140020414198 0.3500955629222343 1.0319793421789192 0.004798012747403813
0.4048057022989012 0.37718184727704585 1.0213086473522086 0.025828848207931396
0.40825079927983915 0.3721004393599514 1.0057197687897517 0.03355033228733953
0.41113188822133845 0.3782219135568984 1.0022824025579231 0.043361318417179294
0.4034231972916838 0.36322544013725 1.021831747585774 0.017166989074229554
0.4097519654884151 0.3758564928420117 0.9801774215628665 0.04055503006107372
0.04161123843171624 0.21219330979574788 1.009730343534654 0.01593588231559475
0.04212939472800266 0.22334500816218167 1.0236432584127653 0.026410298157580527
0.03241309209668661 0.21676534593574895 0.9799351643148783 0.031679761846867355
0.04636901148726799 0.20799357365880772 0.9969375814422397 0.048610026934349966
0.013249841143727953 0.36944666491940237 1.1735332770212563 0.06287502715899167
0.021096188053182075 0.34859673338805186 1.1527389638489804 0.04003034779872467
0.017587235556736185 0.3428945634919809 1.1296160200321042 0.011651826238669734
0.013271675744568945 0.3611386776704428 1.121862855853264 0.03190593725079778
0.011916252398438387 0.35445734457090333 1.137919655206149 0.041163176637089884
0.015078225703339502 0.3728221499255367 1.1604682494183807 0.091487879135481
0.02779822351179678 0.2258635992375453 1.0051417111977123 0.03318471126363339
0.028269094100950562 0.23694724197325748 0.9766635690817009 0.02338418264486702
0.030506860131880097 0.2588114643156234 1.0871519626113801 0.009225574973187512
0.03794605866270402 0.22905703565057609 1.098331010547096 0.03329870490162411
0.02591492383885776 0.26232353587091917 0.9973992500912983 0.0062692037561962715
0.03820747782448879 0.2376326859673817 1.064285032563305 0.031514804877533276
0.03009200035856545 0.2554551437908196 1.0777398706984225 0.014084444114705427
0.02736792118600697 0.24764675920014162 1.0452450498843966 0.008806487435032642
0.032143894210198844 0.24476709716603287 1.0284578498736867 0.05382890270677161
0.02410858133864096 0.24531339177763983 0.9788862785656276 0.00808972373927479
0.03441976385748826 0.24152733535520016 1.059199406724411 0.02090014556655039
0.038746265735692224 0.23497133045878016 1.045506406353433 0.024773852021208825
0.027936767837311978 0.231477209248389 1.0122812045008276 0.013328038526504986
0.047285938015914825 0.2279644680132089 1.0601756249680212 0.03379138145586084
0.12145719082346904 0.03275481958541587 0.8450539016017271 0.0306525294388637
0.3674962706041605 0.22493437234482228 1.0334049501707832 0.06429911785159442
0.3695054116717418 0.22675547271542634 1.047822336048605 0.07338356675417493
0.054889827402729595 0.16024334592630188 0.8863198933574588 0.0021622364307948136
0.05879778695236845 0.14980032650988775 0.8330918459334123 0.004425840839544392
0.05585116039373174 0.1507282113829458 0.865364878603962 0.0051579525928259285
0.043363674756294095 0.185430895231849 0.8277163350953375 0.00785492819780363
0.05062654959234616 0.17285665082351276 0.8565891706627393 0.003941044004262537
0.053752123081959716 0.1703071449613941 0.8302378490265299 0.008085969385097707
0.015103788515444272 0.33497062569563485 1.0227593143396774 0.01902249767061924
0.012869893711046273 0.31770532736499585 1.0355401022787292 0.0063659516149462475
0.01826167732473338 0.3064263853939131 1.0078635735843509 0.008707411923987133
0.005466013239013381 0.32511225400482013 0.9829253582120544 0.00684199064612035
0.01226638274482833 0.32000967682565384 0.9930148912152504 0.007433975989500259
0.008534160078315495 0.3140879636211667 0.9588964255470271 0.005577642835606976
0.01503957570344718 0.30063675230518305 0.9322703115761081 0.0016434162766230636
0.008438205305395926 0.3321163915884978 0.9454865372229633 0.006331127411563817
0.009014662690041964 0.32153622364756934 0.9308642306106245 0.002628697352498383
0.015436227813508218 0.28121682623036404 0.9585534521830954 0.0006810294254687369
0.015030785091157363 0.27758149248667924 0.9815406345990904 0.0031914958227540033
0.02044975843900929 0.26346711384564503 0.9468803765878819 0.003524813655783338
0.012913429310383001 0.2994029895229259 0.9703387708273641 0.009825261539387514
0.017894331967612805 0.2899138711274535 0.920197831398183 0.0017339245251057345
0.0226388953319463 0.2560304220416399 0.9100805648460994 0.0031658270633187708
0.032165243304546676 0.260588217794393 0.8708303143780995 0.012837818183985283
0.02544420536589922 0.2543932255384715 0.9334579445835877 0.004244617635463067
0.020422655686513438 0.2654505472297937 0.9203359368996116 0.004635998220314164
0.014204158363299916 0.26733178294836396 0.8328893563628126 0.015408714351303532
0.012337614807052522 0.28485264257503085 0.8617806245665107 0.01985046908102875
0.014920902717771514 0.2791809980880487 0.8665515073725985 0.012034797148460617
0.007866837793352394 0.3107381904062525 0.8571166388377336 0.0030493575148617183
0.011492154914559367 0.2987978099277027 0.8847463345917627 0.0017018313393496625
0.017109503324007312 0.2886631062185118 0.8403353027054392 0.0058998550470739115
0.02181669769416618 0.33263423586132146 1.0994611034955681 0.010135570632473367
0.06801732217222432 0.12943024470560818 0.8482206434339489 0.0014110759465391616
0.059774477904810906 0.1296986353887117 0.8802205377390917 0.06811619490844772
0.05938402130080385 0.1414448377540167 0.8242518603822039 0.007630077443883133
0.06791222987038407 0.11579343047214821 0.8451605556690768 0.005086078604911585
0.03586539809982736 0.2459128993783147 0.8669514249694334 0.027052173108564746
0.035286445944064264 0.23740566633815693 0.8805856353212904 0.011543504242630573
0.032724518654624245 0.2433979161340185 0.8509000560138436 0.007708725117995665
0.2253684399587608 -0.0009498983082326376 0.8382014736910695 0.027798296149750098
0.21814489638594178 0.0030896361521915417 0.847063118685054 0.058424983660812245
0.03928279156052128 0.2099200224352025 0.9424487507260043 0.022925647397079654
0.03203655387648989 0.22954685569373093 0.8520850265949589 0.02762003765865741
0.03309211098489162 0.2169083499732255 0.9234154340954739 0.002633064903542502
0.033621607058959654 0.23397403332269395 0.933951497269172 0.0021095297992993534
0.035442292375212625 0.21662511780165405 0.9043902005968629 0.008718113909889993
0.03394236161043979 0.22537359744844357 0.9591195333038336 0.003590362940456692
0.03357756877596553 0.22746026008138875 0.9124701978953204 0.00631354885041215
0.0324084198412016 0.2186580104721874 0.8861730179214026 0.007353758831912969
0.03626243178127854 0.2149690432664632 0.8819342900564849 0.010025301295540537
0.038951478895189115 0.20972935111712637 0.918636389793634 0.004683179173446505
0.01117975941927049 0.3108345689051127 0.9286277358337504 0.0031274544081894627
0.004139245878786349 0.33664279560303745 0.9217536513633042 0.005591997028801254
0.011423974624170795 0.3145801749365359 0.9047129939799595 0.003847021234304396
0.01030872858835362 0.30767688141665056 0.8701450428641013 0.005111962825311907
0.010772163594032269 0.3309338864998246 0.8869330555734699 0.003136125163099213
0.013088654891077937 0.30139538884820744 0.9201770843461781 0.0020657493420712823
0.00892518410636984 0.312811641682871 0.8454569304221825 0.0030251479434441433
0.008337988999239206 0.33575457454199137 0.8334649627798709 0.00780947467696614
0.05541255740544042 0.17816346140835357 0.9488954956858827 0.07495155450696629
0.04847313081687104 0.18025274136534436 0.9626135528154702 0.11338860734937463
0.04715378854274341 0.20166569820170951 0.8568038825119892 0.006850400644897882
0.047345992999201975 0.19141857929599934 0.9282645814832432 0.03072474807477715
0.03971933600648999 0.19761258958931235 0.8941272421531071 0.00604957636813431
0.04471242663446955 0.20439877135081028 0.8388837830433754 0.013075065781040809
0.043692876762132175 0.20535300616427443 0.85109811490992 0.016605081932559107
0.36125357702220223 0.23394342086893494 1.135860450920668 0.0553153262489031
0.043422683596438194 0.18864991622587884 0.943977300214102 0.05632590043940906
0.05208787080885344 0.17632651653266446 0.8913768423735497 0.004137223290267377
0.05070517050776607 0.1633510550128806 0.9077152650654371 0.031877845137532106
0.05088158175353326 0.17794800847848946 0.8793028483319995 0.0049304930372121155
0.04757052015912266 0.16999170937184774 0.9365662165870717 0.061149754054736036
0.36399165471064804 0.23895164785945933 1.1602696338588918 0.041790868403945546
0.028817054903560693 0.3194187362790243 1.168274604230863 0.008426317498682473
0.029465167501777006 0.31567889279966804 1.199857481986231 0.011952473701084973
0.039906309773414264 0.3016974548495321 1.2283877267571006 0.01213312581031607
0.04854642929772319 0.3019852894444049 1.2465183745419866 0.011999963077100273
0.024650648057302164 0.33633886197570134 1.20636643189723 0.004297629485809825
0.03006705577719778 0.31367079815875226 1.2022451187001681 0.014471247466847368
0.027503687551767072 0.3684053462806137 1.250507225792677 0.05889155987573604
0.022287451154544727 0.3762932707629579 1.2544247321932431 0.05787259391467669
0.03661082939209687 0.3705301296332528 1.274363076122592 0.060419030768551485
0.03569928550598634 0.23334737664870875 1.1189074448663556 0.05528792239740489
0.03129413980873609 0.24233434399830953 1.1058241333332977 0.03406640651760489
0.03839576670932045 0.2506627031515523 1.1132700343918067 0.0727215393846983
0.031635879082151826 0.35261172207266 1.2927390530337501 0.012096177625044975
0.0378904229708571 0.35227461225747336 1.2714134041372818 0.014471726945500361
0.045499772659803976 0.3540998933215314 1.31615435357278 0.06280779522080655
0.034801184605315616 0.3748977888686863 1.2796396741601401 0.05171941920752196
0.034235112420187584 0.3906055232871195 1.281565452266029 0.04213769346715828
0.03910357912420977 0.38327625513145647 1.299085556663131 0.04351608156075144
0.043401919918843485 0.253968192256218 1.1394219422606182 0.0937161677072443
0.040404200235857474 0.2591513455074356 1.1663806108237955 0.05602552875215994
0.03545706766202271 0.2593098974282885 1.1099861940346833 0.029472372964581647
0.26345006344684924 0.025577948795431116 0.8482629918188486 0.0146722291594523
0.05156941383714982 0.2457136029493 1.1841470585782068 0.06706682615461695
0.27818039339443457 0.03355952769744173 0.8331916725769197 0.006388125179240453
0.26832579463871864 0.029863527133608906 0.8483949190553226 0.015481139921587514
0.05725125460939661 0.24492073465282765 1.2108222861997453 0.024880229304867125
0.056625275815962335 0.23821811121359893 1.2003237835195375 0.042055653285794296
0.051412557794664915 0.2576506683545828 1.2132080574909387 0.014434328041470136
0.044016582251267575 0.25512934263870296 1.1864262352530295 0.04480383189609554
0.007075569706937844 0.3473265177579999 0.8554066304502325 0.004990988288280665
0.007031782001974993 0.3340546335710924 0.8791942143626451 0.00402601737109819
-0.002345329953840008 0.36528658889559673 0.8335633586056609 0.012083439279710912
0.02612687198122796 0.284981004109888 1.0950870282330523 0.013199357371668446
0.027032750429984147 0.2788377940909798 1.092359594642344 0.013361479449890435
0.020747759449153167 0.3020296718920327 1.0856977288314567 0.007592465769490298
0.020281844940299196 0.28534920097419325 1.0514116866492405 0.0053124746880639645
0.00895062837319658 0.3150175688473908 1.0647951420518957 0.012420296663365272
0.019746313112156064 0.3136320300830284 1.0815151162851746 0.0033333407363107625
0.026572707653576444 0.3355394925907819 1.1753284167825007 0.013137303343076036
0.019612095263939797 0.3389267201369424 1.1546973059585852 0.009315430064874683
0.025989752210348344 0.3527420739736107 1.177329633681113 0.011172487913872202
0.02606214710867162 0.3542257529429716 1.2122207004719354 0.015320063661812827
0.02984763524508814 0.3459353050309906 1.186123405570362 0.008990668292555275
0.01187470041267155 0.3681123512709976 1.1733101863631723 0.06077062057418681
0.39842677756327133 0.3419044619499675 1.007812192657298 0.005751748848737317
0.4026876603483662 0.36173959689780855 0.9779328421995056 0.029959982528625494
0.39914533528646984 0.3403312759652492 1.0115729944223244 0.005056204482949591
0.39740969172782303 0.3513621191677934 1.001780134725061 0.0038866888919496943
0.4023663510376106 0.33865721131027043 0.9853315343482618 0.004950003443907167
0.019580939358183364 0.285501501742747 1.0217079363013002 0.0026453097233346675
0.02089694414712458 0.25411583017611833 0.965675406669689 0.00509621380618604
0.02277020653091306 0.2606184491205161 1.0112295225142536 0.007423129410450636
0.02514182116682728 0.2722164778552075 1.0073776845401892 0.007594794548556286
0.01880695751268074 0.2845797699837107 1.0338778168559644 0.00245085374215989
0.34431316293417774 0.13883127631518313 0.8940350199823571 0.12143802560933699
0.3401769386392809 0.1403567814746853 0.8329774906010583 0.004524262972738317
0.34415921070088223 0.1346199986006939 0.8609372202274949 0.0101858284234588
0.3426642901923158 0.13159925278918222 0.8514560807870982 0.00438253058512525
0.34918549925690967 0.15406641142064634 0.8505875844727532 0.013613323103956987
0.35162543520835804 0.15691505485443027 0.8394354883267141 0.007408041217582273
0.3631924672649102 0.17661782036513798 0.9090417276785797 0.016464353717812782
0.3589480492637519 0.17953838129704816 0.93232197730588 0.016402211359990402
0.3459912959495319 0.15986542144984198 0.8882890070485079 0.07135434011077949
0.3542684256836715 0.16587361797617534 0.8598609580373225 0.006745706102535042
0.35824473890126673 0.17142921389378799 0.8273789961875675 0.00707924563557231
0.3599207860540461 0.17471810525013753 0.8458595513117817 0.015911835666531378
0.3659632540757461 0.19407006457876477 0.9107194249884998 0.012408736742693422
0.3627168342440921 0.19833885468315937 0.8966526331266648 0.007008785527425511
0.3686877843837021 0.2062132223605673 0.9369489629075991 0.0066195235458958775
0.3613000116176327 0.19593625721978722 0.878198261077859 0.008858654309116422
0.3763832669431118 0.19773119108633835 0.8463708224720112 0.004574755056289851
0.36596544758457394 0.1864874875999857 0.9104864463788803 0.007994051746537865
0.3726717913359746 0.21122066102844533 0.8637625799223951 0.02255798699990183
0.36742687589508766 0.20082511071311893 0.9588039864327456 0.017375690215987286
0.3708637076923346 0.217259273130044 0.8341161386060849 0.007741365022176825
0.37455806966537664 0.23233092371477232 0.9153457133912867 0.007149306916378082
0.3800171277262447 0.22559934258761155 0.8882291810668678 0.01115906348660154
0.3716375420149027 0.21029264688175367 0.9593508663713212 0.01029034864146122
0.37556515344115465 0.2177222956772099 0.9331072937425569 0.0038164253392237385
0.3754530597325195 0.2180411217071316 0.9038725431350625 0.011868057126199615
0.37220860572355235 0.21181155600436202 0.9591909760586749 0.008438078375070037
0.37773328980870613 0.2200382367324794 0.9104390020673083 0.009125410589640837
0.3833107582549029 0.24542058131998082 0.8576386396927229 0.004698690729442382
0.37715392185490776 0.24453162035472745 0.8915781385680887 0.0044285172463120115
0.3828473049042359 0.2555182653502361 0.8786430292145944 0.01003893704200559
0.38904226239870277 0.28045242803313086 0.9077931778584176 0.00341890687785844
0.38988930921616677 0.27696372402968883 0.8781615565301831 0.003962694766676274
0.38030107690566395 0.2555984284559453 0.8974397207377566 0.004588651522128564
0.3830333596086515 0.2540994853092732 0.9244352209275851 0.004985373503372476
0.38319462218279193 0.26609257182536755 0.8584405213868485 0.0068868387356865275
0.38420816844763483 0.25401532021007805 0.9313869841093688 0.00393054007192074
0.39541418626969704 0.2872378875243795 0.8655926983366051 0.00483069399423226
0.3872832479998638 0.28269688966842565 0.8298547923905801 0.009624751072941837
0.009357378073432357 0.35882180986952655 1.0601822765008757 0.02792036199986877
0.008077240811247614 0.34551960681515465 1.084967164181771 0.015722279040859388
0.007047941494864898 0.360114564602574 1.1041839394935467 0.017836906541488392
0.014260624745142671 0.38377311418369087 1.0928345239211847 0.00731889436805027
0.010507987611355608 0.33540259771801545 1.0714825597423197 0.022519142429336798
0.36070222830782533 0.18284706088503247 0.9508744802639629 0.0129378352311989
0.38784388094759814 0.2822958604751271 0.9812387998955369 0.012924300982034223
0.39302705392322623 0.29855838508857085 0.9892130561117533 0.004261697946199185
0.3816624085003639 0.2753776742224413 0.9496586748561209 0.004159381416148536
0.38224134308263 0.28252507087308876 0.959150818191923 0.0036314639163031875
0.3885807778753206 0.29270649285688255 0.9387497975437221 0.0031560172325759486
0.38867063399826585 0.29553176438762685 0.9684801772243605 0.003231030884440612
0.3812783853998032 0.2640174520493255 0.9635898452213334 0.01444511114111505
0.3890100635104293 0.2868573037716903 0.9241524618948547 0.0031232805071398154
0.3917981702395812 0.3102030365213706 0.9694688701738459 0.005380544149057525
0.39168863076852833 0.31427794290246486 0.9585852560670289 0.0034873012611124216
0.39789518943348456 0.3232626972222457 0.9620274880807778 0.006806309527993724
0.3923074688880163 0.3065278720920633 0.9427796024202557 0.0018976807749289198
0.4007052365531205 0.3089607920124131 0.8722941043591899 0.005058512642665228
0.3992639377548496 0.3191220481039867 0.8438553860725592 0.006214653450874827
0.39174766611335504 0.2982910024505343 0.9115964320034956 0.0019308446932529628
0.39687596108048223 0.3220323446204718 0.8776758003351127 0.004083984874253531
0.3959796656010209 0.31556637599080073 0.8973653782810617 0.007190975580714364
0.3995253073794752 0.30957049403235976 0.8875723053919291 0.0056929718615804726
0.39878780999800834 0.3201012287183921 0.9236274420271887 0.002860695105132447
0.3951496128507914 0.3062760077368792 0.8957151486021535 0.005471010246297803
0.39745340880404123 0.3193163634401958 0.8645584911841198 0.0041326798142838845
0.40015255840442265 0.3107165583083864 0.845764664902664 0.007406482113174091
0.3935060329957284 0.29142138603413714 0.8946538392249497 0.004590824913033206
0.37580364545969464 0.2231432618641712 1.0103191175033504 0.05457789829630971
0.3724085563261356 0.21364743762689847 0.992504773015895 0.07078522376427461
0.3752312526573694 0.24046729257239183 0.9583571278473609 0.0062794703992328175
0.1742749054796309 0.007161888584885805 0.8448649609795554 0.04428970446550653
0.40483858439122183 0.3673178089385398 0.9132697027721377 0.005593614414903117
0.4071221745496335 0.3378147918952854 0.9282325429976861 0.007611061841771422
0.40513757931394007 0.3600802097776256 0.8778973311897239 0.005070132647607276
0.4064370120697514 0.3782409411666565 0.8734206762752498 0.00847432317910891
0.40477438713130887 0.36455326549852457 0.8647904456987814 0.010324429359227975
0.4029859984050907 0.3569950137822344 0.8924772487313865 0.004206627049638577
0.40481095118665283 0.34233864293255817 0.8476478557742371 0.0021284339595543556
0.40710253659826934 0.35230365075615433 0.912632578966804 0.005805324319283901
0.4004976910570376 0.3451562602598816 0.8728868921173937 0.004228437245647158
0.40368402938996845 0.3608365241746877 0.862051161255801 0.01027772298355015
0.37697606423056984 0.2564918241547966 1.0462165629948172 0.06716757556792695
0.3818639348070378 0.27055070982347457 1.0908794437860778 0.010386213224571868
0.3744199185418751 0.23094893547530934 1.0499765259564064 0.07990309900609639
0.38024592029572296 0.2523150343875695 1.0695796906731554 0.04013902443868972
0.37503637278190627 0.24536333800516033 1.0189860096324643 0.013935770877078663
0.3765768664402278 0.24746036734544882 1.037260645064172 0.06079410995282537
0.3794866280154259 0.24935381623982136 0.9557210972707713 0.006657376655914729
0.37614563288688296 0.24207315447528863 0.9583624239446727 0.0064762243204358055
0.3687376597029963 0.22413529901353194 0.9653230649463146 0.007475935564283541
0.4000544556216241 0.32515892461566837 0.8307166421337061 0.005480876731213879
0.4038374238192609 0.33569588077092694 0.901150154049694 0.0063022758699151195
0.3997137531550809 0.33834644667465813 0.8548508039263175 0.0035188648475293306
0.2784941510633812 0.036844539771376465 0.863341606595955 0.02494502988855825
0.39620493814765845 0.32558112923294463 1.0230570924498896 0.004952015474240479
0.39775858264826786 0.3198368024670388 0.9805113286176317 0.00589134908537469
0.39629356266978455 0.3313567867847309 1.0016588467007552 0.0035500674428506087
0.39618304241464397 0.31297976044022624 0.9869731736329433 0.0037110978622890475
0.39153628659231154 0.32671764618107824 1.0585510454809024 0.004610324902983335
0.38645010546827835 0.3237715900227289 1.1143488536811923 0.015322193421506827
0.3871596824789444 0.3032682478141257 1.029456711790149 0.0030717376975943032
0.3930513612930127 0.3185097494285057 1.068943855021487 0.0031359376743110134
0.39028393739784767 0.29110894307825946 0.9053350060632654 0.002135406381211192
0.24101040518551597 0.007454030743364445 0.8353598115765708 0.007536198177361406
0.35782050724252623 0.22441745050805992 1.086466260159205 0.052381579161068115
0.1418263615438233 0.02741382529672725 0.8289729762038895 0.014460804480754055
0.3935573284163016 0.36422803389925407 1.1449726352621075 0.009910373499055393
0.3825823784056065 0.33771872628185773 1.1452151340372103 0.010191747484193561
0.39208481678593127 0.3401413921780245 1.1305169862566022 0.009309744896383138
0.34358279479829856 0.12910136575138392 0.886994913885018 0.05851985955163693
0.3341377395953398 0.12787899985116327 0.8953667426861918 0.08007675343506555
0.37301489265421167 0.2561155718588201 1.1168040249491442 0.0106668339179599
0.365778124468318 0.26523478021336344 1.1525182285452786 0.03005941690807674
0.3767124696583189 0.2708507778786513 1.108248581976953 0.016364143739506676
0.36971447965762155 0.24397688798520464 1.1324613952735105 0.03293142413948863
0.3666049207689612 0.2593321966382789 1.14131756861223 0.03443320403537633
0.3710705942062364 0.2743844194228407 1.152334295413436 0.008953547473066077
0.38695517732380874 0.29506785999841006 1.13805364728554 0.008759267968097945
0.3861773869158789 0.3134445466501679 1.1223768241732284 0.010229814842155288
0.38134926336391717 0.2800327096924885 1.14059741860709 0.010196521591441526
0.3817112422102062 0.28003308662485316 1.1159947314282215 0.013564468716739572
0.3864019824300416 0.31139017178567274 1.137709286132159 0.010679615484122341
0.3716147483968272 0.275263942771749 1.1614038750293147 0.009916881776734334
0.14679784943124724 0.020383645637730596 0.8382114355490079 0.03333259557267559
0.3607666954219212 0.2568819517230179 1.2016427549361866 0.019766433340605002
0.36168773556412875 0.27544567756221455 1.1907357185557716 0.00779412363639245
0.350983059831487 0.2409899324437806 1.22522120057475 0.018802499395843247
0.3948761680471682 0.3412443881018337 1.0726867672456488 0.005545452811875919
0.4014800149278741 0.35766456654386963 1.1111525943724463 0.008693515450731045
0.40272725000888493 0.3661126792273193 1.1057873827637723 0.013555797672350534
0.39396791191653235 0.34564785559155803 1.0889523543716981 0.013091006070716884
0.40508778598857453 0.3557395465013089 1.0677865438845784 0.017047816567277704
0.38061746840709 0.30905570422771245 1.168937431280838 0.008360885470000115
0.373992358337252 0.30721643805583815 1.1780434238974262 0.013721444743052407
0.3793025954902432 0.3093521653450317 1.1634534617595527 0.008599410022824406
0.3680847926182896 0.30888080903116416 1.2203126509324764 0.013452735476466762
0.3711438863855656 0.29444261514367065 1.1919997098781996 0.015557863291597062
0.37588813618083405 0.32342686696549977 1.1894242468042153 0.015623007586813925
0.3720620661165768 0.2994691676314366 1.1913054891206212 0.01116332955064542
0.3656888776033765 0.3027290720285192 1.2484830312955062 0.012196572147350423
0.3706662168961806 0.29720623058906454 1.210725706734695 0.008408441292209204
0.37012175550788295 0.32298274027855883 1.2380559943670983 0.012619514341340426
0.3616675472644292 0.31651531322290766 1.271566096862707 0.04606998784335165
0.36855843275374217 0.3307697447490564 1.2887288015716787 0.035696426430903906
0.37194220424346536 0.32312981191967605 1.2547550586341096 0.006359158521935077
0.36031270487297656 0.314107845329055 1.2689756368855003 0.043642091426901036
0.037010048709903084 0.24950034547490615 1.1624112467995942 0.07473314582854489
0.35957201000927735 0.278145338304863 1.2525909121629986 0.02935874257629785
0.35774068906869033 0.2580057419326985 1.2232362454061492 0.024464054416168148
0.362266890102244 0.2799776236425745 1.2703299419511178 0.01787830550744648
0.37029883900451 0.26710377103294586 1.2190044754137292 0.004208974862415007
0.3683881985096555 0.28624470057295465 1.2329343341853518 0.009306246632322206
0.3859335429503339 0.3673189252133397 1.2195094076832125 0.022410657315239713
0.3844152997838343 0.3767813381337034 1.2243202859039812 0.021566833273145368
0.37226606468275797 0.3260919694652806 1.225277415468576 0.016203657986863046
0.3838453636354942 0.38396954352733126 1.2260448216639495 0.04512465426591112
0.3846555766675975 0.34875259884738197 1.2203443729801666 0.007280830320779819
0.38619626963592535 0.3803507554245411 1.2110201707033248 0.025369752737347116
0.37626411622019307 0.3530171453132048 1.2274486767038588 0.022608166441764777
0.3840434572051427 0.3491621153331361 1.2033934529489112 0.01885603211161184
0.3784666637515875 0.3448490015926274 1.1752342086004095 0.017171048975161255
0.3864255090920238 0.3389433466170476 1.2153188665591488 0.00850410507134065
0.3889802575741967 0.35535555829565946 1.1696025634033977 0.036627922863453476
0.38551631809712383 0.3726585629731702 1.1855296486261153 0.033488536471744816
0.37465685652005354 0.33424542494177284 1.1796681906418778 0.012707245036164801
0.38542626938471325 0.37418427218645994 1.1660971986494475 0.05650269358130034
0.3898439697876855 0.3676163415960893 1.1882528342552339 0.028420382898725196
0.3797866453223235 0.2963549047322764 1.11278098118964 0.0038691422463016717
0.3799549726114882 0.2922450395245505 1.0741077276725521 0.012894094954581754
0.38725763817465836 0.3137213931689736 1.0843440298440885 0.002784258074982476
0.3867263789221619 0.30544600817178874 1.0606508779632469 0.005589438215801755
0.3988365237003263 0.3656642435777224 1.0881781041912257 0.02941939966728753
0.3963301637424811 0.3797541795787045 1.0890268095982898 0.022594412036725343
0.4080187306875489 0.3830846446415279 1.05778250557548 0.007216553546096739
0.4013658472494378 0.34980758955850616 1.0515325781388227 0.006264132920833398
0.3996891701280117 0.3499383183912188 1.064788030215792 0.020395352705391646
0.39832280055427405 0.32986482503986997 1.0418830717163463 0.002875012565691725
0.3691687524417413 0.3315130709276337 1.236869731996177 0.012184468213997428
0.36799156773430375 0.3446191985467681 1.2661367524556644 0.01065051785708447
0.3835110540975192 0.3686796131054322 1.2762117349960493 0.026182752650657188
0.36997864981376893 0.3480011451003327 1.2558767854386343 0.011236710624963923
0.37810476518331393 0.36804399367099194 1.2408337188501632 0.036101670250144366
0.37756149201394934 0.37749229062772466 1.2728413588926841 0.039626322076795575
0.36850152328853497 0.3887370687777921 1.2883974631585156 0.010286826518750526
0.37839574138581866 0.36213504672957975 1.288907724776342 0.02508254797180751
0.38259326464194454 0.2540287961988621 0.967318870486648 0.020610230241747487
0.37442092576881575 0.2789172008427196 1.061639414406138 0.004544635142096289
0.3801675294713517 0.26843090714714535 1.0178344919959212 0.013042805957586784
0.38569139183916024 0.2739164637309215 0.9906322319920021 0.017711749144658662
0.39191373442936744 0.25623142293641754 0.9975202170285808 0.004627190011091936
0.38901211677388814 0.28281239916944506 1.022109627829146 0.010238048449342304
0.38265582888479804 0.27650220298342715 1.03430669383396 0.006409308330024449
0.38967150243135346 0.29359205889942197 1.0111684134289978 0.010570844509605706
0.003461472117693408 0.38528082213839476 0.9446113589085243 0.02061821653769064
0.0014166488532565507 0.3734224522636493 0.9242345955812502 0.05248728776289464
0.0033478503416151336 0.38617930069591416 0.9582138157473432 0.029928807750848867
0.0031291821446396834 0.3648521398566432 0.9368409793953161 0.0268029604191621
-0.0014458506833270879 0.3731038232191316 0.9536156716148767 0.025494226903646246
-0.0027419925511333043 0.35552603628786245 0.9194539693017807 0.0065965233530045925
0.06933616349808644 0.24803393195333903 1.136701487766025 0.02461811476135945
0.06415530069041525 0.1849741047671312 0.9476561045616175 0.061859740931239346
0.06027175708554807 0.20552242843667823 0.9951232167997496 0.011448697469142967
0.35179636262249825 0.24423124138546431 1.2150554639567133 0.015153074646825967
0.3612774571115139 0.23769785837051327 1.1007231753901578 0.02188692542577758
0.3451352823800546 0.22549534870261145 1.1826460930847866 0.0774421065410213
0.05417437092735935 0.23365489174551574 1.109139634582348 0.08836484267430908
0.3544623563914709 0.2196935891946881 1.0518188643327493 0.10297069942039244
0.3498219726458543 0.22744430574863742 1.0638760090861314 0.06734964061205315
0.3423337838193145 0.241394485888333 1.1539221615046495 0.019007161285138983
0.3460075637711796 0.2347918053862534 1.0532113434295638 0.05227405425025451
0.3855894352907711 0.2965528315872895 1.059215390339138 0.00700432349936992
0.3743035460971 0.3208520137535429 1.1752914880841356 0.012127915760095443
0.07850811655572021 0.14591240398990032 0.9183659416184313 0.05216240075644769
0.0911424868747116 0.1395109149216278 0.896157070713836 -5.425011956616052e-14
0.060629972772197796 0.2383653754692439 1.1750518557217238 0.0712479972384325
0.06628805430778908 0.24954000288399475 1.1645450763018512 0.0410217200811849
0.3715660192161859 0.31966614843338687 1.2165612261021925 0.013743057060873561
