x y z curv
0.14815943340921287 0.3151906397996142 0.2832399214413444 0.00797941565214234
0.0728450840164399 0.31637598817365603 0.21513534111242893 0.0011306476149131424
0.2769817392758945 0.31819955480341544 0.38835671148622564 0.0028141012561050853
0.024929569427122565 0.3093117511817793 0.3304554394863638 0.045944245404724166
0.03827481550885113 0.31710010857966325 0.3084994882598565 0.011738699202744696
0.1141157744088545 0.3123430217138212 0.35499309097085363 0.01528515816908801
0.15709899886588852 0.3186706763130929 0.2944307262507538 0.006470203221815781
0.06109899537707146 0.3152863175046329 0.30287714161784596 0.00492525354532718
0.09846406540926797 0.3151087628793897 0.22461820236845126 0.002166019664053278
0.22642752459551288 0.3247359429560299 0.3344945523648364 0.0004718973921386934
0.2418553091862027 0.31246892239681867 0.36548416186953536 0.0052589435584540906
0.21895505829357503 0.3147938124684826 0.39246718602548925 0.004117660098298491
0.1652852434219503 0.31549958970915604 0.358775571696116 0.00797065886900592
0.10167247770756964 0.3233298909408309 0.33383169917260513 6.909138666898429e-05
0.2863532648968194 0.3115301318111346 0.4299159598230105 0.011962888979735659
0.12505987265578777 0.3178414205792341 0.23257550774067892 0.009161532925650698
0.04316076002518694 0.3175792069521204 0.3139516587382729 0.012753501560698639
0.18531333053209248 0.31481582722560675 0.2846631713230975 0.0031367818354316053
0.06485089043457955 0.3144987611374565 0.3170177333159585 0.003040901089814639
0.05810778962949075 0.3145686668981599 0.28020710099565804 0.0035775736183891096
0.2331212153747084 0.31503809348018463 0.35068358870633176 0.0018130140283280107
0.0649611274350739 0.3156113847064651 0.34818049032382614 0.0006566980320449018
0.06715065906196749 0.3168401041892489 0.24990083260217988 0.0004387560199191338
0.16787634815114016 0.3141791658344821 0.2608084032839747 0.006220553566961707
0.15843351915188242 0.320258580232197 0.32039796719317815 0.00226752280262802
0.09873840225064844 0.3160073297783261 0.1907668531667005 0.0009400058766882074
0.1481988921660423 0.3229620928396674 0.36887553289755803 0.007268369341404325
0.13035281209801763 0.31301230414050774 0.2607050505217324 0.003214815013982567
0.10872180941544039 0.3185591085201045 0.2953292107339087 0.011571010962015758
0.20967488119965447 0.31407655240111804 0.380194960364897 0.0038195333517864797
0.12774700078949328 0.32591776415529666 0.43723483206199454 
0.0016844950155038164 0.3128858736224947 0.3418997933811989 0.03659506627844627
0.08516121271861321 0.31643251385292603 0.4045986444059948 0.0022684545285249205
0.07714420144980576 0.31332845815500715 0.39051389829434013 0.0007255969525544486
0.07059648900325545 0.3168877788264866 0.3700694263073799 0.0008530876630380925
0.13165662988801285 0.3199220546378634 0.38412186900107326 0.016325454842606373
0.16356822902588417 0.31280936472272697 0.4022417801334973 0.004648659677957481
0.10554409924500925 0.3207620415936283 0.42711792871669396 0.000725653665008835
0.20250587057935232 0.31545822573677734 0.4086256418217304 0.0046853289655755664
0.05336853236620569 0.3132397147888935 0.4026768160317139 0.003506756977868878
0.006475062814722254 0.3149459725223161 0.42410910854822753 0.1487771850949005
0.023568091237213706 0.3201727518895329 0.37575264410697423 0.04715978239328717
0.1456915734960393 0.31624077147185636 0.41030186185165496 0.0033076912513458627
0.01059545522519899 0.31400514980884286 0.41520087289749047 0.1286484065609115
0.17826444001965577 0.3155844436123209 0.40160169702970255 0.004142255485538729
0.025325168965318376 0.31628928421057445 0.36361515726738536 0.08740695997087303
0.027770735502608286 0.31790561161007497 0.42904246614478797 0.05164601237574938
0.11711177112236036 0.3200449398173968 0.39375775028410853 0.006694702826092114
0.055110284223112954 0.31256108654869946 0.43107426966934076 0.01246508086233634
0.06875016972666328 0.31404361495386707 0.4075636686296307 0.005143769033265481
0.009314307270218125 0.31019611371016026 0.4416535861504684 0.11947800578799994
0.11913806074547623 0.3155728349650599 0.3777997705349765 0.00517593023371465
0.03850925804741119 0.3191752896173035 0.4092806035366766 0.00474980072570838
0.09299122704382545 0.3155363636336406 0.4018508930577445 0.003505929098179894
0.17855733622751976 0.3166498988167162 0.4171447291738968 0.005031600818009296
0.14776901593231817 0.3184532630822975 0.3846751792927481 0.009175860807360884
0.1764556477197938 0.3108512373436073 0.46889543356747854 0.00421963806726697
0.18934717392499745 0.31085178238616196 0.4644931889914418 0.008568289109143187
0.19772088054396023 0.30964750779022326 0.4561718708095319 0.0038108160950097165
0.22977987896800312 0.31145861717313345 0.47895362503867644 0.004075586759876558
0.22579971538429972 0.3135769075650575 0.4580298430879164 0.004779127528336508
0.1785638358714209 0.3119205201883339 0.46266668645795317 0.015959635386761473
0.2913052087391105 0.31979846990882915 0.4651246661798265 0.006542514596541421
0.2751081025382015 0.31696712786861997 0.4464620947999173 0.00548954003433188
0.25441370437545474 0.3212758646296635 0.4497939718177055 0.005791491144816014
0.14660250696653399 0.3172064538064228 0.4739710215981678 0.004386387188514826
0.314066672141162 0.31896133578307745 0.44506611181896166 0.08650253544014092
0.32464753734096213 0.3175123497273686 0.4801025584758382 0.11197145280372289
0.05524562760828852 0.31607376870277043 0.47149429634768314 0.0036046551083533875
0.03032485068332612 0.31318000941497326 0.48094974422520986 0.012640872418844531
0.08263575340361037 0.3152359591766864 0.46001889695461395 0.003604510723821723
0.07266725151832638 0.31959123506448806 0.46423932758207287 0.0007766875256254703
0.07803549800940801 0.31575024395134094 0.4337377871485386 0.0028446779755410944
0.17430023698083905 0.31612074569189313 0.44765686215985495 0.013185881332033784
0.20456812050475834 0.321047495061414 0.43659930133199953 0.005378046439794947
0.042914043719732606 0.3154214320588218 0.4805924492846977 0.0031622130348499863
0.1642910375987131 0.31288064964552476 0.4516217634314149 0.0011225354191473278
0.22843642635736933 0.3186606037162863 0.4357128918549661 0.013864200472688881
0.028907589109656816 0.3098057767405063 0.44058477716405237 0.06266881837193802
0.06464678709198979 0.3142484509442636 0.438011451557074 0.007782371766932162
0.0031227721851962934 0.30581622185259333 0.539041679308277 0.10804550359511464
0.07768103163206085 0.31265979181243775 0.5402044187223315 0.013147336607469893
0.0547476422022479 0.3163995803501071 0.5475621947334117 0.01697614376414788
0.07604662275266101 0.3138022548753386 0.5643205525637007 0.0037603791480727306
0.03975130179617402 0.315957285634713 0.5413205860604567 0.022152212034151686
0.11322561810693649 0.31827587466241464 0.5671635796560796 0.006177019694774157
0.023223641150829012 0.31286721472294693 0.5042698191262064 0.09372076113329622
0.02634276472841094 0.31376934055457034 0.5301367559195054 0.09545345308314845
0.03498191365973347 0.31191017886915035 0.5593412528083319 0.10827383372412347
0.13913274732011174 0.3157869083434255 0.5712698562142653 0.0019586579000920026
0.0699585204397277 0.31918353863962046 0.5245053232084479 0.0016838818255251382
0.108679257962961 0.32046082499144773 0.5512064050044329 0.0016771847802767152
0.1268842809712875 0.3149085729516121 0.5481638121392367 0.004989292475606891
0.15000665344452382 0.31352851752257616 0.5521787962613811 0.00019271601745776782
0.2564802933234774 0.3222338192687103 0.5142614926564674 0.0034048814607508826
0.23954739977807196 0.31934196643574686 0.5002306764094208 0.0020733345189778646
0.2774365213899421 0.31857564082580386 0.48184559047542463 0.005784719328581431
0.23423402208558625 0.3152346658142575 0.49000359641920016 0.005090141602969116
0.1896966724304905 0.31519271214927136 0.5109230936493752 0.010971005890160635
0.11664538156593825 0.31680295467444197 0.4852709459468549 0.0016012078928904709
0.14188615743948324 0.3133308823907087 0.5153283745573771 0.0009525265559236668
0.2145793551284912 0.3117261115651787 0.48885580208509033 0.006257386725708393
0.1922447257235756 0.3127731193797282 0.48934153009275405 0.004408907360122807
0.18892771546791362 0.3167761327766797 0.5410200028069282 0.013642519593321818
0.06639969097068901 0.31614847127464274 0.4905047768426068 0.010284291076787619
0.18371662791418472 0.31191785147339873 0.5533895667065264 0.006658144210149407
0.19323840600555964 0.3102084326377201 0.48075833370376175 0.0049446284795790505
0.11039259305952155 0.3118589436387361 0.5289247556965907 0.005837742286514374
0.08985945610628703 0.3093218664136511 0.51667354119584 0.00416697476769087
0.04247997698129925 0.31760297166499435 0.5002276703955784 0.0005055765227799231
0.2092807686822163 0.30999818221074343 0.5181382234646882 0.005828948336712133
0.17783067763683572 0.31175530572152854 0.5331504430795525 0.010854265326705031
0.1882853202257069 0.32047113717793574 0.527183035155926 0.007768514969495126
0.1719570780986405 0.3127396436649918 0.5649228526746195 0.003063053647683746
0.25536644776653866 0.31637340937213293 0.4809566496272146 0.006277493027628441
0.149553049792595 0.31523030781580885 0.5731823868601902 0.0010324469391772813
0.23219453402146473 0.3184074394687259 0.534641065649251 0.005600579121923059
0.10807514730690512 0.3136707840448744 0.49231675971220146 0.00030122071288217115
0.15744164645198566 0.31868644901512294 0.5074744861137396 0.007647555258807132
0.12949300374013065 0.3179346594890473 0.4807713841248225 0.003573106280025875
0.2061754600025591 0.3158128856135029 0.5567375601191092 0.007767168164020195
0.2944875916823674 0.3155121985835373 0.49488786538752905 0.0603788762413168
0.29386660754968236 0.3184080383918461 0.5191818332712475 0.011294628290609423
0.30562175556336374 0.31609472285736134 0.5331489426763207 0.055934425728519
0.2905563365700355 0.3162015954823847 0.5587125774430165 0.05995891995017422
0.23361046501273844 0.3165972920384339 0.5550815578281012 0.013437302884584645
0.22979238369331625 0.31498430861104054 0.5655426087639611 0.007547525827662392
0.26660219693018977 0.3166862135892614 0.5509792217700143 0.005671504228545561
0.2608533060787615 0.3171629328614416 0.5621815899306136 0.0063505015868048475
0.3136218726281845 0.31922168479983404 0.5043413245601194 0.08249477865486485
0.28717279658052786 0.31271374188987544 0.5344162460910814 0.03878872166238804
0.19444853019017108 0.31398062361428297 0.5796407840347958 0.004520839507586493
0.2190084903157139 0.32002471000876737 0.5897983419518661 0.00648737326560776
0.24476151052392028 0.3077140759264579 0.5902482976792518 0.019019112275720357
0.2703833208595032 0.3115655989150396 0.5910595693690007 0.060507086029307953
0.2853376700554979 0.31791576156491763 0.5720298417542389 0.08167867159191719
0.1740955869637963 0.31324480414519795 0.5797057651195128 0.0030673534499392617
0.23512448508331257 0.3126835752718753 0.6034503536833445 0.019912964840440514
0.25324119702218156 0.3097777402888529 0.6208135998999358 0.14579505301746726
0.20164373181291023 0.31468089373660263 0.5915238579552126 0.00688634526958827
0.2624368324855996 0.3067828701292309 0.6051426518566037 0.10915949398301773
0.27593824985973525 0.31100363803104797 0.6009842081130251 0.09736234855283195
0.23489000901342863 0.3122050243094081 0.6284601992905949 0.06283726411767133
0.1932141213605915 0.3185940520922631 0.6130769665794749 0.010643134982949548
0.19381435758809823 0.31498450980992315 0.63963531803545 0.053750477183602485
0.20161178053329948 0.31342461514614167 0.6397696260218431 0.06703377614262951
0.18039977101237079 0.3209800420301403 0.61647259550435 0.004239583214965792
0.17557413238859587 0.3111600519230531 0.6392798102734121 0.062394968743669156
0.15678853495282838 0.3113474888377016 0.6463207858002874 0.06698770791235444
0.1568121270729943 0.31466729946101707 0.6304812183671974 0.010788454995056344
0.10008675381065918 0.3179077373118532 0.6473336047834857 0.06159828895823348
0.12413397719928658 0.3137019958791544 0.6188388898096084 0.007689944960089066
0.14450556749318008 0.31290164028273093 0.5941802298567619 0.0006592692606176199
0.0708649032650327 0.3165195953749213 0.6051878274920102 0.07151327212295076
0.07233162821690901 0.3170633816588357 0.6002390186689877 0.06975959194435462
0.046697107567059915 0.316254350246387 0.6030184730197214 0.06523871580588834
0.09992535390857243 0.3138845579929616 0.6065720895964922 0.0385387300636189
0.12692847820116726 0.3147801982036414 0.6036603173055332 0.0026463275343958453
0.08521739359808156 0.3166300776147387 0.6231592892639692 0.1049466790083904
0.08668951998865694 0.31567937224026366 0.6347904088921789 0.1229392700547798
0.0735288820726447 0.31709098492564497 0.6218521922656465 0.0877392400500641
0.09531688742954476 0.31866559416879675 0.6259513762583283 0.09278609314546178
0.0927714267152201 0.32133548379475435 0.5954067068981646 0.003308396966610519
0.04985400581270273 0.3132469568818657 0.5813279302817151 0.10150091001999262
0.028195511449348884 0.3172975904957186 0.5859020722133257 0.03932670031423355
0.051684760320397184 0.3049827392066012 0.09859672705976763 0.04303195072971414
0.0504937443331757 0.2744575380276918 0.09127235867881375 1.5309775628420335e-05
0.059564931378070965 0.310035069607186 0.07930432930274818 0.1071443935976089
0.06132770464162112 0.30808428010224614 0.044885624424951684 0.0042212673360888416
0.07183253976410196 0.3038588370609515 0.015693423620466128 0.01726052307200982
0.0768647285802179 0.2887026698650868 -7.987976884242434e-05 0.009308245147648855
0.10748037155017734 0.31042786089640284 -0.001852950345916911 0.02205413184502463
0.09428861382770239 0.21752327121919734 -0.0018746283904978055 0.0004940687368950393
0.2122045776739131 0.14853414311005916 -0.003935251635304211 
0.24019354745461843 0.2534689334800327 -0.006454657501967199 0.003426954964979441
0.2375335938763402 0.2716630784393471 -0.002797219414256366 0.000355227657276992
0.23634802500084576 0.31151543302108586 -0.011129766422707474 
0.22398413963507885 0.19823938321820517 -0.011988215437344518 1.4717301289235338e-13
0.19296039165831666 0.04302294949692215 0.1100471495877258 
0.19721149685350783 0.02130081748960888 0.16882747747517088 5.7190438509266805e-15
0.2126955655572145 0.057980774409821884 0.11120739262033189 
0.22600481023708402 0.031302892273283894 0.18139374003326272 9.829615288587903e-16
0.2197284551894447 0.023198129855354133 0.1945022789873742 0.00321990329374344
0.21328362248057872 0.007960117062450088 0.22983566597375504 1.9678902152760366e-06
0.22801727384695958 0.007372263730385658 0.27287923782354423 -4.605674271949505e-15
0.2461662885959877 0.03542754948594043 0.22810179510813247 4.351990897726275e-05
0.23797110594707827 0.030747093334954095 0.22210719974193785 0.0034531457122735005
0.24260437496814344 0.05644575374402723 0.1705798335101251 -2.2348943752246987e-15
0.23869034073240428 0.055647096704625414 0.15182271927238172 
0.24994923333129052 0.08611819079609985 0.11121407703977361 
0.24918916480163927 0.1253767105278337 0.08267790039369124 -2.4526810043988718e-14
0.24945389805505225 0.1553617223678896 0.068388915306227 0.0012338825271989808
0.245082403216991 0.16685220659866576 0.05254180116673549 0.0019207036332193005
0.25126002820265797 0.17692405057084556 0.05406002202315156 0.00042617883699401314
0.24356656565111273 0.19756185948839003 0.02899237470199374 0.003521903980530627
0.23863366636765546 0.20994645421819627 0.007657895971250185 0.004751179056955102
0.2388432138031797 0.21924194390019158 0.009313519089453895 0.00621320448709884
0.2435246037706043 0.03238635325730941 0.23560504981261193 0.0010232425117349282
0.25352332762592306 0.055516109108735404 0.20906692306034244 0.0010685301547430298
0.2551432076450122 0.0987877332414742 0.13542544746403176 
0.2616603921264777 0.11873601921512963 0.10839913740822753 0.0021255689099380914
0.26020791210405286 0.16058998641049252 0.09227143088877034 0.0009554643762414841
0.26621763902902623 0.151776650505636 0.11673052950434994 0.0002340869284188685
0.2556653875117233 0.20500025525800122 0.05713230992237128 0.0034815330332652133
0.2514402213207097 0.20285687197208463 0.04625792755296218 0.003946562912257328
0.24903942677890253 0.21982246420193985 0.04116861459704988 0.0008713040677609152
0.2577120222771361 0.28087329904541064 0.03459275232392804 
0.2554093214596664 0.025903180314193603 0.28473588942541506 8.757980547032589e-05
0.264460117110768 0.0833704808797886 0.18659454062806322 0.0005087059607007527
0.26335252165803447 0.07246624210901909 0.20899750469543618 0.0014866357798019108
0.26741081595859983 0.06406888354192626 0.2281595930434191 0.0013843060624075124
0.2629965407992349 0.09241862509164694 0.17566085045032323 1.3694230135438556e-05
0.27533301732039606 0.14915888197422242 0.14635180543794002 -3.92747378545223e-15
0.264580038508088 0.16053689614032252 0.10363483424015314 0.0006939241791830581
0.2609937835556902 0.20919258355503081 0.07866243928524506 6.224748926897184e-05
0.27134891397635363 0.19635050319863415 0.12015646844279072 -5.189976765103765e-15
0.26403168872583 0.1926557286145082 0.0964749095797349 0.0006755400474355742
0.26425959524351517 0.26559422061897753 0.06351924163115656 
0.2623209881032294 0.3100690506041136 0.04045726190514197 1.6057372774324584e-14
0.28511765463758376 0.07624289938533525 0.24806544498556768 0.0037553275286523447
0.27725997289828574 0.0515993705919954 0.27158065076785604 0.012211808432869096
0.2777322009927989 0.09067510156366074 0.21823923947634102 0.007373640936961412
0.2743732783243172 0.1075192382419123 0.1876619865971209 0.003916135156999607
0.2832489555604106 0.12655602878440067 0.20503144720472372 0.0030050575344474236
0.2832913589137277 0.10617539640102647 0.21406858442086374 0.003629141398514586
0.27664880596708497 0.157292739500946 0.15172194485765855 0.003361959527508812
0.27912266081993775 0.12182390011934238 0.18295277727209813 0.002477719180323429
0.28565333821683814 0.18281700481902285 0.15135290480393546 0.006485358661330303
0.27272992801730694 0.2146739898653387 0.11150149636257006 0.0035637643972266653
0.27824045375803885 0.24086102917196525 0.09847490761483979 1.89059338220406e-14
0.2762099535911748 0.28258524311641947 0.07482321311760315 0.00482392428832651
0.2777436692634811 0.28731986512694574 0.10304940657930654 0.06614104988900113
0.2857827352974937 0.054522967388792865 0.29305256081139425 0.0038944404682732976
0.29100104301106083 0.0820681081698796 0.28334299853166844 0.0072400624046357115
0.2967545661401277 0.1470350016523064 0.2220652422188188 0.00020665231350548198
0.28558798774544825 0.12562579491250242 0.21337453627583886 0.003371348627484528
0.29270528963045056 0.1328687900524792 0.24935855449122266 0.002769543028468794
0.28272625235791454 0.10424464991621427 0.23805935672897238 0.0015394930067034766
0.28649139136179336 0.16321661540957216 0.1856851465620608 0.004412799882875393
0.2887562981989796 0.1531045235043474 0.19145632383534614 0.002235426575323135
0.28561788275298283 0.17982934633703151 0.17515117287175025 0.006810187372148584
0.28812074817044037 0.2131946523075752 0.17674071540411299 0.004282829372622934
0.29208342563587136 0.2195199584539616 0.15249319385058732 0.0009206805420650104
0.28726413276229473 0.23322804090905538 0.16477163110338147 0.009833481747169935
0.2788393942547608 0.26151356257922953 0.12265488990796379 0.003155611075489634
0.27929125141019373 0.2384860763882655 0.12215960443770933 0.011632223071664389
0.27377096922204475 0.30531687402841057 0.09750153827527915 0.05789650281206789
0.28920175110189894 0.06515011737264109 0.31256358959127045 5.390475447896073e-06
0.2894580657487432 0.07604360567151743 0.3159107303765953 0.006247557287564369
0.2990978051951013 0.20946692604572328 0.5583753948561454 0.007468880564019498
0.2988771558101892 0.16242389558639664 0.49284612937245637 0.018532643054723873
0.28357428676350316 0.22341506818179574 0.5701885493974714 0.0035488991196991845
0.24857109554308754 0.2709896648953023 0.6190325564071372 0.00949602522721197
0.19518811112130602 0.2755462968231163 0.6462426881512922 0.0678300001781469
0.18023725331128973 0.2838730000598981 0.6465349170191765 0.0559087180002008
0.25827992748734235 0.24739057272462867 0.6033933812983973 0.00044143548297278644
0.21386013346011679 0.2784792239472169 0.63652927510272 0.015769018036451157
0.31009869188303996 0.15651815540748693 0.48209697966350246 0.015782052267712558
0.29922754227480247 0.10504334235391201 0.40773211886659366 0.0001805950285483623
0.29569776232119666 0.08097946511170097 0.3993144851870776 0.001345024431397113
0.31260415814244025 0.12963469900583108 0.4373125654115571 0.001134927136013634
0.3080990890730607 0.13934741359728292 0.44415606238449323 0.010988040411580914
0.30731420894637335 0.11085054743148479 0.38999019873741175 0.00794854353159531
0.3156918038921124 0.14212977240304558 0.4159680252085681 0.00786910656613582
0.3033873742168153 0.111013725258896 0.40968468392131563 0.00805878664740514
0.3062429556481467 0.12269034947899503 0.41077244661743756 0.01136868783966833
0.309223811513137 0.13979161995470205 0.3780731459401637 0.009942171466120565
0.31768356933396924 0.1713113536070005 0.42201501547090575 0.0029353876290472984
0.31949996052054547 0.18136509938914874 0.3657066478658993 0.010536982193043684
0.3069420412492285 0.16190635452497504 0.38701486512638517 0.0049883389016610906
0.32063888122275663 0.19858262357458126 0.4267410024876554 0.00932826179102955
0.3178583385268642 0.18500823535005378 0.38430321915703897 0.01725600952632585
0.3190633323184228 0.20610551681257155 0.39996353446643734 0.009841968492616478
0.3166605210593502 0.1987073779830568 0.3471932147643753 0.003631184062998942
0.32030431887180183 0.19369514412482788 0.36828916359098274 0.013054778106572788
0.3191737619937627 0.2157203734714033 0.36560695424560075 0.008233771513942742
0.32943769859727257 0.2335219911775256 0.4340843290416242 0.005838767402575058
0.32356834424915903 0.2230353227229798 0.4227947928941682 0.013788005239197496
0.3277058936467269 0.22408733536298633 0.41030735573205895 0.011451073873023347
0.32753139973319884 0.2151069325430436 0.3909663000211336 0.007456848672740479
0.31876068364783333 0.2596911365771171 0.36331251180685026 0.006941022243551575
0.3195504244675373 0.25190988751789106 0.34149705019707843 0.0078009127110815965
0.32099837176172885 0.2417833184322896 0.39712246528291767 0.0072605299393279435
0.318981964923595 0.2607869423513416 0.3493451921325743 0.00943249540155223
0.3263820315410469 0.23162610769391762 0.34634627274859947 0.006671990938129507
0.32431911692889015 0.23393839748757686 0.3787995091827104 0.01158823173751947
0.32435325766982004 0.2546524334038405 0.41176861895867434 0.004040094890420454
0.32528769566749177 0.2468309122739021 0.4353999159783363 0.0060779035244669525
0.3232300395711334 0.2649600403471382 0.39201974133686845 0.0037588311554996126
0.3236153957145622 0.2723187253453206 0.4416028420015037 0.008154735493493574
0.3216533342503995 0.2705936480155327 0.41336788144059955 0.0008750707561166475
0.32202796991735255 0.26593585506701806 0.376205116317209 0.0024755195082025836
0.3231217296633402 0.2940195863604908 0.4017398689068188 0.08054560289675393
0.3229257750954609 0.28564643957039726 0.3573446961779374 0.006103311539069255
0.32465716100823616 0.293495473579993 0.4228641354362032 0.0888393808996028
0.3198999048223575 0.3025373709316807 0.34817107587328044 0.10391838720092403
0.3199605931687514 0.2778302324654107 0.34808475542371137 0.0023227063925835532
0.324432770438339 0.3075512730021576 0.3841068638358121 0.0340906421440728
0.3278564205431711 0.30153671103940277 0.4391705132215165 0.08025007899398244
0.32340856912251154 0.30252694215662684 0.42220083698919975 0.16587944088391668
0.3190466016026421 0.2830979354402403 0.31084236844855945 0.05422517331107726
0.3078006473649205 0.2762242424424344 0.26001241734170777 0.0018242854189122802
0.32086123566024066 0.28848599119961355 0.33457355092702035 0.007986388592183343
0.3192134743763324 0.2887722571011765 0.29926836940421137 0.07797977513930976
0.32030425677401214 0.3009967018456631 0.3228830113599855 0.09273054132763722
0.29230884600598067 0.28519791986476994 0.1786257255000444 0.035119651205117466
0.30121062054970643 0.29254954567826846 0.2128623433228209 0.0012983214575070972
0.31204100729538015 0.28558571547644546 0.25356203414264566 0.06122341053961745
0.3034498695745271 0.2662872536151409 0.22003076439393823 0.0023215739202931567
0.29614306293894216 0.2632269791113547 0.20051158033225291 0.0014409100776480936
0.3121950460540172 0.3166535928541391 0.24481304078489316 0.049969260564691115
0.30732411647723945 0.29409030354249316 0.24143888433244562 0.05504398806494184
0.2929363175218678 0.3117977374250074 0.16775195517553113 0.07337038683000853
0.2913411259111459 0.2917063433208722 0.17056694159872227 0.07802753378111801
0.31568943836530755 0.26068801955904103 0.32473685421912285 0.004648170099022763
0.32332522628767035 0.24045994562191753 0.3336860761001052 0.0090425343101894
0.3184898807656289 0.2469437765351655 0.30406285165527486 0.004673308279707175
0.3206134734628291 0.246332791351798 0.3164419618627029 0.007526662000585949
0.3092296190312917 0.23409669025165644 0.25978215237894337 0.002926827074411838
0.3069422767639768 0.20189649731852072 0.2562340745320618 0.0007059103649177996
0.31721622153104306 0.21634946982649508 0.2943965828948159 0.0014200629785192872
0.29579361025624695 0.2127945532591773 0.22289005859158095 0.006393943469263967
0.3106432860791307 0.24423280152818558 0.26569305551981703 0.0018604550996791495
0.30695723242584455 0.24357270338638506 0.2276972354279737 0.002263681150669663
0.2998820573273538 0.22866570675987904 0.2222341063142868 0.004946249309488237
0.30354636332328006 0.2446482094260785 0.22071409624988467 0.00596447045909792
0.2965374104487921 0.2381026340420531 0.2032138838356775 0.004556143999412209
0.3162234405148575 0.17337890426849237 0.3118021213160873 0.0054523114251901345
0.31273375631883055 0.17505485403843363 0.32101334252174224 0.008109851175180654
0.3110200197512751 0.15342902107175882 0.3307374523520094 0.00875982170921696
0.3131917430339281 0.1930154605074497 0.3189782025427763 0.0025207148000530233
0.3180824431462839 0.2155237939147226 0.3174777360955308 0.004376702465179549
0.3112300247575603 0.18128990227259217 0.28778517602822357 0.004702610842113496
0.30434219677222324 0.15897274596545477 0.28532625131804473 0.0027235683057275613
0.30605657474148107 0.16489102723946944 0.26721949159547975 0.0020941532978098966
0.2996166900729285 0.1873878957505177 0.2354448918928772 0.008885055420617575
0.31008235728382844 0.13685399640482968 0.34299754130363475 0.006487798513703614
0.3069092001891955 0.14566891891394843 0.35153124350998166 0.01279533560961661
0.3136055161725601 0.1659829481755593 0.34507079557032705 0.006109420195913614
0.30606618132934527 0.1274732677071125 0.34139600121590863 0.006999789519102187
0.31409944562761655 0.15711247302815856 0.3215267356503502 0.00601234455600047
0.30673003886628175 0.09771937429441034 0.37724650895396117 0.010961197736430395
0.3128597038543436 0.12646730229576664 0.3739591383907598 0.005062220267828365
0.300279738388859 0.10014115751382367 0.3505123289598491 0.001441955370318066
0.3033388816875041 0.08655503138654397 0.35116166109900104 0.0031916219726956774
0.30369779165705185 0.13958372479940281 0.28211132118529314 0.005606934628030999
0.30337127449059864 0.1306119497527142 0.3236329498314142 0.008348092956611392
0.3038999707713245 0.14542708959234282 0.2992436905414752 0.0031145978418209417
0.3021467983998178 0.06849520385033867 0.36444016970265 0.009993855610928217
0.2994399135773115 0.1017166725725061 0.3284514105908595 0.003246112862464578
0.2120523524314983 0.2909630718241509 0.6401446069491696 0.019265795646245507
0.22770996848793035 0.31085099978446534 0.6315964137835324 0.09210835980625451
0.22667431921171774 0.31032219083754736 0.6423930373823503 0.06009995166138667
0.27381244423825873 0.2515582101518446 0.603867373077944 0.007117036838578082
0.2876151182710492 0.2769320339633686 0.6044961284345 0.03851701942698266
0.31813287656547 0.17744812706765417 0.4856583165181969 0.015851084513963547
0.30615404572267396 0.19618323038056668 0.5195268336970901 0.04709431628805266
0.3028232530258803 0.2242780131280953 0.5507519844902357 0.020389201430617267
0.2981528247175001 0.2564284460510319 0.5871039087575688 0.013984551480291135
0.30740703540490555 0.2650414736649943 0.5734196796849172 0.001346003950283085
0.30819025299566627 0.2490343568038415 0.5636395654356847 0.01562653806729704
0.3211784153878882 0.2676615690584265 0.5385624238861776 0.014900506903944696
0.30707622900017 0.28595974704020316 0.5669824198187499 0.025245393119354708
0.315732083730097 0.29245894019627244 0.554375065824521 0.03851127785714455
0.31246826169311026 0.31722727547501167 0.5536787674110671 0.04861710643589436
0.3141480079264911 0.3101280530508697 0.528279221895385 0.05767211294116748
0.3273219833836578 0.3087216592348812 0.5046776353250115 0.08176498980465514
0.3197446720717686 0.29205866873265346 0.5360147227568697 0.07426680688824663
0.31570936580799325 0.27276195420982957 0.5060495370027445 0.005789146703113413
0.324991116114817 0.2619012349079251 0.529132965791658 0.009677379689605565
0.31541039695451484 0.2474810459031537 0.5189776809121526 0.02161960850305855
0.3108757731951097 0.2368158479405071 0.5377538597959212 0.005207735859382961
0.30522580410566225 0.21915522158018338 0.5302045611322199 0.007908646498712845
0.3102518808875822 0.21162339339993463 0.5201610498447953 0.00786118475649303
0.31820591742428445 0.26084041666790925 0.5047615674104146 0.01862678041705382
0.3175334108226081 0.24014100451148052 0.5017027401868769 0.019666940677380014
0.31985205801461214 0.24986186600978766 0.49515021310334845 0.028603103895768377
0.3201865964910482 0.2255955728973947 0.49609600090555445 0.003298928408657012
0.3103996502244321 0.22378897156907818 0.5094805975447203 0.005809627715029945
0.32271718987570214 0.2905644995778119 0.47882367792956515 0.015063428134290282
0.3220086258022981 0.28992837225454465 0.4814764094415305 0.07633953164559965
0.33093872481316744 0.26449024860218806 0.4689751123000337 0.000853908249812337
0.32091688562183684 0.25364486778735523 0.47521741517100125 0.008628377193321969
0.31966288799790565 0.19918124856183064 0.4748302949889543 0.007678268414555925
0.3337826461878425 0.31628013785458725 0.45372782716567095 0.043682328144353536
0.3250543655858949 0.287094712980046 0.43805913085106146 0.047103626193556986
0.3251887005067163 0.23887336683271476 0.4539675586620259 0.013301602571785245
0.32321525668933726 0.20906733128288257 0.4615463207236204 0.009295429154006794
0.3185235238288788 0.2042830063453852 0.44102758266603653 0.005856398499239753
0.3242740268726132 0.17926405318355956 0.4558958193979178 0.0033633453890805705
0.30455922677852854 0.13486356345159167 0.4666094758069797 0.003930889318762031
0.2549849037208225 0.30779060197106706 0.621032578856837 0.14603215955195517
0.25568607876026794 0.2945315296441541 0.6254347318004957 0.1429515667548009
0.2950842998157674 0.3144848211922723 0.5818852670088878 0.0747740440704537
0.283118037042971 0.3042168503235328 0.6179938510765365 0.019928435400552072
0.26297326070462423 0.2828934693731095 0.6172948481439037 0.057905670694987435
0.2888094830177035 0.3019918038507876 0.5949348291770171 0.05739184204238391
0.2954423280394905 0.291332808976685 0.5897555134282773 0.04651249687533679
0.27740613283121773 0.2716786640119917 0.6077474393143034 0.037443177121176154
0.29199337217045174 0.2739628889733129 0.592157265594566 0.016360204343846444
0.3066148836473645 0.31108764905506936 0.5674965073417462 0.05364985441667993
0.294738205647458 0.19338809511240188 0.5330272563790857 0.03394348740445676
0.300365312777537 0.20417188909190456 0.5342737432594935 0.026869983598843402
0.30466476972522066 0.17741305776519486 0.5175150666169862 0.006584665194483486
0.2902346759174121 0.07960793201001298 0.2997949811638509 0.003623114004333415
0.29773237861286345 0.09112980928329822 0.2808292496711309 0.0008412472787588014
0.29659740228182424 0.1193633053405212 0.27075582919560637 0.005785683411446366
0.3002287715184979 0.13091240180997465 0.27709271217935927 0.006688846559723001
0.3028045352001247 0.14742003749558227 0.2680451135717292 0.0042712348255514385
0.29607869955286326 0.15548882327864483 0.2378675116393428 0.006742630811383028
0.3003809685834475 0.1841949407633797 0.21329973568830599 0.001527512185414417
0.2941703873000325 0.20884039462373102 0.2137655379460598 0.0076392474787723786
0.293098090996033 0.23169604393836865 0.18823698238849965 0.008206922281207715
0.2920084817951206 0.2517527479771694 0.19159628428863257 0.002031391811078437
0.2846017764401535 0.2686882371267243 0.14231737392327803 0.0014724511262286881
0.28927493845934116 0.2577962860415585 0.17484876028348112 0.0006831803637781083
0.2787874223340752 0.3112915872153326 0.11543408904095283 0.04836222468945345
0.2872296059801581 0.28970274852483024 0.13456005928577358 0.09515333126380027
0.17763888415555398 -0.0016535960672528277 0.2595563632430923 1.5873427911928215e-17
0.18211956710482838 -0.0005954426838717455 0.2255748805370289 
0.18947539666267843 0.018956631283143448 0.1682885878771463 
0.21731237090858488 0.07995516623966982 0.06138099371029257 
0.21597668943338968 0.11514449924392874 0.03330452851654346 
0.22075367243227417 0.14622788177214047 0.012548254192119832 4.888397689760088e-15
0.23452766125417326 0.17911213463153908 0.02215115923132724 0.0015403608345032787
0.23795438510393124 0.1984794814921241 0.010388737979226135 0.004047485694261325
0.24086545706318385 0.2543488758717006 0.002575151546982969 0.004531746533713505
0.24141483369303732 0.2461075448036345 0.018474679650153324 0.0036358720502582403
0.23769327422380251 0.23664646591017843 0.006297707982819105 0.001838841098743636
0.2748890589512203 0.0461234367108542 0.3473574169104877 
0.17371514266513968 0.26026106893100087 0.6173885175037259 
0.19204187419373583 0.0021260819463217876 0.29235053088900836 
0.26462797713250796 0.03227748482695662 0.32673586099078583 4.6921504416504235e-15
0.2473470380955999 0.015018838264313248 0.29586701664675885 0.008180753584222598
0.20998921728031558 0.001984409133410821 0.2833212365783037 
0.2587555999586887 0.021457426330045343 0.3018153276887635 -9.654986710830065e-15
0.28744570305792616 0.1767023271600449 0.5164904003748431 0.02184750956296269
0.2405412750867496 0.2646693266210816 0.619152452699265 0.001966732217734585
0.14620039282390065 0.27775651460210926 0.6470743030478712 0.035393188729874514
0.04043308930715163 0.2066120294846544 0.5516504155321403 0.00101852808013282
0.024060792026871294 0.16951767949348728 0.48693431728538783 0.043227982458981525
0.03034342932704795 0.1355754425052656 0.45224472341054883 0.08394320746165132
0.03421831185158204 0.18453102813547156 0.5102518440543229 0.04977343220645628
0.038169300671038076 0.20150570696888184 0.536110125570696 0.0005409404861585367
0.02982676526994315 0.21441473502590522 0.5562842671768093 0.00164483593598148
0.07629309952388548 0.2581379898750616 0.6177368696834302 0.01589515529554344
0.05481122699423869 0.2490283989011631 0.5970682449013952 0.02016532781302408
0.027148122068359454 0.09300730365131024 0.4031681811873683 0.010990884611971612
0.03711321765809921 0.05750381746566982 0.35227060976274904 0.03543615479442156
0.030798214350620943 0.10667962751630296 0.41984610382931803 0.015522090011621375
0.02120031845860177 0.07667527969070467 0.37984665216306823 0.012750477117850831
0.028326371649459087 0.11849744099270493 0.44144291962927046 0.03882207797275821
0.012140510830622665 0.13316797039686465 0.43239315336774836 0.014501495705083866
0.025517064872228525 0.10977402108067509 0.40847176114419775 0.017570370018158178
0.026140282106917052 0.11162116865647817 0.38534580248468164 0.008932771412292845
0.016891668548099956 0.13307906967656705 0.4099821012685052 0.01544067825628916
0.020355740200895537 0.13938293670404325 0.3878278261013264 0.006507901802571109
0.017762172148882944 0.14405276056375368 0.4160569956535415 0.025561846098389105
0.0038576847244660827 0.17856491204193392 0.4236008274923027 0.02025628675121446
0.005763852863441312 0.18009754169782727 0.37945741942073286 0.01640413150456411
0.020590526984323412 0.13917544568649257 0.3754411231123419 0.005923839255597777
0.009341709984598276 0.17610474348539723 0.3568164668551633 0.006668331719775235
0.019088236219200853 0.1584697464275087 0.3906110421071372 0.0032488580515149454
0.005147626995091891 0.1929367367456689 0.4007136148358033 0.015603312124068121
0.00028441521845041194 0.18563459552740888 0.4183190620027551 0.0013874135241752836
0.006939221815706248 0.19589892787869012 0.43248625587682704 0.0058304168154016235
0.010793407696246081 0.21638546677272483 0.3645038041899124 0.0033824938385071954
0.0091278643372609 0.19827179846849133 0.36210544855267646 0.005134975957268381
0.006817265789306548 0.21918742181529294 0.38716887693341 0.002613683892415513
0.001913993576679326 0.2313131540211759 0.435403034533424 0.005319597412027184
0.0019054388584113244 0.22786116985107308 0.4072653586650981 0.008983677139349415
-0.0016506329965834798 0.23814273675681244 0.4514775341711416 0.003860831000787348
-0.004812897070667497 0.23916940792071073 0.42322355724706856 0.006502274799675706
0.005422402842580087 0.22311508532195876 0.34592417006989196 0.005469365137735253
0.002421475788151348 0.2377952150385694 0.40169862962934305 0.01322604280521694
0.011075688772457265 0.23406264290325854 0.3748978702036393 0.005497312864664951
0.005648590359833032 0.254344932353369 0.3648204480247812 0.005847826510960162
0.004070541900902173 0.25205943943900405 0.34568982087299016 0.002919485875614162
0.00447284729173844 0.25947956465813765 0.33645366364446 0.0026720504908963566
0.007428507990548076 0.24657402695233055 0.3835336978288428 0.008530348204364055
0.0012307517293725055 0.24439435629454967 0.403056229384936 0.013198113867926128
0.0068533884005330704 0.2701045334116228 0.4092452660864414 0.0053859320963396745
0.005525342924304478 0.27852842752342294 0.38119309902748977 0.0032841013455221298
0.0038791562308262903 0.28148706835544857 0.4229329787481676 0.024618570809153757
0.005789921639208898 0.2933413509602572 0.371728915083358 0.053607671682864434
0.005293784939154907 0.2817235329343402 0.37192852574078894 0.002736355254439329
0.006374069455267579 0.2851873915807892 0.4090391505327856 0.013849927697350621
0.003987399974221845 0.287246613644594 0.35246715715462756 0.04628032332226601
0.0009147350811861358 0.2994673831204261 0.35614025354819356 0.05901903350362973
0.0012148410695149892 0.28841487316091524 0.43016255198835274 0.09875173526656882
0.003054910941811175 0.2725081295942898 0.3487387580332028 0.0026771201729225195
0.0073015644720596335 0.2912096253529413 0.39008742594933665 0.03378408096286474
0.007458830919324059 0.30987737211058725 0.36454399188455694 0.08313397578079684
2.1137233270578483e-05 0.31422183938604525 0.408016798307884 0.10102028564404553
0.0031395637705122405 0.31000807220479565 0.38217990464645457 0.0512081309118182
0.028242866543391358 0.09503092442050473 0.38763108810636104 0.03960124772562819
0.019629675777019916 0.12207147004106014 0.3615850065921236 0.00439745664768548
0.019695665624290534 0.12876986093421694 0.3357411619270979 0.001545500962528791
0.017964830385394318 0.13425097728962232 0.3534208908027982 0.004401402181003457
0.01627326321834784 0.14165028814397507 0.3619979725950228 0.00233519285805461
0.01411923525256267 0.15731616730239067 0.3427704670163407 0.004529819758615396
0.01703234543209145 0.15611955546298326 0.3245020402954717 0.002875400224939795
0.018571421870968795 0.13881621310203818 0.34060679339365335 0.005839593801887043
0.008730145479750866 0.17482022600263028 0.3237037461431508 0.0006815045004059996
0.006663351605879014 0.2049771333669913 0.32980478365195576 0.00521129302153114
0.007557783439490775 0.20368193386876546 0.3490768803060161 0.005354275743545992
0.014956325771419417 0.16640307965684686 0.28407678970634637 0.0022051408186315805
0.01144115288329873 0.19921136059664643 0.2957021284518615 0.002109331014421347
0.01376396169409106 0.18562210685259556 0.2970758028534539 0.002077552743146998
0.013640538361909635 0.17321432818116467 0.26424838789627747 4.286229401442832e-15
0.022001111376657695 0.14579110870498221 0.29992340701706943 0.002244821310215682
0.016158219785192454 0.21580712901455537 0.2757340408968547 0.0005330720894062344
0.01140640963674021 0.2155976127704341 0.3170121102390306 0.0015175618519395998
0.01630926344175143 0.20695614937181542 0.24167077283387697 1.1791910276191582e-15
0.02314225173079657 0.21938070276790914 0.22654904435216588 0.0017978595644036672
0.0026153444226944484 0.24223045911645108 0.328703249803492 0.008655270971343604
0.010597107661265062 0.22784629087210928 0.2875299574197426 0.005032091919171024
0.011091610583222418 0.22768220323761132 0.29644843519971886 0.0037872975711827715
0.0024925370782542637 0.25191659961351565 0.32545571310403926 0.008819152080864116
0.02218133530516814 0.247584799145503 0.23215093607476084 0.0012185427919545685
0.02781536182485529 0.25259476222646693 0.2116827278587641 0.00045421903507007614
0.028913983452472408 0.23465137088374347 0.20460917485811478 0.0009162465284302184
0.008108139039019684 0.3031383844370203 0.32080342422729696 0.07747708344846109
-0.0037366228726972497 0.2723333760157522 0.32048138305276536 0.0015265025604834558
0.011720743620519839 0.26539179426188586 0.2607798436555444 0.0004632841708730384
0.010930885407023784 0.28150616588773364 0.2641127695224921 0.02546781502886748
0.021670678626272803 0.2753485822715613 0.22572542706518398 0.0023848521721662255
0.018894056712310165 0.274852780109363 0.24137938154819324 0.0007372218679639978
0.0276747105820557 0.2638065409320387 0.1993822181880424 0.0012071834563533086
0.010192323700354746 0.2942021807188216 0.2654275216908663 0.044511939941991846
0.03378112278013677 0.2951153206173426 0.17029746277099292 0.040902818738496126
0.02785889768828726 0.30779507287430613 0.20154075028121435 0.03330081089343203
0.022663359315227113 0.30459968390831554 0.23073723417745803 0.02405863197421041
0.03153894637476085 0.3135279715552458 0.26917799757717886 0.09148373493141267
0.041787219112567886 0.3069911962403156 0.1471008353140428 0.05951567612450824
0.03106724525063831 0.29742060544946025 0.18394793191123074 0.06077560385399346
0.020566461892839897 0.08917651293243724 0.3415694108527676 0.0053366186978900535
0.02812033074981035 0.09248066034678447 0.3064743910338833 0.006601316211205118
0.0258218394455602 0.10627150790151647 0.31559465739823994 0.0011976128404459876
0.023048740002990564 0.11259507480174237 0.323876031930222 0.0026248256705199654
0.02385248571310926 0.13246410740874306 0.28110094476376946 0.0019735452798970085
0.024891153650806706 0.12705433235075994 0.321442240739871 0.0004005115884054048
0.1420752027586557 0.3056034260247457 0.6510322111808345 0.11392387262371208
0.14268090084174895 0.31439162677153165 0.6487580210099778 0.09956223899432787
0.13064719202844863 0.3130827086818743 0.6382731942601074 0.11828400857785207
0.09470286042310413 0.29364190468510415 0.6428225758625267 0.0549701697110593
0.06949276985442795 0.2798869986194857 0.6265658172418451 0.013772982955603556
0.07084786878344446 0.30020541086470603 0.6285292874699239 0.07374535811896664
0.05860622084274197 0.26789877892887287 0.6129391903018317 0.017650545446469344
0.05679018264125595 0.2878083766357209 0.6162468622782263 0.04504184516553471
0.02598142702521056 0.2299712372238834 0.5770946330590548 0.00548452211244821
0.01380280500386554 0.19865199654094007 0.5197068433103192 0.051655000467402984
0.01121731302394706 0.18697477221870806 0.5020832897333779 0.05065357664060622
0.014236039153001536 0.1595922312274013 0.47889018198964095 0.02225757752162897
0.01670258793790521 0.20642003490658653 0.501740516069819 0.033667361241726514
0.04190872067869775 0.260709183314558 0.5865685600019517 0.011893257425559956
0.029021104276105908 0.2757636236672023 0.5798098838975635 0.012471275880061677
0.022835523386531616 0.2867667719854132 0.576438801306545 0.040885627516494966
0.009714499817505903 0.2507505779260428 0.5535288954952331 0.007665022300222508
0.010026418386279629 0.2594888331355225 0.5430420013204028 0.012459794076564246
0.0217655977716649 0.3033352477750177 0.5582645221148271 0.10360986245015598
0.014648611853464609 0.28324094224653484 0.5481626076780524 0.03724082855015476
0.010610336607717697 0.24827762288374763 0.5258185970513783 0.006871706347286477
0.013107526864705682 0.24124559096141085 0.526058540338166 0.003886776903660488
0.00935084604208571 0.25860935420838776 0.5369131259265608 0.012288648996957247
0.002838963321341546 0.2717662737717088 0.5129738082812044 0.007480884467017222
0.00623311456923436 0.2932273828846124 0.5241995985857271 0.05367828844711064
-0.0004003432985187133 0.3182181097406091 0.5135903599933309 0.04934044163230042
0.008789192657476066 0.24085369053035632 0.5141015910388728 0.002561323081867646
0.010883302392057882 0.22554705574120762 0.4907795393005836 0.005739236010315782
0.011414631385061063 0.22863024651724378 0.5179397536298562 0.005845637459385302
0.0036543696052080766 0.254344608022088 0.5167864625059734 0.004231605774442158
0.00996249353312102 0.23881641429035025 0.4991287379217819 0.0025225031480986607
0.0012956575430893005 0.2826428157072884 0.5021036775428159 0.046063785244504045
0.00451614477362161 0.29904179898026123 0.49674611162673055 0.09657060509485381
0.003056544780076503 0.23327087024132467 0.47051836203506076 0.004850735850699456
0.009746000898771118 0.2049476280527155 0.4676571253287086 0.0105490503168908
0.010738583546722432 0.21433611905492278 0.4855417476067748 0.007379739702899907
0.0017620231537287061 0.24970174485108518 0.4830900433072061 0.004242453040778594
0.003601445913453506 0.23843984698069703 0.48127804726179346 0.00512612628688198
-0.006706204873829097 0.29188036695937963 0.4790480172338494 0.007440447191298758
-0.003477802684304435 0.2782356690942842 0.4651218779381074 0.012105570243883687
0.001307368912719029 0.3051119406882154 0.4784766234340428 0.07425439174262825
0.006577971014028015 0.16103433065176767 0.4471279346745784 0.023572894596766966
0.005258236064846201 0.17845655123729814 0.4729046848511974 0.019273819326007812
0.007986371319226254 0.19896337797336533 0.44803539430471356 0.005482504118099294
0.0035323111597455035 0.2146581002818577 0.44696420518703733 0.0017470758335794631
0.00018293269949700786 0.2678564665362685 0.4570247747731678 0.005467107292803257
0.004317982806784353 0.30774527775270755 0.4644731992323003 0.07716982199774368
-0.0033261492419828093 0.29986527505137206 0.4421560471565166 0.0769128340969729
-0.003925315488623237 0.3119883911330096 0.444900697074875 0.07321198001215852
0.08704551150265807 0.2838434364709719 0.631913243910219 0.038692412147954214
0.048894322791950606 0.2594506895337028 0.6072917104302593 0.012858370843664257
0.0427201921830824 0.27152928162939777 0.5987373598473541 0.009007767464714872
0.04857175044715288 0.28597941272943794 0.6005444974285331 0.04333167313250364
0.04385031386508125 0.2947174792500218 0.5941827406381852 0.053181683862898295
0.03469639309554558 0.2790268099355631 0.5854773864381696 0.03242030066605838
0.06636271933320265 0.29842205738163724 0.6240747610763683 0.03955749649017947
0.043890105700792804 0.30446681538150644 0.6010307040526424 0.04208661865181125
0.050941364676355017 0.30082886423953653 0.6116386256465152 0.04719377426852104
0.02249391942588692 0.2073657954637104 0.5371478661840725 0.03367994883282341
0.023574451181768433 0.2887817683979071 0.570915586675275 0.04466880477824544
0.015587138560415768 0.3171657152831247 0.5553922987837955 0.11034293486954201
0.09971370187706743 0.19384004385298478 0.002378243256797402 0.00033946554078482496
0.0876438681133606 0.2578254238376683 -0.003004409297214415 
