x y z curv
0.011800377534955029 0.19183894160272283 0.3101824905289291 0.005289572545567913
0.013413625710899327 0.1969443008640285 0.2864131593335215 0.00394662882195207
0.005934798806601242 0.21621158507748173 0.31548110868005863 0.005931556029217628
0.004092759125716775 0.2420508278582662 0.3049764123023648 0.013086605124673759
0.005631916304716299 0.20836796153936285 0.2829582648662872 0.0058222117585888435
0.006491523500496097 0.2340629119245342 0.3007498174905896 0.010684709992848583
0.00353314307009506 0.22855148753808174 0.2725787430285879 0.00654902133450302
0.0012987011396957274 0.27104593009039074 0.3022093422408128 0.029900696616043936
0.0009445039881566357 0.25104924942411616 0.25442227991500216 0.001858816160119025
0.00434130104205331 0.30075972706441656 0.28621992005293473 0.06531583533348581
-0.0039936211957976135 0.2935247782722926 0.26044724680261283 0.06745469153011803
-0.00012273911503591544 0.2764629537147825 0.26479287865665546 0.05216941829921868
0.05211599032735653 0.1146262511012438 0.335352079978408 0.012710628172035847
0.034384918394074857 0.13851067826934602 0.3455996605156447 0.01771302259147498
0.03486206442780745 0.11968561839039722 0.3243306803384902 0.009023387221476201
0.034745276358824025 0.12518840838678208 0.30669864271815495 0.02406106805301971
0.025910223570167753 0.15580118524875983 0.30722736012759005 0.006574633816426469
0.02145669747806648 0.1500495718006371 0.2837184550002778 0.014844040065462388
0.01939339234950258 0.1433464279151812 0.29087847397101246 0.010709646695559355
0.014646023903522043 0.20129807942194006 0.25391964455352145 0.0021698342498799495
0.016579487377459137 0.1787313551035385 0.3005686763507143 0.011633346261824221
0.02262699549381469 0.18817772452795595 0.23830896036070628 0.002591142031337064
0.031158135537552506 0.17138617391025385 0.24509402589705162 0.0006721471900023868
0.021450542417660055 0.18139334342585037 0.26963604154341747 0.006932011148201169
0.0015983356936133016 0.232601710885553 0.25741781674087755 0.0005701805407370682
0.023008571818033535 0.21813772243708343 0.20885675484091967 0.004060825436112312
0.0062882200754626714 0.25645084891540604 0.2111394252478735 0.00018351994699680274
0.0051880969120824336 0.24368226830657871 0.23671083030262047 0.002447102971313116
0.00578102434253576 0.27058459561369785 0.22537671833884676 0.0027492183335222947
-0.0005859801287261606 0.3011678518992526 0.22464874327185153 0.07335269327627134
0.01276642081248428 0.28445629969990677 0.19044664751525126 0.003731588155120659
0.00973410852406017 0.2881901231290059 0.197308353560034 0.003465507377967641
0.014955451760272197 0.3012032623932882 0.17901658693899117 0.1005202238726266
0.0599843622874617 0.10070112990138604 0.3253224785877694 0.013043203547612143
0.0526708860441865 0.09633199674257317 0.28508626475225196 0.01285947398778667
0.04164016556465343 0.10889152246368836 0.31386611748675797 0.014049334563676623
0.0410624710728772 0.12279161515615816 0.26788684535054197 0.008938393511648652
0.045150115083640155 0.11925750139228115 0.2473151839573234 
0.032279029423319984 0.17041785331707712 0.1966507735792316 0.005159468193243806
0.03293724718113941 0.15584733801396544 0.24710769130198015 0.0049519083104233655
0.020323255980315445 0.1987619760467141 0.2118663550369718 0.0016315734344523086
0.028513271322506417 0.18449026366112112 0.21410341525411383 0.010454997423454994
0.02225759656829148 0.24130526888753245 0.17596801608540644 0.0052907312652176125
0.01605840926472673 0.2600765807276783 0.16337356418711035 0.0005464472899740489
0.016547085952548883 0.2500381659956092 0.1865951828278686 0.010505030856059746
0.023563577385927056 0.21767700821401922 0.18262701336528303 0.006125638272949795
0.027875827100236592 0.22550340744508413 0.1566396147696582 0.0021474392776269016
0.028049294484720218 0.2465605344690718 0.14604998599503757 0.003511505530324035
0.023115527238019937 0.2940476515428298 0.1321497074218192 0.008287220478435355
0.06635511711245776 0.08057753359014427 0.2746896668051603 0.005895503761642329
0.07612210223645287 0.07320872504058706 0.30080966074474735 0.01322239721211066
0.0608608882624392 0.08200359301133184 0.29435507795420524 0.008284730579923521
0.06994566565274254 0.08794902779900904 0.25507826914406284 1.3852113741115103e-15
0.09720019177996637 0.0549641213656626 0.2807683530851679 0.0140426839698358
0.06900019281410943 0.10708291751972929 0.19929422608857253 0.0002880594983074765
0.06423338800254325 0.11371100082451019 0.2103152384342678 2.8822083072952553e-16
0.056444619268737235 0.13571783414386518 0.19896119687087482 -4.13870488903255e-15
0.04365783464206809 0.15123701795894545 0.17962007739225525 -3.999087680928114e-15
0.046579176758058824 0.16835969114301194 0.16813018789655462 -1.73508631571203e-16
0.04729462488720127 0.19813609671384166 0.14194826809267222 0.0015971485839027287
0.06787979474070328 0.17392494973454153 0.1283926168459977 -4.537957948875704e-15
0.04537180898343894 0.2417855488061317 0.10942374510993277 6.226007112815826e-16
0.03725365909810205 0.24575665149796422 0.12287647212886742 0.004095321479750484
0.0354160659996672 0.2149505009521094 0.15571398855073929 0.005286158830217468
0.04061469592202784 0.21885920694757502 0.13492108798419447 0.0013107878084251796
0.03261407241617274 0.26008217869827527 0.11420398113411075 0.0020777065753084
0.0379692360716275 0.2866378327386976 0.11003483081292373 0.02342182506639585
0.04914878831614629 0.3061928642794998 0.09946244527924424 0.13150308224436072
0.04759932439713234 0.28574398599539375 0.09610995329218015 0.021633940596556756
0.09911441577269431 0.05472923581822369 0.2662945042687553 0.0007757735365385231
0.10021930646092793 0.04582577039670229 0.29449391049486556 0.006131131723502964
0.11326672412978835 0.04123656875392912 0.2675326569754756 0.002259621288146881
0.09008693712041055 0.07603439992597169 0.20332039489357417 0.00038182096498786127
0.08136898898194506 0.08330487485377772 0.2175631287184106 0.001691131219158331
0.09705782152089798 0.06449814378385096 0.2263099499908181 -1.5129298094252002e-15
0.07379810329406686 0.1262201682886282 0.15371663042676992 0.00141001377648825
0.08880558901747085 0.1069131368281892 0.14186009954953424 0.0006960055301358527
0.07553765322687611 0.13282987625199938 0.14130618059701572 0.0030475992303645814
0.09984511116918549 0.0890897185598744 0.1555011086537056 
0.07362046039163757 0.14552355617654944 0.12979530310666798 0.0009435072922789767
0.08684528896355995 0.13693995191531166 0.12058665322880224 0.0017136792546233793
0.07564847241132185 0.22713423325642587 0.0793530373485053 
0.06525654053450008 0.19783097495774477 0.10574186215017639 
0.09413420631895515 0.22046572903897488 0.0597701839240442 3.795688196233058e-15
0.1024778357969435 0.1840612785271704 0.062084420743041505 
0.0732809008933669 0.2413839633270442 0.0731191264533894 7.17435684353185e-15
0.08929504985560179 0.30012869687960947 0.05225552960978787 -1.333838485270193e-15
0.08489786184887514 0.26517346823403926 0.05498275683034937 
0.13785746611071117 0.018805136872835946 0.2894715575928803 0.04029646790002325
0.12191763127107355 0.030455931028456187 0.27960782310744037 0.0017340101017215685
0.15003806933958003 0.021442785752444377 0.2360433785816571 0.0018304856572770836
0.12809072833282784 0.03978328855903364 0.22921307013612682 0.0006861417555078405
0.12810366673846812 0.0319446788670676 0.25570860318913596 0.000992318103256706
0.13774632312939336 0.03065017752658043 0.22766141305347765 1.3264981368243205e-05
0.1545932730727421 0.022674857109981704 0.22141349448083913 0.0030228762259215964
0.15587308098023264 0.0012645361580565992 0.2685096917291217 0.007429704330153352
0.1262917228087952 0.059137101821721993 0.1720954587093954 -2.4028542423559016e-15
0.11799685234354493 0.05691875487940185 0.18780045540843157 -5.751197363801242e-16
0.1490018515377413 0.05130363837315417 0.15886134915321645 
0.1366079822149463 0.0415261012793234 0.20137850228854517 0.001209259055191963
0.1179671915229755 0.08630477713957962 0.13761546552326487 9.060652078147069e-05
0.12225981332324187 0.10781682830756294 0.10417173317897546 -3.825228978969472e-15
0.13674799254760525 0.08501285410826216 0.118600478381149 
0.11350660030886442 0.1202542226884735 0.0980630046029672 
0.14560648399458398 0.29201455152379574 0.007251787619329991 
0.10299100230863398 0.3107910233560261 0.0374264593946228 1.0483209905281106e-14
0.18652289576664915 0.016140353455281843 0.20461442521200715 
0.1777047674926304 0.04900786807572673 0.1378415956907009 
0.16093492193861342 0.09979443294102588 0.080247905294672 
0.14144914475527787 0.22195066181332793 0.01719557328828657 
0.19598785979951927 -0.006054309908707202 0.2738703381620914 -6.518474559665591e-14
0.09168064714750497 0.1586581824773799 0.08819005412004563 
0.1982481539075728 0.3048223300622761 0.005660019157661764 0.014595836469858563
0.19180735062863252 0.30404326857965613 0.00256348447763665 0.009078811871459112
0.13388019802646955 0.25528285143369756 0.6397386870843516 1.7204501556504128e-13
0.09154346506602443 0.2470509217430083 0.5792308522625034 0.03203086076860242
0.05743688832959767 0.2286500567645858 0.5344268686773069 0.0009016046350515814
0.036073090403058866 0.20155693320834683 0.46017497551632125 0.02231353772650337
0.034465364551650335 0.21144667425331304 0.5060243627497738 0.01216177535966235
0.041560621762313225 0.21054504461295523 0.495893350700985 0.008295649464579728
0.035016804697376516 0.1931751160349798 0.442888833137138 0.020139626890779784
0.03043582947814489 0.17649716619090333 0.4071390709347287 0.020696129268510666
0.03191845526413069 0.18424313286886554 0.42446713255469126 0.015932120357969173
0.04365784764204106 0.1636753802462191 0.39012272130420494 0.0016954663212086986
0.02822834842934279 0.17550077865340932 0.3863362874476197 0.01055551458977621
0.03299542738312348 0.146227410722098 0.3680061659543209 0.026424632580945788
0.0688610371544641 0.09881991540385705 0.32992147231555813 0.005962341739414426
0.04737685328398804 0.12952257143183432 0.35286834453259136 0.008232161016845308
0.06553817163092428 0.08957728258761233 0.3160365815776217 0.011084768501354023
0.07370379439700483 0.07613973476094923 0.3163153688942973 0.0015744701462696727
0.17858168841283592 0.008101804426284318 0.28096105118377857 0.004391940839319337
0.09475948113121466 0.06695493499464052 0.318680835269047 0.012011565998485253
0.0812443232538483 0.07878783659446754 0.3205302117771808 0.010244032955838122
0.11049124063351429 0.2519346399326019 0.5947002662389421 0.003150247799947055
0.17816758240407876 0.27084335687232136 0.661279226015234 0.0033603118722767625
0.16296278045461138 0.017992925395412883 0.2861430725804428 1.9853807321930385e-14
0.2413414402134664 0.30584908720203063 0.006342589202247272 0.008558905143988884
0.1444492756781002 0.307575927250015 0.01280445241428001 
0.2253032324011961 0.3106555642953727 0.016715002206644784 0.009208601467603845
0.1831434113464897 0.30888973347554005 0.03301326179788128 0.003888200785798132
0.2569515326360393 0.30844726526602007 0.03701744524034109 0.00907573628081044
0.30275500508046804 0.3075875416488438 0.0417731716006869 0.0405108935124132
0.2687494785720214 0.3100431584404827 0.031789416062710976 0.006162436030595339
0.22034316645481608 0.3074117587932189 0.0412556688682367 0.0008544596348148459
0.2634271966302239 0.2998840930813916 0.009167470552856962 0.025169500207886133
0.13993043688593707 0.3135395191127651 0.046273002406890584 0.0018273290099695566
0.26371302539728547 0.3083013284640837 0.04335601343472152 0.00874576853031331
0.21910100336387162 0.31003514975462887 0.03426333301326623 0.0025042313622512724
0.23724077311751873 0.30687925006293265 0.08774459985645236 0.005523717707405197
0.34556734000672534 0.3046346671191996 0.16864741535670763 0.009839313809332341
0.31511731633828766 0.3084985668575187 0.139810501051095 0.002861071414340394
0.3844700155093932 0.30927029828772534 0.20602543179464555 0.07349638655264906
0.27071955139879045 0.3095318687605926 0.10016915090727321 0.0024137969715094148
0.27774276401811687 0.3113991383955777 0.04820880237591242 0.002095239987270178
0.2420595500188625 0.30755282024953445 0.05997729801326991 0.001529940590207729
0.2779829833425782 0.3159467963395232 0.14144977572619907 0.0033122459213737686
0.19258657254495534 0.30625080108943015 0.09975952140555325 0.005282957976993732
0.28384394715932243 0.30863380125727125 0.08882395846102249 0.00567815874119664
0.29545625737210884 0.314818232461414 0.10639964783553639 0.011448996796236835
0.16430559128094632 0.3106673957805418 0.05851144182591681 0.00025108004065511603
0.3159014781788875 0.30833244728532205 0.11347996966413171 5.3709625902946825e-14
0.2696396905333221 0.30987672562305013 0.06168616037661093 0.0017753618003312226
0.314119482316889 0.3148475123359384 0.10055419145468038 0.01328529603194419
0.3555572164232963 0.3126330791538046 0.11994415668869886 5.857804462375879e-05
0.16052446543902774 0.3096895803044123 0.05021774496938048 0.0006453272972582288
0.35740052354832275 0.3056892383650995 0.1496102257284814 0.056668128056224266
0.24182473556917689 0.30623328090103336 0.09808745046763456 0.006192405697648163
0.3742769566313949 0.30925265811739844 0.18718341848778258 0.06800455892808319
0.1742438147377613 0.3064613302878342 0.07738062145772295 0.0030639920674828736
0.3136307618096633 0.32304023483541106 0.06999832246062691 0.004255741016628407
0.23436149038418114 0.3063897494507342 0.1075901315991269 0.008633012570389152
0.29948975171004283 0.30952425417098745 0.14998993465786992 2.1858776160593792e-14
0.22825423723966187 0.30577202389145053 0.09873843449827016 0.006569063586355836
0.18532416782314245 0.30576584318563665 0.06123103939246147 0.0023759851081216407
0.21246083314671665 0.3097004441426736 0.07029795695508677 0.002716892921603289
0.2083758450808123 0.3114681266009633 0.10393652610549617 0.0018744295857544761
0.3409339781689232 0.30386724273751414 0.1549798789003148 0.006881909031301432
0.17686418643593066 0.3069240088856252 0.06975882025709046 0.002457628383406513
0.05583194058012138 0.31461880754959176 0.08747230674809897 0.03622000895217542
0.024328619843104183 0.30588792583473645 0.1580625261806858 0.020545150043209115
0.031216836611326754 0.30805919600476883 0.16235671429506704 0.023916207436273856
0.04995360270521732 0.31244155225161424 0.11657005682226697 0.06738915605605277
0.060122663230202544 0.31007508377362775 0.10374059327296893 0.09205401234294719
0.04761442573775829 0.3095816876202713 0.18626481461170716 0.017305361839736442
0.09928174617021888 0.30652228875468673 0.16329710633222333 0.0051994242874681415
0.291992889202391 0.3125899359540739 0.2176905443540425 0.008083951979929923
0.3102764567345027 0.3103024327190039 0.19064252494142714 0.005011494810801422
0.1985439009889517 0.3039829453871624 0.13708094663865406 0.0073399717684772305
0.2589041322884251 0.3228461715774227 0.15140189829509895 0.0016345479230499018
0.4052162218822777 0.3024531906572611 0.22128552406070648 0.061553593586689305
0.16771936812235538 0.3117331550732801 0.1436962404044941 0.006612395200308161
0.1311867006702655 0.3041456625908954 0.19031428920776994 0.008078535377036566
0.11407549677637768 0.3041878575214376 0.19133836259080614 0.0076793841121189105
0.09569411823255242 0.31279001735988415 0.0687595332641131 0.018793224799446277
0.23008716359005255 0.3040007637738536 0.22365959317030262 0.0030281389799986626
0.22654779865688723 0.3062379186544744 0.163368907306258 0.024544033641410536
0.3254715204519085 0.3099457657543058 0.19460419244093746 0.0026212709253898687
0.2453022585727548 0.30884355637773275 0.17731559535472355 0.017630372607106006
0.1566035667377435 0.30806042522277893 0.2113291097743664 0.002070742649964329
0.3666933161480905 0.30836534436446517 0.21237664413748142 0.004010255409297939
0.12997654190268437 0.30406229497552495 0.1888689740361998 0.007802093267041363
0.35887560479706654 0.30553567665672365 0.20738360698424166 0.004676810420345295
0.19123312847570528 0.3081139903470748 0.13013111109082087 0.01282706854756595
0.25136757514203883 0.305841578923918 0.18959946643792533 0.0036965068384106382
0.07296997324893215 0.3037015868001279 0.19999435470662003 0.00935970728619191
0.18608838210740328 0.311691940601632 0.1665942655115765 0.009117657920252754
0.15732844445212463 0.30733541073147885 0.15812279190378692 0.004417642786669216
0.21151888340507385 0.30222422603230753 0.13171149483393668 0.00443985943376627
0.30917367263590456 0.31282520692350535 0.20297923948555002 0.0029676319576715806
0.08980852358631822 0.3085234168622131 0.20529691412863232 0.011064270811219353
0.09714065161823969 0.3104757299361128 0.18412325453740963 0.0052983663734851106
0.06730691955707412 0.31256834642606024 0.13958318594596208 0.00182426379336012
0.3548677539455242 0.30465193842621685 0.2092955951504481 0.007751912163610857
0.20417358814697825 0.3112668696723116 0.17988011263896003 0.005918108261983208
0.08470037395121464 0.3099526371164165 0.09825525510709587 0.009485560582169213
0.04697678561556749 0.3133859951891708 0.22550848860324968 0.017068519493622106
0.0987287276190229 0.31503811333783593 0.10209167462113475 0.0006110274135436474
0.194989460146863 0.3127888042002414 0.17594765451490887 0.010101328334446493
0.18386551446314028 0.30577900624982496 0.10872403713856284 0.007984197833173163
0.16291538320397794 0.30479831000737373 0.18420683873095 0.004587688029265439
0.17258429292156424 0.3075623884978849 0.10678585142039515 0.006860474853084241
0.23343698059361223 0.3068544347831514 0.14029636471159715 0.013945187268441723
0.18186269951331618 0.3064718454336893 0.21468062865363077 0.0024739169272128643
0.038155700956519566 0.3103152733248103 0.1437204901521824 0.03215479060215852
0.1490292139865996 0.31453834254095236 0.11346539491377346 -1.178266560807537e-14
0.19325266931834567 0.306939928323769 0.2077193171309838 0.0030962424167712394
0.12381909703932201 0.3079328533594003 0.07428307380030709 -1.8216823294838882e-14
0.14064215879496597 0.31472913171283684 0.15542505415901225 0.001407413580182716
0.0382409081611053 0.3195292012207257 0.22096552692257246 0.0014110469833905454
0.29903145956567445 0.3092147637550318 0.1910279910539111 0.0014058796886528126
0.2597551473177294 0.3052408297108292 0.2051379986708491 0.0014692149573280007
0.34088473158002597 0.30463012303709003 0.1960362108145457 0.006704705549229069
0.12445048537637819 0.31275878068976154 0.153625925678674 0.00745486877863306
0.2073146826052262 0.3100445671129673 0.19822693862403426 0.0027523098873829467
0.24907804506197262 0.3082642028063014 0.2158147809505178 0.0037006375238167696
0.14344801276276442 0.30726533108377113 0.19473323986398022 0.006896742714412009
0.06531510084071936 0.30330664304938953 0.18500516472624703 0.009058180156788454
0.10727034746512122 0.3083939631366885 0.17855523028671283 0.008120897678990444
0.09173511106898673 0.30939629146473147 0.14768815555933726 0.006218824940908889
0.1311451449807793 0.3103351151367434 0.16353201329744171 0.008540694614694876
0.27293414958145673 0.3105321750204984 0.17895090064248653 0.012380540485066231
0.06531269574491462 0.3070603266877189 0.15950733358341104 0.003763299307463698
0.37670074732360576 0.31299971334650817 0.15496573466750127 0.004209649395128549
0.34946740016692307 0.306806375217417 0.07925029168061383 
0.3665164235010405 0.3138200873051105 0.29710555134114075 0.008404272177117363
0.39789567269306725 0.31206671287197946 0.31393061503689457 0.04784803411045556
0.19439417587407742 0.30631236804084827 0.23181837141901318 0.0037800716244817782
0.3974059763143177 0.31195528161740027 0.2977011227641008 0.04871809180803286
0.2338131102525753 0.306784807886707 0.24527494280052117 0.005433263453016493
0.2943996936304468 0.31129247076211236 0.21966693150031638 0.0067988324814182545
0.20717019634491654 0.30711843361679364 0.23859379198521455 0.0015330816608520594
0.3851494970465391 0.316607643283611 0.31721327488617385 0.015439209325373337
0.10359711197808963 0.31308571703533633 0.24678789741038862 0.0037994669666612723
0.32070203373476364 0.30667016476910847 0.24887683113265816 0.003694670874348843
0.34300716175757756 0.3085960890938751 0.2627867637394479 0.007154427480155502
0.39421083336222523 0.312783785467609 0.25998124198329164 0.004999535821238085
0.27336665906786206 0.31098910741180447 0.2419574175593825 0.003346856797498884
0.31864303275096695 0.30637550785677753 0.23556431364807065 0.0051197007614610796
0.3633618879424495 0.30595730508224334 0.2576547060284012 0.010211686047857554
0.32531574309907113 0.3067663070436044 0.2229877032015569 0.005403505420347845
0.37915072558635365 0.3026651204628153 0.2362931784609565 0.0465285384302198
0.09157497435784358 0.31228524264051044 0.2351127819306439 0.0059807086203461516
0.2526439215725132 0.31698290743606017 0.2564097148220892 0.008464522367523335
0.2927067999490076 0.3110947966703434 0.28860728309127165 0.008776966950486064
0.385389488063162 0.3052831170270148 0.22245861807645237 0.058861056299980286
0.3310999871154682 0.3084732542977932 0.27764174783060536 0.0038379556407669552
0.1450533324404458 0.31225734637474306 0.2404655847601407 0.007827453299383684
0.2236191299654357 0.31083768222454233 0.2664380890272048 0.009389509964846263
0.30861046396330916 0.3104908843748072 0.28540461828152663 0.008121502078053473
0.22826545240826462 0.31020622170124706 0.2618043860596452 0.013484065604723672
0.12141418026266904 0.3146720448742436 0.24717652486251981 0.005072952310217244
0.17583161416686274 0.3074063329534731 0.2394068971962402 0.0008069748808719892
0.36271854836220574 0.312112721408585 0.30492050508232516 0.009332361444428842
0.3462971073733728 0.31124546330463426 0.24746986047515512 0.002178656958997373
0.15446449816337607 0.3127593767870051 0.25218554977446966 6.275764421224263e-06
0.27309411128253086 0.3186300811886608 0.2664503440458989 0.004898134456627869
0.3562457961474504 0.31120596176828846 0.2759193622498879 0.007064976012979357
0.007670005607425351 0.30839143735584457 0.1972070399774696 0.00031829342994379783
-0.001276557101748941 0.31112737852817296 0.21967880021645309 0.05994398690411614
0.016384517316344743 0.3114390589511661 0.25992565580996513 0.0902482714756679
-0.0026164821156526505 0.3079094616136024 0.24907907577463415 0.04794125344734006
0.08959092650615413 0.30676092740996286 0.29845961031579726 0.007431099723932421
0.005345063840275082 0.303241538829267 0.3038653237988041 0.08494313186360167
0.13762971943505975 0.30668163344373744 0.27877526928700286 0.003878185938839989
0.25723982309325927 0.3116437659575308 0.29056056104067346 -3.1506925135514554e-14
0.08292153933662935 0.30690964599409104 0.2700346005067033 0.005185492830148553
0.22595557535515423 0.30766480634235266 0.31820920430856964 0.004407884062911184
0.07133016633694303 0.3091711572077967 0.2975978941256095 0.0013308293419402155
0.3213587399794419 0.31219212773969635 0.3111923473578061 0.0026326552077756437
0.03049586840799278 0.3066326891235424 0.3264400904479333 0.013113709503697306
0.10666163331338406 0.3062828112443804 0.28726319519568305 0.0055070052189409545
0.11880980022573293 0.3069653577122632 0.2899292850078802 0.00699257809322769
0.03354683303969348 0.3062223403557163 0.31869710395624506 0.005817502556807834
0.14040970217942764 0.30625002349696495 0.2928921410763075 0.00788135815853937
0.19726569647973732 0.3105903091633755 0.3194801528349211 0.006723143414878022
0.21516704627635647 0.30501488796897075 0.28707575043142797 0.0021891343519244134
0.27791557496571506 0.3059735573899789 0.3290603105121921 0.0005119547995168028
0.008154286411701541 0.3057097206518317 0.3203265612698705 0.06764649634149811
0.2964411648982298 0.3077503674234119 0.3274695367436442 0.008579664505189464
0.10871206778275336 0.31447767117903175 0.27063409686149725 0.001997286690293952
0.06594117292131037 0.31167699809767563 0.30560180100668494 0.005865880509336791
0.1238405071604046 0.30624671915538193 0.30977400928912086 0.0008119948891985193
0.18594350880159433 0.3161411125410726 0.291807722167384 3.453824419487866e-05
0.06141084616073037 0.31179087640028985 0.2740332780929719 0.0030637729462240897
0.18564978066693832 0.3102144352426383 0.30893925862711663 0.016660241251394935
0.17124216922464255 0.31054364732817247 0.29684630021964387 0.005502771262600773
0.09390693714246957 0.30970287604824526 0.3246466291495474 0.004035393176280216
0.3571065921784479 0.30670286446944695 0.3198879491127004 0.003509935008414361
0.29827412801265185 0.3057191738573629 0.3032432712605783 0.004398664199529327
0.1472329896991434 0.3061430104497606 0.3091413721314109 0.0036414878298531867
0.17651368669620573 0.3132307720315192 0.3240460875796897 0.005078220991916653
0.30337345793331977 0.30600395838394273 0.31554982925802705 0.007471742546453158
0.0530894189784964 0.31142884259795456 0.23749763582979214 0.005125361335245574
0.02112668037203595 0.31230220338684067 0.2418712610748161 0.03006572149666412
0.0918780414857597 0.31107302699012396 0.2506239444749572 0.009313399130581672
0.02993295537566613 0.3138729729172777 0.30024639061340525 0.0014640540580747633
0.2790807873800791 0.31046684837335287 0.35400547271237304 0.005339880546251328
0.21466484164178723 0.3061840093585619 0.34729087809137493 0.006528464946704001
0.36363228894694377 0.3102705077873105 0.33510114580810707 0.006453495700512079
0.3982647485223574 0.30804222693960287 0.33996129956259064 0.03173800489651421
0.3899541827853127 0.304130024374814 0.3533206715170469 0.035995059513218984
0.3931620906023924 0.30465563354302627 0.36449812047901137 0.04514707190097925
0.1922304346451398 0.3132878096822959 0.3401392991013 0.0034363513310836347
0.36426179579419915 0.30562507049580845 0.3660694273130605 0.007572558813574588
0.4091906217189857 0.30923369749892016 0.34268398290031155 0.015517835478487549
0.2548830525850939 0.30889287569972884 0.33564745589206463 0.0030292851396295922
0.24732540730472974 0.30713056372268954 0.35819513889293647 0.0015395144897914464
0.3065628387676613 0.30624081894167476 0.360842962599246 0.002813238227673917
0.32158211295368266 0.30266968437755987 0.34194871426343054 0.0038779252959817603
0.3554720604512413 0.3069177622482626 0.35279519168660123 0.00548230121775048
0.34319144420939157 0.30611907903010455 0.3685489237637879 0.004635245773438611
0.11304618788894656 0.30947501269407685 0.34126218465445085 0.017611636991359307
0.2818498766777187 0.3090032118062717 0.36201368288576674 0.0048694455885369
0.17711445003849408 0.30428751024601114 0.35548305909084327 0.008859226283591825
0.3322202328764567 0.30965087715364153 0.37344876441520064 0.001888938004659493
0.13267020333334226 0.31062426051440056 0.3340716089479591 0.014008805329277453
0.2263469544361004 0.30832781898554196 0.3801007799296313 0.007081225063229004
0.07613588601198668 0.3077180534906218 0.3747762129880681 0.011681671437192684
0.19257815559301822 0.30423052108248533 0.3772284088807846 0.01016269972332879
0.23680109732389487 0.3053755851736712 0.3807276303171088 0.0038986432149302835
0.25738235689696964 0.3058225122080333 0.374741431006974 0.00214347294162326
-0.0057017169354761175 0.30383448850501654 0.35730785246024965 0.10366932230792003
0.08961030732041127 0.31278626721474284 0.33874772876630765 0.0013211101614488262
0.28872486728186736 0.3134447301912359 0.38649451058185447 0.0027753533758441405
0.2096465542916332 0.3062548165767958 0.3520336844334961 0.010230281063949158
0.0311865299898193 0.3074265940472276 0.3583778350635488 0.006428323936776162
-0.00018218807175086546 0.30286197988123353 0.3402482740818465 0.09199772563208583
0.01108287170544794 0.3122595013998535 0.35339550631475974 0.027573367060290895
0.1277247516356863 0.30849817671526697 0.38262830434996076 0.014092543899624381
0.15006391229624239 0.3069164931671507 0.375712597455383 0.009339415766492574
0.14950292408101185 0.3055485355291769 0.348983306834456 0.014021464968779658
0.005636274522369393 0.30652315214255443 0.37872824272410427 0.014237781243677233
0.13363065713450253 0.31556555702219863 0.34906245174214257 0.004815343083659336
0.1030488256917256 0.30580724535036585 0.35942901546970846 0.007167174370112581
0.06030477457342709 0.3116829502244416 0.33561006406838145 0.0016728925982996494
0.34307507110239976 0.30821677176310813 0.3860520330973895 0.0017888556330882893
0.21312335825060694 0.3038784224060773 0.5428216472923164 0.007242295142324987
0.38495745471948406 0.3174089828044725 0.49584430244317573 0.03361832302754852
0.2405803826281754 0.31449280638377214 0.5673684186390532 0.012064899454233205
0.26352551786734857 0.30654350148983345 0.5266603034781024 0.0019216720644937722
0.36229614036059227 0.30671799756641727 0.4587599377704635 0.04455955522883166
0.1647596340582976 0.3040966486771839 0.5763787854766064 0.008196212865634846
0.14046650147690892 0.31262782778534526 0.592865641870053 0.00035581611174648295
0.34471548240360234 0.3118926383890752 0.49896496962742476 0.0030547721697968674
0.2085518700302949 0.31340336812969954 0.5735626859666599 0.003231918631284708
0.3214362487402992 0.31131630280357225 0.5030960016780757 0.008127305636313722
0.3786947007697527 0.3118386161763991 0.40690638999375406 0.05832135788433064
0.3433978416934607 0.30979604096634716 0.4444878805012368 0.0024258846189364074
0.39324832166039997 0.30236868122574867 0.47523111607221497 0.11477268198290812
0.2762265967182196 0.30967484115440214 0.5280286825227369 0.00730748144350038
0.26321391220161716 0.30798803584930795 0.505621989813275 0.005695591814256257
0.38931120979960626 0.3103311186884456 0.4480186467187 0.05312396759427637
0.2851257805672283 0.3085548704648465 0.5055545437482734 0.008439052712913772
0.270221827467567 0.30779711977031127 0.48922889614002374 0.006287576820661677
0.23589312666252635 0.3082579857174717 0.5506521904517927 0.00898430927725235
0.39818492953577217 0.30596868528262533 0.4030209963128457 0.08930540096385946
0.23833584409843694 0.31093907731002624 0.5332926955475927 0.00758335757492504
0.29087664042872136 0.3086235640020606 0.4846031094994554 0.00799417981568939
0.3907137442628175 0.3043832918660235 0.41910812018321897 0.06246095621140087
0.39250878354528457 0.30625516009373954 0.46428074192999413 0.14261871478552496
0.31509645860320484 0.3142906202485697 0.4894996510245345 0.004750403519003108
0.30045168869232985 0.303839580545261 0.5108175485908979 0.004055800862410644
0.15078032119460694 0.3058815673380251 0.6024271139620652 0.009570605436682483
0.1840805467654121 0.30343745890521856 0.5651630124084115 0.006944150253980829
0.21639864731099462 0.3044597172996454 0.5349686208410013 0.006850807583863312
0.37162565548417614 0.3111236867212268 0.4497084195611719 0.030479215325458407
0.3658175192352554 0.30676871909203035 0.4743163259965875 0.07994873847078071
0.315746286458333 0.306895754705595 0.5242463620046804 0.009395257431672053
0.34468594287104304 0.30853081425990897 0.47680344091632626 0.0030999607065308543
0.19401904222473648 0.3106341756971973 0.4955487006040054 0.009327631164490629
0.07584830550483233 0.3054458134484992 0.5118607570967766 0.001953641397744243
0.09725629440730324 0.3083413740265456 0.5790961866513732 0.021353457913043022
0.12363075858084811 0.3104213261523037 0.6071767725890697 0.057002775858106376
0.09572881891670111 0.31146294977965017 0.6008146113534656 0.042672922221301375
0.174428173802884 0.3045046279735471 0.517344212678031 0.01700439452061929
0.04471591042941803 0.3014235665642259 0.5370730310954366 0.08163172499906451
0.14737012852673217 0.31443217789832406 0.544166204923136 9.571764347707881e-05
0.35033249879639006 0.30586313661428277 0.4296979184834061 0.0036628492738027757
0.18123124816244812 0.3158159370892232 0.4877090922971983 0.0061154503279333425
0.09975972953713504 0.30950444101108154 0.5940877655107112 0.04720327833382143
0.18513965455544742 0.3040379737709297 0.4541577637542213 0.015005426162717724
0.1995163918750212 0.30572487729062103 0.45739644465886764 0.01653029402249405
0.13141585028408428 0.3098635359642248 0.5632072874363401 0.008848969036816265
0.22720874773734556 0.30493407406110595 0.46128364749496037 0.010100750174813244
0.07544380489413152 0.3034406898285451 0.5895859793570906 0.05975367885208233
0.19563122382663997 0.3067583056655044 0.47552022706084696 0.011740468964945986
0.3487205173206596 0.30656554293122723 0.40933268676543616 0.002820502811986739
0.10714441252727774 0.30988589601777516 0.4953808383647848 0.006883727182326467
0.08703562014544683 0.30930297910890875 0.5352012057671455 0.0006959480842105914
0.21695262243625096 0.3019529496499149 0.519074286590238 0.007238084763366833
0.13258403976508845 0.3033462476383087 0.4929059283394348 0.008127382456648305
0.2545547691109777 0.3127943692110949 0.49354564247502347 0.0026952798154143975
0.19332301973915267 0.3029239276223991 0.5125613908511527 0.011844963635656028
0.06410855636277586 0.3052620421139374 0.4977254814711317 0.019208065444356437
0.21159991950661824 0.3026902070728262 0.47127711900431274 0.008824799350897057
0.3882577355513903 0.3128972980977202 0.3941087043405429 0.08475947795125266
0.11670281117289476 0.3090913027017305 0.5058487658795946 0.0074930153364019154
0.10442914662891721 0.3122026254005086 0.5521223997537026 0.0017163615729124358
0.14735915002732072 0.3038686704460019 0.4515262439288939 0.004714476221464424
0.20839103808869022 0.3073112643867472 0.46070869502018685 0.009455640190464508
0.24416114616851856 0.30398208677699223 0.4545285564678959 0.003978405310060473
0.08411903572069199 0.30959316912678525 0.553697673237474 0.002355184939095812
0.0640288613096285 0.30514439063841314 0.546977560514625 0.0772358642567034
0.12840668889381393 0.30503303756351596 0.472615549393458 0.009149494545385179
0.1800997608585925 0.30191350180446636 0.551010147775399 0.01842357108631608
0.09741001632493027 0.3085077619422265 0.537102667707686 0.0017770801011512136
0.11873987525183254 0.31295831571599564 0.5410028343560013 0.006497357657803796
0.07842468243089143 0.3059631638119143 0.5067836940432711 0.0024411125571117405
0.11305292970661472 0.3044006801770011 0.46071739469428596 0.006771793132488091
0.2764497618978341 0.3104854916268159 0.46378986754418616 0.004678816358893174
0.18386724906820037 0.30667910463270665 0.5041885790683499 0.011767041475715495
0.30584186653689016 0.3115188498216645 0.4548816327759799 0.0023599301460200004
0.07669646461908136 0.30737432287987176 0.5755529862645165 0.049165735561542155
0.11673185449278932 0.31042286690656046 0.5698307252366971 0.0020944977808155917
0.13278018417698412 0.30269908346116514 0.5072901048777871 0.007179092000400441
0.15492678452015893 0.3062939295603124 0.4973024895647347 0.011608572079979784
0.30494739912067675 0.3105957522397345 0.4341352192414628 0.0014414843458473666
0.09028234669942525 0.3056893572752742 0.48930436483333895 0.003917906975358001
0.1713812263866488 0.30228326691299184 0.5677919441101134 0.038081328271957746
0.28315726546629416 0.30686373485968976 0.44120390044723756 0.0004283788535388343
0.09747002388038327 0.3058698411758105 0.47668968057707084 0.006772016946256583
0.16693694428004366 0.30803106152088233 0.4858239998782814 0.013876396889023007
0.31092406842719317 0.30913394374108266 0.4272611102668027 0.0038442018158437933
0.19513593775588442 0.29910817159211234 0.5340798777903594 0.0023682375422991483
0.2431051268644897 0.3079323382508162 0.47934693671321305 0.0065413574356102
0.20851986646687462 0.3029803276995696 0.5259253339111122 0.008619481816033352
0.23834759960763507 0.30590148133018463 0.48369430266586994 0.0060443195660746804
0.23774604533067847 0.31048246264375967 0.500660652045412 0.007169102579818157
0.20467433677879066 0.3051282034697216 0.5054934376115313 0.017382937211259438
0.14417018977508045 0.3087269808067629 0.4717161402880877 0.009623067409030742
0.11571129043041972 0.31090987343862403 0.4946207943153815 0.005729836221175961
0.24108369372255248 0.31277155769925463 0.43644510308629 0.005209714107257215
0.15768331567092642 0.3071875079619752 0.4234400018505485 0.009145812527288952
0.05201415860337169 0.3094105330835104 0.47496694399155925 0.03798852319030566
0.07350147607419595 0.3102026414833145 0.39847602705887486 0.0037102875841880235
0.2482188935456485 0.3126046111975064 0.42179953476723325 0.012254574515519591
0.051739156479366596 0.3045875443249156 0.43924453385733275 0.03608366216291114
0.1279150975804868 0.3079176390335195 0.4033270640576721 0.005194111832289197
0.19518526176685871 0.3105650407714423 0.43876334797080735 0.0073493071953524254
0.17467665386665035 0.30273853198464057 0.4400880250332659 0.0033106410046219374
0.03730001149150477 0.3100366935142603 0.42334492587484246 0.011096787917832723
0.09838189516123927 0.3069124595135996 0.42533660089368514 0.008299185608540956
0.0854398535688808 0.3053203943202616 0.47116310586191895 0.004943582104721024
0.02824624868506921 0.30701433540119466 0.3818841338913254 0.0232864999393712
0.2821021366917453 0.31068653051734446 0.39718649260765404 0.0045456353468831924
0.13302818570981556 0.30781607609263384 0.4552737611599342 0.007873745018016494
0.06186455272509625 0.30742462922382097 0.478181048287915 0.013050208989791682
0.2946861894454275 0.30979977436837297 0.422202515323998 0.003481620641501651
0.21657007861545638 0.31388684939435724 0.3895543575673182 0.004123566922581879
0.21529552373341157 0.30620749650602386 0.41668889832934153 0.00880942207240165
0.18247436102966821 0.3099544830402518 0.3936204075322753 0.007019852063422908
0.02813947021613019 0.3058629547243382 0.4288286922280529 0.0895414418508627
0.4019902307068516 0.3068245729995551 0.38517229192468705 0.05897792317891536
0.2686822517626441 0.30846004205941896 0.41829049275050595 0.0028638075460502175
0.06429467781349715 0.30309480950705603 0.427418628012178 0.0053721758321805
0.21883908707001778 0.30453553269872585 0.4431070317811607 0.007245110626558744
0.08925416819127277 0.31072106548733247 0.40152057489060156 0.00931694767864488
0.36548770091338456 0.30785177815605785 0.3872971142147889 0.005619081556212368
0.100167939046665 0.314715924084554 0.3911625343938819 0.002363735467166351
0.12700318412417352 0.3072334074109718 0.41905590143931826 0.004865744650111686
0.12245398232073268 0.31079261733056807 0.4314117542639867 0.00414196764092602
0.16840961876569246 0.30796665868220124 0.41036101072592607 0.006939691803202463
0.0391091075286013 0.3032931028723373 0.44568488312942317 0.1070882832569843
0.1373148123045084 0.3057023276639204 0.40406737777214685 0.0014021973836223652
0.3245381039076159 0.3097195317491248 0.42785292999656477 0.0010454216604298874
0.029068730663680716 0.3080375295341402 0.4062241935146224 0.08760775895292641
0.241300659821082 0.3099448330601051 0.41491000259537864 0.013289248908762428
0.06136838152686841 0.3061578151841602 0.3908744936866275 0.007296584031775657
0.058229050392468604 0.30930286145982416 0.4574609576505217 0.023862138128571096
0.18104261653478454 0.31400398793950035 0.4119463578080288 0.008993618317293528
0.31513632169912226 0.30917261084985787 0.3962651572143904 0.0019616994921975764
0.11356382100318865 0.3101556913687902 0.4470113855387569 0.005252075951368647
0.08930040233835045 0.3111932227333618 0.43824685912240074 0.005100753092056047
0.0699771274822709 0.3067367281596142 0.3850492533853656 0.003393428453695618
0.026327046266821898 0.2957749091735348 0.4795997424209316 0.1321833329096801
0.2465514530038571 0.3084443193306272 0.5745661003777549 0.01160262837539827
0.29793670669256805 0.3148827472430679 0.5502742642457125 0.0034302607774758325
0.2686666440628358 0.3036701750978026 0.6018822668750655 0.010712763397860734
0.2848785575283815 0.31105288720901925 0.5801557488889122 0.009460455629426625
0.2869592976205322 0.3109088387696607 0.6141545048144089 0.05746378999119851
0.36814731508727033 0.30649200408441657 0.5141760176030226 0.08877162288961209
0.2758984993658766 0.30699385564978443 0.5481753651791618 0.006263097122699493
0.21580162954491763 0.3079462639641237 0.6064790227729746 0.010543880744920337
0.3050316900064722 0.30547629636167856 0.6200846360092769 0.08344414873292556
0.2693925835272934 0.30727869872100944 0.5604782124039948 0.012980132999366636
0.19286921715739852 0.3052656172306484 0.5825751714960195 0.006768409904656506
0.23136125996285836 0.3059852015687407 0.6148018590582124 0.0117342875089498
0.3051616922169273 0.3071371052941139 0.6131561354061931 0.08858626944632988
0.2399313588419936 0.31439895692416825 0.5971736101216227 0.005410238382488181
0.12707937233764563 0.3100248119293388 0.617565908529618 0.07701274859831714
0.3655671566768777 0.30680632443780065 0.5089108836505639 0.0930795325926305
0.18790464737552273 0.30416457447319684 0.6178613821784469 0.008164285787224133
0.29719736308559486 0.3140263254757431 0.5791511833915229 0.01087153400997759
0.26579874373086576 0.303208644337964 0.592859257739356 0.01520116252045566
0.34032525532908836 0.3093978946512876 0.5486690892274599 0.09861342502589278
0.20761666102330265 0.30940592412148055 0.5933441725424233 0.008003091226976991
0.31239187567765786 0.30848615080503633 0.5582381684427251 0.012733945178875477
0.20676173668984785 0.30339525805785705 0.6154726917813615 0.0054457654127964775
0.3291017992238509 0.3076673870293806 0.5295639183121071 0.01473884486350537
0.32553352804047686 0.3106984864995388 0.5790630312391744 0.051791036042557276
0.21155815854158735 0.30835308735251854 0.5914041856270917 0.008469727187455384
0.18342304627710734 0.3049134152438349 0.6101125165148593 0.007927292180203358
0.3584768320957868 0.30775543979445075 0.5262614644588196 0.06407867818119561
0.3401743196255926 0.3013170565121851 0.5785959360063391 0.10498302570178017
0.3312918261294595 0.2968352459333729 0.6019167460024938 0.016197402374503695
0.3626577757321282 0.3004219573420102 0.5479759955566179 0.07994449061221637
0.13998999177184485 0.304382606491626 0.6517474236151799 0.06052410965455953
0.2468947777412535 0.3059598919386399 0.630652253015627 0.011149745352531082
0.18922071707596677 0.31003230314371744 0.6517219272512467 0.025303838950778534
0.17313510146674976 0.30391739477810165 0.6590860967000962 0.10560929537290471
0.13778078950706707 0.3118190730228396 0.6465675255059864 0.0650323030762372
0.12491854969599755 0.3067714795731485 0.6315062305473736 0.1250032577698004
0.22342204236587876 0.31025072872027815 0.6476238017060734 0.01552376419935677
0.2842306242226462 0.31206331745569693 0.6308555303875606 0.03859155241245101
0.15297970070464234 0.30944111304414096 0.6475805558207978 0.05746425625895477
0.1730630282179821 0.3092985499653636 0.6557341856672514 0.10467516218077032
0.21241975477778355 0.3105274357866508 0.6373501139517588 0.004933983846960708
0.25777213418511136 0.3056666271503492 0.6239226180790313 0.015655858639466672
0.189952936981455 0.3080218363229028 0.635069813468757 0.009643546850195533
0.17172142204681712 0.3125705170886349 0.633184093494212 0.01956062194176983
0.10201872921583642 0.3153922494282638 0.6178037946004385 0.05671478697992438
0.04063141673877784 0.30159251995259545 0.5546476402770424 0.04684750256874456
0.22513801912424353 0.3040084573012184 0.6703654288584011 0.09221196165382442
0.25523861659791436 0.30497725037621143 0.6490512334566026 0.09233686141105123
0.2455732823483566 0.3063664896456423 0.6541399062981726 0.08990614742932096
0.21896190219572423 0.30739135337232887 0.6703807810898604 0.09147826324726491
0.23369294738566496 0.3081314538180597 0.6558409228524881 0.061617711316862944
0.2702417023155217 0.3029297163847974 0.6415325053153509 0.12356886028535936
0.2989215538131601 0.29757612632892255 0.6460978066743617 0.026277005127054442
0.26319966736378175 0.3048551181439579 0.6571837143130231 0.09118613219171677
0.2120154267881717 0.29454564514892345 0.6763269575488432 0.11398090764155204
0.21624974316824958 0.2701839386972117 0.6753487329946108 0.0007299190845685901
0.2418467950139897 0.2818671865375046 0.6692796490439646 0.024095184593839906
0.2696836986555646 0.2996052816596448 0.6591763008669659 0.10103834185643762
0.25657989840187145 0.3015296879314734 0.6616943685897287 0.08078175663498745
0.260382916067821 0.2813900817230418 0.6609472623646052 0.05611202741598206
0.2747276232131532 0.2798847514509774 0.6531888115629559 0.05523659292575227
0.28460784088431074 0.26678109482716444 0.6449404981411878 0.04132244516655131
0.31178224795132836 0.3005125403677792 0.6136671581948038 0.06113254315799852
0.3087044856011328 0.28257155928611993 0.6229637084842716 0.057383565936433706
0.31465523221646896 0.2879354160715323 0.6227971798136088 0.06299818237036543
0.3185038027665455 0.2717974273812222 0.6051584957921372 0.016804173779536913
0.32248724079898033 0.2621029577504415 0.6040456094046825 0.004580163004242144
0.3301875513258367 0.28254296325085376 0.5955033679485874 0.02237686980322731
0.34565688778757875 0.3014798825959443 0.5707512030747802 0.09302580415705154
0.329525194520306 0.2622232863878001 0.594441955785242 0.004940602261075237
0.3492947698635636 0.2941333531829805 0.5735365685380632 0.037846910138804
0.3400786602732749 0.2787727436321735 0.5794161308491251 0.021019575286021552
0.33717655518292167 0.26005735650099726 0.5793349130413158 0.01162591203716178
0.3506154241389794 0.27229710420115816 0.5576928662915044 0.032846893293876495
0.332292948778955 0.24797166647390428 0.5871090903042864 0.007834526516297187
0.3552536129694535 0.25982574884408627 0.558618807599812 0.01726375772400336
0.36808416149072465 0.29489596958785025 0.5413756522639427 0.033518441106660454
0.35314360309353315 0.27828360130917557 0.5520483902514245 0.026087794404606575
0.37037730001848534 0.298006313852196 0.5318570809296215 0.03307801121530833
0.380319082911341 0.29087929562802534 0.5126688516206551 0.028000809055672284
0.3620771708621821 0.2540106266553614 0.5501073044459777 0.019851706809049876
0.3670375425646783 0.26580857198037844 0.542546391704041 0.01342161982213968
0.35630541917478875 0.246638518498989 0.553407069783586 0.025934382615321782
0.34272905257322267 0.23453904127251585 0.553082910084988 0.014401592167977309
0.3775039983480351 0.2582728229550283 0.5067335418374957 0.004616264159520795
0.37168057231418755 0.24784772164181895 0.5346759708478201 0.019909715891643125
0.3693217708182989 0.22997292548588583 0.510974438311366 0.005079974623500061
0.38387431390220966 0.2910006055015733 0.49652137309724964 0.05437888483770705
0.37703870810965573 0.2724225940366253 0.5232346634822844 0.02047529866158677
0.3853900637338831 0.24950733271370992 0.48256544412634034 0.004082984950901751
0.37837375508437215 0.20549074298520975 0.4720289279011867 0.035806321175189816
0.38598952805973635 0.27173988774085983 0.4955522642965 0.0029398855823509714
0.37552990142988496 0.2283192835496002 0.49403692105639246 0.0041521229732874865
0.3774010918579656 0.21481303918790004 0.47997952404222105 0.003274825992370845
0.39330016687471897 0.24179051466305818 0.4307717030105564 0.004788942068197433
0.3864979075451735 0.25148843135762944 0.46093895438771915 0.0058159904895345995
0.40387109605469845 0.3072689317583934 0.436206618932807 0.05313564265206237
0.40287300404234216 0.2917483678071148 0.41212830816556206 0.06912730943837003
0.39287439435883226 0.2892922611444391 0.4534625825499757 0.10461579804574643
0.40148057270546705 0.29840667853451003 0.4048087462331836 0.06940824960634515
0.3953565901328446 0.27231038547268843 0.43405999600513845 0.01388490965330774
0.3973890079408672 0.25903094962249357 0.4179582602795186 0.0051579189885529435
0.3871398441387552 0.2793255037785785 0.4762997343238352 0.044165945284389566
0.3943037509976169 0.26236471454546106 0.4435622593155947 0.0031945501267464796
0.3817602015932235 0.2334173086664968 0.46112835043131645 0.004388966015959256
0.38521346236352777 0.24499183084384796 0.47160497987204847 0.003684970511313124
0.38568990042058454 0.2385318590438791 0.45463329054596824 0.0062002347709895385
0.4046674760224625 0.28880563124698583 0.40826114363189714 0.0683149125491011
0.38845881283567496 0.2667310802433378 0.4829473639054742 0.003696238213393327
0.387230698227822 0.24768233391790623 0.44719078285445857 0.004675018524492606
