x y z curv
0.34902788149705916 0.22964389542599628 0.5011143678785929 3.988377490431639e-14
0.357127645911144 0.21495241348867308 0.47451702995580686 -6.889456134793138e-14
0.36523270973969396 0.2097190238728196 0.49864246452984445 1.877288716018836e-14
0.35629192416307726 0.2285699598586096 0.5482124852371609 0.01185515717086978
0.37708441659048747 0.23178000521009345 0.6354016514802132 0.08667330738100429
0.36866127757087963 0.24183826603025899 0.665083012861451 0.048444291873063546
0.38151621349406467 0.24263113022523167 0.634236027652018 0.07724647923765866
0.3997376843450192 0.21854894947025214 0.59120643993169 0.0060847695971148
0.40384074814220616 0.20187665999487833 0.5304217328998933 0.1243506864253352
0.38621098450065283 0.2315811839110608 0.608877588735727 0.12712699924605483
0.350854932283234 0.26141658103829923 0.06590611743240758 0.004472004814448604
0.36175165707162554 0.3045552580525375 0.04116169813015886 0.004700715299517712
0.3615384278426512 0.29540201756521994 0.052684451755576664 0.002805894034816507
0.36428226032840105 0.29124097743840416 0.06341917867688157 0.001643740299035832
0.35808744761741135 0.2716858271355207 0.0727496478177772 0.0024443191038522813
0.3651776722047406 0.2850767081743646 0.09413843295018492 0.0023392782644602677
0.41027526078014076 0.24925588493522302 0.38165183032241423 0.006923265309651672
0.40631397537744846 0.2511223232427847 0.3381251217796897 0.009922605551037744
0.40373726595893644 0.2827836046050384 0.2800035855768184 0.004412296033670702
0.40649334777343793 0.28572338477943976 0.25540053198386936 0.017336333908027496
0.3980383350469146 0.2574871108996055 0.2748849537733626 0.013649654613838828
0.3955757249449782 0.2607723628715866 0.2618077750615018 0.012888708905420876
0.4127410958590664 0.27594922625625795 0.32036527463931125 0.004339701396917886
0.4139910023728526 0.28497502780755324 0.35950334950553686 0.007803643662966823
0.4090141575010141 0.26547217197848244 0.3678881361028742 0.004799703094986004
0.38932870272926307 0.292683746605341 0.18600210801705724 0.002653690863488054
0.4043486347580458 0.28314673528602635 0.22665642049918566 0.00160402441632558
0.4183701190367709 0.2623179439186139 0.3914753393394211 0.0028535901754512486
0.4152380646686449 0.27607903975459275 0.39526573810541715 0.005594772975137961
0.41635165446461747 0.3013590417349113 0.39321273888093417 0.008340952210255622
0.41733266116644074 0.280345907949077 0.4145809930399186 0.0046646396753342225
0.4190223918824038 0.29556440722483396 0.4522056728732481 0.0024857373097771176
0.42083859495524534 0.30392183317088994 0.44208397880886124 0.002109441048082341
0.42480033680692386 0.31806724462934793 0.3967026668358042 0.013223224879357856
0.42288141765883425 0.32159136633288266 0.42552585130464976 0.0040096030499248625
0.4196004587059118 0.30641738970365756 0.44885349725126983 0.0024437408856115028
0.42171281977328695 0.3092987755641925 0.47050192699096105 0.008019328330249768
0.41460886697003413 0.3023508637754031 0.5093768887816222 0.022982878295351904
0.4111313487245137 0.29297286638325176 0.5280754460368584 0.009044368776054051
0.4229666635170612 0.3158868414806052 0.533919997550752 0.0042851045141141875
0.41161378862434367 0.3031920079700278 0.5611343507165691 0.003000599135008733
0.41246994945155424 0.31468192543470414 0.582311062634682 0.0017933900301588509
0.3592010239615569 0.24350845877503285 0.6736769636270811 0.08698525051153999
0.35814265066168816 0.32688622111827137 0.02040597837029726 0.028835983647370864
0.3694888792978576 0.3283996218263517 0.037556427488586265 0.04546279270523455
0.36843777175463516 0.3474583795137685 0.03397743493238432 0.024161242815160033
0.3757761260119739 0.2951448456112005 0.12940648514911973 2.8022187647496923e-05
0.368790622872579 0.31498056131378177 0.07273794921336206 0.0013150638748178863
0.38895962615098517 0.33201810485310845 0.10336799525033893 0.007525179116042139
0.3929381443401779 0.33685853964513085 0.14158275369246417 0.011079166157438545
0.3913075003554282 0.3508719060832429 0.11794450571813533 0.030356846161118
0.39523146819955146 0.34592599196628465 0.1573550518860056 0.04723135697728812
0.3967439392245245 0.3180240834921143 0.1869042398897248 0.000420040584445641
0.3719608564951458 0.3454959656920667 0.045656074832816994 0.03571899410413978
0.36867857398375675 0.366908720838689 0.05761682388826354 0.008068481578890237
0.37535929895371584 0.3591628350795254 0.07833976643209736 0.032554239336298404
0.40731822418809105 0.29697251047539974 0.25957266434209786 0.014766905250150583
0.39923645777453753 0.2754102743559256 0.24601231293932976 0.0030720006972258167
0.40693037168450763 0.31737002108691215 0.2065672816741752 0.014115507144759275
0.3997710789930473 0.34025993170862945 0.18531824947679243 0.07513191372888732
0.39005930608828476 0.3581059501013506 0.1406897306139664 0.060250271273585926
0.4007925290012882 0.35687099668120964 0.17038333707327932 0.04489314974946202
0.4101669919718909 0.29351500376344974 0.2701156077498089 0.009693724303683192
0.4028751229369262 0.3185448362177147 0.255547676327117 0.007170842995979821
0.4040422719857752 0.3377053098253224 0.1960641341494973 0.014600556396377482
0.4010431832978037 0.3388565101148485 0.2286505179762219 0.015761597500074876
0.39862915993850007 0.3734895919697071 0.20379035611225899 0.0734665813744119
0.41242248052042446 0.36068782367987673 0.22862947618775645 0.08081994949381895
0.4112302665149977 0.3118131033459511 0.28832326215766024 0.0069978468766970356
0.4079504234519329 0.365501224684054 0.2754463331646181 0.0392484617592582
0.4173740787271981 0.3474614032223741 0.2670348599913622 0.04263456779842186
0.42210156272358396 0.3552810488191382 0.30284045025980644 0.01865590237806296
0.41680037686849003 0.2973830904445842 0.35133109191506745 0.006495287566997968
0.4110912914999651 0.2744147687045285 0.35071221597742575 0.002409935011741367
0.4165994698127108 0.3136989391681212 0.3526631150061947 0.0034744011238839675
0.4212731550404326 0.3117421206218609 0.3207250444204835 0.0036600623640017545
0.41306673111900977 0.3085006845147148 0.2967606993203481 0.007124416771953033
0.4177718410690017 0.3241860322937013 0.31187532704791976 0.006534886193004678
0.4141469037243767 0.2995263815072301 0.3275620311541161 0.004425888981547891
0.41420717645550276 0.2927761628149124 0.3377748873957663 0.005002059243169208
0.42564256344236273 0.3158136363294656 0.37936322585313986 0.005990249178060103
0.4204388204966404 0.3256253601330422 0.5159601145357964 0.011313983629513568
0.4225421567031906 0.3356906824614427 0.32901618457252335 0.007577124038680367
0.42065639328081095 0.34001761110285583 0.31176083535709515 0.021134815170692857
0.41279454266158616 0.326856807323523 0.29764303727823627 0.006544349051700087
0.4193750853487017 0.32121259382282036 0.43496066109658205 0.0029210066754052004
0.4240874409848863 0.34111274770094113 0.4500405038299975 0.06901868060660528
0.4183545144078554 0.3231347527149732 0.4876400926535165 0.014381576751748757
0.42819489215949236 0.32953412742870214 0.4783171367028728 0.05151879911788667
0.4210274137869415 0.33315989767053106 0.4941449826483178 0.054896733903604306
0.422368293290763 0.33620580094346486 0.39805926451066487 0.02306004465428943
0.42822882590123035 0.34804098044237997 0.41526004582833237 0.023027412122608552
0.43070551837750065 0.35181240617889686 0.4548216005723126 0.0989907816641266
0.42540090242048045 0.36673220245810895 0.3721042175692477 0.013994427315704711
0.41961997883841323 0.34811100650306204 0.3769283243702667 0.019377745139074615
0.42334605124383284 0.3544542756123202 0.35862927767984654 0.025863932040514404
0.42918456654247233 0.34731004185990005 0.43265432622660194 0.09564238331992184
0.42306376013177527 0.34036273110529935 0.5195223951240058 0.06959667421135149
0.42516628327851647 0.35943511483592905 0.5314494606667067 0.09469655467369238
0.42707832110905664 0.3599298211979765 0.5206543283331762 0.11882515732903276
0.42898856810546304 0.3561107944623824 0.44252709896838033 0.11527817435979143
0.4385654961334929 0.3556775556069603 0.49109269899161295 0.05088598832649039
0.38691058351996654 0.3213309256541253 0.6399598921588956 0.014670936417410024
0.4116185011884897 0.3413353084283325 0.6251251915792174 0.049569311177392515
0.41037212003266177 0.3132727138562227 0.5838208526047602 0.002604374352786305
0.4059007732868814 0.31232059523703926 0.5961733278748301 0.002997407863396205
0.4037226202556971 0.317647243233461 0.619584489862117 0.013750276822338078
0.4191103490275889 0.3308818749573553 0.5707375433537293 0.008641239377484082
0.4127177255152935 0.33862945914912346 0.600010705190919 0.06663809113573217
0.4188555121515667 0.3498202905932259 0.5981163015990837 0.06142275580276358
0.4078742571498136 0.35572319777775546 0.6313739148611839 0.027127276777441624
0.40963564329650076 0.35740902856235024 0.621741946144665 0.037238762702638255
0.41931114401725056 0.31051217716243595 0.5416473568354698 0.005747761769265559
0.4153214313187761 0.3555759246065828 0.571628320020151 0.0935443826636175
0.42612754672292463 0.3327044173695953 0.5401092688617061 0.006476363325966423
0.4269933591943551 0.3662235566209553 0.5479388192795217 0.04344000234981258
0.41699244856233586 0.3485134227683405 0.5611296230544519 0.08993228029762372
0.4193482568227699 0.3563104533543629 0.5935536193900564 0.032863973444781834
0.3586322091648685 0.3183117678100933 0.7175596256264156 0.007860992170111762
0.32507693038571156 0.34554442088970116 0.7433673841857064 0.01533054812652461
0.3460795634832762 0.34372651517120356 0.7311638649608265 0.04896631996962077
0.37035697049241845 0.35598724680421956 0.7119086256572352 0.049089245693068585
0.3382456264944278 0.36375702523185727 0.7336093000356071 0.10857277353552157
0.3666769686686128 0.33659460407537606 0.698415850355831 0.030805897601470705
0.371860534777681 0.3453981459422059 0.6912012059526649 0.14454809352369324
0.3779779283668254 0.32915718368581864 0.6903040911800519 0.006899918087490965
0.3812062695350013 0.36521060025007857 0.6900725852466836 0.0712501312543334
0.39631571264163873 0.3376261960927563 0.6511896424609878 0.010684076440143532
0.38351397180876823 0.3174201226985825 0.6645683653852538 0.020850677255796965
0.38377902786002493 0.3559213946771301 0.6721519336521292 0.052508770125380334
0.40346342577814887 0.3618029844584798 0.6338745009025908 0.07881556984851681
0.3942895871496746 0.3563648769508846 0.6614568772242313 0.040192144861344
0.07373803218890689 0.3770841612054185 0.2428650067877752 0.0017888764103519959
0.026393627492915236 0.364414825774713 0.23870380578348735 0.007894540849474184
0.2043943793177293 0.36588311417238023 0.27037736469024615 0.013814545708161943
0.25898792292735323 0.36281454018130543 0.28447210980657595 0.009452015152118576
0.039094384958613955 0.3747045783096295 0.262897581293316 -2.3517761469271605e-14
0.3014845541406792 0.3700188173458327 0.3130940185987645 0.005770289428679994
0.0933970358496031 0.36406325272973067 0.2686536069355311 0.005767805136380025
0.13074231828084779 0.3625793777280286 0.3099846606021509 0.008073979892134167
0.16691665460385727 0.373417459310663 0.28117177337756216 0.02903500021456924
0.22783956989597054 0.3703171915183262 0.30424776313059054 0.004749075888692651
0.24202642018629525 0.36542553397292654 0.2960044190487988 0.009867894192023581
0.1036902451527875 0.3680389970500094 0.2983723089895263 0.0038807158386093867
0.3148863857170536 0.3687218444166491 0.32052642638517126 0.00419993830632663
0.1541340045221523 0.3740287782403281 0.3113497611427394 0.0028823487023119133
0.01554198129156624 0.37111257377643897 0.31069038022360074 0.0045200561765376835
0.24602560195473894 0.3760790324785768 0.32842517121438203 0.002073180375310617
0.07994921976977604 0.366155979738585 0.26788106901715486 0.013474219331879516
0.10447297314320746 0.36781807168927894 0.29918105963419356 0.003990943761509264
0.29239093252971804 0.37090717884204855 0.3237592741574271 0.0029826098204981475
0.0337302354388645 0.3667109812180785 0.3289268218269367 0.004985064258031729
0.1846862825692046 0.3752862805571777 0.285883262028557 0.015601870914166678
0.063369677099544 0.3726165210604472 0.33319747974255215 0.006929769609717002
0.07973242847541903 0.36916907067452087 0.283092696337836 0.00631248498053175
0.03828345150316395 0.3672940576605488 0.3142866509261504 0.015105372906786955
0.12074092002848433 0.36875129996933587 0.2661282380943521 0.004944375980649684
0.34641715496839015 0.36491827928968185 0.3142371265204255 0.004309782889326526
0.182466189169529 0.3750365063591583 0.3205420900920673 0.003944602870439338
0.11871754417842055 0.3650061256686226 0.3185650369102914 0.012919648856867626
0.019892785018125008 0.361101870661474 0.24422605196095565 0.017333589248056027
0.136784802947828 0.3664152723037877 0.279620811499485 0.007704455677249306
0.07187416866786811 0.36390498267923127 0.297876653512362 0.004956282485157656
0.1147151453307236 0.36675851922352604 0.2723803796235597 0.004956021721274757
0.15470158880877835 0.367028139795537 0.27413361741115744 0.007046318005595902
0.25890761500501563 0.3664126833045342 0.30432653215302496 0.011892578933535906
0.11602418644252574 0.36625160219646513 0.27789227839120656 0.0041998641618311745
0.1371275805829757 0.3647268860078677 0.3284783967492895 0.012568138854520778
0.011002063051058874 0.3677419912356278 0.3249706924892095 0.12067429952293965
0.046834427040233384 0.36654707504899503 0.3209499919997256 0.009811551494212903
0.06395210106106311 0.370657509510835 0.32591397782863113 0.0172958011805475
0.05145468496846833 0.3723713298260625 0.3041321272077635 0.010590279561344066
0.12581415767854773 0.36691338117325356 0.2656753461594443 0.004715700170308174
0.2882519852712449 0.3661581858353789 0.30878996403781267 0.004844760970112646
0.27590441185859477 0.3661579521327628 0.31391303587272884 0.0066241380938131264
0.3241329956398812 0.3718399102722521 0.250663010235842 0.006752467713353028
0.24464649205835903 0.3623246417126858 0.23254008300185827 0.00986370261015597
0.4150087741409351 0.3628615420225872 0.25944667806803673 0.045755992346676336
0.14799063848470315 0.3693179374356005 0.25640203146853885 0.00797444819029702
0.36566350353407406 0.3741953440944642 0.25281451391921883 0.004950278822956738
0.22109828452104663 0.36934986191269653 0.2365549022865728 0.006158336938736759
0.3984066072776956 0.37004207742798956 0.2453120111172615 0.09017918889254076
0.27185595366781135 0.36933854345823475 0.2713199095122543 0.0054808565605607784
0.19194031158545763 0.36778376308857386 0.24830254560343412 0.013194964530069554
0.3983267183141051 0.38419292150935536 0.32595814281440494 0.009812325109421654
0.29341367827457315 0.37314466841794414 0.2758934420204999 0.0063375314171875636
0.2073999865216134 0.3632954103826831 0.24716163792505502 0.004978329679970536
0.2439900147785256 0.36198187330259185 0.2591722298021832 0.008283138260582985
0.32778845662571376 0.3658502086083549 0.2651292287493058 0.003567734972630939
0.3583697913087391 0.3696686220468863 0.31170329975161426 0.006382156879733633
0.41776394643229015 0.36330096591869404 0.3024844080137819 0.03018354568698027
0.3736287410541485 0.36628677910528173 0.2897303968383366 0.008952742827127635
0.3487947276080429 0.36973018341059743 0.25630841546586725 0.006379154706758382
0.29522931682461845 0.36723436107314467 0.28700909855138357 0.008715467005054238
0.19885224697510753 0.36471854685817645 0.23756108057388037 0.005686881918930703
0.2588260550595535 0.3634992159149705 0.26439090337672777 0.010190264470435497
0.15373519950581274 0.3715370766482027 0.2561817553884635 0.01588248921855482
0.11830708212934295 0.3722850933331409 0.2391967721967047 0.0015476387611257675
0.35835471617599585 0.36850161048454355 0.2734923595433065 0.01591991399126523
0.35481451831495536 0.37162681878306 0.2901963931719033 0.004294616100184025
0.16953770183487 0.3801028841016679 0.26018370089371917 0.013358055700415565
0.2366765634732058 0.36355068437713617 0.2424217645564481 0.007192694067521173
0.41022419415519323 0.3733773645709128 0.3205910133461703 0.02226516439472003
0.09718159958631219 0.37181957297973506 0.22978902766762413 0.019484050279446552
0.2535089613757345 0.3626090015940643 0.2778251338946852 0.008087279712158392
0.14915323649112236 0.3719688682273185 0.23255966905673287 0.027749327475394495
0.3613816112350799 0.3694822117949262 0.2861206847416616 0.014192812200790057
0.3088108161141204 0.37211310558095456 0.277648742130964 0.007197077434266172
0.22892064406379636 0.3662358423371645 0.2676841318783014 0.005134596450898238
0.27082544670055614 0.3675974582719668 0.2747844076612272 0.006145868870336997
0.3919211167186957 0.36237009715812785 0.2642749638723553 0.02549563149968639
0.2203649112239648 0.36765425263393 0.2742254070316085 0.005523615727148596
0.278120676454929 0.3771725068714431 0.22723628250112046 0.002290486558621996
0.18679094472764782 0.364457145436514 0.22297051359401307 0.008603266841653832
0.32533890689103945 0.36705172916053336 0.22265826202271533 0.0030259758928042352
0.3454139281080056 0.3725088552131357 0.21877683156837188 0.003752023459594182
0.23465363453831808 0.367695962031977 0.21769151222891076 0.01051972021786998
0.3544021016123785 0.3684378294977876 0.2190188019803576 0.0026734630829170682
0.06414665703125881 0.3720265968434454 0.15430073503925676 0.00645021340153672
0.15274994061653036 0.37245336128150597 0.1651434936651637 0.00249256834585139
0.02486199564400238 0.37599649952971353 0.15482599502494965 0.00013925784653851856
0.22263784383206375 0.37050059861519863 0.19819725408745523 0.006906806535884028
0.04044601070762289 0.36476456053754436 0.13384638215224692 0.01876525242637295
0.06060828634236482 0.36752305737063634 0.2155972018075049 0.0021464841272576724
0.07261403527768771 0.3696242959455137 0.1795878299676794 0.006389030355273089
0.08579297264057581 0.3679877755085163 0.16708418443568962 0.008500274009392123
0.11805701585056179 0.368997866941083 0.1933863764039208 0.003733240249384967
0.29856743943892294 0.36981413854867584 0.2042781186508369 0.006676420940569682
0.2589108878557515 0.37343592380857615 0.20196630446019237 0.012788628850603348
0.046759671729258226 0.37274629893268274 0.19250080032592903 0.038611182682422494
0.2990359258356945 0.36750043726254755 0.22316992994895996 1.9960437666833726e-05
0.16216182859710127 0.37559522252436095 0.22534922980303884 0.023242636277694836
0.11049670154801763 0.3742052200906777 0.1888319659216836 0.0012045304792312915
0.2311127224376449 0.3699702775581293 0.21132300996049083 0.01051866190364252
0.02826747234323924 0.37207804767775654 0.2186217208489995 0.03388587286953152
0.20698338226216803 0.3660072096038285 0.2095027021788206 0.005672110069412678
0.07338761366344389 0.371508705927877 0.2062005105802716 0.008559515702935245
0.12736082549364147 0.36604683172417407 0.18410575784350947 0.03325604180060223
0.18532956274661178 0.3735226881869178 0.18645635302849897 0.007982616945065012
0.17346297895663082 0.37429351715065196 0.19841435813487857 0.012039979199772387
0.13774696486533394 0.36338520576617284 0.17991995472897893 0.012482534489582614
0.18542628681106066 0.36603261645254326 0.21105668559692267 0.009038869325394511
0.3867275798561321 0.37328855416613466 0.2131386560448251 0.01616971597140961
0.24345704469556478 0.3739658618966019 0.19255458861260358 0.006243032305264151
0.35066599761235634 0.36896616872300386 0.16871363290647545 0.01861757861791444
0.39039908110699484 0.36405371761106686 0.16277492600612087 0.054230744468940786
0.3310460701531034 0.37219833630443094 0.1708779979340294 0.0002701265301803144
0.20948229034646826 0.369636158432821 0.13591579966867082 0.0019525627157680491
0.10180876068083877 0.368944618479698 0.14770916711782545 0.0014243476253060976
0.2153623540968984 0.36738017443318405 0.15886301434787892 0.0009788621666913628
0.22104178404700356 0.3716096235799328 0.14639346562984354 0.001916082559429457
0.2176833672732548 0.3682235185239729 0.1705425113661022 0.005462573274139467
0.2833946413754666 0.3744350456325894 0.15262151922370842 0.008855070134237872
0.188824683637939 0.36788014892268567 0.1419847366353758 0.0021261371729659846
0.26536054448515933 0.36805612573328267 0.15995333787738686 0.0020303845958429727
0.1938924368375746 0.36666548227940843 0.15143915157112084 0.005155148151302376
0.375592293837167 0.3791451152578882 0.1541480976255223 0.03309312751643844
0.22115233558997557 0.3701120860970682 0.1539475009714439 0.00188059413444916
0.26530357618984896 0.3707265708258233 0.18861937204838342 0.003476060132661457
0.24179333598740976 0.37407163179215025 0.1615322642151558 0.006191096246907867
0.14843141938051008 0.36794223242660506 0.1464895715675942 0.006608108137165731
0.1262009237389747 0.36528359132771765 0.16139226454736177 0.014082034612859803
0.2669822398162801 0.3737890691935652 0.14356340528121558 0.010313977397530281
0.11868135912670083 0.364520900240693 0.15776442299666504 0.008950911921637718
0.35351857088817906 0.3698281218194266 0.20289316361449147 0.00806316018565057
0.3548159623596537 0.3684951467066626 0.13745727966788962 0.025209212201015987
0.40710038195349163 0.37227275555832123 0.20882928735579565 0.07151722464710052
0.2889999949085386 0.37107126625377557 0.15070967521703882 0.008340523229519618
0.31282969320236287 0.3701127215737212 0.18064923242818506 0.0014743271524135398
0.37137859452770183 0.36522142212514147 0.1744145024477316 0.051278741018534565
0.16980154852321586 0.3681156285224819 0.14205229148893359 0.005337471896211181
0.13647151222231743 0.36549840925389177 0.14281475586159872 0.007159600236297383
0.28435106077491756 0.3727931344303247 0.1801546169449061 0.005047712881415403
0.07478287479683215 0.36686801450562007 0.4213699454294544 0.004303205168948193
0.2315610477443912 0.36933050208728885 0.4238311944119188 0.006530995083030876
0.2783035094764923 0.3585179920687662 0.4090606958689699 0.0031002331664242307
0.10923077318244512 0.36844374901124455 0.37708696850471796 0.007052599769332757
0.09290186073244497 0.37380334688166517 0.36865748958892464 0.007811920530217502
0.08081313097735339 0.37184216466317027 0.4052762747129952 0.007416495209440227
0.04735834787439333 0.37100362146934235 0.4245415872184091 0.004417745967918118
0.16436105355688232 0.3634694313346832 0.40556204161087644 0.0033585268223932257
0.07439071379503653 0.3686129141916416 0.38124637227735503 0.006947534840906222
0.09230370908577983 0.3686251377004958 0.41121459645013814 0.005930300084262194
0.06280014655282809 0.36859591784013 0.40785971936785387 0.006980797771115872
-0.002375745900947538 0.362705805344554 0.40758270548205666 0.009621966849744343
0.027334894434283365 0.36384545226022924 0.41136687389783333 0.006782375960015818
0.06057813196722087 0.3670725634066436 0.3583193983438988 0.0063218476332553624
0.254628073969677 0.35998133144569455 0.4023259363672557 0.01836099865923418
0.15062739538938605 0.36686702067128096 0.42384400473689887 0.009749291160760022
0.3831973009368405 0.375431846905066 0.42206867513232205 0.0006556849053189521
0.008976542033891186 0.3636435999460579 0.41859593549439694 0.006879262438959296
0.17437263588990184 0.37292242380263657 0.36766099443015804 0.009012650982547173
0.0357124078243841 0.3734192968533021 0.3844518843573159 0.009254329712570506
0.2979898175550129 0.36806968951963875 0.4081448488861261 0.011628449491868509
0.32561763833817675 0.3632294716393766 0.4279147853989576 0.006176004062655651
0.06685456125331676 0.3653787388601192 0.3913980933241283 0.006910223509203441
0.006196024970390752 0.3661509817639853 0.3859579563254955 0.013168083662043943
0.10840571896516851 0.364911438928692 0.4033769617303261 0.007096561949970201
0.15219740489361933 0.3702301460094592 0.38200098270684274 0.010112348176696031
0.03934824438905879 0.36757325979745226 0.3982306314476137 0.00995332872970848
0.34249713018624756 0.37256328923494264 0.4230875715373859 0.0029855566302023954
0.176648810163098 0.3687196449494639 0.40743603022331387 0.008238486861544823
0.05913472700092583 0.3681943253719048 0.3710424918805995 0.008898517427740773
0.11023809167736498 0.36724681672261594 0.4184895022995056 0.00848681944545357
0.20996265689215274 0.3710062677349005 0.40132065720092797 0.018177355183066294
0.02037674606333588 0.374215674660419 0.37154258341371954 0.008521101852386944
0.18633302892979267 0.37404858189277457 0.39504373937429893 0.008023892178951383
0.10072691544993989 0.36607614520202436 0.40099999195023944 0.008191063016202297
0.12541260904200116 0.3725993922483864 0.373520696291886 0.015217150090386166
0.04874321171103678 0.36641109609281675 0.3299565352482106 0.009797907590918292
0.03894248073720949 0.3671177077476131 0.4036507447419735 0.009837683837993553
0.12333580316537752 0.3643833038183832 0.38717575598089543 0.007739806963968109
0.246040589216718 0.3623051050472792 0.40750680195036143 0.029110965048177395
0.2390904455011804 0.36551110235621775 0.4080574699261628 0.03454105439476191
0.038346725051830975 0.36756395716363055 0.35746211474352035 0.010491373171595469
0.19650188248794 0.3672955249952541 0.37514295210169096 0.011658258160441179
0.1327077263658289 0.3631087560586242 0.3980749833660686 0.012492045332120751
0.25522918983225423 0.36234357813211654 0.39164038550384467 0.016162652084774173
0.0980037686885486 0.3709658296747226 0.3540883675375815 0.014957444800283923
0.2732075437036063 0.36844082209274504 0.44463594496952025 0.01864546644353701
0.1819295343704754 0.37541047494380464 0.4585858390602358 0.0035763690983124127
0.17512202861645176 0.3669880133759009 0.42705716696539214 0.011817948346777836
0.37418007493648453 0.37193558808827104 0.485746940360888 0.013732125950444
0.4138045048491263 0.3590277060397401 0.4675028349764673 0.0809390829352529
0.4126086192470073 0.3638409653750134 0.4892486297155906 0.07740173374093874
0.3228497622908888 0.365118682629891 0.47788527720483365 0.002361164986669117
0.20976807007109088 0.37089221599546707 0.4379007574554401 0.007092638950551782
0.014116728962087037 0.3660504077165346 0.42735643297661874 0.005543717187629291
0.26643918462698707 0.36190705111235166 0.45904138598962424 0.005418295021211445
0.15529533764842599 0.3660283577533358 0.4531672939197782 0.01881792365808882
0.30841988122275465 0.3586552223983372 0.4423915991146642 0.005294301244327232
0.23168041289539038 0.3706579371235743 0.4617226795597 0.005861184321501612
0.2001232736905642 0.37193385803140505 0.4286066988609111 0.006498184535871627
0.4241467265202398 0.36068851973748806 0.4454136120913791 0.05854176757666611
0.24911491256234242 0.3690028586191666 0.46307477351536364 0.006284362546232762
0.32153148801567066 0.37062901895714245 0.49885615963264157 0.006769796078217126
0.3848935272305897 0.3656206879073192 0.47065847882504896 0.007521873923128991
0.398447859845261 0.36480062937955 0.43978513339388897 0.03980784593696418
0.3439215458287701 0.3658348054686029 0.44308469979423637 0.022195810336261522
0.1524087641310098 0.36875805913437815 0.4439151291861966 0.015442001511827386
0.35813865557392777 0.3668924781116277 0.44668741651366506 0.01821416660964536
0.3657271669701566 0.371320665222219 0.4884495541627093 0.01409129775944394
0.38237725233912784 0.3642635824004306 0.44515139154898725 0.01081334532523439
0.30328592747641975 0.3657167089458595 0.4820983753248977 0.0014142690393365964
0.21875551131411186 0.3697998957226463 0.4594339420884089 0.004286239485318958
0.34613629903226817 0.3706624467735921 0.4680588212092818 0.003104584295319589
0.3030268612430586 0.3686399572954751 0.42976177202666815 0.022850940751019008
0.29153835769310693 0.3639536791377858 0.45159710850161316 0.018933276413691205
0.137394871902191 0.3741763008341526 0.4361638558902475 0.009408717820801028
0.2652157625495669 0.3706712411826054 0.44027931394252195 0.010468532051443585
0.18038821247361553 0.3705593034783814 0.4454334977183898 0.006680224140282294
0.341123398936096 0.363585229213879 0.44318676579354926 0.016691692979694167
0.3951594286495827 0.37371023739465853 0.4863862064153196 0.004301346160337445
0.3671080237226797 0.36528148275272665 0.45287376383018246 0.017062031790023396
0.1016097701449726 0.3722926078102402 0.4425732045141388 0.011912626757149637
0.2979007566788556 0.36155079633918186 0.4487458874277365 0.011329960944089038
0.41371073860167124 0.36503268537409694 0.44667886778193844 0.046876239585956395
0.11825548722949039 0.36631183976392045 0.4271282191414963 0.015608770599022286
0.41347854570779563 0.3735305648904583 0.5180072523539542 0.04876469894513454
0.34110135565025695 0.37048414115006856 0.4979326997133222 0.011847291797836472
0.39512497942790725 0.36955794679197057 0.5122879235170772 0.02003328033757264
0.3698132665119177 0.3725641974069253 0.5041164012435077 0.012091208961184673
0.2960961054470093 0.3681682975852269 0.4835352903768582 0.0020872599196792873
0.03556156301344986 0.3695874908727434 0.424752058711599 0.004557724878267886
0.21686626998251005 0.36604064464545877 0.4695965063177454 0.0033436287533016376
0.28131173530039755 0.36643743903288245 0.4819832130313116 0.007638827211782697
0.14826246691276465 0.36703051816251986 0.45368517830960914 0.019925821083300037
0.12701770151686373 0.3612568601725665 0.45589749963270176 0.011964999911424867
0.308628747375747 0.3711788981388609 0.5045123682763236 0.004110982276672617
0.1269638819305873 0.375271592711591 0.5114453307057524 0.008847582492896537
0.14707451838925023 0.37326001570678924 0.5032953224154153 0.008350982252731893
0.07888615623376251 0.3730169386778164 0.5203100832865428 0.00444605143470133
0.0319372611416134 0.369392014661606 0.4704340331229004 0.013444832689786659
0.05003888274964297 0.37092789547848715 0.5172795691546813 0.014920382838998837
0.15911598585770778 0.3707295541811521 0.5134935510541572 0.00876147746377885
0.2933605486199693 0.36809267986517524 0.5265804793750911 0.006064942857237978
0.10877170874899003 0.36489799206870127 0.4926281435204153 0.006516984717086804
0.05786203574442945 0.36655653651123055 0.44835157887287413 0.003914884201541554
0.14900651949128177 0.3662903828806485 0.4830513499810548 0.010411369410333677
0.167063031629217 0.3676145763002274 0.5104553089691106 0.008839988434588868
0.22032215300937563 0.3727064103232969 0.5328312509280296 0.007984542397194018
0.20278930557891742 0.36990939620436125 0.500572683293192 0.005774448136311356
0.2079230978835548 0.368574092166744 0.5110545844851291 0.0076880429403384885
0.03822392874966793 0.36647545658182684 0.4704912490450665 0.011781571854876929
0.0664377937013298 0.3677175068340967 0.4451167837608729 0.00402291257559728
0.08129529440641771 0.3704182302695165 0.4734092121400202 0.0038576693126290093
0.13387297121919375 0.37419662678792615 0.490604972108926 0.007799496942964138
0.24305638638743213 0.36582775784427995 0.5256510851567212 0.006044018986157051
0.04733050511759927 0.3711579906363704 0.44921670748988546 0.001780383981272082
0.35451207513646577 0.363848328698428 0.5071280492152671 0.0028601544619281933
0.18656694973383084 0.37070963509762295 0.48724313042762485 0.008222156447721982
0.06873342995548913 0.36988340327241437 0.5041947945099063 0.007614253259565215
0.22327130656553393 0.3649646087557012 0.5062727248746502 0.0034272676612057316
0.036849904952836854 0.3681638580737584 0.4505064603763725 0.0040634603263266945
0.05969226203698822 0.36629706643403 0.5044805463998712 0.007489624228416584
0.0398768508352504 0.3629120378791382 0.4928339227449498 0.00602474865689501
0.003066725401066262 0.3740136281034248 0.503457683172311 0.06885849619246576
0.33176965506821027 0.36902999922266355 0.5176598248715454 0.002753825648983725
0.09938960251453227 0.37009373646275 0.5125014343291023 0.011273163792892662
0.19259562259120966 0.36689616451423424 0.4803815437499208 0.005580454161103878
0.021541639200826378 0.3747066455262774 0.4906269563588545 0.03307623051672427
0.0805027950639781 0.369288289350625 0.5059573614901779 0.009391008250304589
0.40240499159736737 0.37381920475647173 0.5259470620972835 0.05779264284013842
0.17575959745822556 0.36496758147021574 0.511591095568844 0.006123430137741772
0.0665866914060679 0.3676863583793487 0.5250869099454881 0.009828787540119116
0.23577606035419832 0.36910141531978513 0.4863294805787969 0.0030806348093954487
0.26571909024645446 0.3652069987095552 0.5009614846648962 0.005186494085794861
0.006736527651965859 0.3694140861959796 0.4732997223051887 0.03954316109734796
0.2456886939721217 0.36709369626215166 0.4862611402534053 0.004891311326861743
0.21752882128930157 0.3680730385159588 0.4858480156018796 0.004240365785292901
0.1159796284350958 0.36740143046494933 0.4822114258954507 0.012666101653020888
0.3299882975889033 0.36534310644922935 0.5373131624147339 0.0044330769853856995
0.3791081547477352 0.36679819602104513 0.5375905306487461 0.008047415008897562
0.27819623425106793 0.3694272926089756 0.526698640546919 0.008386384004420178
0.24716308646721866 0.3732312998177632 0.5449999913058999 0.006318714353218383
0.36010404372987903 0.36703137595504687 0.5480381836201813 0.00967294946565286
0.3758619412704778 0.3676215170407836 0.5771335576675742 0.015279028795414512
0.358430738999937 0.3629111562995068 0.5318953889993349 0.00706881064793884
0.3556349025129909 0.3694974642868846 0.5652074566173073 0.011904252647885463
0.3923822567070948 0.3613992003809867 0.5767280798197485 0.04240416523121945
0.3165845506767006 0.36700808547446795 0.552932362608163 0.002974503419378598
0.26618329773615057 0.3745341050439122 0.5343811862070942 0.004971348339554981
0.3560942773987035 0.3685252900753146 0.5799672898370384 0.007834300557728416
0.14779111808677642 0.3758264182653432 0.5490644903842381 0.004325912968230046
0.18628291972944386 0.3779924871589033 0.5440678237500628 0.009712022279194705
0.4017871825798018 0.3700452617062131 0.5568049698455142 0.0362408768809576
0.06794483588362014 0.36601503172916094 0.5410164218338416 0.009064101697840651
0.27691284517746356 0.37177486141392385 0.5489845682624526 0.00234315914611676
0.38957923091124663 0.3749212591504551 0.5546398829844811 0.03028320367676908
0.11433933641697067 0.3719834692150974 0.5385627889146765 0.00688839191120973
0.2789177947223887 0.3695191927280403 0.5607730022098419 0.002172219870751922
0.3078591421281082 0.3691151129411239 0.5454240486169414 0.0022320552158445247
0.37521938240862895 0.3677346772863413 0.5567212886698515 0.02400714959209345
0.22409017340188528 0.3714571979902402 0.5383813368081203 0.009726869170192897
0.16872967492584254 0.3714342691267227 0.5377443841560657 0.010813538752460806
0.04678586033286504 0.36282365060354116 0.5419808590595919 0.007060643015317028
0.23753761506801319 0.3684242190066319 0.5572180208440098 0.007514404678792495
0.03688791101571706 0.36446655363309327 0.5717103397247352 0.013132025021936743
0.13971716310342183 0.3711416516681707 0.5614651779986775 0.00668790893249929
0.15472309920739727 0.3697548563588089 0.5873608279169928 0.007597431934070304
0.2628863058002919 0.3694038070283986 0.5744990418705646 0.006762038473860744
0.06562995280682715 0.3699431296474903 0.5599919802160674 0.007109953220824317
0.205755960875402 0.37089200896287394 0.567430535328208 0.007000486403559469
0.09144752293384711 0.36571143575346576 0.550886934303005 0.007112357434649277
0.08650853695718744 0.365402479941818 0.5889385397738371 0.01353996317398357
0.22970694952167175 0.3695591258253615 0.5721440947877057 0.00239855684192158
0.08019279938160673 0.3664033149888663 0.5746201896751673 0.010976127141513655
0.29397809622224086 0.3672404607984 0.5833355923842144 0.005167106950505215
0.02332101395967143 0.36801240377447264 0.5506655104573577 0.10708246453738378
0.3418899124757062 0.3672338206016348 0.5866036100769754 0.007131123833461181
0.02418918306554495 0.3699554393530697 0.5922721682205307 0.014277475750235599
0.18605707062985308 0.3804286967023274 0.5613703239671868 0.014332185613016553
0.20229569055062194 0.3644724598908185 0.5975618072655456 0.0029848005345760264
0.012077930988137347 0.36709058923411825 0.5862296347572742 0.017512684454597794
0.1420503796497122 0.37461251374363036 0.5966561994300781 0.0034575882507511795
0.08643821520717078 0.3733645121252474 0.5667980433401802 0.006093140900223031
0.3271265463890838 0.3715252695776304 0.582748203056514 0.0022356162949459663
0.033866756763148355 0.3673819150885605 0.5539311044333083 0.010397844336592098
0.058638372558001875 0.3653917210466534 0.5414605262981362 0.0075658263158824065
0.04446380528551572 0.36300162485625187 0.5874824697707998 0.00791931646289197
0.025028262801000498 0.36876157554258665 0.5284419867389728 0.024953782220457105
0.02132566128833691 0.37284790943358004 0.5625608285999734 0.087370143759103
0.25756767150108617 0.37169501114138487 0.5753850878228703 0.0063564768883293795
0.16365568244466586 0.37312615516092557 0.5709453945614148 0.010828135872597924
0.1362793271183259 0.36903764097056274 0.5745375321719235 0.005681626092239874
0.26207590479650167 0.3736129500936941 0.6495128139220666 0.003324620985990696
0.038082908690533844 0.3702983816410594 0.6222957816448339 0.022774170345437807
0.056825966486525756 0.3686133781731632 0.639145352382717 0.022187695087206343
0.10400891474089627 0.3704545006060877 0.6241320201883019 0.006401431938068803
0.22336960722495705 0.36907896999544326 0.6346995645851695 0.0017360473245198542
0.20211397024065988 0.36282300914888044 0.6267203995101981 0.00466465211725026
0.1842540737010588 0.36835610269728924 0.6244782489738405 0.003707431911452882
0.12273960808447094 0.3699424912207714 0.6389651283558968 0.003472576027663765
0.2861185760926414 0.3690488491675781 0.6365270015907716 0.023734460094836974
0.21565320137161403 0.3667135248072342 0.6456819838578702 0.004565474200616241
0.15837988200600825 0.36636934131290444 0.6401438874443245 0.0032831277311877664
0.07666354865574028 0.365836118771029 0.6137996731947476 0.008182740789192578
0.09761449140856618 0.3727474026917412 0.639558392217218 0.002130967832855336
0.17553458050780238 0.36713917007136876 0.6325500250476965 0.003965201140715585
0.05021696465961671 0.3673933642583442 0.6409172268696212 0.02771281835573001
0.1615278010896035 0.3659216392623224 0.6202067886619568 0.002896589635907552
0.06205362810573148 0.37218155304826933 0.6091500800483939 0.005243750393862823
0.04062716907161578 0.3732870628175595 0.6133653315910881 0.018120926174624904
0.12490167176731848 0.370996758802921 0.616746843050069 0.009769021518456896
0.09381136375566865 0.36554004566917375 0.6073994063596779 0.010105108988220802
0.05388399288467028 0.3684299745555729 0.62934497684175 0.02793320265655692
0.1902337941626819 0.3640918122788277 0.6412943161153537 0.006086511132690811
0.07800755293674698 0.36870632219182625 0.6545242584649507 0.0024472083988888167
0.17535466692937543 0.3699105983210755 0.6025650840010688 0.004551165241705869
0.2505187664886038 0.36892825625392406 0.6323298542769972 0.005165445719353556
0.32137267058047037 0.36647526454645374 0.6815625733780208 0.013286625064657845
0.28083830600033977 0.36860175063756734 0.6641430144220872 0.006834277117021626
0.24921185788040728 0.37072168465249294 0.6543146110134601 0.0053040956671549355
0.32699424807282795 0.358408243702589 0.6405684194900514 0.007632668986621656
0.17358315635232363 0.363452597528141 0.6555587854367055 0.011290903133393928
0.34495697842223033 0.3695709966331194 0.6778375389343703 0.09573843366913076
0.31555744991247175 0.3669214897860987 0.6706466154981086 0.004899702468919785
0.242847982745944 0.3710193907587999 0.6528856905506895 0.005155076727058025
0.11431578691087801 0.3682867201591048 0.6430591812073827 0.001788790779144665
0.39061141300868085 0.36817947377483046 0.6604818514965533 0.05582991449573803
0.2993666550951503 0.3664915113086612 0.657594274422159 0.009558162696273888
0.18001196672957337 0.36583905195113 0.6610466907977713 0.01430565147127529
0.34824714317140154 0.36152961620986673 0.6500369297106926 0.009035322128826892
0.22230919628525592 0.3674431196403865 0.6527497674270432 0.006089188531392399
0.36510000548629845 0.3786721181904481 0.6664611648929236 0.03659869304050971
0.2916118770794591 0.365763465592913 0.6527299738834997 0.009852060391625943
0.08969378187843935 0.370237329585867 0.6527249919397755 0.002512732277763292
0.1253234129109893 0.37101778670187163 0.6677325154915911 0.003988873046028022
0.2706398480587984 0.36349291164628317 0.6779337797740269 0.007246105798487867
0.09260435001261562 0.3693066469770666 0.6757974760941506 0.0019640057993549607
0.07430762752096837 0.36518965587929714 0.6764636534321138 0.006067486975153005
0.05382897006869791 0.36803956554734224 0.6537123041415592 0.013203971895222204
0.20083608734687475 0.37232651435627534 0.6705276336631254 0.009784003379023085
0.23981053125638632 0.36885634627907365 0.6767531148269437 0.009853367566132185
0.11286716991580564 0.36862439922413703 0.6498085055474906 0.0020363761927674005
0.034109666946757815 0.36768111469620507 0.6485047982626141 0.08422437544096936
0.23105506082824254 0.3670283286496231 0.6800781896503024 0.007276548726202362
0.0722282146719091 0.36954075625434857 0.6473133339957947 0.0038663084766463783
0.13855097281907067 0.3737617726086734 0.6889550558924646 0.0013507135275230633
0.3397533583162484 0.36697131193307586 0.6848410734794068 0.11407929834269008
0.13729177250676844 0.37130465498648463 0.6710456553671833 0.0028027720619998734
0.295801107155815 0.3664596670473258 0.6763562903718116 0.006155561778468653
0.18446913982892757 0.37719667898395304 0.6839045243062015 0.006117971661359671
0.1481076282363778 0.371194377292341 0.6960611657420662 0.003120619912734418
0.29694040454580456 0.3689585797029634 0.6919450496185638 0.003958820512815053
0.21024926065900232 0.37087337268302945 0.691428071737894 0.011173079478422892
0.2608690335495989 0.36681122889070295 0.6833956223723997 0.008668876304770192
0.0980275090400856 0.3652593570811047 0.6922154840113971 0.001125425740175029
0.35138761197777707 0.3681125608240653 0.7077213526592399 0.10737234277941064
0.25589543757235383 0.36420551763784026 0.7050900410406609 0.012347357869394142
0.3341286387699311 0.3655592272254452 0.7056142207703572 0.054284956070369594
0.3527993199190235 0.3789770507641019 0.7018041320149809 0.021111838822250373
0.3047184050479713 0.37161754246574513 0.714203189444984 0.0037544435471737383
0.24027231390007833 0.37296240622727794 0.6996556511005008 0.008330678791144066
0.06178226434588646 0.36604117863571356 0.6875671971434175 0.04444601235177331
0.2700868815829194 0.36265278349070224 0.6941100704878788 0.009312767982975504
0.2073757861809977 0.36869701204754585 0.7010961544229739 0.007661332492687035
0.09088634086030548 0.36694542508722217 0.6941417135229792 0.010684599763796702
0.20138118365677837 0.3691238628966704 0.7166156975636421 0.010729602350144399
0.14695100499457556 0.3678327345537738 0.7189932454711102 0.0044389797829710925
0.07938193026354559 0.3661015861540866 0.7132189609802823 0.05448779111174331
0.2429342652592368 0.3725378035228004 0.7216909541417217 0.01677348037006364
0.23215293120356578 0.36541827874374316 0.7078297530763695 0.010455229628812833
0.1667829158460063 0.3728275823525812 0.7144514405076718 0.000670106072735093
0.07978361228230456 0.3647167165718793 0.705356590069652 0.008785456823613546
0.12005714789216373 0.36971784082627557 0.7026716285144574 0.0023220328358027915
0.1051654625637258 0.36658929166249243 0.7074493573816968 0.006924099639683101
0.06623558492038677 0.36514159948625324 0.7052964627481243 0.04556606418702545
0.32463420811383603 0.3711745139099733 0.7323719878950894 0.09172189084475964
0.20124257108141178 0.3668910732896398 0.7345243545808994 0.008412026108373062
0.17544780976323957 0.36872951276511096 0.7244677910238803 0.002966242344715463
0.24507341664225515 0.37049798366261905 0.7246997007799693 0.014031529049431937
0.29255196051728055 0.3692138020939855 0.7302495798065908 0.03219214982079404
0.2817078760966545 0.3681965794392988 0.728346582274694 0.012069568180349658
0.12796538000423627 0.36890012480215933 0.7307325126914516 0.008511114359712019
0.2681270260742992 0.3635611696656011 0.7307291053384637 0.010869981030186233
0.23946216186805203 0.3642623670894687 0.7356462546115912 0.01457760004539663
0.33247864685730244 0.3666523110607664 0.7445147383059663 0.05289385975934856
0.1585837593744965 0.3638164479822026 0.7446736207591202 0.006202453970631342
0.07983834836205168 0.3627042363894602 0.7286102376771627 0.06843831241641
0.09707670172657085 0.3646828655334265 0.7222205053335831 0.05467978874058239
0.12094575140892233 0.36878011122514304 0.7434163319293653 0.0682010336577693
0.1927296786340561 0.36461799940487655 0.7558770446391301 0.014006023810988467
0.2415832908056624 0.3645135955332797 0.752859444964047 0.022071124370297894
0.13378205925300887 0.3647403217923782 0.7357138793426286 0.030703097156170017
0.10937533869555692 0.36692856162358944 0.7301957870984004 0.040036332499301636
0.3038602937310187 0.354166972566049 0.7636954677239334 0.06976326616646969
0.20973774477220872 0.373379853582962 0.7477406155699118 0.0018145212126733467
0.28580123532675866 0.3716837793185511 0.7576359246123735 0.04537842590078588
0.2594701160620915 0.37045629985207723 0.7640754179322763 0.019541559449156184
0.22710272875647933 0.36324125637036686 0.7590380519462554 0.023865050529218966
0.15180507268040117 0.36248830833232837 0.7475818748411038 0.018715655095110896
0.18323484068631132 0.3687483791909419 0.7685856817748423 0.029382052563884466
0.11025338098171918 0.3716976589660317 0.7541719874489665 0.05954383101459235
0.2338131835628252 0.36400166952310886 0.7670533915254094 0.028466734222870767
0.15589046326108452 0.3667964291405432 0.7702871054365275 0.05405618445217327
0.17636895761271346 0.3641996261560777 0.7739279356818035 0.053658891687119604
0.23425513770191733 0.35500608374751513 0.7796779148067159 0.022525704107637646
0.26869023869514974 0.3631677805061614 0.7793899510426566 0.10970699312977271
0.20061792216504193 0.3660830419922661 0.7780488914493485 0.025061894322825573
0.2430294773136451 0.36227260359666924 0.7720623122384448 0.017946924096713262
0.27424640566286423 0.36367381244587577 0.780051274046793 0.10517450257610901
0.19739990108994737 0.3674956861522464 0.7798450231280462 0.02339982910181806
0.16633770699878936 0.3627565483600763 0.786583392755511 0.023924607629361064
0.19950905488080037 0.3583733830778985 0.7964706868326057 0.03144141303676944
0.34157018765409203 0.36584237111067275 0.6309259399261963 0.006206479833188204
0.1674234858951686 0.3668165698905438 0.6071804044822378 0.004303371210946614
0.36011947230162955 0.37000959008211126 0.6273202186996363 0.01612898926222132
0.1056960414845952 0.3732003417354184 0.5947124962289353 0.006614742413945421
0.39428653356999377 0.3628475988231576 0.6507600036722362 0.05217716933534278
0.2332056546696312 0.36899155545811585 0.6188195940211185 0.0030330394567536292
0.2085374274077788 0.3665082727577306 0.6140614301393024 0.0065894212816864734
0.3883032563165149 0.3732703342130689 0.622725695809636 0.03301052783316037
0.24147424419377853 0.36627313353148105 0.601491117090577 0.002498820453587631
0.32358224469134206 0.36343184266833684 0.6296798036924863 0.021101146759641403
0.07471653894212725 0.3645600623727029 0.6004269076136666 0.015240488528613993
0.2661112102964994 0.3736827197229065 0.6024554575997867 0.01415514340377146
0.2602347001460403 0.36781288687691716 0.6190786137851385 0.00682803872672773
0.3661703053228853 0.3719134880369486 0.6091851614843099 0.007322333937727977
0.3436981371784043 0.3707763959618715 0.6104004242188678 0.007568214771284155
0.397562330161817 0.36454310521018896 0.6162439296113149 0.03882522938527784
0.33205209943773845 0.3659173827195406 0.5961796134893023 0.0068167901730083295
0.2996636903867303 0.38208590952603333 0.6163597271267913 0.0004056181048072496
0.3656132046134493 0.37170149339663344 0.6362366673536108 0.028903580647862744
0.2078713347533459 0.37023354105684053 0.10913409100675632 0.004109819499963784
0.19954026733700334 0.3699715125421084 0.12977068485330298 0.003268892021603611
0.06156174161532353 0.3717943076867715 0.07260874367182353 0.005513422356789501
