x y z curv
0.2250415161247514 0.11361196025484924 0.4533760190466752 0.004486801254971591
0.22127123060523307 0.07684557631547521 0.4249209408363212 0.005138831092342945
0.23022260255313762 0.0375133890347106 0.4013738875221722 0.009932800176036602
0.18081539861598078 0.18295303273778582 0.4832190384658231 0.008841341609777698
0.23977381425941838 0.05255951348177095 0.413554060009556 0.010236495647276295
0.20192562246430806 0.1182484958203127 0.4502345800282771 0.00538482260928833
0.20809159300076854 0.16255496126535735 0.4713695263067214 0.0020900086109026414
0.26915113138255264 0.08260324466820226 0.43747458943178413 0.035056034745921706
0.265613292373758 0.11218802448762145 0.45234393412158796 0.02981702900277079
0.24862706893337877 0.11280864392360862 0.44791560162151817 0.024436969066833757
0.2154962303327437 0.1702684054915715 0.47902631052238576 0.0011512398837350145
0.22002669421318263 0.1494431556775848 0.4674123447142518 0.0037239581341106196
0.203768581283806 0.20220092954354663 0.49752283142479214 0.00014359206657271439
0.2656048190832488 0.14683471187034358 0.46856702693180413 0.0045286003896145375
0.27971060589812324 0.1427253962287726 0.46332011952553076 0.012161129758177645
0.25592574179305566 0.22172514756023937 0.5007204643977234 0.007972447162094458
0.2681877887639864 0.19315745468264353 0.49436617472355326 0.014466530152553825
0.2946988683628817 0.2160039052481616 0.502390882867485 0.02848751704951201
0.2869379897347462 0.19956920705813416 0.4991269240127939 0.04175073059841636
0.0682651783924852 0.015240316415007124 0.39526622722230387 0.05249884595123174
0.24737147906577606 0.04127244156623638 0.4042598684382515 0.011451395985493766
0.27249768234040833 0.09672766122155463 0.4423488765160747 0.06539887884292933
0.18127271828431912 0.23296010374230522 0.5104865021160323 0.008835727733915624
0.25584372181065324 0.02948305845416924 0.3921612080330802 0.010253831787274945
0.26691422092140166 0.0645087743180771 0.41313545485524955 0.06932457897567988
0.2921333241352493 0.24122385027116405 0.5064871018728929 0.03086416063086104
0.29482352813355117 0.1389724238227918 0.45619181072719944 0.004516567899338189
0.29885271230280597 0.1863957366116606 0.4802784729036874 0.018827179940685376
0.22243642138650693 0.23833592091488487 0.5117119203068655 0.008151552872796829
0.214026663923152 -0.0027891444811550597 0.3874348523158953 0.020822870809699048
0.11791627775191552 0.2941930218187488 0.0006848482317487286 0.003010176056907837
0.08739033677812386 0.1963121477224149 -0.006395696153233421 -8.29423694441517e-16
0.14348219612967958 0.10834069618098878 0.006793044630080766 0.000901227227839991
0.1370865985068897 0.11358975248909003 -0.004709146832644137 0.005421086324194712
0.05587239397842238 0.29971380537626907 0.0007454203149435441 2.936302300441805e-14
0.15534481585855753 0.2945655857799019 0.0016460607020313362 0.009731715654335475
0.24233880747782022 0.293622613150208 0.0010614804656169203 0.01684910849659871
0.2054884362970282 0.2898669804972541 -0.0024030676965491548 0.00021067407235808276
0.19103757705128704 0.11512337769173392 0.005045867238564024 0.00250968978663832
0.2050727982487681 0.12342734207657156 -0.0015039854715957856 0.029635413142335837
0.21151880797690922 0.2989935288167131 0.14893609546691658 0.0031698917312362566
0.23834762533574555 0.2972167238798034 0.09175237893215699 0.009338567734142746
0.19536074496087638 0.30243866247714724 0.179045213311283 0.003110882408775818
0.2044405297154792 0.2978764246206321 0.023883538129286258 0.003981922386986854
0.1751085098107115 0.2971175308443836 0.3905920658752005 0.00576617655512656
0.16578689399128135 0.30239086941600113 0.13232484318553026 0.0024328077459949107
0.1674030316400014 0.29803815279264034 0.05733993644620897 0.0019837498387251357
0.18787024200908056 0.29648337057251206 0.1341932037200452 0.0026509406903795977
0.20931564879749254 0.29949530237771016 0.12231048749864026 0.0011297542859147797
0.19881993448578533 0.2970719656673348 0.08701058392513161 0.0025342983638669586
0.2025668842030706 0.29850819430316683 0.09500585250469656 0.0038620303554459247
0.1671423449064815 0.29508011754231434 0.34667642289101136 0.004514350025282125
0.1768213835857908 0.29923285346888284 0.12783787506360206 0.005993031178994311
0.1710663040709068 0.29618709105299224 0.09026862528858412 0.00038486905890285935
0.19512455695515932 0.3006001773634535 0.18524952106293427 0.004848194470047244
0.14700348496447585 0.2981788826538954 0.39216671117012064 0.003285241952842032
0.17950064877472227 0.2985698208672307 0.055551273964524264 0.00550896944322998
0.16721426659486757 0.2987999291703976 0.3608516932977971 0.0035349739947224358
0.16652482975442845 0.2973330347625285 0.24909457894962234 0.00557787764443679
0.1418774427505215 0.3003970933583726 -0.005710800753850304 1.0173506880715312e-13
0.14364741559497407 0.3011508087701467 0.07082611835540457 0.003284676612365284
0.14883720429320121 0.30017302012521885 0.4001624163084374 0.0038557378445414434
0.130089784848065 0.2997604603515739 0.29275055322676385 0.003447100348175938
0.14942770428034116 0.3021965997510592 0.03427211657957372 0.0008164187922623593
0.10546106914175898 0.30072164148411423 0.08858403193951217 0.0012746105808160756
0.11710656704612417 0.2976881238856522 0.0386396732757937 0.010857444162729166
0.1401630377554163 0.297198596598788 0.23201657444963128 0.0026758542585203493
0.126198654831431 0.29795516113655485 0.008468909335048218 0.010464681649882316
0.1287949888041667 0.29709702966100265 0.3032491927492388 0.0025847244231918115
0.1486602881033219 0.2986428641965283 0.3938885524229975 0.0032184674088705863
0.12414167324755652 0.3034518703208785 0.14632387017150653 
0.1161867241771364 0.3007431929240405 0.09757072577580965 0.0011306449603694945
0.15463170352556965 0.2999714310933363 0.2834635739522969 0.004368641653081898
0.15034034148642778 0.2986047504100896 0.40598428386222296 0.005438747737285453
0.14778437242675252 0.2974129941894288 0.26900552656166965 0.0018351312026233812
0.13621933959111315 0.3025838125820984 0.18451321266089662 
0.1320436555659134 0.3036354572630062 0.20523807228587226 0.0035325195649435833
0.11118206447531474 0.29919477492891894 0.24105974928708856 0.003456241626435289
0.07861532057818843 0.2938680107348821 -0.006774000825807326 -5.540355083828962e-16
0.15505930624435982 0.2958341615271153 0.4401019633004491 0.0029411781214364018
0.1103232173022446 0.2967981521910311 0.0614889656333444 0.0005435729459590492
0.08550908662570125 0.30258491966234097 0.023931072118122548 0.0029841072659049605
0.14182260040062983 0.2988757487023425 0.35522657756290643 0.0022682358239847237
0.07998312095618511 0.30060646886495057 0.06237313247566952 0.015254188823886369
0.07806762865529977 0.30175601369104926 0.09586314707869495 0.008669096300716413
0.06205814031949681 0.29889728174134966 0.10539449635632143 0.11465508170152634
0.09764073494685668 0.297772593856715 0.19706304631040736 0.0021694166377409932
0.07805030200343847 0.30102116990202443 0.16008822816234325 0.0022871360904199007
0.06541864216187067 0.29873104230577463 0.030587045381648865 0.014848900285939014
0.09155530852361637 0.29657137766101116 0.16645345616525675 0.0005592342735340562
0.05990396991326098 0.2939104383665426 0.06492165771540136 0.07952297897180176
0.1348903963603597 0.2970092719848794 0.3889305231264015 0.0045921245826815475
0.07467870233124375 0.2987069994319319 0.04829295266211343 0.022673738455871523
0.07298099431935656 0.29434825683189253 0.12551040396117993 0.005683836164930796
0.07117838931331874 0.2958005426914916 0.11112672123488365 0.05360192437085054
0.03318322914073046 0.2978846521664939 0.15700998872849184 0.046647886495581874
0.03568859198785673 0.29807810460645123 0.18733300938734504 0.03203505689082509
0.05589099744475508 0.29971802050695545 0.16206362474412306 0.044687209989119084
0.06509211721693334 0.30702203021104196 0.2419808359295968 0.0003961623441147976
0.04587816187727217 0.30163315050951567 0.11155022491505621 0.05978486656600548
0.07957450952510887 0.2970160631643189 0.1976838224190152 0.0031322101998852974
0.06359083318638095 0.2964410235745294 0.1787565554727513 0.00868125074114423
0.040089785689280524 0.2868914912137644 0.08952892990697255 0.09227762718397806
0.02641891473115304 0.3017768967505632 0.18148940816873996 0.04990579743804863
0.041400373329473834 0.298096608210959 0.25151780039457816 0.044550575356911086
0.052927590699427214 0.29932518044568657 0.25673209920474727 0.009624662359085516
0.1311295893001067 0.3002034702779315 0.4281140509180291 0.004973830852553591
0.0453490694998025 0.2980105017599552 0.21573199101507273 0.0450516674172014
0.08482098558768075 0.2945199960748701 0.32842832679954537 0.008058320190027118
0.06878092751423022 0.29584124335872375 0.2896977766144493 0.003859918759646799
0.029211839516621665 0.3000460519035545 0.2195301576597987 0.04094767555033577
0.0825337458664847 0.30280485990458367 0.37728710664868326 0.005758353528995673
0.12903006132324507 0.2983063257317185 0.4176887707509237 0.005972738553462292
0.02304394125397257 0.29240023217702776 0.18603411903213066 0.06410019639136089
0.058217637848016104 0.2952375168232284 0.280207155760312 0.002702107264902885
0.06467946427825515 0.2943548241989216 0.3157736993259989 0.007209743292952538
0.028893859520692917 0.2945698914048355 0.2503596479506117 0.09476931263804803
0.09587832285672518 0.29578529828585376 0.3542673886041767 0.0007077953043680112
0.01611001795009114 0.2975602324119591 0.26773032749094594 0.05761756319198569
0.021087167763992914 0.301707689912506 0.3064289231233574 0.07699399926132895
0.06617546603458552 0.2987562381975958 0.3425270416157923 0.008334607846928027
0.04909298421567779 0.3006285817663649 0.3567471385555328 0.016812180854126436
0.01333993844684807 0.2992742986812235 0.2806985872247781 0.06528018363317999
0.048104121568497256 0.2990590940488252 0.32489171734148237 0.00622940062096603
0.11747857386360348 0.3007691373274444 0.4401602189419976 0.004379354956873951
0.06335042248467618 0.293586126605579 0.38011981285879975 0.00925913615237069
0.06416168109181045 0.29432168846752593 0.3939375504899101 0.01064314366560606
0.02942464026242953 0.305005197418499 0.3576642580193598 0.011115784267592686
0.031189711235407896 0.30177094566281204 0.31041944925214005 0.08664120255405638
0.0116773709007282 0.2938398290073259 0.3093921838661688 0.08762616577873114
0.09626186808873342 0.29744809278536766 0.4031232396278638 0.0031892173551994613
0.004398376251793598 0.29205243652123997 0.34410786049451797 0.04567388140591217
0.08719745225365762 0.30087784749145324 0.4546292523097206 0.00482770352599364
0.003405041261856442 0.29312441224500935 0.39342409383360555 0.05522663904198994
0.052925763808712036 0.29730155608210784 0.42436845495567505 0.0035301608894694673
0.06495570785766647 0.29529133019946274 0.4113227138434032 0.010108514740491386
0.07739629042940491 0.2931409544950844 0.43064407834963614 0.005044743143661516
0.03251689451789981 0.2996309820656425 0.4111548610066706 0.017569121651753734
0.04893286558498805 0.29436775180315783 0.4311114776445569 0.001077952281045697
0.0483155925314396 0.29730762910655456 0.417658632698143 0.003943248575236817
0.13507618025582668 0.3049293540229702 0.46865011359558567 0.011775003219740147
0.04995393502245778 0.29523143903582494 0.4652293955901534 0.032316065791293334
9.994399588127319e-05 0.29542884199190594 0.4366236609774833 0.0714881926171403
0.10601929990895008 0.2991417933100041 0.4549262045096044 0.005900846761260603
0.03177054010906317 0.295478805779566 0.44920671913693794 0.0104814977296549
0.13450102363418673 0.2908967569786485 0.4932710389596014 0.0030021832485935176
0.04141926827921811 0.2945571034525944 0.48369758636958665 0.02312949901656476
0.05967007559924958 0.29773778567021647 0.47788686299540295 0.02713999797829536
0.0016835592128691091 0.29749752862123297 0.4672445371031255 0.06797698610793355
0.0018154121248256147 0.2912113746773595 0.4866660737532859 0.07805705876898199
0.001812879656368045 0.2932516758883682 0.48640412297417734 0.07308674121106884
0.10124140452035624 0.2947259931155584 0.4811608246452791 0.014778752259217149
0.14226100528203203 0.29757323208320413 0.4858022581347561 0.017088923293930646
0.07465344097274475 0.2936493488539846 0.48777884226031376 0.02577408652182157
0.04939618003308695 0.28569618613183656 0.4887171483949869 0.031503406955971626
0.16696639075813205 0.2878569474939782 0.4972105237930672 0.03188471299091692
0.25152691441797087 0.292137492250793 0.4960022327291508 0.007733767966848597
0.26469483957004325 0.2948170656231235 0.4639052568199313 0.017434760587858644
0.28685547770420317 0.3011692316609166 0.4281485717301757 0.005566495687448542
0.2734800586339404 0.2950367878994197 0.47163039512131516 0.023075554795750682
0.31764824584516216 0.29685407155270815 0.4487830553789889 0.03327996006953402
0.21337090140332413 0.29427127841314676 0.44587104873796346 0.006886307058417897
0.21644794279501556 0.2967626819988694 0.4560230087951103 0.006405802716603402
0.2413648055986391 0.29440796500780525 0.42919145940896586 0.0061331555330757705
0.2699370292806971 0.2944870014667379 0.4338222397700828 0.007157198648267397
0.3003836745637851 0.29479366772157756 0.40965510745205586 0.015492573001856134
0.2629339333680593 0.29366379902066925 0.4270312214266951 0.00523799414628549
0.25927537080037993 0.3009636023515134 0.39383606693385925 0.009451091927708502
0.20931063998899985 0.29696659075389015 0.4198343563753763 0.0064546421279398514
0.19761673582424283 0.29898638140045575 0.4135062370171806 0.005646796169336151
0.22309855970668638 0.29332179222127336 0.37775597544753947 0.008674999961047038
0.29176410573233347 0.30502733993555103 0.2786979058600085 0.00921125084607351
0.2455895419323924 0.2990213605975713 0.3879976936173538 0.006012795577656012
0.20433813516036894 0.29447458601013576 0.4307237461752294 0.005652852267359742
0.2816218805661261 0.30262454358585283 0.3764520168412536 0.007206475388330068
0.2843109576361341 0.3048784824239384 0.32972776156200845 0.022882416067260002
0.29246852873379975 0.2975759980007858 0.350910157036385 0.03085960177477221
0.22939797995081845 0.2996341544741907 0.41131708236464853 0.009345077607365627
0.2615442013380526 0.2996832971469595 0.36797138116636247 0.010140046868049892
0.17713326265510262 0.2949806494360722 0.4625452553435541 0.007680734021595988
0.26546793622628917 0.2941058976476659 0.3050544409865962 0.012595480182749764
0.1825669055055447 0.2951055104263315 0.459478907541714 0.006445953286909967
0.2365661041306526 0.3022927012363756 0.41335052898258173 0.006261358832649315
0.2716046834953561 0.29865003164110804 0.1745945494907059 0.012472998668061955
0.28314827293449896 0.2891847098311597 0.1639840263278833 0.006524316842800689
0.246930922037879 0.29535075922678 0.3140150808604317 0.001141928241275964
0.23905700368719962 0.30163361389807997 0.3439490011379785 0.00771700525727214
0.20346491145416873 0.2931949831151042 0.37074936275095166 0.0021749819648359606
0.26256838978094676 0.29472123291434965 0.20308485014573244 0.01621642525944106
0.20334908597722484 0.2968164373487915 0.3527535945859218 0.003962737152910316
0.2819553674717219 0.3031494536677973 0.24348958591401149 0.007045747325585604
0.2817400046141099 0.2957372285185127 0.20564361195970854 0.04184204947423098
0.18067838082123266 0.29033934084223134 0.4288162942602399 0.0024739228057848277
0.2818125298303675 0.293470338641058 0.19034090615701127 0.021054001868525296
0.2401324694234027 0.2977331443445696 0.2914393708489342 0.0019428373280321847
0.24372079479030018 0.29756326725319054 0.27117891948090356 0.004675104335555385
0.27131647933233527 0.29531083247626655 0.25922607328679004 0.020071565468030093
0.18926783446058415 0.29591616495212314 0.4118266965597531 0.00764589271238028
0.23978418463633341 0.29767797437544735 0.30481339756175113 0.0020200414608531995
0.17316480881704593 0.2949950642733293 0.4145514511421022 0.004675730160770283
0.23970045007986263 0.29974446347362305 0.1564094790653876 0.004625842766894389
0.21744447460272773 0.30126506093128247 0.3339636160843686 0.004777047641456321
0.24570419985458472 0.298745074054947 0.21330218522815972 0.005970376533790063
0.1800337906109723 0.2946186847017419 0.37304414054106083 0.002987951921376189
0.21756644487442534 0.2967323002340908 0.28467102557283297 0.004177405933197457
0.2678955911162634 0.2981033450046457 0.12551284582164532 0.015510255377483123
0.25368285282268477 0.29932255658969664 0.1544240647617426 0.010867149289890615
0.2569344712643852 0.30106898434075074 0.17742549651302877 0.008122867434136666
0.23268032809803205 0.2991470470522311 0.14586392728013658 0.0022166224429510544
0.18301874266295096 0.2968690984337311 0.3531533073446407 0.00613860021484531
0.2478255610165092 0.30028263842912273 0.05567678095693788 0.010986471321522225
0.16035924760598763 0.29373620093484354 0.4264834902611698 0.004255044955524899
0.16166806669970307 0.29852847712060315 0.45805617363906825 0.009079748228569563
0.20344050041028325 0.3009566062989591 0.2947941535859346 0.004368350496247246
0.22344225399591472 0.3013714492779376 0.2088160186399674 0.0019103363257206491
0.26412803238422333 0.2908342984813886 0.0640680306887215 0.017912236454475143
0.019117926055418705 0.25924029222044814 0.237150257803611 0.014820416231908655
0.3076533793626752 0.2679235480661733 0.4877424779568335 0.025855766085742006
0.13042728594319752 0.2835402871706009 0.49809433689132265 0.002639138877103342
0.08791926247147563 0.2822102486805523 0.49187874175818436 0.015889061628516474
0.20198624430597054 0.290933960700603 0.4941766550253947 0.07790588661270734
0.29466520931685386 0.2895897051124786 0.49637799523984344 0.0721340325769209
0.01905480837254376 0.2844740113104243 0.49189320155489075 0.07527644622742777
0.0390838213669824 0.28621126495828714 0.4917047903361134 0.018370881920905278
0.13827171884661354 0.28786259448246626 0.4953262911124675 0.006123346305283579
0.16938158482620255 0.29208637320417896 0.48804945626910656 0.0053998148562084
0.26417253074693914 0.28706692893759334 0.49953510240380017 0.00902551147037654
0.2680509808207169 0.29176925948348714 0.49064907496586485 0.014704691710743635
0.21691485516536535 0.3030947510022476 0.48806256674177845 0.010565831247972501
0.18124724405307585 0.28900740360602284 0.49339499852771146 0.08602276383893602
0.06568691716912417 0.28054632148108577 0.4935158246717259 0.03835324065964614
0.08204223421648366 0.016469353987085513 0.35969356736856367 0.004360580842556039
0.00937606996672814 0.15923337124961143 0.43640002463756716 0.013916459340268843
0.006127688373248912 0.18089353949993037 0.45407756051499604 0.03070911120047633
0.004561864107886477 0.22827887183300744 0.45530230373942465 0.0028556363470305796
0.010954153524452637 0.2035809642098811 0.43544660446804856 0.0030468170967903013
0.012162019642038082 0.17691091264836237 0.4148099759567847 0.0009850734340158325
0.015623559674573281 0.28271759295597515 0.276220600662989 0.05860448607306322
0.01532715944553586 0.26129566519141967 0.2613341823825053 0.013199246162013326
0.017991743817824823 0.2810568949189653 0.2639863644363916 0.06889753491343921
0.008513453559503094 0.27059064654872494 0.30073124211661983 0.04336331527115257
0.012298898912467344 0.2441420704619762 0.308607457876841 0.0031024394214603248
0.011832491252919665 0.23324768546349814 0.3483956812265513 0.00929483313227971
0.007757858606345541 0.2567659857959545 0.3241568387964094 0.002049756289480767
0.014302543850387407 0.22474790767492236 0.2979524528575084 0.0009313411013161129
0.010084204201090881 0.21894822720254245 0.32862374682821066 0.004567920300141085
0.05342660007200374 0.07988571869940475 0.2789997358157017 0.0020273812826093842
0.058503348019752995 0.05201357950654595 0.3149490886652129 0.01696556219470729
0.06994195092989368 0.042775078868792005 0.31251305667783297 0.0010810883364255678
0.07130460551064037 0.03148639115066491 0.3470664426980969 0.0008454842157294814
0.0917008619211644 0.02651653442130479 0.2942767844244355 0.015101496324265865
0.11869445483975326 0.03162192197003495 0.25876806665533086 0.0020979298845246594
0.00265530736092417 0.2597648075066646 0.4005946705799156 0.01259687643681291
0.01159212751464329 0.24075832692271834 0.3411743848615184 0.005718887012577276
0.003732879628812644 0.27417510018382596 0.3720080587352259 0.026275168711941636
0.012504755700666273 0.20495397340220622 0.4120316531610356 0.0029222640661898448
0.014777291744528976 0.21699134039420787 0.3656878305997138 0.007296963057987213
0.01561057651976214 0.15779257818888412 0.4096178140301075 0.0030367972557312152
0.03092281148812078 0.11246593096446421 0.38570024053334323 0.0026194960585384877
0.020851419080267743 0.296226589032082 0.18982492979616428 0.03928556267816749
0.06047992959364423 0.2968032184391676 0.045709914664232576 0.09334100668322307
0.04609183950876455 0.2853897043804778 0.05253359391065353 0.09708287571835135
0.054765269691117044 0.24822061359338327 0.04548931253241777 0.0038624327126226287
0.06406804437373569 0.23673200693452404 0.012320577282789645 0.006458328188180617
0.05458749139221599 0.23784996101577643 0.059089767238843086 0.0008933218970276415
0.06711871046914987 0.18106084673441677 0.035953290454504655 0.0013935938194193707
0.09148511926616525 0.12792428020884777 0.006296911073871589 0.0010936662102178413
0.1545711242238026 0.10976546405816226 0.008010290212166173 0.0010936775852806236
0.03089292737873725 0.2907623687589125 0.13568947468959774 0.05832854586061142
0.048409573927032754 0.26268899942238877 0.07222726225908915 0.027559143849831075
0.04586038233541061 0.23402999705751595 0.09016387832342955 0.0019670458643908342
0.03775144149615281 0.20284737619323032 0.1641923521806763 0.0004572466398790346
0.05974098874088534 0.18451836083683903 0.07411409897373011 0.0027609857913435533
0.043598245259163865 0.18145393896015888 0.15694915299005027 0.001290057454782299
0.06591009119207969 0.1356952748337711 0.134262287623928 0.0016315331891616713
0.10798165533756247 0.07478378230164427 0.12686167801547799 0.025849218595689907
0.14655620972050945 0.08803515471957862 0.07714671658059366 0.00404950131658738
0.0310084160324229 0.24881328283070817 0.16368491187562112 0.004765122771223609
0.017859816122355376 0.28058940159711476 0.21039017727076775 0.04444882787869219
0.028216244425479507 0.24014657901496586 0.18389347444870124 0.0011058158862521212
0.03524330760203079 0.21162799353212994 0.17159137536969138 0.000872847529522442
0.05072521984127478 0.15065750817674822 0.18643960082840605 0.0006004586273144039
0.040328727054886736 0.18361813953848552 0.20529192531801438 4.192836831971159e-05
0.05655901173365817 0.1295404917085548 0.18296940098900946 0.0011745766705599018
0.05309826372437145 0.1241424109193938 0.21841304962286334 0.00025358952510304484
0.052553600989485846 0.1380767872014618 0.17362286221215137 0.00036493842872834767
0.06190222286662136 0.11157513105532546 0.1647977831752942 0.0029800104706964527
0.08478348009108355 0.05009397707771451 0.23189068045256395 0.022718036030439287
0.09390461881028779 0.043454499236869455 0.23684163758190172 0.008215145360287801
0.1635264896688229 0.02854623410792479 0.25921995439992196 0.0037964957167113604
0.21120484778499832 0.005762557386415849 0.3472487787667476 0.013093329262119043
0.25537704441862746 0.056144435472492885 0.32717405289143137 0.0006957942920886181
0.30871263725683373 0.28083560856534634 0.33088620205424774 0.006736981258224694
0.31483825402661625 0.22450411139880286 0.4551464084758024 0.002254272685696521
0.24606850852215723 0.2937992176430547 0.006342034969982254 0.025420324496116798
0.2543648248462845 0.2923008064249011 0.035919988010544766 0.0057441004843427216
0.23329673927861083 0.13518947925832805 0.020602247416673193 6.424126863705197e-15
0.19726581574074112 0.10620879718739287 0.01769829587839286 0.002680272018830233
0.20744527093554807 0.09448582615615385 0.07168624990054002 0.0029335830566706283
0.17142505068985847 0.09394306019776431 0.05227290517856721 0.0009389572703172166
0.25760009209523976 0.1564241585637204 0.13428757764578497 
0.23317721941598277 0.09545951040514267 0.13646972946691827 0.005634034075304467
0.20498433267669391 0.0728270760946542 0.1231863756731763 0.030312923109389704
0.17903791018639864 0.08718320098844433 0.08021091603486145 0.004003387642025926
0.29323033894651734 0.2745578448110268 0.21763430492843325 0.04929373798518019
0.26704899253870007 0.16170536892752935 0.17391825210465767 
0.2751352843220764 0.15971562687311705 0.22968148866176216 3.208163473897404e-14
0.2765442967328932 0.15477561959342048 0.2505136308475197 
0.23647836343566586 0.06655349398281432 0.2115904028205961 -1.2075130353549153e-14
0.2274020169211833 0.05474445735367865 0.21038937183004486 0.019359813901200226
0.20594691419397065 0.05766335082170672 0.18508154933519888 0.0021746557905789167
0.21976898235436182 0.051519601959002286 0.20998135831866174 0.017574412596768216
0.16070786031992312 0.04661270981789436 0.21003711596732802 0.0007586331352434902
0.1519725893431492 0.028217477215097254 0.24596130335739327 0.0017086539812050932
0.1765296898417965 0.04726436629448681 0.21581263981863882 0.0005728365439007075
0.00736207165826892 0.3009234401761526 0.4398847918000908 0.06452477218170932
-0.0019610596480731557 0.28949491255229226 0.458166133759622 0.0782383666656263
0.0007305028277668859 0.28991651172802174 0.4251354316704103 0.08677054900764578
-0.003500275128765929 0.25341237411612455 0.4620027963692582 0.016355272040547705
-0.010406973650962985 0.26855424824212226 0.44282101764840087 0.008114711910282802
-0.0045109222733665695 0.2676152372959871 0.4206853918575754 0.01839098543120861
0.0008080061732473262 0.2809294851384674 0.41914593697834673 0.07502638323124437
0.010600321218247303 0.19706696654225278 0.43672030803037654 0.004399851704306608
0.010976435395624247 0.2145638524127125 0.4235809349969895 0.002210744810628628
-0.008888883191524963 0.26587077623392324 0.47876677551024854 0.032905353873846174
-0.004376900253665738 0.27783082008898474 0.4708017837280874 0.04827846146462167
0.007485037647391283 0.2957304125524211 0.41556659026145787 0.06846488912364848
0.0077735619241749146 0.2948436453455785 0.3443532950464558 0.05111674776210085
0.011923790827624285 0.29876522710849135 0.29183430697490526 0.08273957761681296
0.011428198132642637 0.2540451764122058 0.2892076338924328 0.00256979462943507
0.008288970468013846 0.2699572029304841 0.3064003795330732 0.031619210409649455
0.007108179910544644 0.2640012685301478 0.33330208456417 0.004501707346651683
0.022015523988148412 0.23172331524141482 0.2637048141390295 0.00021687867799294655
0.008084020405226284 0.2585091722723494 0.33730060024697467 0.0025931223192582962
0.005530234990518417 0.272579372930332 0.33978674655024454 0.004196412535931034
0.010993974603550904 0.24421170812954887 0.3442297339593163 0.005821926760235123
0.027607899038473365 0.19459594644754677 0.24295138543330033 0.0013166694237747739
0.02221592309443026 0.20541541518030354 0.2751537066172841 0.0008862635186868368
0.019136439225526755 0.22346653546946765 0.27934364817581603 0.0025382171259603734
0.021504667431333176 0.1853703376071233 0.29183009208586114 0.004366566301827809
0.012961721070389879 0.18717246651821787 0.34519099275140563 0.004434661931033075
0.008389573598503399 0.20939583807336035 0.34713417852349 0.002226194076352708
0.016587898196475187 0.18958681246136405 0.31556104146494196 0.0011018415035913838
0.030535543495356664 0.15679132597771547 0.2692753101362142 0.005643005261842817
0.027174245268734434 0.1685742033958519 0.2999248740815428 0.0024461161909818817
0.028327773611680228 0.18014832531482353 0.2614112368127592 0.0020224577644949284
0.029687641673511244 0.15895733929224057 0.2819369922615177 0.0063310730109773445
0.020465970702800707 0.14942392087714723 0.3359099855534977 0.0009841809921668605
0.03823914052352727 0.1415259436029233 0.28787129607648626 0.005059918093940573
0.04160869452138049 0.12906922647484692 0.2801659631042544 0.005736649753836418
0.0324234150214287 0.11539497807540025 0.33218870330219397 9.154080587884894e-05
0.04163508649254116 0.09186772742367325 0.34706737419871836 0.00292009988615241
0.04230720672472589 0.1061454852808087 0.2773310863851017 0.005092295473687027
0.03970505062920244 0.10479362516374888 0.30255114805234024 0.004849631148881245
0.043043681631030145 0.08807744177764486 0.3349605347935767 0.0022514271794052106
0.04723619100979642 0.07761168765143668 0.29722031252387604 0.0025108937703291583
0.0479642220811413 0.07733327554645192 0.3269364657096971 0.0036419416794934815
0.05694141896210883 0.06490944074390244 0.278278049962414 0.002369580625707084
0.06047276559427163 0.059831408005599586 0.2820181908802257 0.004916728069100735
0.058863699693051316 0.04478335159220156 0.34036238608330915 0.010481033209891947
0.051491729984287096 0.053087082328461564 0.3267765009605086 0.00736697572696312
0.08571783938595648 0.02995230891451894 0.31413360557535264 0.005403338442077108
0.0843527706430813 0.03246871040104347 0.2659333823807968 0.015852273395976037
0.08433710035818139 0.03396367635827023 0.2887902518770845 0.0142152331413474
0.0854386065642239 0.03268628705894326 0.2738359577110249 0.024039636438173254
0.10002245182353871 0.023343019156722104 0.28625484911739296 0.01161987825689644
0.11120223525500278 0.03534946401239399 0.2447773839778604 0.008430105747087161
0.11039071165959582 0.02096028847486473 0.2914250343570707 0.010463971982198266
0.12662488910631892 0.02305455084469337 0.2873968621841566 0.0064980652258717995
0.15547759623901183 0.02869287695702812 0.2744903090339227 0.0010929711106322866
0.12196250239443801 0.012566445347333654 0.3260509164836865 
0.1365198787949001 0.007461163109742099 0.33525484516415716 0.0007295842804374155
0.16770722754509715 0.018862205718320656 0.3063011254119371 -7.991378813672855e-16
0.18724311978823838 0.03454819425541907 0.24344530319702357 0.001962977345116351
0.18674954493821722 0.01671800654443601 0.3199203061679108 0.00011181448949554643
0.19626023277364776 0.031036978242123467 0.2564065043465832 0.0001489201946959836
0.005809805945155141 0.2846066065686425 0.36812295669971035 0.06341614397730383
0.007986180449807272 0.25656081155025734 0.3596790673980706 0.004923981184665535
0.0014616607508115527 0.2778598894602464 0.39755277979724074 0.031106543321350478
0.005407955446511016 0.2708417845718326 0.3522235524735623 0.00379246461923677
0.0030817012098363888 0.25037258730688716 0.40500502969875624 0.008486716182281065
0.004383785500831532 0.23308347491364678 0.42455501527344774 0.0012467919860848623
0.0021329355867627077 0.24464212295085297 0.3849111360315252 0.0007660410829226478
0.008854176876914517 0.23358675888270503 0.3928613233080159 0.0030790459543517516
0.013987766362918536 0.21822519059903367 0.38233859363510225 0.008722111430750253
0.01428970308920508 0.2109255650569051 0.38354526415431334 0.007023824026331346
0.013744626924122967 0.19079809519834548 0.41234599553437884 0.002331685585556894
0.014994728161922578 0.18486352045630297 0.37568836146734935 0.007580876017622854
0.012239878762000068 0.21553634788786472 0.39441235193154833 0.005374585494175467
0.01094267380712552 0.2193225229253809 0.40867876465420505 0.0037480435145904626
0.01379759287978147 0.19720972076715593 0.37645695310725874 0.005252204911498909
0.029548506484228958 0.13361973906081204 0.38891146738265364 0.003868584738057703
0.027744006056937862 0.1391075629651502 0.3737011290304261 0.0007120482893150515
0.024940360193189185 0.14152710406497757 0.3621927654723271 0.0008859623346502275
0.025476424175904098 0.15632486701124346 0.379047914410309 0.005883953516001303
0.018571053355464395 0.1751456722609553 0.39011601965781134 0.006969746235734824
0.03311815181120667 0.10127593467563281 0.3706806250159305 0.0008230706748903804
0.02966700289668022 0.10805721773949316 0.40085100220417963 0.013137292182898015
0.024087416434389698 0.2947377694684606 0.2217128515696697 0.03488279887867947
0.031384805390233146 0.28942356309829825 0.12203846932962212 0.04521356434761263
0.038543580950960006 0.29729924360023186 0.1406129192183328 0.06914384838068684
0.051877691976509904 0.2910533085580128 0.06123017707735231 0.08820195420001127
0.08622408683343098 0.16815564065946792 0.00017024130448772 0.01967493898371001
0.10050253161365295 0.11785830671487049 0.004369874216463556 0.025954564950896358
0.04285203811689051 0.2826120962680179 0.05000754934536442 0.04592406747836241
0.05068163791636924 0.26011019499296595 0.0547082755971916 0.03093640190022505
0.052868815908010264 0.25906472735007197 0.02031318044628464 0.002491015340699676
0.05733999756063729 0.2309908061439659 0.03955664354172715 0.00351975153273146
0.06747726578468959 0.22252912813222184 0.01218605381230748 0.0023582401819542452
0.048309059128455074 0.25025553375860016 0.0724812718614688 0.005396404032518141
0.0696043736509716 0.23512632380367246 -0.0007097181495592277 4.877436909440286e-16
0.06223668506817123 0.20712319667429419 0.03739267015595818 0.0008239541246842785
0.07040246778547528 0.17031403684650198 0.051782133731001545 2.7063267152964576e-15
0.07242341304751464 0.1802138706071019 0.010114512116071029 0.0015909248307809716
0.08041532230457911 0.15149006082334596 0.023675494345418456 0.006812531416817202
0.08768801773243921 0.1491525593106392 0.001955391056691005 0.006046988207081501
0.0972901001486961 0.11026843254622014 0.026085370107265676 3.2628494386818004e-07
0.09684315056193396 0.09333061902743855 0.04935611962211323 6.334894225342963e-16
0.10604772157794899 0.11016916150289348 0.005642259961063697 0.008833159668771809
0.14711944067450225 0.09033303296398522 0.0588903815261403 0.0064045705675109055
0.13880268441983193 0.09875376967989517 0.030648727198519493 0.0010221228810433814
0.17279956019681697 0.09258777438417432 0.06088652913042568 0.0032786652206388185
0.17967584583412363 0.10143390333793471 0.028910200191941713 0.002885699615826322
0.15727004661781444 0.10329574688438724 0.019660151962356792 0.001180378853128801
0.1622304459896396 0.11100393907494736 0.007477107998411101 0.001308650758465794
0.0438827336648536 0.26875098324102054 0.09886418205398573 0.04748186550587021
0.03327028917440795 0.27612863801321796 0.15205308454339067 0.07728112813943454
0.031314076689137715 0.2471008909958995 0.1403299728429166 0.00015934569763316323
0.03875081293562719 0.24363129200024541 0.11415437752639832 0.0011474403727240448
0.046157859795116996 0.24896069277685487 0.0907105830887153 0.0022489903676458085
0.044434836639360806 0.20863253443700897 0.10707795113515722 0.002036975469430916
0.036641544881643645 0.22909577573704407 0.13353014689904166 0.0013475243430228336
0.04428478644535539 0.2143374547260943 0.10176626013818188 0.0023449325828419566
0.05428095387750133 0.20018586423945853 0.08080888067793054 0.0008479259779158639
0.04639699391252906 0.19397643530795916 0.12564850354482038 0.0015626958782237069
0.04813654888503568 0.16072854697790884 0.15535570765938553 0.00469734252439655
0.056107985785839906 0.171294749854299 0.09883094268827945 0.001633378421540521
0.05580240719917637 0.1731677012179173 0.11714980130947532 0.0004708409635690937
0.06172288927162133 0.1524642849995646 0.11701722044998525 0.00011868920638958418
0.06758601672811568 0.136588856209863 0.0909119506869401 2.049789353701647e-15
0.06853304294996329 0.11998524686169701 0.08268737634361586 
0.06994320882017441 0.12223389162586386 0.13577257392736636 0.0017031604677355552
0.0648639229349476 0.1070825382371131 0.15977708705934454 0.0023444198129242617
0.07484236953247003 0.10563449136456626 0.12411892456036958 0.004077517001356072
0.07684726868141245 0.09613867812726451 0.13104236175716238 0.02358336096899012
0.09292985891803406 0.08274646619346622 0.11721745593813754 0.01581333713009558
0.09641395773639591 0.08713401068963032 0.07655920442576283 4.000881818492387e-15
0.08721573497230753 0.07123420374050683 0.15061268453994106 0.010865941289070974
0.11605152030615659 0.08012783554024894 0.09709667973098003 0.011899883733928503
0.12311261584513948 0.06832361079615078 0.1319879968535312 0.004812461435468794
0.12760349963610543 0.08136320560910895 0.0707338930215447 0.0015724150136457223
0.1440569048888544 0.0700094933057085 0.13472752001389893 0.0034841425771615095
0.14636899174829696 0.07876746101961243 0.10971375797667349 0.001235871411364544
0.156718093019737 0.0855977389215451 0.09250138038054549 0.0044034665891824224
0.15627321589727436 0.07645698290139467 0.11631606054142596 0.0015404646772617689
0.16681302264540337 0.06570756838051604 0.1555984564621121 0.0022493137441557797
0.18173588079145422 0.08334187813523784 0.09166734558988444 0.002101853361754972
0.19076957674453954 0.06150190747182532 0.1550254160685797 0.002499203399157284
0.0225435870579109 0.27501331711308596 0.23826220516553728 0.0494721657141127
0.029190975458351774 0.29110238667158067 0.16646081988252906 0.058361605831013796
0.017585309593492054 0.25597922002602486 0.20663114234819066 0.004774259904351253
0.022896567577054754 0.24287977939922495 0.23495420304788095 0.007069427888407686
0.022173499231913626 0.23987307734394192 0.2242403328324069 0.004303772457403948
0.029886594368622323 0.240374818486649 0.17661387722257124 0.002260121022378581
0.03642611884439903 0.2046105297168341 0.16849382769074298 0.0006195956625794738
0.026752548686609392 0.20429697330505442 0.24374983026408564 0.002027229070552261
0.028548409405830227 0.21602339750703878 0.22859420389666207 0.003396161997783974
0.029968632985965936 0.20359668410885287 0.22693352630909144 0.0033208281599588444
0.025375208809005637 0.2253532531296067 0.2077784529103561 0.00245947759979859
0.035045301539773595 0.20091548876356596 0.1939252136517253 0.0007153623347660649
0.04243221114014962 0.1717148700357392 0.20610378525168768 0.0046190406302915685
0.043112181326800135 0.1757644934940391 0.1877373832816755 0.0006192061089416598
0.03674617072680175 0.18350155649272212 0.224231020449442 0.001867483230535239
0.03875934271653849 0.14867220736344156 0.22887573909344913 1.8891264546048602e-15
0.045515262057412076 0.11073448936559942 0.24365202835092642 
0.06495249853778226 0.09534783329869292 0.19576072185335305 0.0033599681915989616
0.06055708327755982 0.10241401485549576 0.20308926517307443 0.0008621681249115597
0.06057001787346384 0.0694657849878331 0.250138468558498 0.0015184076697929507
0.07601337584087489 0.07107457507664018 0.1692550390744353 0.01970322535390862
0.0827129842594014 0.0619003718850848 0.20205669967976514 0.024778819075977277
0.08096402652664338 0.05437381307825824 0.2312727566525317 0.006611972928342906
0.1106781369206807 0.05751164757465003 0.1679004078816725 0.0013771425194494566
0.11987418734619451 0.05890701834376457 0.16091390463605038 0.0044236467120164534
0.10436516640283892 0.048065269001931255 0.20762244222191473 0.0018063968075953548
0.12024081856324412 0.0407786938239839 0.22866729322633184 0.002647153474685026
0.13299280735780608 0.051629407097854435 0.18760911376983588 0.0010511095580145557
0.15538667674439147 0.05390193033191333 0.1816358715763433 4.182687768626445e-05
0.1673462926106892 0.05598950386999353 0.18560996682695907 0.002491002120182617
0.2038318389035406 0.01881646143002072 0.29542907611423436 0.0008585214533913217
0.20770559608735992 0.031842269222378296 0.2654939505587963 0.005666073170509916
0.2089957928513887 0.034107467924041915 0.25848849344027086 0.0019910282400952117
0.2267456382427506 0.022226451425804778 0.3220133600347919 0.004522025376619671
0.2271503411174237 0.03355192399635447 0.2654964690164727 5.7436019552598266e-05
0.22359465118520763 0.03181647019101027 0.2860063318972759 0.008017967103092079
0.2457966762225198 0.03876468265926715 0.31535745608853744 0.003884141949256218
0.2528911874440004 0.05077911045394008 0.3073541840561149 0.000613831074454228
0.25562800635018024 0.05715616406718891 0.30076139179547595 0.0004188327446260165
0.26797876674098897 0.08279779842982495 0.32411518663850325 -3.8558540911729935e-14
0.27858630404994167 0.11976850790097736 0.34197357311187854 
0.28744471334070826 0.16288495338842393 0.3151218976547997 
0.2989628245518793 0.19923249976460847 0.3340856837535278 
0.2892395587578196 0.21018320397078233 0.25319087500107856 
0.3031493438678685 0.2919521734827805 0.33326644278210776 0.00484200741329861
0.3034222801016996 0.2948310269371243 0.4046453807048414 0.010968168573960043
0.30352888131122663 0.2963373444266362 0.3595226761936903 0.012241584278695747
0.3093122198953842 0.2895319039132846 0.3682035890750412 0.010830052240836103
0.30317583782332325 0.29505408274500927 0.3727291094227098 0.004848095774052491
0.3162268439164843 0.22761339396147473 0.4606322462132739 0.0005533197577095106
0.307009736037155 0.29596852507729376 0.4820177895677736 0.0826335752406356
0.3059336896623947 0.30032386972441905 0.4796822766885175 0.07099129145737658
0.3060786096889052 0.2852107544212317 0.48525193795928634 0.08574637181219946
0.3103316255656959 0.2851744996181838 0.39812902017875856 0.005579363534689469
0.30022783501479466 0.18759811507802587 0.38013626719903765 6.917942354314609e-14
0.3063929388196303 0.20410071732387786 0.40042457509297613 
0.3006676314076191 0.17856884667043607 0.4116202749113261 5.6571923350028684e-14
0.29605706841668195 0.16667433496171785 0.3893653932241542 
0.27779694211823946 0.08982506586682912 0.39678240357145733 0.00159072817687706
0.28381887729502764 0.11853432905951496 0.37626179114128167 
0.2502311553594542 0.042304059000257875 0.34277516974162814 0.008068232193431911
0.2359220273045249 0.022496101201361755 0.35050750564564354 0.002693312286332761
0.24689902721687212 0.28900143879362905 0.00422710898282922 0.017348404652833074
0.2498300208311653 0.21771703763556965 0.022633681842602116 
0.2430719547830622 0.15227261790833366 0.061858916758112864 
0.20696825056211954 0.12367227074591046 0.00018418169996243378 0.02955629447238642
0.2109516619059113 0.11322252615177211 0.014202398905332913 0.013475123130849975
0.19571855926327114 0.09364830559458323 0.05291272189760841 0.0010746558939961955
0.18076892953442156 0.10850290170421154 0.012851357285060311 0.0019621229903769763
0.2754615989904576 0.276322145769231 0.10411889712077076 -1.4563344637981252e-13
0.2793149042443129 0.2954956530265583 0.15858592202044264 0.011243014616477554
0.2695679450921286 0.2110168070010499 0.12299092165759247 
0.25630947086440814 0.18526893408039044 0.08961565535994162 
0.25429823798036005 0.14121732278781085 0.13993838473854323 
0.24142270792177417 0.10057752570031263 0.14592243390795895 
0.21567782175341282 0.08710181033475926 0.09759563295417642 0.0010465047214871807
0.21819280737276844 0.07241623727909621 0.1426229719617552 0.023874356457100943
0.185501231351607 0.08537404025270444 0.0829239945077974 0.002897427632748346
0.19755493450574405 0.09047006792590459 0.07454999953222959 0.003478072804997137
0.20600170673392265 0.06765983131397163 0.14016017611247664 0.03788955353274774
0.18764274295672265 0.07508538205545771 0.12348944215224465 0.004399781056790057
0.287643316886414 0.2937694924265025 0.24078120751299403 0.05739431521904645
0.2989314412461505 0.26532129955218 0.2502623232651786 
0.273692265322131 0.1703618816095606 0.2046796379696525 -8.976498153123696e-15
0.266839489270246 0.1359137912014421 0.20470743431183352 9.019948296651518e-15
0.25713358388267404 0.09171612426471838 0.23076381053614134 
0.2539888271294156 0.10717972157301985 0.19785677771041424 
0.19727016244691636 0.047191004441495335 0.218744614475904 0.002592554745436263
0.006425575429163722 0.21956418608906825 0.4519040242248294 0.004552202848344083
0.00026773231204424344 0.2730930920504894 0.4955886835836909 0.05257109442845102
0.14559754228003757 0.2933301630740333 0.3151488561700457 0.004153862284012123
0.15167013127427487 0.2961841928305708 0.4155103477356714 0.004817997749096004
0.12826775910131785 0.3043485986199991 0.18918275249513863 0.0026032031207699822
0.14444315166947821 0.3000199755539022 0.0824115274990529 0.0007706042962900657
0.11521855824261017 0.2977847316558385 0.22327463373356143 0.004988758296682348
0.1170252184229798 0.29906242687921863 0.23113705606798532 0.00653969740287628
0.15754293786308884 0.3033876342926005 0.1494862322689801 0.0021386803931360866
0.1475699609818814 0.2949799116878248 0.36902157873940655 0.002799426412566981
0.13508470485860657 0.29623745457124456 0.3046474303933382 0.0038285768372958813
0.17860936273208597 0.3003866879846198 0.27110910346234546 0.0023499660700697085
0.1560689608545009 0.2979323326933135 0.2735488443231506 0.0033139208242866035
0.21211804458554195 0.3020781037307626 0.0666059846890764 0.0006954269345914373
0.18598786117225438 0.2986544337334103 0.10369256281802681 0.004048392521085482
0.18375981543127629 0.29602955418679905 0.02376630851221898 0.003858290096974458
0.18664020927818067 0.29615809795783044 0.3021772195907631 0.008211923094266728
0.1716796358804925 0.29162047838403915 0.3152838467992919 0.0018885220333741527
0.1919166605606689 0.29774567052987067 0.15080469743775632 0.003936619026379737
0.1806813878018029 0.2989429837178763 0.1720803269858079 0.004543201255146628
0.15221801351249073 0.2941463543268995 0.3318733480237951 0.004395428207898756
0.1849419245796275 0.2993118889054087 0.04696267346921851 0.005326217478339665
0.17344575804695858 0.29795230029703906 0.15200382290106337 0.004172539354090135
0.17061181891319774 0.3050806820915608 0.22182503638078446 3.1231600978345805e-14
0.2034866464677973 0.2933991455137217 0.007296884897445984 0.0008775150131541256
0.21720322052548904 0.29494022472033604 0.008800003634980113 0.007857087586758462
0.18654831486947654 0.29897589457170637 0.23726729816915862 0.004072061007284018
0.1659430774589489 0.2982073862689899 0.2956007734064834 0.00421994087048403
0.24229959460229178 0.2995192263755416 0.011323894370718193 0.0063066625636297
0.21600879502864676 0.29723846233027257 0.18977428873200064 0.0023104803099847776
0.2518702140797505 0.3010443622768251 0.0622241303964775 0.008523217027557014
0.2495002154541229 0.30080839880129245 0.11729476373148802 0.032673163313904095
0.2157935127185399 0.2959123521737598 0.17880106797591558 0.0026141924783883827
0.218202192280058 0.2971302476434872 0.12132829323221299 0.0010172193538020705
0.23892610561697958 0.29802185740668935 0.03743537407568659 0.009640676943360394
0.26050287412106765 0.29779823172309 0.13415822180717846 0.028788153976488817
0.24238915299777064 0.29615575790678544 0.2224658678691017 5.682804909607793e-05
0.20060574642843187 0.2987543314305831 0.31537935072015255 0.006341815969857886
0.19624548592197075 0.2984488832071092 0.34559373976430746 0.008979509392431254
0.21824437226913432 0.30547351887861574 0.24466033954892863 0.0019237926928497614
0.2678198639344537 0.3014229728180223 0.17222404485123222 0.007204703226723408
0.22410837955488666 0.29618271408708685 0.2731652034195139 0.004136271951368938
0.25358499797186307 0.2939854114201583 0.2923177224288478 0.003617192904673488
0.2714397099391648 0.29624909338218286 0.2521201784155354 0.025520510771493875
0.2626541774450595 0.29436831067810165 0.2727391392806081 0.00924769204794707
0.26803492179552846 0.29434553729945706 0.2997841412287796 0.012262668012426862
0.22075087266886115 0.29478421862662385 0.386966574664034 0.005589201525700952
0.19211694319054243 0.2933631688317338 0.4539851286491675 0.0077662971882499765
0.22801830913751853 0.29601613638483926 0.3940227815325483 0.009072440521322117
0.28936075278028406 0.2992735608996202 0.3004250465201882 0.026919141096545442
0.26182261428754827 0.301720570816099 0.3507238012568711 0.009823309313741542
0.229662887215434 0.2933079267385405 0.3706009160867874 0.0026426220498763945
0.2771358919416785 0.2992157393872716 0.40622632322947866 0.021533602052227156
0.20073289456702886 0.29603839312134983 0.46485210754610945 0.014827364210416591
0.2079329657597893 0.295534807335873 0.45627575008897797 0.008276369487970043
0.275236932758165 0.2987781912333789 0.4128788721345176 0.007564265320386761
0.2962056365251123 0.29602195581784047 0.4127864767294415 0.025391681487860182
