x y z curv
0.17487147086225807 0.02021807549929115 0.34442535832999643 0.012675550307220312
0.16903180031248832 0.005419020418067138 0.41222548740664483 0.04064654660343295
0.17665702116485407 0.010923740598127903 0.3708548015690793 0.003463488484639739
0.2047674658594493 0.010270626814037481 0.41009377005285 0.0716245754242169
0.20196114115204608 0.016147747186442223 0.39331391632359664 0.01874045373936524
0.19422437999145922 0.018864318602751784 0.3690324280292068 0.005043203142939802
0.1990628816155313 0.0033534321831300102 0.4203378269022305 0.1266521892163372
0.21756049956978335 0.007442874123692473 0.4192259474090249 0.041414022584999904
0.16777333459025878 0.061471275425886394 0.2511769140157537 0.00024669194770679737
0.1846977694737299 0.05151384717744267 0.2747078686877465 0.0008696591057111858
0.1707846880887441 0.04345344521720332 0.2973560060559536 0.0038151238592422734
0.17900412650879496 0.030519056415032594 0.3156688577595401 0.011318223864497072
0.1856491401926189 0.04249222162452433 0.298759816544606 0.011573207146975822
0.1667557897711305 0.03295231298621907 0.3151655858809607 0.0027397348531502603
0.21341709871903147 0.04978020375278944 0.3107015502736867 0.0004926863989584681
0.22512939105755042 0.053342979212513415 0.33052483349355827 0.0007454449824340879
0.23589883760989336 0.06633846965541446 0.3096852585186662 7.211727890125455e-05
0.2030199575161474 0.034282586881602004 0.3402744894315502 0.001975932920058658
0.21281790803189707 0.035901602715482615 0.36347076757616864 0.00020349013103039678
0.2281870105407588 0.04073059272910673 0.37309523110759285 0.0017074001117528205
0.22985054347392087 0.035368495257565635 0.3880498541185198 0.0015032060949279815
0.22472770785046192 0.04648000227315849 0.3463013310265658 0.000996509679202276
0.15771993262802197 0.3355331069829603 0.6473425397559603 0.03629880445362905
0.1958364715481034 0.312734648554255 0.6442834834880109 0.0059381353623447685
0.19140406373078803 0.3501564252448626 0.6562123897699512 0.029833164891178925
0.1741891912937972 0.31301246423132645 0.6461741197294726 0.002261852721174665
0.20170000351713244 0.29085628261246693 0.6463351630454289 0.0008529793548769489
0.18533454997268156 0.27697728599944765 0.6454725325569474 0.0030784267904419554
0.195457373771515 0.3311182408620825 0.6470922037091038 0.07116345823331982
0.20814818998176426 0.24702331603588265 0.6490579034558255 0.07703188039270947
0.22821997119699683 0.2675342207353217 0.6468389861533425 0.0008101729978554135
0.2274480106618362 0.34667980106608737 0.6423113808095343 0.02739823256860182
0.22884445508352783 0.24738206183307124 0.644656756927619 0.07073455024870698
0.23388911277688912 0.29918274425855707 0.6434248453698955 7.401622764656711e-05
0.24390582235539537 0.25277791572032754 0.6419789592160903 0.04913907490676384
0.2425682156484017 0.3485692357967099 0.6300019807891512 0.013362458191873667
0.25299146828641966 0.08675113485826334 0.2984392259477883 0.0005618833203515532
0.2518131212340828 0.050016270202268176 0.3917933084217601 0.004035412353795629
0.26178509561260127 0.059435885586685416 0.3895795747056257 0.00345997535087925
0.2656681311442248 0.058177668746139215 0.41685755767342125 0.003125449321986959
0.25469619067947197 0.07474403971600256 0.33643287431823504 6.577566867487205e-05
0.2737471090909841 0.1040918881661156 0.33640325365659757 0.0005547723880706539
0.2758568703503828 0.0634717490314691 0.39736452162137625 0.0024911267863540775
0.28156984933148826 0.09678110164794564 0.3683180393362224 0.0002812982804870011
0.27570423724695853 0.1170779113215921 0.30775403312547006 0.002133999581625838
0.2718854530930105 0.11075946671623518 0.3125301000291182 0.002724503804500104
0.2935256420373562 0.11485937497888953 0.39296243964395233 0.0022146566260101606
0.2922279032867178 0.10983605531899641 0.39818050751658757 0.002417752216602077
0.2903062078119926 0.1017957560740428 0.42886499074179946 0.0002769274692538552
0.28603229784434403 0.11609235862151192 0.346010732500874 0.001665299914811006
0.25558812580076895 0.0494258523524073 0.41227944721652415 0.002702646700797602
0.25888024261149817 0.05344173773213854 0.4293052067267191 0.008944712387988068
0.26309734403506174 0.055440630376868215 0.45643920239954666 0.048004315309979326
0.2679423440601413 0.06214967136941409 0.4680225997055005 0.03707648006585083
0.29670356283609484 0.11220417068541472 0.4214856927168243 0.004358143569610362
0.29192106310626725 0.09819981779494993 0.47935800137073076 0.05916562886638468
0.3022873852200885 0.11471674780214604 0.45617970556599646 0.0029723197581882836
0.28901590469739036 0.08226715989205671 0.46200372888104374 0.015022173304990926
0.2856885424167191 0.08398231826416477 0.492648649483461 0.018242876103661206
0.2941042924666393 0.10402822009348386 0.4834172518869909 0.0436765370523901
0.29370340551800544 0.09067277823205326 0.4888463778788647 0.022817208247424833
0.29976276339618163 0.11953289880156906 0.523201287061012 0.0372452688412776
0.2907475802209124 0.11425167171376892 0.5165499299821505 0.035808915088170655
0.27369845891594946 0.11616495337746229 0.29912393712599855 0.0012682115776886504
0.285064238402772 0.14153177923460902 0.30377353633979887 0.0024465078858331188
0.3008203580381032 0.15753988404399882 0.32376211432694657 0.0008953263192738527
0.3060063101621609 0.17277172766923343 0.33554355005731407 0.0004970915333236145
0.3042265605328491 0.1809464008952573 0.318904948788005 2.437121473750231e-06
0.3024806612558407 0.12908056937953133 0.39123074935621494 0.011464424223359337
0.30738875941587435 0.15420876121018462 0.3757067667451775 0.005762972132720062
0.3005947034845252 0.14152053789531915 0.349876584604981 0.0011661114053561393
0.30162289066960246 0.14878269137157987 0.3535598449960379 0.0038759879439623484
0.31409049100500536 0.14565150244173364 0.44513712699585906 0.004240262947165294
0.3101746004818178 0.13236108624703355 0.4082059167843784 0.005154026944919019
0.3093821773403585 0.1428058671946052 0.39148212792052717 0.00850675576033155
0.3080160617499449 0.1571854204871008 0.3853632943675774 0.004651978635886899
0.30592739504211786 0.13247794695843046 0.44279200201488444 0.004011743572006158
0.31247209739350834 0.14508610512342404 0.4126358465345968 0.008203614770998058
0.3107699187723741 0.13607829892534917 0.4687786550003458 0.004705843840757609
0.3214700206028393 0.1846688459292118 0.38355508986328846 0.0013516365871099815
0.3114349712001685 0.1642964226167646 0.39747989564589215 0.00488730890971914
0.328546040831206 0.1721536660946228 0.4434770645703475 0.00042644381767214075
0.3175318431823447 0.1581518854852619 0.4580041989176277 0.007349308045899106
0.31399386424421005 0.15240053360148428 0.47289838300170617 0.007844822245971888
0.3003835816734872 0.12349023835693641 0.5259752630855644 0.04017129745719655
0.3169757536548693 0.1483260312282567 0.5470071490937345 0.09122809952565124
0.3080975105481877 0.1386116559542003 0.5178395065265918 0.0573610316988073
0.3116440083325246 0.13115280226999812 0.5010200080783578 0.0053504355139044335
0.31926018486022306 0.170003046983116 0.5294512443395664 0.013010460549450958
0.3231882904143292 0.16735267519643432 0.5422551374882107 0.13586325061252502
0.3147510458541694 0.1592041920355084 0.502655050708254 0.003933780376263925
0.3230243693965488 0.1728660317759352 0.49950828270348363 0.00203786561641362
0.3184126092215436 0.17447933183072273 0.5250195590629481 0.008579338078486166
0.3216383715199012 0.18018527482433713 0.4769936716765644 0.009663928141048415
0.32101063542246017 0.17754464403146114 0.5492525749940688 0.09118957909167878
0.3239744818937981 0.17677688576588374 0.569533946131546 0.07700136786156074
0.3182966624597978 0.22057913561298498 0.5862380224980579 0.02261175060146764
0.3224703542743635 0.19603516042493718 0.583251986757863 0.018568147609813263
0.32489549123151695 0.22994306638459577 0.5672255775617204 0.019580165353362954
0.3289207476997656 0.2869383840496176 0.5668191868999828 0.01023303422502186
0.32536324003861683 0.3310196774709756 0.5793169090850773 0.06137080128396132
0.32628307429279985 0.2540947373761624 0.5840182015630794 0.01801787559328366
0.318800110725773 0.3104479649624696 0.5763506689773037 0.02673335275612014
0.31658109133622225 0.20899788272093434 0.3473383571311847 0.0001006563281172633
0.3075357725436782 0.20889722560786253 0.3069289379265105 0.0054210391837902746
0.32342787103498755 0.20260103091102 0.40623255890551924 0.003326258977879408
0.3230497783941944 0.18402588887565097 0.4145560172882359 0.016617682925041982
0.3239231745344017 0.1876543784371953 0.47037312024670813 0.009583937613175327
0.3244313735473283 0.18694491749421377 0.4846240244421048 0.005775973075842343
0.31690721865531263 0.22016661561461492 0.3607794911274298 0.0005095355421968742
0.31461602027027774 0.26436233453943575 0.33294887582290017 0.01684046170068323
0.3162016726090601 0.21327291294535008 0.35764022371886883 0.0025870188844003966
0.31215614276784004 0.3207447140626028 0.3412720892223457 0.005598860498234638
0.31361002463986243 0.2902378374743887 0.35425751071875355 0.0027645661049989934
0.31427142017348925 0.3278350325141144 0.3653801295601926 0.019631495306467447
0.3205367977196811 0.28133756908119506 0.37523332954085675 0.021027388147969717
0.31871525942653245 0.31375818083930407 0.3718573145501336 0.0021539428352290793
0.3281667595006141 0.25138404228808403 0.360136790974759 0.007722656263689339
0.3142126557686978 0.30974622838429855 0.3600013679169575 0.0036627115710317465
0.31245963873468025 0.2587865068868384 0.3215272534162101 0.007690106670739483
0.31096798134381043 0.34385274223266005 0.326144605991523 0.02420038164656189
0.3158676812861278 0.32096745721752457 0.31484533329763176 0.025059605968172263
0.3063922915820978 0.26517860037788205 0.30350271574483517 0.005295245863507183
0.30804954935140416 0.22074176990322153 0.3106277599396176 0.005228358898106575
0.311555582197186 0.2349382440205169 0.2956058033003311 0.0019165430002344294
0.3096219201570126 0.25289205507806517 0.3123902120338693 0.008630332190317093
0.3148963327375623 0.29282622927635105 0.3174359580673969 0.008977178446797142
0.30607110461683606 0.2554457480536682 0.2888391567679369 0.0007635700303176044
0.29115612059484336 0.3520334810311729 0.26524875553799154 0.035759659243529286
0.31889734950114046 0.3293377955708983 0.28548144567717015 
0.30198506443190526 0.28521230877792253 0.2889147539667808 0.0037698135433293987
0.29918700776196583 0.28020122086354654 0.2681690418633076 0.005559290406656466
0.2979785252554311 0.2698477413793288 0.2573872169706114 0.005395681221289202
0.30208800291667853 0.26143372376115465 0.2695967317519807 0.0006074420513982388
0.3163973415845039 0.2506881381955035 0.4228617706521595 0.005067570668384929
0.32255207203367364 0.2178084545221753 0.43396883846790735 0.003381192130893825
0.3160965671254431 0.27829956997533917 0.43823518395256916 0.012773963976990954
0.3242210148668796 0.30935676040617005 0.42916580195391324 0.022771292092002723
0.3109171442954554 0.34854278761002744 0.42287052514404544 0.10678359561832959
0.3200001415876166 0.23432444007975395 0.4484425589786103 0.005862707449671528
0.32865240015050046 0.3325010904130568 0.4565615887512818 0.03241882185205245
0.3242163486184072 0.3144912948735116 0.4270605344035923 0.03271853845169894
0.3172085757925146 0.293549441524008 0.448009784228784 0.009688025912160059
0.32556835006688195 0.33013006302544073 0.4317158941147038 0.03155766412584885
0.32461395251607805 0.2557484822264947 0.4567618510980754 0.003128867710302633
0.3132858937639697 0.3462016221804687 0.4378727096808502 0.05910513950831588
0.3277023649727647 0.2071564510333002 0.4382257765512797 0.002474522363940561
0.32611167548486464 0.34379524820458496 0.45639048697932494 0.028624006273704025
0.32109250166745357 0.2604483075463958 0.4321473620213832 0.0030931663704627144
0.3224649475917344 0.31615211295081874 0.44907214305184984 0.016909785523800024
0.31045385659073177 0.2308842274223908 0.38920702119845363 0.01589584191638201
0.3183899877260039 0.3262810642973889 0.3775881977309698 0.02137527556747104
0.31497637596170674 0.2679484047107469 0.39052505427319806 0.024482526619428176
0.31082490112860883 0.2769386772407853 0.40609473589045386 0.005129344671319757
0.3172399071025296 0.24495354511573483 0.40930488080705146 0.006851054272121337
0.3178424338612534 0.3123969559164963 0.39498856268596105 0.011434710380595613
0.31563058961648843 0.2539493518654085 0.4076532738699043 0.010056213194165392
0.32011507954568175 0.3207429020829655 0.4126156327196902 0.03922138075625735
0.3212323804695806 0.3537108101790103 0.397096187417664 0.0296715840792069
0.3216941291693365 0.28637391844320254 0.5931274297294037 0.014483935075174913
0.3270566691814315 0.2511783413370173 0.5917377563786109 0.010285701468414178
0.3252598121073858 0.20495464204149805 0.5179737256257354 0.002545908861565512
0.3254539757586061 0.2463691914659717 0.5022005106701233 0.001662065225275974
0.3257935139678663 0.21559633458939215 0.5196595164231554 0.0017267769741480098
0.3243590420052633 0.3269834191614491 0.5051787850086452 0.012622275543064316
0.3178574391396646 0.33336498742077403 0.5139023391721781 0.063862779604684
0.3217148796198321 0.2455894017844967 0.5231996146169084 0.0073272627776523325
0.3232753527343832 0.328027615629478 0.5070027383811249 0.013263159515975518
0.3201460282377651 0.2642499306083208 0.5177484969066772 0.00703842505331513
0.32533471243865797 0.2951869898252607 0.5150151540736322 0.008140756929930505
0.32146164819357137 0.24474509269080388 0.5301200786217122 0.007433154831985166
0.32322095550357516 0.19747614682872452 0.5513831615112943 0.003247937687054287
0.32989816089071555 0.3107329140792766 0.534795084635688 0.007424576576979364
0.3232965553317593 0.22215172732020066 0.5461756678939608 0.006950614517076725
0.3207428005108371 0.3337985001160043 0.4867252439401961 0.0580466962949106
0.32030107160550564 0.31286785281334695 0.4870671047741295 0.018189598096864584
0.32168195196136307 0.279345925569877 0.5016672013403582 0.005074569358918664
0.3214071805490103 0.3297756519518941 0.483881122102396 0.049578249286392144
0.3154414524511917 0.29566630619780776 0.4760167222406105 0.003586957512351514
0.32620595330355656 0.33242297808449484 0.5546990617347075 0.055672483985877916
0.3238480352306792 0.278305846337363 0.5363518416127575 0.006633086006962411
0.31830374969644726 0.2665376860018153 0.5472668416617655 0.0059295925590251404
0.3164028801488977 0.24649097964803998 0.5497281425536121 0.003977700311915319
0.32632022656580284 0.2923539863371706 0.5371958411103743 0.007688061704021977
0.3254789199731755 0.32333621267852397 0.5619671976987046 0.015128335357939922
0.32350950190020156 0.3505060676859382 0.5656512126458537 0.025436354345438793
0.324269296887297 0.22367969925237188 0.45682259250080687 0.005130367854140264
0.3240674287036596 0.25286872701815905 0.4616481084276549 0.005518757999370986
0.32342674918096204 0.2162402880268144 0.450677659970714 0.006676932702171691
0.3208621012054151 0.32374042422402355 0.4701445771302588 0.045284330255607755
0.3234219842669712 0.2017045012603563 0.49555143207206126 0.0013301088795164694
0.3172221778407253 0.2954417594053838 0.465596400652162 0.009284886589157729
0.3233065783461361 0.2214108190082626 0.4907254302145159 0.00028751117108701294
0.2750664952814007 0.2472533903932016 0.6358747433065325 0.05190958227435276
0.2511863269564846 0.2948715128692241 0.6411347303544539 0.0008713086943597406
0.260314272134855 0.2982006555936176 0.640689310098795 0.015161112285608246
0.26366523202726805 0.34058350732952375 0.6396907253235259 0.03715620915645344
0.26229917409740783 0.31216281819045877 0.6384329072843244 0.01842584828761239
0.2722814212463023 0.28160537885725 0.6437408193129053 0.0017277377610578307
0.30170057834386244 0.25714477916247946 0.6202157340235052 0.005627443771118261
0.3043467316414133 0.2725644931072998 0.6168234677550697 0.019397792522803818
0.29539806124926166 0.3291726474946154 0.620883209735235 0.035137380415818896
0.29656211262329474 0.2210882797817002 0.6186337937848345 0.04412876934204915
0.2886534096621669 0.3036083931342942 0.6265638437613472 0.007563533738158888
0.2880914751096379 0.3385314042009102 0.6291294954699247 0.032049634223208064
0.2792035010095609 0.23325195990344766 0.6333937534550678 0.0729281651272033
0.3274520466713803 0.330705187979208 0.6004465993177618 0.046360894595720785
0.32634677120933864 0.33449216908491275 0.6030685044689588 0.053735603929283164
0.31833072169078186 0.23886335276753295 0.6026019735103226 0.010067195194257547
0.31422199027254655 0.22826183471508446 0.5999202533223836 0.02899494194679359
0.3223830521517347 0.2713296280820234 0.5957528009231066 0.020807017940299103
0.31651072704808814 0.2893756523022171 0.6149293216074115 0.015238322355206587
0.30876285152868665 0.3108373257103734 0.6148323722782679 0.04629625792869036
0.3163343023144229 0.27209693371624566 0.6099713701020855 0.010379557216894859
0.3073176701779221 0.28650484537463844 0.6180537038480644 0.02652663874408838
0.30596554865385156 0.23034632082610643 0.6123550489926229 0.01602155946881419
0.2813913497059544 0.3477123648788658 0.19887588240299922 0.0552381344662675
0.30200875856375753 0.33072717533434115 0.23174448289501087 0.02189433109565058
0.28639073071327326 0.3546292560253401 0.22862512631132292 0.05548102910316763
0.3029896127541243 0.30790592001490935 0.25539081406693875 0.0001599143334301881
0.2867053255217292 0.32841117959155025 0.19895550228776535 0.025040390080899484
0.30009169049795575 0.3175806280049511 0.2356515428630155 0.011412526019404467
0.28714906409180285 0.30057719558999896 0.20460825699956964 0.0016328724539705069
0.29557142220460453 0.2690954356663765 0.21898166494232563 8.328740520685238e-15
0.29127344287590246 0.2409916111789318 0.23442637053758827 0.003842779861674874
0.29265314716705976 0.22371434177232244 0.2523061316791818 0.001159404772104991
0.2857802961063292 0.30645468230056383 0.2026731114946538 0.0016816143324235651
0.2912098861980328 0.22357847617728785 0.24088903957155225 0.0029205108656373937
0.28311960146836623 0.23159425430228045 0.207918726336928 0.009641036512120801
0.281898644981838 0.23597311563550138 0.18223629230279875 0.00083461446747975
0.26708687500684786 0.2824299421314781 0.12963354366036298 1.544441118048565e-07
0.2713258412176126 0.28164447310865337 0.15584637963800838 0.00298276342501354
0.27264458271725034 0.2797015570020878 0.16126142118685396 0.002036262309356614
0.28361149711813144 0.2920584684806035 0.18428936802978513 0.0015578693360850293
0.28587512787796315 0.34278584022885245 0.18169184428116858 0.011435060582169018
0.28128550204775865 0.32513105494112265 0.159621189100895 0.03695423072983745
0.27593342132345944 0.3456795035984113 0.1501974832461383 0.013240957119066426
0.2803044257203708 0.2912021352499239 0.17509293296873785 0.0028479337084259633
0.2719719491787078 0.25299043095965057 0.15113413293599398 0.0012228247857630106
0.2780388294669024 0.24215851444197736 0.16799213795485776 0.00017559200724787767
0.257980602188592 0.34675198570502813 0.1061870330677112 0.08279764031257197
0.26281711026250765 0.34370103008714253 0.12214994075513347 0.006800190005043174
0.25764255839590766 0.31160160815260357 0.09241415505734013 
0.25251284396586293 0.28291669476564363 0.07407413033598617 
0.26346564846680265 0.2514859177329072 0.1132656389218118 0.0013414946230223591
0.2680524261471294 0.22397203822726428 0.13605148890425667 0.006938426125871648
0.25497058229165426 0.22210078831488672 0.10790842030875496 0.010001588997887369
0.2962057715909803 0.2189378302094139 0.27125832284327617 0.000918150695233633
0.28979067726780783 0.22076073643453556 0.2255874030935004 0.002889795876138514
0.26489156717871354 0.19168635319492797 0.17064576279215174 0.0004240960361894212
0.30324420883407943 0.19780381043439024 0.29644437284077635 0.002451771534169625
0.2910435094549434 0.20832530486348713 0.2501433458572555 0.00038268194005662646
0.28921881725480025 0.17007627390265603 0.28308690454904606 0.004170926049243532
0.28446964352678145 0.2119523105137622 0.18969391185039897 0.0023115003332256604
0.27420251719697436 0.19739425184211892 0.19694059574441913 0.020326010841879953
0.290539005652559 0.19943181000640592 0.23453084935887547 0.00010511371444401874
0.2784367578444691 0.1420536976789016 0.2758388460317842 0.01811082434862358
0.2629943140826029 0.1928136017574928 0.15887570640135554 0.004850405205413545
0.26256159419271496 0.18521539161295705 0.17526154585863618 0.0003964426757931849
0.2720053653470833 0.13593720897379258 0.2669339817696595 0.010135550979363457
0.28820034398728206 0.15680418010539202 0.2470596504802239 -8.669453400881334e-15
0.2624934923896413 0.11989303199840401 0.273015648208742 0.0009143080935475502
0.24184735733136545 0.3230772258548528 0.042326051516119095 
0.2458109361943036 0.34072282525496467 0.04807191739308736 -2.4005093772861298e-14
0.2648665920232506 0.20780169604372942 0.12457217618792593 0.00012896852163172987
0.2419718460776367 0.25815815709120393 0.05527487334347967 -3.407834952839591e-15
0.24390344211625903 0.2422108460437859 0.051684859802003685 
0.2397170046912962 0.22321099581669088 0.0665339718480806 
0.2261005000768399 0.33546922785250455 0.007234463695168577 -9.334316268167779e-14
0.2248672015758925 0.34037751950621475 0.009777503832246442 0.00011340381016769531
0.2212193171715925 0.26694182241321546 0.009111778633428323 
0.21604953496315454 0.23894091151849323 -0.0030685753265626003 
0.2568186970745981 0.18647072627059186 0.14838655593253675 0.0001270565180069158
0.2538454248176217 0.17696518069868344 0.16273774514937975 0.00039555754915054865
0.253406875368675 0.1492086211324812 0.19591398862205056 0.0025420669279951715
0.24260347653442044 0.11322502497268243 0.23612374807810976 -1.1451438883818748e-17
0.235315087376024 0.11809704758356546 0.2100735934528961 0.00032519151462006137
0.23241464926318586 0.12019877428529768 0.2006415977916785 0.0030190298738819255
0.2287289301436396 0.15353869351587562 0.1395695931852029 -8.443062263357014e-16
0.24096308462528868 0.13663385301617223 0.1850480357534377 0.000415413010598605
0.22897836330877183 0.09366925377641895 0.23991023814811865 0.0026652831800897045
0.2491655314672438 0.16856155451361057 0.16866020688443556 0.0021085941540800236
0.2294494596888724 0.1612468734519972 0.12316466269656605 3.4217493706023954e-05
0.21201535822695008 0.16286354394256014 0.1033052736371411 0.0023210476865295113
0.21939092080571956 0.14376391839727692 0.14114411318032613 1.88623799401851e-15
0.19811048895655928 0.11752274767634303 0.15338259614066874 -9.324392546544087e-15
0.20487416344120027 0.111880652726859 0.17650016450773418 4.62228246410074e-15
0.1839172764790515 0.10903729383079619 0.17000167627232488 1.9526873636104486e-06
0.1558256047943286 0.09703898020099311 0.16694612554881655 0.001470869108842961
0.19503070018604565 0.15909435536938005 0.08514496905624985 0.000472250163840097
0.1687228962234017 0.1492722344080475 0.08088464328169218 0.009215387103637392
0.21641286339547824 0.1883546152017443 0.06206715798031062 
0.23861724226296144 0.18670574872715082 0.10732310837833045 0.0003826447722665806
0.18077671412005714 0.15315510322544387 0.08389287894041032 0.0017540578335905437
0.19170654200302734 0.17232596809448414 0.06260688567139219 0.001896708361894017
0.18588317965874113 0.1981819392554464 0.004087959171800267 3.478314304252226e-14
0.17001821800430414 0.1649140714640304 0.04794742847399481 0.00036477600620151573
0.1628847619702326 0.18653483184725864 0.010637941510067056 6.969939632002029e-16
0.16801792224697773 0.19236794175222538 -0.0035875734698879768 1.9155723563491956e-15
0.2506019749093 0.0956781505916521 0.2820784651527329 0.0046592978048590975
0.2218933174726797 0.07741315250057826 0.2648173798030125 1.0116648401520466e-14
0.23522407290841327 0.0825580792277428 0.2661458319671307 0.001263026642491994
0.2023797860853831 0.08467104969641152 0.2240089280000032 
0.1921810818415501 0.08633648958705922 0.21503118953585726 
0.1744398772342604 0.09327612353991738 0.19667039224329994 0.01026450038461173
0.17367371601164786 0.06623002094416892 0.24610739169286566 -8.106083073428403e-15
0.14483348284280667 0.13049686519244066 0.11818643436304373 
0.14179733118410423 0.14962647739370072 0.07541936442159095 
0.13195109459196697 0.1378848614762855 0.11510958949610182 
0.12600410784242724 0.1079953886134817 0.17009262240841042 -1.3716803166280022e-14
0.13280762320930248 0.1122199020451161 0.16020453193754008 -1.1364987482516068e-15
0.11289709864001216 0.1502529962327414 0.10767635459785703 
0.10003691123429206 0.13201523850796507 0.142335425090488 
0.11002476876136515 0.11244809397575381 0.17580283359975407 
0.14048539460993775 0.17132306146369747 0.04092347904500607 
0.09623371409095617 0.2315345641624081 0.02226918949070393 
0.09112845208837361 0.2666546966860249 0.002977503299977969 
0.09280561196250611 0.33675683943986795 0.01444095304509852 0.0014480243695590448
0.14816125947262043 0.18989757385814093 0.008231441843502163 0.017259420942965512
0.11282500999909623 0.2028589291861734 0.011065074749900055 
0.1527361360821218 0.08556182693780999 0.20163514580936237 -2.710341234341094e-15
0.133773096614312 0.0697725808166204 0.2430488618947882 0.0038016391059919508
0.13789270095494535 0.08531121897477921 0.20865207688697612 -1.786600223450756e-15
0.09297793422691442 0.08524097014976048 0.23863298646508369 
0.07713432782606874 0.34492777741461 0.055274395221743045 0.0042721186720397555
0.0889823062946521 0.3486531136959142 0.027794335872177903 0.02002128610472152
0.06095211381860023 0.22368453512576084 0.10402073760833841 
0.05222672596369659 0.34641797086374576 0.15020237889712032 0.02811270135459415
0.04128650343987331 0.3344295040538318 0.15342742114664673 1.864600755996208e-14
0.03615015812278663 0.3426356746716084 0.1897588114306879 0.01911255752174949
0.04757768305271538 0.19889275853273541 0.16710211677185746 
0.07520759965200137 0.1276540646044887 0.2014739360518758 
0.08095013052859037 0.09741875880166348 0.24413870154476294 -5.721442682834547e-16
0.2252896867331833 0.2974964751355836 -0.008168765486581303 
0.16836207720232543 0.3610914122367987 -0.004785170401466987 
0.05763995973198678 0.3505704430167118 0.28946205312731077 0.006812411934281372
0.003234510536496576 0.3561687377014303 0.4302048907331111 0.0002548987639543552
0.03965976098858394 0.35364905466535557 0.33240747048570474 0.01120053209454817
0.03331651753882032 0.35184208252837323 0.37026337477054494 0.009170033450880896
-0.008078328048571136 0.3570633388439396 0.44037006718069427 -6.09899737901422e-14
0.03002070247741837 0.3507803859568012 0.3811543341248374 0.010399439483869425
0.03023796264705613 0.35481619164345335 0.314318164267249 0.006342192100995032
0.006201466620046123 0.3510784905116746 0.3788749471657424 0.012053594268219557
0.05611158981203246 0.3581783530789989 0.2754761086474579 0.010387729341094339
0.1099476480677331 0.35109914222709676 0.10544866485754134 0.00867661258631636
0.01905485723135428 0.3588307848481995 0.3477296917521233 0.00013169535853838356
0.039783020820763695 0.35452028551070197 0.3006088354870681 0.009912706595007868
0.08433689722609135 0.3602601409227222 0.18105695254930002 0.0018393086627108044
0.07213023918812317 0.35457160634561596 0.2565621895443178 0.005740017744265843
0.061713009440704826 0.34983669419214225 0.3121607768318122 0.010951992844959721
0.07938533807667296 0.35735851603061974 0.23859232870877636 0.006058333582800639
0.1333328882817466 0.35469084949678537 0.06952690334959279 0.004662764759269918
0.0954588855152758 0.3532988851703065 0.20446828007485993 0.0058645522811334476
0.0028532249865587 0.35273258375493494 0.4884320047188533 0.00694184121948584
0.012623112266239776 0.35374247533837655 0.45034063003415725 0.005668335161550447
-0.004040446803690393 0.34451276392539765 0.522270147880696 0.024371909360218606
0.051902859779079887 0.35351645017981687 0.35638162462978434 0.011238020225272557
0.011776875834747355 0.3504991362200585 0.52501183815266 0.024146337512935757
0.06977473866986343 0.36088468826900927 0.3457402803290749 0.0014012324250563162
-0.006234983572253506 0.3537922444419593 0.5511154520922994 0.00027797302163347386
0.04151353747748812 0.3556863036751641 0.383450394517621 0.0018073960620886233
0.024141906107430538 0.35100520221030357 0.49831112487591134 0.016077837038253922
0.03795578610596165 0.3645887593148385 0.42298332120086796 0.0007395919513139729
0.024244210898310393 0.3534666738890545 0.45537623620921763 0.003918935022530419
0.10995614623109742 0.3500648106553646 0.16577606602872277 0.0023194169387625286
0.05734702781256064 0.3515675795978478 0.37235505851142237 0.006515367931718483
0.022342566758197423 0.34951445962189104 0.5031915437809258 0.017574383357972834
0.0021234716078075873 0.3605099275188815 0.5903603550918485 0.06132588390891652
0.0886823287216748 0.3566811341497332 0.29761519707074274 0.004838842201620994
0.03256554134164001 0.3580742246122476 0.46871839713471236 0.0008433636692620831
0.013965808918849184 0.353943918283342 0.5833581845088852 0.07074859297136109
0.11325666270096199 0.35984397762825554 0.2237089119204147 0.001445233550203616
0.027623552602124717 0.3549384403025023 0.5404662990363986 0.004086838991278621
0.07175928316595824 0.3553978455398296 0.3896727519069602 0.0043846539244964105
0.12810009747600645 0.34885127576035146 0.1258606174771531 0.006051936910464059
0.08986646837297912 0.3533992553281736 0.24407275917039994 0.008169494571825784
0.027094082366356267 0.3548928354885667 0.6039110133204826 0.05967634954744205
0.08347834985982445 0.35144823390637675 0.31510566859580025 0.01189220873904669
0.037580417672012374 0.3509037343210113 0.5231461068834962 0.003526550406020564
0.07297030589322365 0.3545145231298532 0.43493703197431555 0.011009900067179383
0.02582878353057741 0.34896683562817843 0.5134856846883454 0.007420751371377387
0.09231043360074918 0.3533087006157312 0.3789306169016348 0.006965752203099221
0.059869199409422064 0.35474407680151426 0.5007975581475144 0.0012090375889338056
0.05028492079615859 0.35212479354852955 0.5457924340869496 0.002981632452196105
0.04831559158600488 0.354260762408138 0.573860227888189 0.0007645000527583948
0.032261126707606266 0.35235394209124205 0.6028850040967915 0.06968714279029604
0.12293728176263301 0.3494893203633433 0.16483393727258266 0.008450322546781358
0.06354902087666202 0.35364299210314204 0.47738498881514024 0.0055146720610262335
0.06531333194428345 0.3513374436078747 0.4443385603280647 0.0051737573266930565
0.03279214831547668 0.34990666643120044 0.6189526327360166 0.08192745404682
0.03943190954370082 0.3513171317556662 0.5613823004203343 0.0016648243437442146
0.07949442282970387 0.35695976769317084 0.4664901057847796 0.005302355952225421
0.06554060707547062 0.35099728806002106 0.5549491569726871 0.00251954111894207
0.1240316476083904 0.3543761349461442 0.19365801765813187 0.004339459292645192
0.08175313047855771 0.3494811056062147 0.5737767451143876 0.0017705754631015696
0.11585419581190991 0.35363105670525247 0.25116390071702277 0.005327203855103528
0.07737161362228656 0.3485409650688747 0.5433188779028395 0.0015874169389162097
0.11067192452156815 0.3509784545144527 0.32406830454113406 0.006381774551452421
0.14699873695088655 0.35380393761130396 0.11201375139911543 0.005352784068222092
0.1066596287829194 0.3566334751628195 0.3657357890257104 0.006856057269277353
0.06387349162174379 0.3526096862217389 0.5156697738347662 0.002340162815950662
0.14296674765550324 0.3567476642824671 0.08829385333242161 0.0041287093822472915
0.053092238142489444 0.3516259478935091 0.5951560539868868 0.03472876555510616
0.08489385350820691 0.35109470668110376 0.5286391674334242 0.0038157369192328206
0.09695114405238295 0.3546082789943169 0.37255549822329426 0.009740238210412033
0.1045562196111344 0.3475888546195234 0.39928998075120387 0.0035198429367754233
0.09363904093410574 0.3537299063845463 0.4339688835193301 0.002399238126332794
0.08396121581323793 0.3520380013033293 0.48929459980217443 0.0021468055814001514
0.088413227957652 0.3512735340005733 0.5370064145565528 0.0027771505825131414
0.10268458268494605 0.3515880788260535 0.33557335230103813 0.005347643167539669
0.11252824960283139 0.350638257298834 0.29115137273572 0.009754893804575978
0.1169969442552906 0.35020392628842384 0.4240971689348019 0.004508458740632085
0.10926788718239772 0.35009996229826257 0.3849284128052334 0.0058317924173388195
0.10076622109586904 0.35473367316310567 0.5158546317518535 0.006281174912751182
0.12026180820831314 0.3543422272748215 0.37410378736871264 0.00749250267013255
0.1147188578335653 0.35638610721934266 0.4729656287660111 0.011711958185844352
0.09441526011633017 0.34793095715763706 0.6344296187769395 0.024524050003062958
0.08584912925194542 0.3598652491831748 0.6184051415200372 0.004390140247347725
0.12036767238155234 0.35427143717410686 0.2992274942155723 0.013670024438825368
0.10478758851791851 0.35520123262553194 0.525374161643912 0.006695551570730086
0.13811973010031167 0.3522358384965817 0.19884956687650626 0.008014453956539123
0.0885995488846443 0.3512755840477028 0.5731847921607178 0.002005097151921318
0.13362026717387876 0.35205480637684095 0.22982349545701275 0.00470934648845103
0.12389364476253731 0.35173937424400636 0.34799244399497925 0.005873397565668216
0.14590084727140756 0.35548710752365414 0.14874854958176748 0.0037755954543043503
0.1545881140149373 0.3560340080130606 0.15959157687633588 0.0002479134268015777
0.12440672329397506 0.3496081433052227 0.4042910442164935 0.0024806513258966607
0.14485029458457377 0.35124570604361843 0.22212731747132966 0.012821522259419014
0.10742353955508743 0.35110365166073915 0.5477288963219209 0.002190095340090422
0.12649927740473926 0.3534475519312819 0.381356849540718 0.007318353082087742
0.13764985644673092 0.35731645641020715 0.299276796227461 0.007520929185788611
0.12109107187313678 0.35122177857556175 0.4298493465203469 0.005750774747662432
0.1039483570599274 0.3522280813717336 0.5657918348663169 0.0024008872472683182
0.12875939959579508 0.3513240464727581 0.2613847219795278 0.005124560495123837
0.12574581641409832 0.34703240345206754 0.6335229175569375 0.03507804055190654
0.10903289802738274 0.35965158417579596 0.48062505771085096 0.006143575467387084
0.12392726069442159 0.3504312705033656 0.41831774159502483 0.003931623590882468
0.13353628015730698 0.35822660111512306 0.301545383677712 0.010490571623639639
0.13850375986470947 0.34915717029830967 0.24211922237996275 0.0034115532998371767
0.11053572442192428 0.3503158072361636 0.4454596477040746 0.002437326309789077
0.12736093955278988 0.3516088622562775 0.4507428297967698 0.004247173253587769
0.15197292338160176 0.35647953489752404 0.1095878436667498 0.004716178892319301
0.1195179909318067 0.3572544727025088 0.520626852402205 0.006599562508442357
0.1338892584131919 0.35905972695536237 0.6112345606689116 0.022629286274112287
0.10410112853492812 0.35315429434887374 0.5918045247104091 0.0068513041453814325
0.1515791772770236 0.3578172084083392 0.059906869718109566 0.0009154195079266158
0.11446323402997391 0.3537052856726529 0.6226676877419915 0.02635517689656954
0.13253607532229342 0.34965353320941617 0.34479120757839427 0.00339401453724651
0.12977574893847907 0.3508306983927515 0.5004989127950763 0.0020596077071999147
0.13913823670786918 0.3521938998383478 0.32037324822450214 0.006823660175630983
0.13844191973551245 0.35532077310499394 0.5279543467373767 0.007661652131078923
0.14719951839978954 0.3545645045112061 0.5763386148686868 0.006858355720521204
0.142781737719762 0.35525449182631946 0.46569564872794245 0.011675506301288028
0.15421941472784131 0.347757811737861 0.23496916251049754 0.0035957212709436656
0.15067440774086305 0.35400726481032085 0.4006714700500308 0.006101556166600143
0.1602118620006433 0.35115983223656605 0.32134122602437937 0.010968290794339506
0.1519122177667332 0.35582699898754994 0.44143068504912447 0.0037282630663509333
0.15131895336972934 0.34624390564291485 0.6385650945234338 0.06355131135674356
0.13400697565200553 0.3539132355620532 0.41356989769164854 0.002341231140067568
0.13684363115728806 0.3511507399952803 0.6336141567777477 0.03591930802388264
0.14517051833010344 0.35442517556220837 0.5643397130149159 0.0022527780556788842
0.14849252702757765 0.34887843341960356 0.27287574548163224 0.0017941371025847462
0.15732120524798276 0.3553600036415519 0.6253782609114963 0.013178771625712078
0.13447676771794018 0.3584844539847181 0.5890730871941381 0.004702145483092869
0.1425491465803618 0.35601697618036154 0.46436684917033094 0.011671391083720445
0.1540665121997921 0.34915932560623714 0.18429401669493856 0.004317676837260398
0.13431982712732624 0.3593599711402612 0.5555274283262123 0.0064811109349644696
0.15722586037665562 0.3513977884535426 0.5186107555915546 0.016689014059909718
0.15269591901681365 0.3529510045289794 0.5485958915293188 0.0019525003301519616
0.1446934949066359 0.3510188783362094 0.36025889050578425 0.010147759829002883
0.129667534695187 0.3559389685784648 0.5464712536564023 0.00785621621430445
0.1553062504052101 0.35002523008390046 0.2243365653675493 0.007109005054988788
0.16223874994063245 0.36086418878874704 0.6097639392881162 0.028502699867145275
0.17383583441545034 0.35157563742170894 0.26586303092284513 0.0028502207124241107
0.17605113446602685 0.34625545798532953 0.5619563293217364 0.010217784624323375
0.16313347027436736 0.3531067216730844 0.4706158926447764 0.007107122554291078
0.16567645685235152 0.3617199472067881 0.4195620558486123 0.010754478987890075
0.1682452816065439 0.35248177136136394 0.28180465829441265 0.009941365023095849
0.17144541562965518 0.3592213725647216 0.49960401222900974 0.009884150132096049
0.16004149374926088 0.35619234652508247 0.3493450051430218 0.0010743038805839976
0.17904450965570243 0.36179273267303924 0.47200101975965564 0.006236629677948762
0.1705514967892835 0.346780873296642 0.5759733106873074 0.015722022745241072
0.17830378255738763 0.3534664877352873 0.6374674830152631 0.03061437703963429
0.17663441453808157 0.35941727133384976 0.452136280688985 0.006542502355669269
0.16541361405448907 0.34844870852998444 0.2495018049644191 0.0034178920952528074
0.18632708416431204 0.35719423962845936 0.6168321766098813 0.021763477932639216
0.15904643096560214 0.353134327745374 0.20933129921608273 0.006902660786366615
0.1750590502902475 0.35157904526476363 0.3341771969504043 0.00862571351024229
0.18275962411665686 0.3478618633406308 0.5909363245295101 0.01008225240143966
0.19254460571810433 0.34734031539275784 0.5857618829616503 0.008250275076344874
0.17212358674853107 0.3475787056391984 0.5330973603014387 0.006473034577249731
0.18173578135827637 0.34964605173895613 0.3143746227759096 0.00037377053745263106
0.17856248657499185 0.35557773058434317 0.23434132830916063 0.003766868062693162
0.19760428597136234 0.35230549432390285 0.6287292405887717 0.05466679745633569
0.21399096073493876 0.35276614372225323 0.5697880070571445 0.006957211331212258
0.18300483391144112 0.3574630354286654 0.4114706846173574 0.01671527552246329
0.19372095692389288 0.35535660070937936 0.546171722210201 0.005994902955025308
0.21316688079760468 0.34817074863688746 0.6329474926408128 0.026369418334883356
0.1643780361194149 0.3601936741699915 0.021907519966432528 0.01352977850733583
0.2187480697942919 0.35225417245577373 0.5747490484129772 0.00819015422894042
0.2050602914411437 0.36001382998289233 0.5163613488123895 0.007510903307219903
0.1800357413461203 0.35646851980967137 0.3840506374042147 0.0023007488651564834
0.20123843089311252 0.35969944079947935 0.6119599459611069 0.019720170000952466
0.1908059097168638 0.3536572821564835 0.3765741612049259 0.004315023813570321
0.1970142768777991 0.3490061483384028 0.5591196456250374 0.004720389778373121
0.19499829313120567 0.3541681861813538 0.29896616816837757 0.004474586653199819
0.20506482129911405 0.34900013535300384 0.5832480539324151 0.013659216307414936
0.19641702563591618 0.3551481602067028 0.48483629128560274 0.011130988563738566
0.1720759397510727 0.35165021745890884 0.17950599261313316 0.003106304686772552
0.2015029399100603 0.34820176457890606 0.4222721805103043 0.007050395816140048
0.20290421829275612 0.35694173750767766 0.46514059726395707 0.0033209265179891343
0.19953572923521723 0.3495738825288058 0.3586502784259098 0.0048547366733500165
0.17484950886666692 0.35564437351176176 0.10138406504664459 0.0023295443475807517
0.21209450718100256 0.35287723153585576 0.488392049115331 0.005815561399683567
0.2274312382612708 0.35499347898645905 0.5418502112842118 0.01032846916020356
0.2284314311064565 0.3599265688102589 0.5610408024193198 0.004707125924233813
0.213351977527137 0.351404432951059 0.37723495398549217 0.005647669424987758
0.216354710933082 0.3541994129041027 0.609092706188662 0.015577167250946567
0.22393099684517795 0.35211698780560846 0.4828229546260553 0.003839601593937593
0.21636405272859346 0.35493028173726004 0.5612298858489604 0.008449121973224161
0.21717660917227777 0.3570860538286837 0.45493130673828636 0.01829540935250656
0.2266049866735555 0.3549532835403148 0.5289761857735468 0.008176914497703499
0.20296287151225886 0.35575712683809835 0.32654833393993354 0.004449290254796659
0.22417262079392025 0.3542197182619313 0.5869350007378714 0.013622611585287112
0.22012235138619424 0.3553839606857608 0.40315531308552255 0.013846401479303282
0.21500950063837243 0.35200402501258066 0.34967352885427194 0.006551853919628475
0.24063368057441148 0.3507484800066363 0.6223671110653483 0.012285298760313569
0.19134861799203437 0.3548773051278093 0.2711645550102527 0.0050964647170341085
0.2525078213858316 0.35165277018569124 0.6283205048000606 0.011627867524221203
0.2462422700764357 0.3556136141469499 0.5646815914318586 0.008752236716892755
0.18642622459294886 0.35647562751482775 0.1563321392235014 0.0033670178151823807
0.24437211110674617 0.35523734749194963 0.5165280844655764 0.0019609223310625753
0.19986279179754535 0.351341436366231 0.21033408869638956 0.004141029783880576
0.2375066618536382 0.35239385309854976 0.4796512649907597 0.004167796833876977
0.2544439653632695 0.3526203337857096 0.4975906883928997 0.0020467514472251435
0.2358029691224159 0.3617282888519697 0.43669378543669773 0.008820691642270258
0.2218639831527433 0.35661478438684874 0.34217198035656626 0.004131723919645841
0.20193024666952925 0.35544812465424025 0.2496175956271269 0.008311967736844915
0.2604263265377787 0.35337996429652324 0.5946146494462503 0.008400046887647875
0.2608445319353373 0.34964802780468196 0.6262360031189226 0.0856695358922591
0.24936492371602012 0.3562139531373794 0.6199950088356947 0.006076850028547733
0.2809264621980447 0.35803001534667755 0.5856925537796052 0.007930081452312613
0.2754926147308277 0.34695185863841743 0.6110836126628664 0.038986268589301376
0.2783305672879497 0.35979982237408925 0.5694042982233802 0.004115188095886598
0.23259121934305407 0.3515822059409683 0.45365857747123184 0.003668578479006796
0.22996581961376397 0.35284879865121366 0.3490590881528286 0.004685471839063886
0.22342786628971678 0.3545767943725176 0.3599251901426094 0.003581951813558481
0.2512737536344807 0.3494137135849743 0.46520908111721054 0.004935171191687643
0.2849608802179024 0.34728169932472663 0.6249794345236698 0.05890068104202247
0.232485081749036 0.3510799120088515 0.4055860098548458 0.012800620144492922
0.22212919044058702 0.3490922627036848 0.23693475382101925 0.003867060690207949
0.2721568075437446 0.35174236189129343 0.537555233914221 0.00594848339610281
0.2580364872609626 0.3537091409586896 0.5689356561902131 0.010303518514601337
0.19232807074345687 0.355395817705508 0.11079427946504787 0.0004138553153703787
0.21346849671406148 0.3552575477235022 0.21428590233713846 0.01451459815057562
0.23193703775206473 0.3553555735706137 0.3375725342153429 0.0049292142506933805
0.2603822988996614 0.35262664948100136 0.4151491306808983 0.004331626931894656
0.2722062906211605 0.3512151883784475 0.4820147157933763 0.0030116244296699277
0.23104093054858002 0.3522512173361459 0.31467970507146414 0.0076177642548828995
0.2477639437054049 0.35419604120435727 0.3764158297475053 0.0027245794326432467
0.1901414487881744 0.3523919401699366 0.13157092260848816 0.0011695717838035285
0.2215411539313696 0.35022710963742343 0.2968903705143862 0.0014171016868389243
0.21007138838809564 0.35239948143792066 0.1838021164826422 0.0011047793317507841
0.2112669463028946 0.3531958677815343 0.2426999071432042 0.0035743002008864246
0.29259388362015626 0.35782121374029396 0.5354654592384435 0.018904570393890107
0.3112254576843236 0.35553539775856696 0.6092786980231605 0.045110699947156364
0.2850839708662161 0.35048439116193597 0.5145541869414045 0.036596437704175054
0.26415128478067357 0.35562122001604196 0.44832485130666205 0.011762586542015658
0.283164598887039 0.35559003657063626 0.46709042124684 0.006398112769639043
0.2567538552028975 0.35569066557765655 0.34931126636093013 0.0023000802051293223
0.3017024394293509 0.35734099603627484 0.5628531686943525 0.05848923880698433
0.20216379216084707 0.3556954683710811 0.15797028672426774 0.008448209317507466
0.3148815620247157 0.3615714911475505 0.5896328569601329 0.05232074234431981
0.2740166594386059 0.3505670494889898 0.3958652846509668 0.002253306576240737
0.29968697169722164 0.35888958344716754 0.5241679898640592 0.05165971967794603
0.2630626481927738 0.3520446489781081 0.3595175001145794 0.0011858202282565126
0.2608907807295837 0.35040148937561916 0.38427095786650756 0.0023032796966340114
0.24293462566053686 0.34553806080016897 0.28534077016429765 0.006479514684309744
0.2791185789434485 0.35298934063689424 0.4886229114726679 0.009284734468616617
0.2921420292505428 0.35413528661513166 0.4417691067542967 0.005875885674891803
0.18488455825118869 0.3571026762297655 0.08920851259945109 0.0015388106450368462
0.28194747833594447 0.3541284709281983 0.42324795197254134 0.004533078457676597
0.31557878024976005 0.3475783354660992 0.5337823953743513 0.036360866864600286
0.25435384247344606 0.3543518889179146 0.3409521569189731 0.004955443760106215
0.30439034437299484 0.3531792344527265 0.46747385742707853 0.05137292247421721
0.30971130267610186 0.3522005742017968 0.4784180790707824 0.04888231193478084
0.3059238294466351 0.3534902142575799 0.5071514978170123 0.04353474460854318
0.20505897028994574 0.35272871155569846 0.13659161909689538 0.003549148047061017
0.3144342703831544 0.34532928030300925 0.4893625810633056 0.05964134859236384
0.2997963808816943 0.3503339361054397 0.4142856895013378 0.08617002119370205
0.2509298702751128 0.3515091884510616 0.23879818746384257 0.009437698072836936
0.26753073874958155 0.35721648142193524 0.3231965589494257 0.0025917847367600564
0.24206222713865705 0.35117796291389247 0.2474243773121616 0.009168784362197464
0.3044262680280704 0.35460212635292854 0.44710915118684924 0.020279615790420907
0.18103600268789455 0.3540862480072769 0.06872901294326655 0.0026212662987828103
0.23957377079805767 0.34905694064649967 0.2226548563121454 0.004121059762501925
0.30947960297028154 0.34947338222913893 0.413927689517142 0.09166456743932529
0.2998852906057696 0.35321413448756067 0.36869815003864115 0.10473740079453742
0.18724132060511894 0.35387808754816535 0.055075402492617775 0.0027334103597939615
0.3114618220598352 0.35467359029298257 0.3637166532132667 0.035591074051543256
0.26299818980880907 0.34784505859277465 0.2590806268492698 0.015989147045106143
0.3148874907783898 0.3520853545014653 0.3818099807509838 0.04364321127792508
0.19556975802004048 0.35424789810639584 0.1060355554875318 0.00019027548169935833
0.2787304037187836 0.35994087131330715 0.2894098191976603 0.022845410734884067
0.24928466161622084 0.35996513125814683 0.2025006717937498 0.014501156633656127
0.22246034749160612 0.35436944345790755 0.11578195171004876 0.007207884394927844
0.30950511704728406 0.3488404496839602 0.34413535558767705 0.04230647927713919
0.311433357845339 0.3471340042569185 0.35680942081742695 0.02950500633225802
0.2809978781377719 0.3563541409253006 0.2534011876244251 0.05378956208921183
