x y z curv
0.060898390915552755 4.545859553864918 1.8035093169053393 0.007971646820356297
0.1226359087111943 4.551300969556379 1.7996370425194164 0.006683147237850714
0.08445887573518775 4.54308946939157 1.7863774680146183 0.005478987835818788
0.12216890326985007 4.552117570266044 1.7817577611950914 0.005457438970155099
0.06405615635046598 4.544624679294487 1.798400183112325 0.01254012729368333
0.03539020628994064 4.5473042486727175 1.799535092502403 0.048776384778756766
0.022840587475957158 4.5467224685160375 1.7936920640183518 0.06598664372571088
0.016898660909349276 4.551151723633796 1.7677063441696486 0.04527414158642297
0.14219221220441924 4.55185357873253 1.7924953369490615 0.0010599190604388211
0.16029223850122937 4.548703134253537 1.7841865254333449 0.0011724783794455494
0.2011259742015535 4.554387232316909 1.7864903354467518 0.004152871177477987
0.08130428121295147 4.546468956132513 1.772693725794862 0.003921850999176736
0.056826503541415725 4.543931507694346 1.7708667048414484 0.007263784191375513
0.2681560576284623 4.549597801531659 1.7908310564434158 0.01109230228442905
0.22923118748682622 4.545466164342576 1.8082963047785263 0.0034275532513534995
0.17314493833161643 4.54634658975123 1.8463284361219774 0.007880923065286646
0.29183136596872805 4.559534534514332 1.817299767831667 0.001109761389503046
0.3444975778716905 4.550289187474058 1.8544912967661074 0.005045480659359373
0.31078572141335215 4.549672132834605 1.8225494931268449 0.0048054637076665515
0.3434188767657197 4.546852328404881 1.8235969774902814 0.006988548577474308
0.048956431018394204 4.553545215777144 1.8542113929329875 0.006726781966615632
0.2654248515989936 4.5473514063073575 1.85453960291971 0.003885832018115875
0.358563656410803 4.543594241253143 1.8268374217825532 0.03207719832395301
0.32223104138168074 4.5478574615109375 1.8322918963623493 0.010911516030772969
0.09289732411881348 4.55236795224845 1.8554670555254016 0.0014796788823280248
0.1944533157538925 4.548029776605019 1.8479557902983146 0.0024702271162105054
0.23750327738756624 4.547021679098652 1.8281929270797375 0.005711978180469258
0.2623379023420456 4.547389371591439 1.823925903458711 0.008449228875661217
0.3256246812454123 4.544881964025319 1.8619360363336352 1.4757479179387422e-05
0.08369547036759009 4.55124783120247 1.856525611879971 0.004000031279632269
0.22262533481626776 4.547699194244841 1.8440050205152603 0.0026097270920212093
0.26103695864086646 4.548453023252698 1.8418206871172904 0.0063089162696361575
0.15120080439990644 4.555031993689835 1.8369069697357896 0.001829880710728233
0.27482865567011033 4.549287591063179 1.828380340066395 0.013675530303761115
0.3744213859495468 4.546989889523231 1.8207464942383969 0.06326015421812238
0.1283869613979527 4.544001956051832 1.8600891668736428 0.006950914129179102
0.04693053708672429 4.553132646908773 1.8717572512695666 0.00460114898793392
0.21348378231887694 4.550458764987894 1.8780089824566066 0.002667279044297005
0.34997151963203377 4.551387475719531 1.8728631002400529 0.011215413215801627
0.0780094924343915 4.552073428847814 1.8781847484328513 0.0016243872749029484
0.27871776035300255 4.547065450089971 1.8790231725231215 0.007873736718370007
0.16713426364153583 4.548247965507233 1.8910280716895558 0.0024211855328908683
0.1100460913989462 4.545601051032028 1.8698724552605448 0.0024666527541356816
0.35273145210947604 4.5524913392460515 1.884884376172939 0.007435880624640705
0.08714473686937026 4.548534479349623 1.8714181353362762 0.004401937701623466
0.17556022024296894 4.544735773464839 1.8694650287105858 0.00112850280249909
0.03309137711597319 4.550792103236222 1.887659748292225 0.01791855676747936
0.006942786374031258 4.548604980460612 1.8692326216761481 0.054173241887799484
0.14953459119616155 4.551137010203793 1.7654776789821574 0.001993990469126936
0.25875065802527836 4.551134581979309 1.7763178392571095 0.005097742748385279
0.35267444887644495 4.551225394077294 1.7970128692583305 0.01647608658306585
0.2000136868123989 4.549088417585813 1.7494766095332612 3.870517465840689e-05
0.2755296612247682 4.5500782187759246 1.743805622806351 0.007174406658112183
0.37921689894446203 4.549181015194287 1.7905439856913286 0.01837028369500366
0.2399674543265311 4.54751510800462 1.7553692213992658 1.6102347781764081e-12
0.19483438758310134 4.553106563515137 1.7658690681100844 0.007626336196314144
0.09281006867231054 4.548741053621236 1.7747635572057612 0.0021156699875848266
0.35954811597848046 4.547797060237857 1.7467460703552005 0.07497890888802367
0.3232147122795337 4.551958240316356 1.7841780085260988 -5.967425209979526e-14
0.35670900642123066 4.547711162077894 1.7660456961596496 0.057251844874072796
0.3387952854877147 4.544059995625413 1.7488294974121406 0.0035093569969055997
0.2857160978501428 4.554317869488489 1.7649453365986865 0.00027209815515108005
0.0767704909284224 4.544906125443362 1.7584506969492093 0.015006568680386608
0.042904569065446964 4.542264665838317 1.7691935174167703 0.045030595708892895
0.15140852315595096 4.55390101451578 1.748852119878948 9.931985346181109e-05
0.018621649518911952 4.550848425532177 1.761812702578004 0.08370220761116387
0.0626197991346177 4.5400144398585685 1.7439581261615262 0.012992387153032957
0.07390109409289806 4.543377721843447 1.7408252780225344 0.01155103091659932
0.02927418403682862 4.5433300280778885 1.7508794664350875 0.06282743038945982
0.3486762188040689 4.545960126248675 1.7160848352334719 0.05635236600793966
0.25870857654923457 4.557176013604264 1.716352497037802 0.0016554771193514688
0.13403075664025096 4.5529534363051924 1.7387768394489098 0.0005470901948012712
0.33140993051949585 4.54579772745399 1.7162445866131393 0.00779155832380562
0.34087822202792456 4.544841538828334 1.7277660381341817 0.05648561274771939
0.3228428642189477 4.5454215371100295 1.7328291350705454 0.009283990756928208
0.2979585187419511 4.5502091427185345 1.736155509724261 0.010467733397894256
0.056116909260975865 4.546967129294735 1.7005343837549143 0.03760890151016965
0.05334556196313262 4.539677254190446 1.726830717919555 0.031158461826004288
0.0864039347724194 4.55638268381978 1.7235289725118463 0.003457996595698905
0.18768862259682764 4.5494214372040105 1.7137189766357448 0.002376522022761678
0.23950528951273892 4.5491627119095535 1.7087420747856616 0.0005426853662926083
0.2025048378114134 4.551957515136535 1.71644383683152 0.0015253543224278323
0.11479273945848818 4.552570377927538 1.7168987955137092 2.3813845085411405e-12
0.2966540708257675 4.557303531599295 1.7141045884798407 0.0022745732760469715
0.03811278973948232 4.543846460052207 1.7151907798964785 0.04291263204172888
0.16149199224901473 4.554877760284283 1.7176949020200867 0.001556463260594168
0.22488665970855914 4.547167497287738 1.6950928606302456 9.764882338317503e-05
0.30760236918357015 4.550824915321827 1.708777626245627 0.006272826859707727
0.1991417664919443 4.551087350690336 1.6880723745680388 0.0026886822946258107
0.3509811769820862 4.54608760481857 1.6951579197103523 0.05446783238623816
0.3247757702538508 4.544647633949431 1.6892573691353572 0.04022110795524336
0.1671756090089534 4.553463915611473 1.7105586477493502 0.0030681663743060885
0.185033410274357 4.549626476554271 1.6813267007855588 0.001947077385248044
0.14035305422077587 4.548720698996293 1.6821980305222188 0.0014670660025541884
0.041229433126559946 4.545721202977517 1.6988100052700172 0.046415365453773484
0.240039890962277 4.547487013385654 1.6845709184705122 0.01005107609382559
0.31519373084483754 4.5532347114220535 1.673634079951353 0.00795141669769606
0.17350769339346186 4.551452275399549 1.692683101941397 0.0033079835656268657
0.045266619274440985 4.550220527652366 1.679617595262036 0.013897735887235774
0.12458223838597991 4.549482745326936 1.6937542445347458 0.0002903085340635493
0.10993173310707376 4.548525163125175 1.6754607228035654 0.006227192645573912
0.334099564141343 4.547961323255226 1.6475155760535587 0.021538100072002218
0.2365523260080941 4.547767505546537 1.6670570615423785 0.0010947921559349221
0.2948568179085168 4.554043130235295 1.6783827783447631 0.009840246427346462
0.1478457952028826 4.547882119338923 1.6780040176219182 0.0015986908296555305
0.25194127541915573 4.551759603152986 1.6565254798664244 0.002176553384250186
0.2612523320981392 4.548645284117787 1.672694398010053 0.011942619001240166
0.04894728498453669 4.539855095380105 1.6474345491931104 0.04572769662262167
0.11257971694285437 4.548280004099176 1.6573491201881083 0.0023493209362160945
0.1599607007852286 4.549375020034359 1.6581707137926336 0.0037701793031326273
0.07468514675593449 4.547573341182129 1.674374215721287 0.051725507544622615
0.2876518530893421 4.546512649235714 1.6531712480273604 0.0054708433581318735
0.15331465564633975 4.551478586670267 1.6628965612792281 0.0026090342396957776
0.08508534255774293 4.556347344980939 1.6501146684653725 0.010866809773378071
0.32809154240309885 4.548523906043025 1.6414238017157792 0.018986100999437695
0.29654881996055493 4.545369053472812 1.639064611482728 0.005195327556493401
0.27469677850514723 4.544784641436218 1.648227079550174 0.007029108275023595
0.2514352390384072 4.550547426803314 1.6458221678474585 0.004079042408398484
0.31224448602708704 4.543023681421882 1.629911202259953 0.03157467726754404
0.14081300635526264 4.547437085271293 1.6135360752022465 0.005668553688699224
0.11851143885016505 4.541753798858032 1.6105948946686681 5.2657230616612694e-05
0.06211804539392602 4.548356162329233 1.6237246279363204 0.04433484596377171
0.22148288221664653 4.551766405909426 1.6161296431081513 -3.160875267155755e-12
0.09562527514491696 4.545260688520347 1.614447050054048 0.017730477831779008
0.238496834463946 4.551365317587312 1.627767341276902 0.002778453429936459
0.135704652224553 4.54828057728392 1.6294603869239055 0.004171649443095401
0.12582154583613447 4.547539837551258 1.6212076293844047 0.005606405389317441
0.06830022699934796 4.5530706813607 1.6371379848614487 0.042555762844893756
0.28241417839913713 4.548560488127137 1.610763408024431 -4.93770942905734e-12
0.18668301904956355 4.544876011226039 1.614168357875784 2.13851437518679e-12
0.16360156082472704 4.543532327798614 1.6264419699423172 0.0009336664622882625
0.16234673723557352 4.547410565216215 1.9045406756126346 0.004940301283989705
0.24934205271684093 4.552407324282949 1.8810101950602292 0.0029225312285312537
0.3076067089193304 4.550722914684071 1.882498568170212 0.005680812856596917
0.23164872761845323 4.55187745141941 1.905154094665234 0.0009608517676707945
0.14663705940627694 4.547037640735235 1.8934001825393278 0.0020244649333173237
0.1913541225241521 4.550647585134267 1.8888299924448375 0.0017629567480661548
0.21556088228977785 4.550135406397971 1.8966794439070604 0.0009178612895096395
0.24610637186406192 4.551126414618285 1.904752388624128 0.004970675167643732
0.2828393946301331 4.547559553085375 1.8969409174673884 0.006548191909882753
0.1310242394415094 4.553648422677535 1.9089028832627146 0.007280620392320633
0.2996075641317669 4.553919087522907 1.899926240233738 0.00079930318922371
0.08551318335512223 4.544472125756536 1.9012930486646091 0.004969981895765162
0.048214237121680596 4.54431855166081 1.9007989941016177 0.009126045115695987
0.38606948501267374 4.5535690301860905 1.9177629359821746 0.03845163588993231
0.38707793558322134 4.555100212344218 1.9019411079339186 0.032931641652950726
0.06058993381373119 4.545886733994791 1.8976826816759174 0.008382114621497678
0.1511317047162818 4.55131349924379 1.9157398977947926 0.003918027206784115
0.2790623710189108 4.548723317953041 1.928227811745132 0.007011932528864804
0.06762780449441931 4.54818739128146 1.9275195146927913 0.0024797010294812455
0.00353540701865793 4.545065095974364 1.915957594690028 0.06711589792775392
0.19026042516996186 4.549680418268148 1.9164375036725145 0.002368363482024655
0.2513248240371015 4.552720591911774 1.9122035668602126 0.0020485255349744595
0.10651394832871468 4.551180599934735 1.9161968234822027 0.005164266653448384
0.01662778715912898 4.54731410359551 1.8963257784282437 0.0882399057549554
0.3273388854706123 4.558106603490177 1.9306117872991444 0.0019367619588456428
0.0860739104957244 4.548056943997286 1.9372238006954456 0.00450986844045454
0.3152405194337174 4.549834022465228 1.9254797158221475 0.00019145075154225667
0.369286831890659 4.547459917228936 1.9241619019499265 0.009306695034764844
0.1297833688361308 4.553491936664001 1.9415926799332732 0.0012880226282644955
0.09472349565454595 4.546549555350579 1.9371050225375024 0.007311731875935127
0.19477247762311617 4.557948579728395 1.9487955870918474 0.002651507132942787
0.3571021963631561 4.550060358173155 1.9446121979340534 0.015453435101637653
0.23139649249963706 4.548595821038957 1.9230409840121216 0.000619134142205882
0.11226776290926821 4.546371071163744 1.9414710209733965 0.003119492487790068
0.15071889683478504 4.549749593541163 1.9421364639188456 0.009272717359523092
0.030466620160888386 4.553101564046663 1.9321480810650664 0.02851794559011914
0.10240187172487562 4.545861391105054 1.9622654790809742 0.00562872949338758
0.19161423567761404 4.554206037030106 1.9560193330309474 0.01444337262537137
0.02370001650960378 4.555341088378036 1.9505025621973333 0.005283557750436561
0.28111057540098455 4.545800035238274 1.9515541890398362 1.1107848495982068e-11
0.1698703985504683 4.551090591288492 1.9517012228051835 0.005922235255205139
0.082832326071521 4.546544420487384 1.9576107676993448 0.0001993511305243574
0.15214485932912594 4.545084505902011 1.9563150849763864 0.012461498068179902
0.310770189605654 4.5552407015728855 1.9603253747910308 0.008941787187850997
0.04034054128015151 4.552572319154433 1.9402984618479346 0.002437004812854523
0.07496456584622235 4.5474496485955855 1.9747228227553157 0.001556810217688044
0.2297825050435507 4.549488287076001 1.9538996219084592 0.007563791233228359
0.2632610159143289 4.5514525024627845 1.9676230482299484 0.0068533683133113355
0.39104631338363127 4.538351139477533 1.969087491280599 0.06227977582804177
0.3482046165339472 4.54983156025023 1.9619248475212494 0.005904747705197335
0.2431671542591039 4.545435741285127 1.975627184861197 0.0015790946988964666
0.16078855612071158 4.547095607755337 1.969750754962554 0.005929573180624519
0.371572289469312 4.55536590820704 1.964461910964268 0.003393355581078748
0.21806606916213053 4.551175647328629 1.9876305009313957 0.007923265296085988
0.2075582971727003 4.5529084030997975 1.9929070092914225 0.0005335251842288386
0.16393633961054419 4.552059532285409 1.9896551927379156 0.004867631944577524
0.1399023262308209 4.544707971459577 1.9674838517214719 0.006132224733982495
0.032064727542552005 4.549775886326068 1.981779845335017 0.012987561996401087
0.017782406319038754 4.54678126853885 1.993464393509693 0.047242874776878385
0.1159785814905203 4.548550867851758 1.9839222166573538 0.005521961323099642
0.0594984107258146 4.547488638111859 1.9820732101758383 0.0021595702496079736
0.0217774098787501 4.548251322869199 1.9811224431133 0.02707576768790995
0.06503672992710507 4.543382886435968 1.9988031271548437 0.00035578740074121066
0.12701607340317067 4.549263860931799 1.9843198661579704 0.004322698021004733
0.08961603173517883 4.546843248257598 1.981785124001957 0.00219909682183357
0.05008630833502347 4.546937283340572 2.0052324000862245 0.00627934674085284
0.11491523795101057 4.5478976339388995 2.0046908784467674 0.0030225872388413982
0.13938125972414847 4.549765891663936 2.0059947223641967 0.00395876718131488
0.3334669251272487 4.551670528871336 1.9826853602447547 0.011716829368829711
0.3690550828568481 4.546896088920466 1.9917206098418554 0.046409661078779765
0.29122792296096384 4.546637593059116 2.0020231570745732 0.002397300980885046
0.207155065772458 4.551015350319023 1.9996464140189216 0.003672374418392298
0.2698533867503029 4.552525125754601 2.0040277090492014 0.014752082212792799
0.3499938901605063 4.551491910830096 1.9956038469457658 0.013056309964228472
0.10771678913338806 4.545357768922043 2.0048483126835976 0.0025769256913790463
0.25630833836529116 4.556111901085046 2.0054341662901183 0.013807410149437553
0.19393157736140862 4.547781016194155 1.9998592500445955 0.0012196508114935823
0.3114030529228534 4.546986479363217 2.006878521374571 0.009351506527103336
0.15271519148043533 4.546293757836628 2.019232597131401 0.0010827578302440087
0.16848336376840456 4.5498342344443286 2.0055719939061305 0.00416837266391724
0.23457611869968314 4.554712740636369 2.012364025138149 0.0115477996200404
0.3016636469810775 4.547021081706717 2.0149293400107653 0.016191615762747694
0.31885176782027924 4.548341867536371 2.02481864066646 0.006983930965451909
0.3711827097388616 4.547862056449484 2.0304784327371044 0.024991912382914375
0.20395092519810468 4.551280663016357 2.024240768138917 0.00772855288478639
0.33165516914809884 4.55611859451302 2.0211670001277646 0.0015011755233714978
0.2581837145836261 4.544011365711031 2.0298825529663334 0.0038545820733402046
0.2833016540377988 4.550643694032601 2.025915380819621 0.007305419963732857
0.1140333929691813 4.543997905330812 2.0199684357139396 0.002454351778815814
0.044897349105717646 4.54601671998403 2.028646864202723 0.01129029804038454
0.1323226823633144 4.545230822673794 2.0413103538339037 0.004403081747268182
0.14941636438746053 4.546793902511182 2.0326803010475483 0.003956454340635421
0.06591634797505243 4.5463976428840684 2.0272301719101637 0.004494674355230821
0.018414816561953196 4.544181941815845 2.020780648431598 0.08091003305615398
0.24353236133820141 4.549036111706774 2.027776514980862 0.005953761357853229
0.03002215613911834 4.552429991097761 2.0263045920286764 0.03821419759745866
0.07922518001080668 4.546559917259834 2.0157811380337267 0.00198255530944081
0.36280379448274996 4.542486944240549 2.0553592508605787 0.04779515446043796
0.281023131005512 4.553081070631211 2.1208723076704903 0.004907561029107329
0.33542895144019685 4.5463283260272 2.0818415350611534 0.017609321534578296
0.2549657814876811 4.551713614162483 2.1355673887910847 0.009819594837455384
0.22791632980489843 4.546493836685521 2.168583272491877 0.04373312053812201
0.2408803018249711 4.550388898019994 2.04282811458434 0.006568250551325882
0.1636853191167213 4.548240231700824 2.121201325669877 0.018168173900625185
0.26524629642618786 4.545811117404858 2.0954305895579894 0.004410572903372309
0.1834915999701543 4.549508580853105 2.079357401285473 0.005080413117690089
0.19189163400737055 4.548334709257814 2.1732352777097046 0.07179455028482273
0.20708259164660853 4.551302874840124 2.159614129028077 0.0633883847211785
0.12490724605513259 4.548314557878854 2.0722035154599685 0.009284691192374545
0.30397588066048314 4.544935737823531 2.068204982830064 0.0018398922330851554
0.17726859520752838 4.547585201408154 2.121772903354961 0.016478669938077648
0.2049769490879566 4.548686684619619 2.0736686810168825 0.006702661706732383
0.3432825795694211 4.555057063554614 2.054064915889079 0.013634253656841207
0.08046122536108162 4.550024101410243 2.0692256402727898 0.007222872911382157
0.24428346986465477 4.5470016544768015 2.1068716658897033 0.004928105567891614
0.28868288632567646 4.546531770831404 2.100510572290151 0.0060775678689730045
0.1984525068402005 4.544918289205288 2.1378350096652503 0.0040603177723067445
0.1986089019438789 4.54621123440935 2.14762150243156 0.019299094185873757
0.2662703284318202 4.545448990416421 2.0538667608217587 0.006755240522581231
0.14922603890606922 4.55045063460721 2.0591943847828595 0.001980569029612986
0.035005303576054456 4.545726983765542 2.065091031345139 0.03182853128834607
0.22996252261462596 4.5542244318645615 2.140895677271449 0.007026001460330596
0.15027905499208638 4.559229675947296 2.14143809343549 0.007707760616582467
0.15610109272229844 4.548954764234316 2.0959280914775893 0.001987198951176677
0.17287401118431014 4.549443835330233 2.076095058574838 0.0026096432686794854
0.24987849755219835 4.541822102793514 2.08111244318351 0.00907621577654528
0.30033046976614725 4.5487809343958165 2.086524066755659 0.0049407779158336515
0.1392778840993617 4.543704951537263 2.0977289261453826 0.004120768740958701
0.20810035880949027 4.545376922187046 2.0497535045631863 0.0007459786955105118
0.10308789317014225 4.552846653607889 2.095151164794755 0.0038454992170080544
0.1280656233755781 4.545175303859278 2.0803399991790714 0.00656336789335046
0.11374662436418108 4.546390238967828 2.0712002739487274 0.005791321873253829
0.06629961439872262 4.5466213090935135 2.0563855452660835 0.0024735284182299854
0.08453790386667392 4.548038066068769 2.0890696480527207 0.005723513029260093
0.2944219179936815 4.54765875509692 2.045873413279735 0.004318916608783426
0.12465723737360834 4.549127699773913 2.123461828765823 0.017284046020953903
0.2912530503316333 4.548525823627986 2.0776047598204177 0.003267101907336714
0.13073701129598092 4.547188998589606 2.057505492070373 0.0070885978215551575
0.18283681064224383 4.547432200838722 2.1403984656899353 0.030118906259604086
0.12207596365115937 4.548436636968481 2.0513199583631865 0.0058252310346037445
0.18542372019747502 4.549125662573767 2.1642618864536587 0.07363034032513252
0.10502160512218987 4.549309933036943 2.050553423313939 0.002681053846678663
0.29112737859469573 4.549184743165919 2.0684833497635795 0.002768974322609955
0.24636422233112495 4.5416184948618765 2.0648757813896204 0.006980478324600049
0.2764870888886503 4.5473367231222515 2.064345742287011 0.003357047899465848
0.1840091622562292 4.5524388925880785 2.053955210766367 0.0029212157665608803
0.20628644123891027 4.5509948134871205 2.117028099971539 0.00776649517201691
0.03212756996206104 4.544338647682368 2.0502448302233076 0.07588028383078521
0.2268854669664857 4.551856876231435 2.11577113002499 0.009895080323138818
0.2748423023188061 4.547046395168641 2.0893051160978824 0.005096873932571404
0.22397530491828205 4.551519763326579 2.0881343911020793 0.0014595911229571303
0.19454419086308303 4.551786526710477 2.0973716229941255 0.0007799868710055518
0.15803762158944418 4.55498259908328 2.1660029997825343 0.02197050823586338
0.11790238491931107 4.548359775326947 2.1192489199784994 0.007277384904980149
0.08822038161707607 4.547234358341321 2.0977055942029335 0.0068542201713633075
0.05794362683070924 4.550145392030453 2.0949396871409087 0.026212897407364995
0.11211203173393616 4.551075928520545 2.1110957649811843 0.004979799277271344
0.02259072907009497 4.538478734674395 2.059354099012357 0.06207132899409343
0.0717885708783671 4.545653226433913 2.099077139452709 0.019580894015598652
0.030857327208980746 4.544285036989515 2.073263067502819 0.11550535507482718
0.0584111487711517 4.551114185817409 2.0649630462297517 0.004717655289611845
0.15007069425236147 4.545710923868635 2.173087338889649 0.01723241368015086
0.024505122567232526 4.545323442938286 2.0869381300606795 0.05772950520866998
0.07921287773142295 4.54746285554075 2.1258538485426857 0.02287002707871436
0.031604609196965464 4.5470094441290385 2.085310920510317 0.07893163851296639
0.05665212559093397 4.545027413086283 2.1029476894312946 0.070871201447174
0.04778464893632838 4.546632470072404 2.092931652351667 0.09438999717214634
0.09743670822910996 4.547533798330795 2.1657220986095345 0.014620987505777562
0.06591176829279675 4.544684249977785 2.1393433857652253 0.03491696391726723
0.05479012707544345 4.5421922844496825 2.1176474053598455 0.06996628615581921
0.10017077128585816 4.549104949043007 2.140498507189562 0.035280084232281586
0.1346670374940114 4.548637942756614 2.161996834110879 0.07164998482804312
0.0791558504523677 4.5474894487464095 2.1218802591654633 0.02308465682190718
0.09081884642550982 4.549898828491682 2.1477993733701672 0.04516568507524354
0.11484908328283348 4.548072847688276 2.1465665777276306 0.026714195194783925
0.0447735900461353 4.542370913721933 2.1214176786929255 0.041248014367841375
0.2771765763905664 4.5495554341819195 2.144125581427519 0.056367294661891276
0.34305304222594846 4.543887857834496 2.0969944592384198 0.08195611511011731
0.35142839343023086 4.549245685372842 2.0679004386436604 0.07694625815294884
0.3066459917625234 4.541647857993996 2.1462827182135764 0.06455071577014321
0.2985582080965512 4.546876601262829 2.1433044042299465 0.0726464839064493
0.26413420205125304 4.549100936812305 2.1689019201314865 0.0513414161944446
0.2639041329258759 4.5436466758229 2.172885006930298 0.057112179872402614
0.33403892915803857 4.54494426556446 2.1229533936046208 0.08524909186214637
0.3583543422509897 4.548513455590242 2.099275014873429 0.031558168933603845
0.32536801110331437 4.545063059780433 1.6183737858996436 0.00539022220678151
0.16559269056924453 4.543315938397528 1.6112380345668635 0.002385567613306251
0.06778501592702653 4.530573780520572 1.6128250020586872 0.07021738039651176
0.07105887044153489 4.545944189535561 1.615173334617846 0.043512253141792745
0.06338173663081319 4.491859368165813 1.602436616647715 
0.32362594383848453 4.41294270544609 1.6174406392303686 4.711188361158699e-08
0.08082482358494064 4.378280109100197 1.6154620191333002 -4.4205191950992146e-13
0.051531173475563935 4.532800227900512 1.6321744756345116 0.027093233035178136
0.07491188590383095 4.391139195035958 1.6207300484361775 0.007382211290457853
0.07444392890823172 4.375976551984539 1.6415331918306342 0.0036494787538440096
0.04934456117784028 4.5300770435504845 1.6553474329742919 0.09868176954695948
0.19601692539168353 4.240075630134776 1.6681227668464509 
0.009709721633684741 4.532258763227181 1.839911326850823 0.02742590920831791
0.0031560126998848304 4.527804169217312 1.795945938117496 0.04775548899599081
0.005123533718393499 4.52293671225493 1.8534768724188224 0.01529326809467378
0.008364988852497104 4.508546449715265 1.8263711290720404 0.025600780251412637
0.008170964687870699 4.496779112719329 1.8317441213044634 0.005485096098521033
0.003098360316754396 4.476951801687872 1.8485459855601252 0.00219204582790541
0.008383571608265753 4.490075270357938 1.8176666833951873 0.0026071775541625757
0.011446672787569615 4.4624175568677265 1.831327173621187 0.00850545029653321
0.06150958330544012 4.477663216492583 1.6129216084562141 0.001442361430941564
0.053260461430820846 4.4853461768260505 1.6329994173113451 1.1865466254082424e-05
0.06087418840408516 4.414263510178464 1.6214668329850976 0.004747336512461962
0.18786818212830883 4.162389092393467 1.8530367867544122 0.01219180164860029
0.17159059680496624 4.186696328243195 1.8086800840907138 0.0030373703467140713
0.1587315752079632 4.285878336170864 1.6224959078134913 
0.012508869630765494 4.444569417788044 1.8422546386335343 0.0030023968401614066
0.013209798434005228 4.434396465901004 1.8229923673466377 0.0040822809383061045
0.018425868827458194 4.418978574048828 1.8337476223770266 0.0028345454013487367
0.017168485065564336 4.4070507652482735 1.8429936291293958 0.004359096854075003
0.013115893407911097 4.394662152618684 1.858169180657794 0.01423654580807602
0.014387146524132303 4.39460750370602 1.819015803552778 0.004967371864291832
0.017339746544744582 4.384590449883938 1.8302075945497303 0.010772868719533627
0.02312915047259064 4.3684923866697005 1.862124798649643 0.005144171623663386
0.005542481325621348 4.450462588508538 1.8004063256171523 1.3409000777393822e-05
0.1502261049671818 4.263591117956377 1.6640075014588105 
0.1452912199652666 4.262023307134176 1.6702331504968582 
0.11903546493860377 4.306500660063389 1.62635631235023 
0.07926885351534053 4.353756547207085 1.632317636378528 0.0049594815732262884
0.09950580969448497 4.326242505725787 1.6150395006563483 4.586211996579279e-13
0.018229115733982604 4.4974622048305335 1.7759823818925902 0.0031293387122078384
0.016432482624170866 4.4853536684234765 1.7867624332667462 0.0023026300462733566
0.018189104951217894 4.489647017500855 1.7442523094338498 0.0028203450758306995
0.03811848470792404 4.485222075490186 1.686440347781004 0.009317144238924054
0.14933699331917358 4.248867019746402 1.6946448805106984 9.989310540066742e-06
0.12550886594285393 4.25063817486797 1.7395609036591433 7.734989487829898e-06
0.14516517200746498 4.227875756991328 1.7499773287851381 -1.7619918938324902e-12
0.1532046177805018 4.226054938632518 1.7402232966880995 7.2511517897894e-12
0.07228949747129837 4.297613827730106 1.793759434058702 0.0010162720982512345
0.15928501788290994 4.1876733760792675 1.830724271873407 0.004538070969002326
0.16731286585067348 4.176483286689496 1.8424172446597704 0.01395655320188532
0.10778409730739308 4.285134140007265 1.675037500805906 
0.06462855277381584 4.446618712525397 1.6169037694994992 9.578796444003301e-05
0.0558568103299406 4.4195469293803935 1.661774794244245 0.0018456095645541719
0.05931708450769449 4.395020311849015 1.6709208292563442 0.003427106750025974
0.05946590253713244 4.431241706584694 1.6281322656898916 0.007053266719323773
0.053536261311712366 4.428405227106623 1.6495496512604813 0.005671994508404361
0.06086870287619811 4.409247035333962 1.6337051953492396 0.003946811348653958
0.04819022782122929 4.413750298281899 1.6903434634544396 0.0010321108250441189
0.04335118835317427 4.439010769341706 1.6952682453073136 0.0039475281847893935
0.03663493601558438 4.469041490431311 1.6678268484896313 0.002402688320844998
0.04555963066698593 4.445524108614613 1.683069983014222 0.0019073972628365654
0.03196617393341823 4.4413306449520125 1.7309393624189937 0.0036218268245350707
0.03713944875448629 4.417305387593668 1.731802883827196 0.0009701760773317853
0.030289463475440752 4.421341587217475 1.752933659524153 0.0011580156460857848
0.029880682964889403 4.4138818211361475 1.760981846816296 0.0009370178402896347
0.031380103079955146 4.4617297806534335 1.7021039992973075 0.009782809154577677
0.03081636948366795 4.469935049686954 1.7165438472767187 0.004830445161539149
0.04147786478893057 4.411953735519853 1.7154499601599758 0.0005857341577556961
0.045920491470448487 4.418528532598834 1.7003821898797102 0.0012265823201314911
0.06381254524446606 4.3428201819031695 1.7100239259035426 1.3725269686005272e-12
0.08025534593669288 4.307269057904183 1.6850831069031929 
0.07588233804616179 4.323162002525229 1.700681691182386 1.3754273003986342e-12
0.06113685730199579 4.355746822508535 1.694045046380147 0.002346111411250189
0.039546828696378135 4.38326100020544 1.7491449293604158 0.0012638266421131823
0.15772802466004182 4.209767915737224 1.7612033348485343 
0.13284643797369342 4.222217866517325 1.7953242783418124 
0.09889950011539787 4.2633860544293585 1.7837144563316276 
0.04377038889861361 4.4029840369200155 1.7192416227436886 0.0008803036284044894
0.05808232673358609 4.401857014148534 1.6706889788178496 0.0013155519889763527
0.09213728782955673 4.278224453890699 1.7667666204895072 -4.40738797881874e-12
0.08099924390937491 4.295251476380744 1.7579811649265327 -7.952393145378129e-13
0.02595814454208263 4.363100151253799 1.8283434983465032 0.0011761559936500428
0.036163941193441046 4.334547807575627 1.848591984261691 0.0052165869252382415
0.06307403383522706 4.373254768384366 1.6755240940944836 0.0015530301364206215
0.05815929969025574 4.3834806291097115 1.691937724046048 0.0003392869071287045
0.023761616337440915 4.446439007671187 1.7527864010224397 0.004710762366521755
0.026614809953625085 4.392714516129276 1.7927727841311987 0.0009642791782834204
0.027703279670858578 4.406723522520601 1.7762795158315015 0.001534628183160129
0.019841530207023013 4.4256322361961615 1.7776417194183673 0.0004593983963166764
0.027637835677954296 4.396114262199185 1.780610039006272 0.0016151040291527937
0.04458550803747585 4.363702670501854 1.7473669517757324 0.0002884481286109263
0.08870572524608551 4.332988330899278 1.6210543345128057 
0.029556473310286664 4.4899800220741355 1.7102250716415552 0.002109241858240654
0.027595798382969064 4.450449665129881 1.7269348885225133 0.0030301332264575935
0.022211682922003977 4.462643422695947 1.7584078005575536 0.003702501136386368
0.02922891232902806 4.525304130233777 1.7072991801361692 0.09161068692232352
0.028381402512300997 4.5357050739126485 1.7117432944282243 0.043549348339430756
0.04864840258789724 4.490036241612308 1.6574066981201458 0.0003581823541989809
0.05252893207212826 4.493130216113028 1.6414391057774755 0.0035239459264297677
0.020836360265083665 4.538068838772603 1.738546016402706 0.06502801296351401
0.012780780059278442 4.526374101147131 1.7657957606302346 0.11302835598187856
0.008512149067442272 4.525614449649899 1.7802174223957157 0.17578502184819628
0.015495995212062576 4.526776096306968 1.737391031848549 0.015641492636117027
0.1278005811319396 4.256267001745521 1.7075189404243514 0.0004115962747696718
0.12601317167073284 4.2553477370909425 1.713675449400151 0.00016274092148290518
0.11342284778654949 4.26205264583743 1.7180948242694918 2.0801865243616496e-11
0.015001942308184857 4.402433022041276 1.8559532045514953 0.012409129233753403
0.0015874339638366607 4.485776905596347 1.8606827697525201 0.0053925837926896356
0.00017879084454393464 4.497083677913082 1.8802232367787404 0.006378843664264322
-0.00013826897038195858 4.549648302903983 1.8890628896618118 0.06622004078052485
0.011544790314201425 4.543702888797333 2.010012218727195 0.0749917312329863
0.0021284984234893026 4.535921170204703 1.938723858996454 0.07072089802997775
0.0007064472134072923 4.534028282532378 1.953564076774211 0.04883098359772793
0.001272718072764521 4.523334611346884 1.9181509091343154 0.024863218214384454
0.011603025189900591 4.545636922742448 1.9146015324351682 0.05732092230950286
-0.00015718174972108247 4.5373882530677125 1.9255504454313668 0.061441825773987366
-0.004084441162204447 4.525507693023729 1.9604625533180453 0.002757153782011452
0.002675907833300401 4.514740444678294 1.8901742543317503 0.023506685419870606
-0.0024782690770011164 4.534235208149836 1.8941636342811807 0.07591657684443591
0.01753838704058567 4.358920191953504 1.8897798789532025 0.0016395243582465852
0.03248852488064185 4.338074568252696 1.8630916282335157 0.00781718435354209
0.01698963048283931 4.386692800411862 1.8614292686073883 0.007435808827271581
0.015340097515212568 4.387061214031145 1.9062054374057187 0.002004337519835398
0.014038562044743134 4.398156495725102 1.9178498370995138 0.018185502897999847
0.013563461068223183 4.414940305801753 1.9250768847371762 0.009799723605081965
0.008438818520217516 4.400291619748088 1.9440216213800108 0.007041712652044662
0.025054881481291744 4.357873773432029 1.9273905277545296 0.010118769352585965
0.01946390321754661 4.376790261303413 1.9286691699787348 0.004629184422475891
0.006121295316172365 4.400075056470797 1.8925976288693058 0.0016401013076056765
0.011870502298270899 4.437152060221133 1.8827266515538665 0.0030705199158108285
0.011325964415593831 4.439196691302412 1.8638003932123701 0.002133261574130879
0.009715794038656243 4.457151689333832 1.8557800812293308 0.0033558660554198023
0.012179767857321512 4.383061627119925 1.9896655743189222 0.051425477852815996
0.01568079282002825 4.396731598804223 1.964693291359203 0.0058056527587549405
0.01224408564299605 4.394133185562867 2.0089181671481913 0.0582701699553846
0.022262260240424356 4.375104632844576 2.005531152993352 0.029531100526406076
0.02731646362525581 4.354257838139031 1.9758452603258396 0.02363696412457028
0.016314408474938653 4.361759638158178 1.9603539553186502 0.0031057701543213898
0.0503375598140837 4.312711153249687 1.8740224034451725 0.002332761578524078
0.010502620513481529 4.416531505375171 1.8718209586316588 0.004217802097103244
0.02797438884091967 4.343351729053555 1.9090809967777136 0.0010011048348553982
0.006836573903217479 4.457627793603811 1.8699446985083046 0.003620772150184888
0.005769617170243759 4.4678895464576565 1.878215381010203 0.006132448184182154
0.03561857508441206 4.322764473007858 1.9667315895607813 0.056367649671993626
0.03363934569218578 4.3323329913607775 1.9468756782279242 0.025875991728943244
0.1361148428989128 4.202522544998132 1.8793305059143939 0.007833298882826564
0.03681011532724096 4.3316937493476715 1.871582351000283 0.001335490757999659
0.14810697391814595 4.1904853388564245 1.8889838913758508 0.0056156033871557496
0.17306724833201176 4.1640740639131435 1.8883992875220361 0.031537070498771
0.16027082087211775 4.174474947166056 1.8860532737541422 0.004917506538509482
0.09579869029740203 4.248154861522302 1.9050197861363294 0.03740149332587626
0.11751727038834557 4.226756359264248 1.8637334284663911 0.00013946145745580117
0.0031620734051023064 4.485640404112831 1.8987117893261198 0.006868500694105131
0.0038734390831492637 4.474294386280773 1.8944281035232873 0.006266435744811534
0.005005143530873074 4.482213529195792 1.873782244960146 0.0074653648798134
-0.00213451981470483 4.464477372233852 1.9127597506998013 0.0033177958152896554
0.0008396731169751249 4.462088943830398 1.9052846455253112 0.004806272345061335
0.0008143353759509672 4.489030032976417 1.9276295280089222 0.0055139886495102815
0.004574552681328583 4.453311376791654 1.9213024209813807 0.010290297487924925
0.006545433305855329 4.454059989827672 1.9309559585295306 0.013640041251245289
0.14080530498400565 4.19645175413162 1.8636066643799394 0.0022243901427608293
0.025195618683502258 4.346660425217025 1.9112658572502663 0.0021194554783113655
-0.0008344951024476742 4.496986355546253 1.9137214416669452 0.005097653245847102
0.1530409669858553 4.18164112317337 1.8645830155584453 0.00950788013477373
0.007031539652604767 4.4684414188925 1.9624297785694584 0.0075569073237034415
0.0018093310798872053 4.4892550416018775 1.9627353011330195 0.005614479115747256
0.004117485986949162 4.477445787606597 1.968906466649485 0.01077960958993231
0.002098428952037744 4.457933007508275 1.9816742398988274 0.005600410373923288
0.00920101389364021 4.475085790587597 2.004540820508832 0.009407416258663304
0.005634663937127757 4.444621976866714 2.0143176376076894 0.011980815738209102
0.00967986889942152 4.4594095224718835 2.000446692146247 0.009545664424695049
0.011217687842652174 4.427898999224505 2.0110578275323285 0.006025845160105818
0.004607380888294986 4.488238456596316 1.9836082434501543 0.00902683255650769
-0.002213983140738943 4.507453344219803 1.9848242792779045 0.0031666660447563933
0.005006061701765164 4.492833446486161 2.009529576281957 0.004283846867314151
0.001980464424006621 4.418191110048974 1.969124143195395 0.0012274364197301698
0.0007079293386757753 4.4369792470521325 1.9542702452931158 0.006760189748980501
-0.0031016671744428775 4.508545403563875 1.8776094312751714 0.004899828509859566
0.19140292464278566 4.159578133127576 1.8628881124506527 0.007458406668890397
0.1731094643010675 4.163281108851973 1.8722076250371955 0.019334250328143066
0.007676744977523624 4.426422657233033 1.978879236423746 0.015037926368600957
0.07287651124653116 4.276033145739908 1.931820179845166 0.003032814377925176
0.0017791662580323468 4.500474004314691 1.9225832230649864 0.003174644380469491
0.00649233364561167 4.449003393515592 1.9101597368618028 0.008066090579378288
0.007553569150348221 4.431464899702558 1.9246782376647324 0.008345873921064324
0.0021009012147328314 4.540052145133796 1.972790871925453 0.027361158042069445
0.001981008342149933 4.500983667199844 1.9452439288215118 0.005099317704560565
0.0328243116922887 4.33440033365445 1.9262280201794844 0.0005085797141935314
0.03690305807424298 4.307969744540827 1.9080486881468721 0.01124603997995707
0.050323400437727726 4.2931665813984745 1.8944846073269348 0.009577765184803418
0.25121578002637984 4.201977724648643 1.8531577540865316 4.3506847165411615e-06
0.20470598785540567 4.154046969523729 1.8974510812795313 0.023616571473649397
0.36196585758628325 4.343999132378509 1.877805494236395 0.005914690853232728
0.3639400583487056 4.339359070739662 1.8926306939905029 0.007484819369528678
0.3621542284634924 4.349375552600446 1.906787115647882 0.005812027752901644
0.37369300263244537 4.36704557408573 1.9076044295544428 0.007574386896018459
0.37543868580333595 4.3718393006899205 1.9254018115787301 0.006438983045635115
0.35989650884508334 4.331635688572351 1.8790193207910728 0.007523304354849071
0.3896114790558782 4.515629965246578 1.9638685907120823 0.00936525795325014
0.39688562497593743 4.492867945380961 1.9790300003548027 0.01161111699694624
0.3922590590418849 4.539193744126761 1.986043934521589 0.025939663065759577
0.38525880201859897 4.462702855205963 1.9856468133895464 0.01407194406267638
0.3859233121476368 4.470588314305294 2.0083535345070835 0.010374999669467741
0.3791985385023759 4.544367334661015 2.000244194787288 0.03764160399282737
0.25844453258411937 4.547114624685693 2.1481793180268176 0.061864115851177376
0.3905015763908559 4.500533266953612 1.9410086938080509 0.007868114132234615
0.31453105244160745 4.268293532071555 1.8720135505237105 0.0010819494935917198
0.3752663926887724 4.382792468018884 1.863770772576129 0.0008275590163108364
0.37086071694824196 4.373708294938989 1.8827588228852452 0.007188383421032109
0.3851851549796579 4.408869837100249 1.904949308226838 0.005907962226371028
0.376217706996642 4.391857110532172 1.892416652870201 0.0011792787536117372
0.38648549829444834 4.454004278940796 2.009711425632527 0.008886995505622523
0.38593420427253405 4.419733038335706 1.8824487164486599 0.006084015269855674
0.39039671146123894 4.433586827152148 1.877725215500038 0.0017268907145918584
0.3904729853410437 4.521221349304567 1.8699662292699608 0.046004676071428226
0.3603468618001609 4.339156287863331 1.9412075018752193 0.027312119949251052
0.3610430094219671 4.3489634701081314 1.930462980153548 0.009187047413069993
0.3568313871117511 4.311393765652428 1.9191768901771213 0.006477876180800928
0.35059788627570304 4.310310004360455 1.9529880473461654 0.013992084599207899
0.34679575037048643 4.301085560790826 1.939690390691383 0.006824384721223781
0.3416581776919553 4.294257850907616 1.9228534297000335 0.00420607229069119
0.31514059011699724 4.2587402879023495 1.9223730323340964 0.023902351493392177
0.3895171214541994 4.436903724115177 1.9886747757120882 0.004495544960561814
0.3767651333977799 4.422972278142698 2.0216375292698205 0.006907237417468992
0.37769848418542673 4.418202379429724 2.0058814359517587 0.004865806673007413
0.3761586036181231 4.377673271748659 1.9896591964145653 0.02087988786009809
0.37536380565469574 4.407813213075726 1.9928389021662174 0.004818198328638512
0.3764949682885331 4.3780870713523585 2.005074390651934 0.004934538807993267
0.3764429960003927 4.3742707139107795 1.9801753801867437 0.019157005439293634
0.37154457964334514 4.359028176104571 1.9812867880382599 0.051259705441715576
0.37613463053463153 4.355291567532904 1.965806208142951 0.007253602094174533
0.2920257293409499 4.244170672554288 1.9195042859022835 0.06097933351643712
0.2901016741583212 4.233535701572213 1.9019162538372678 0.007100185786366454
0.3070080877770984 4.255585495381935 1.898403153991508 0.06920136952663694
0.3878252213673588 4.461919177323419 1.8878589416997467 0.006043391848624259
0.3862526736325345 4.434422002247098 1.9074332208580689 0.003417565611889708
0.38757813896287296 4.419306045518845 1.9282203581111719 0.0024566478014697527
0.3884492571406873 4.5202800011420825 2.011901741948965 0.03543540316871512
0.39398509956548866 4.507521614433448 1.8976113010596354 0.0048210261935918205
0.3922688938216441 4.483401007944337 1.9134679661974823 0.004661163206803518
0.2775003680826936 4.23218726751267 1.8576340233634725 2.0185526406384673e-05
0.3882242234537442 4.464756285464178 1.960566486782583 0.012419898437643635
0.39764071162700126 4.488045959312159 1.975463593949657 0.00916013134952286
0.3844582079461553 4.445345019927506 1.9550548782341932 0.0043480037436748505
0.2319346164333706 4.172248932571099 1.8707344583953618 0.003784959960964898
0.3896894654269551 4.469508912221269 1.9096782929249494 0.004024637505288377
0.393933442727521 4.463610301339128 1.9263356224791048 0.0014797393366060747
0.39367526632861843 4.533054124544606 1.9552402523452075 0.04945633403359311
0.3863160684317307 4.465348285037637 1.9723724224975876 0.010962127557275714
0.3380929938918532 4.299329400492971 1.886919807724768 -6.854288356978432e-13
0.3921050115957236 4.5111922664643735 1.9317265041559788 0.0029057074828649754
0.391739461730778 4.49765759703897 1.931646437351614 0.005659367664631393
0.3882912258749796 4.399965347082532 1.9640624380514073 0.0014230180793184356
0.38841999599589083 4.385374154867035 1.9508541033231541 0.006699998567899632
0.38672674329931134 4.418057487552735 1.9661787947550262 0.019227922956469426
0.38896960924962676 4.4492399445336615 1.9398328928998445 0.005139207442489633
0.3963686649650614 4.528873364598333 1.8940861781489169 0.012144196737684406
0.39885946298631564 4.526306154070868 1.9267439395375432 0.04197415213224502
0.3963980242801264 4.533362878052081 1.923783844617731 0.052967034112486634
0.3819700829909596 4.492828984909574 2.0388105271074446 0.008282379336893977
0.38795701713284025 4.494326939797202 2.012645130906663 0.002031942978667171
0.3826515516792581 4.498641770791255 2.037460248874255 0.011333079015285033
0.3725895044704123 4.544886659735965 2.012901855378805 0.045326948302730326
0.38678610973665817 4.527581580657469 2.042043483900569 0.021901322215296795
0.38234225562825985 4.503715358004059 2.0255711626437884 0.010799880206157807
0.38288956107365 4.462581465959671 2.0335867281149396 0.0042850079909922635
0.3783508340603633 4.429408224551746 2.0219714865437033 0.007488849804700973
0.37686524811943545 4.537301378912284 2.057079375710552 0.03976659965552202
0.37570216882353 4.517782925198212 2.051056091547893 0.04396497941944809
0.3723096246824854 4.497000087974276 2.0508610863572345 0.0058329630041460525
0.37384110506286833 4.475671870899777 2.068325784202088 0.007220213517597207
0.3684250403563379 4.482658903482457 2.084522259744892 0.012436873939826355
0.37201949840751486 4.517262796085289 2.072962891957084 0.04976048495663136
0.3598138816435682 4.54577144888495 2.0828592474953704 0.051416799808003594
0.364693644263463 4.523817622282473 2.105314839066993 0.040125648310787805
0.3749543315045934 4.46037801332127 2.0498454113160824 0.009396966946339425
0.3638811350242382 4.465195129470299 2.0774283074229714 0.005734865744997151
0.3644486694343959 4.450378588405326 2.079834784208553 0.0076758269351527185
0.36028287614658694 4.43746078537902 2.0733753382759246 0.015553654750638602
0.3672229533578525 4.413973233480632 2.0568693321068587 0.014856806873863123
0.3668659166311718 4.441733117616128 2.062724697993444 0.01193063870048029
0.3730773617350884 4.433626073678954 2.0356627643416934 0.008560556922576429
0.3751226007219143 4.41668152564035 2.0515488890433455 0.004283997638000218
0.18139277813594884 4.1583513610260825 1.9002778522461472 0.054104247149045416
0.35016250997182485 4.336783388776625 1.9745520734413744 0.05519113305588241
0.08879879682548653 4.259901388796628 1.9209736138677425 0.03599252930694762
0.2596416588835493 4.211625403178411 1.9087704908426129 5.478171006379663e-13
0.21288727094701618 4.1756146345712155 1.9030857461696296 0.026139058277082673
0.05405549947348311 4.324495187848112 1.9661327082060525 0.0031269537420034587
0.05622669893622108 4.2904837044398265 1.9324858419534072 0.00656369530521751
0.03140765988877251 4.333669279171215 1.9710744638810196 0.044987432044464655
0.16344743259270753 4.184562446335273 1.8963366186683372 0.0014151593775220265
0.20179232614862017 4.167464135902611 1.9041334918998285 0.03782418381908015
0.29391993082031015 4.261250116461503 1.9288056728315557 0.050866557055438764
0.3270176603068844 4.290142667997849 1.9373613684714035 0.030562772498143487
0.09820186446558304 4.442146692403368 2.14637195287791 0.008644453024475167
0.10179307182343163 4.453040919388759 2.1541632846217826 0.019853276963954503
0.16495914718856244 4.436766684040701 2.1406626440934935 
0.03261895218800063 4.329835262826295 1.9659919014337939 0.04518620138379807
0.36439393605278875 4.394373180765079 2.0446432828533214 0.019215895478511776
0.023740837248524327 4.370981926954486 2.0101822385850174 0.01772695741216652
0.37607513226358785 4.3797552317267545 2.017219160058764 0.00352522665386891
0.34069914079110925 4.351620953740544 1.9924147172163802 0.0034403131044453182
