x y z curv
0.19787265986261526 -1.6382078751271707 -0.2578225003456176 0.013616695194819768
0.3201825157821963 -1.6383107927589302 -0.2660027884353423 0.004628521876762297
0.37187782996380525 -1.6403270491109836 -0.24158930583721502 0.018254289523997807
0.097318636575835 -1.6307620936365808 -0.2560968027412939 0.01112740836181032
0.2722397301450686 -1.6386871293832974 -0.2520202649925176 0.0053943123674179815
0.2189258167200152 -1.6351494317938502 -0.2471564668764049 0.007521467919199201
0.04792565712376842 -1.6447248203888658 -0.24793758164714613 0.01067637488768809
0.32583969594321366 -1.6332373449106343 -0.25187595587616723 0.0022509435363259906
0.35783542565989884 -1.6391225001165923 -0.2469991846937019 0.024199472753852886
0.3756212958439117 -1.645414130378658 -0.26155538468133926 0.08003675569056963
0.13660333574862848 -1.643508284922769 -0.25190728342487523 0.004338524004640667
0.2400305181753555 -1.6318234777587493 -0.2617189325955819 0.008474868258881713
0.2902641569340008 -1.641280881933221 -0.24814746438760252 0.0033569534749325223
0.12225940853362498 -1.6399142588405784 -0.23174327987316715 0.012715928651010048
0.15405842914204032 -1.6351371851681729 -0.23943934376760703 0.015539293197781972
0.01745375043715506 -1.6444285893718178 -0.23989836761212818 0.005039072133688641
-0.0003302088268568055 -1.6387943383037267 -0.2436100112122602 0.007639467915648744
0.029945271959308507 -1.6355206812886227 -0.21576325370359153 0.003618466516199231
0.08876129654161928 -1.6370123661535299 -0.22973198179550136 0.017661591751138222
0.2093699379163071 -1.6411396955914916 -0.22609567249099352 0.0053680131756439
0.2544778450616127 -1.6363681451343666 -0.2434077034056603 0.003032420378220017
0.1862197291813379 -1.640752359353772 -0.23225468293827287 0.0065472050760809995
0.04041110244114089 -1.642182962143845 -0.2357757105871213 0.005441281869925922
0.0668743690787405 -1.6438933829840803 -0.24183136937094463 0.004899486628144661
0.1639744600800191 -1.6369310185506798 -0.2252085201664898 0.009772441889012757
0.33588202024510927 -1.6352821587118884 -0.24519736572421014 0.002682735566195539
0.19987563818944204 -1.6400689374619024 -0.22098301023729372 0.005282863845986529
0.27187851420565073 -1.6397183106157986 -0.2212927942921682 0.005376272891949399
0.3722384916306776 -1.6397733440334015 -0.22927934854424764 0.07238306108757882
0.14528191667182727 -1.6395863131896002 -0.2146443159750237 0.004107820655027388
0.32364462708876446 -1.6381774224960866 -0.21248365600680547 0.013644110341914215
0.2706287967853974 -1.639953710857442 -0.22027319108113344 0.005129803520843793
0.2526243205771841 -1.6400307466562538 -0.22867114038391687 0.001545286685482902
0.06394789366722445 -1.6381436500660638 -0.2126994849344496 0.003595665485116258
0.09219589684527735 -1.634563571614178 -0.2076555855129823 0.003743103586947937
0.3793013402951351 -1.6443820153356088 -0.21662760741920445 0.04608738860193902
0.37598860922355115 -1.6416605763601648 -0.21011496995808412 0.0358033464747433
0.04230846268066949 -1.6380018420555087 -0.21735474569200633 0.006813381746733295
0.30756217575347194 -1.6383541966399637 -0.2235251450525531 0.0034300898684362134
0.07575894050137663 -1.6369614795877712 -0.22019836470405213 0.00287964905660386
0.38311409622205705 -1.6440416687049917 -0.23250206749503885 0.05477889376653029
0.22402736843091187 -1.6344938957198285 -0.23539747206299852 0.002548533086052584
0.16996481870795033 -1.6350438993135044 -0.22462174253977216 0.0019609689406566017
0.31994714566355026 -1.6381661544097093 -0.20600451162653471 0.007074925812155605
0.11429798537105679 -1.6409224499458053 -0.20245394288840413 0.0022105232971240505
0.04579683103701656 -1.6359718049322811 -0.1905405588298698 0.0019508955102095387
0.3359457468808 -1.6384952033349367 -0.2118178097373151 0.013450415466272
0.23472790235281188 -1.6401345695604244 -0.2020811857764812 0.00820197003919256
0.07950936780645738 -1.6352591397525627 -0.19858115577396868 0.005271458748548516
0.13550439455400054 -1.6386204583105266 -0.18862180750686022 0.017950100430176478
0.20426481024173343 -1.6395025066798168 -0.19321660567983454 0.006299704284367504
0.03382282889223005 -1.6410931745954442 -0.1836021838504254 0.06473946221489486
0.11777946669653651 -1.637806102565286 -0.18820382510942743 0.00486181850062152
0.28981001773218423 -1.6383811131795911 -0.20582821280553895 0.0044613877259867905
0.019615715535893453 -1.6399685646638427 -0.20768592218474052 0.009292545922522818
0.025696978259274833 -1.6420282722328419 -0.1817057396148121 0.06432698913306828
0.08205985442790739 -1.6361406609472013 -0.1970438985682565 0.005345268854388116
0.33870076389297027 -1.6417094402122778 -0.1734480306465525 0.017544772292213812
0.3680148404109064 -1.641004344476943 -0.17863434791797245 0.11539232343864987
0.27479149519550755 -1.6356655600888756 -0.19028185375399717 0.010589646410153544
0.24178805578089588 -1.6378272230484976 -0.1785882551805889 0.010806202606082694
0.17154843796218203 -1.6289286887703345 -0.18241622898334728 0.008038651843843884
0.35394622035071954 -1.6435089013421558 -0.18548025576113628 0.14639223143332128
0.3597441885329948 -1.6292040588122243 -0.20962933162232006 0.012841359221313135
0.18657298155409607 -1.6367103129420884 -0.18371974425630672 0.015538865907494223
0.3245240829174001 -1.641501839987975 -0.16810096055483958 0.00524632297206016
0.15243227306777662 -1.6392166797473693 -0.1912223504636934 0.007514496526436742
0.3676209068645224 -1.6389990512999992 -0.1988126760976193 0.09380180561611753
0.2610756076435312 -1.6288264366415364 -0.1845698769391028 0.0004617022788499273
0.29430485235092524 -1.6353475395583086 -0.18887774081797112 0.007254915812216296
0.3012058842530406 -1.6369420302855584 -0.19229861067278906 0.006464195689486026
0.32672028344314363 -1.6454683376092114 -0.18654248680246846 0.0012314436402599384
0.09523397239174106 -1.6316717335143118 -0.17046208614484115 0.007607779895954899
0.026717331512975402 -1.640733212154398 -0.1672360559743083 0.06676880868128214
0.2643095228240851 -1.635617748446867 -0.16500564413978877 0.0101941404249463
0.12154117958680855 -1.637087216972477 -0.16022598463901305 0.007427652009267691
0.31084573890888245 -1.636978580828589 -0.16089636532708032 0.0036472167391319176
0.2097264395609082 -1.6399136227454805 -0.17491876270674214 0.002994578605068014
0.031318961042653734 -1.6380394210416458 -0.15325549065586078 0.013986912668507578
0.23462726736416595 -1.6389550135136353 -0.1540473967236409 0.004097065326553418
0.07030341436951552 -1.630206505394403 -0.15818089306096356 -2.6685841523406165e-12
0.14232033718122636 -1.6417825875683374 -0.14884805777878599 0.016355478205837146
0.11913298715966855 -1.6307797680702425 -0.16700389797383597 0.005177469170092575
0.15719310459154293 -1.6397506782402642 -0.15807086131541756 0.010418115866838626
0.20956373891292243 -1.6311688259627382 -0.1465043498599159 0.00689754385717404
0.17338376851974266 -1.6294789338702775 -0.14911462340130519 0.008306502288620952
0.27799047690908957 -1.6316071621856414 -0.14426617789293078 0.0020266736209350812
0.2759647324094319 -1.6339572190603597 -0.13812973767488548 0.01256552537616743
0.3240787133337623 -1.6367988441189272 -0.1413711353487345 0.01353073813852942
0.3666373717671711 -1.641605016200463 -0.15077378958763285 0.11341257624679667
0.3064806601114804 -1.6368086941844529 -0.16428229973130923 0.0036611289324211985
0.1911082409430007 -1.6325582510626153 -0.1460817246330751 0.012349560027859537
0.23871468520858413 -1.633583952828735 -0.13115365553708766 0.005025036617540554
0.06658978041145669 -1.6327704617187646 -0.13243729052411352 0.015600459293856435
0.09555606213999593 -1.6368351043959435 -0.12292393204390166 0.006951614967633417
0.10008093777207046 -1.6368039255533513 -0.1345499223635535 0.0042382904618105685
0.05222481668917537 -1.6364814058268624 -0.12027974624306552 0.03270939066541704
0.10826785807801953 -1.6395338185135024 -0.1188745182224313 0.0014950597304588798
0.1541620841351713 -1.6391696247829455 -0.12930527096463174 0.009712678753319465
0.11913514074854323 -1.6354306230221773 -0.12630090371647 0.002523021157849127
0.18236666134121202 -1.6359153461725868 -0.1319050490701942 0.008631430569956026
0.08129059665690579 -1.641145289554019 -0.10988541831406713 0.014071464758480506
0.1699286067638486 -1.6365907744746993 -0.1367690013953657 0.009583478321849992
0.16479947258774366 -1.6354740854076684 -0.10913375528660689 0.0027794661659109204
0.2764903291261443 -1.6344755890601779 -0.11323624875747315 0.013236381624214942
0.32752615554747 -1.6397530807287226 -0.10398103905027309 0.05342269094964411
0.268571509505852 -1.6375086436326722 -0.11725637740720239 0.004825221934703398
0.18339146552038638 -1.6347311485384024 -0.10888855098582206 0.004066038556889443
0.31044776287620346 -1.641412010188904 -0.11968483214144994 0.004687729738813734
0.29562103933127204 -1.6341889685180502 -0.11953015460723453 0.009645247724260326
0.21839831588822484 -1.6353049454088062 -0.10995643880330122 0.001773697897006744
0.3486758706355442 -1.6410645758416362 -0.12680063494969426 0.06004759949026477
0.129132487818583 -1.63718674873205 -0.10546039350540476 0.003199105165641795
0.3165782627996945 -1.6382099274922866 -0.10366785902353268 0.04037878944716658
0.3361384682936545 -1.6395404906708817 -0.11997323370053839 0.08478058964317087
0.14808105874666389 -1.6383253163804044 -0.10142237140089314 0.004997305308889027
0.23035741706477758 -1.6365219720669661 -0.09541817038486347 0.005749162847492913
0.2478060148042125 -1.6339407256895908 -0.10276209741528082 0.008290925135488805
0.23429945395381235 -1.635652075972194 -0.0965424896943795 0.005830449267810379
0.25935934034088737 -1.6290405251968136 -0.09425488548203761 0.007334703787288019
0.21743239574116374 -1.637839988800128 -0.09349379710297949 0.0028724727169796935
0.3372850324045623 -1.6370731298386068 -0.09579058619567529 0.05632982669232187
0.2973459762621266 -1.6346011760731347 -0.09972275230067229 0.010023816711118856
0.09050155184101644 -1.6456886581468926 -0.0830887422503332 0.023158848547656034
0.10744151722481964 -1.6395808823297453 -0.09883817326864922 0.006824991631952693
0.1532168057085795 -1.6377727077316158 -0.08575176532521103 0.005630072911039214
0.28249467435464326 -1.62963675818545 -0.10366198893460088 0.0074670777136614875
0.08934243960601772 -1.6431600947427374 -0.10052211419701537 0.0053777851755978864
0.07888206739935624 -1.645058300874651 -0.08514429057664216 0.01398666252680154
0.1689592439835971 -1.6321873082198115 -0.08498087383443298 0.0006370304504977665
0.20141067362104226 -1.6362000323897274 -0.09209428443160217 0.004480390784862305
0.12511123856045744 -1.635071635667754 -0.07381577624247415 0.006195973332020383
0.09944126183606884 -1.6453447398219065 -0.07458039983361259 0.02293410206038753
0.2844654843176211 -1.6322954076652705 -0.0664866552006286 0.00790724373128383
0.27723427980533333 -1.6322415254845528 -0.08146016525676256 0.010840828773802397
0.3136100409461202 -1.6401957750214353 -0.0722877321115495 0.04283911527152835
0.29422587510573395 -1.6423724789417713 -0.05514334775934378 0.08355748799325703
0.2502877040181172 -1.6386273862880167 -0.06837603274047727 0.008559110936895509
0.30171197044186104 -1.640140400303789 -0.08595365102509923 0.037352772322076594
0.3028541959646785 -1.6433089909024503 -0.065721899213223 0.05545345291420796
0.14582544679573992 -1.639073743087639 -0.06792357946835667 0.004540966524372118
0.10781319098765524 -1.6415724491767463 -0.06923105678659888 0.016542109511801607
0.32345325047043455 -1.6409097956820091 -0.08443609274019911 0.05992238057654592
0.24265831025359183 -1.6336980105075303 -0.08679454459900392 0.0024315125844434978
0.18545118440709335 -1.6459710344218184 -0.04959755599462404 0.014395725567091816
0.22331212137550752 -1.6331637632128198 -0.050801116067886135 0.00972789365170995
0.20957886437589096 -1.6415303645991906 -0.07004957743362365 0.006039108686656202
0.10623628483634445 -1.6388402125237445 -0.0545332155020954 0.015547924255623914
0.19758832962924017 -1.6423881995668712 -0.047045994251787446 0.020278601844796657
0.14139088331486552 -1.6351759997928914 -0.042114073623761766 0.035531357750146736
0.25554444618353417 -1.6395366994265377 -0.059968362883879384 0.008671137205795107
0.1558450032868383 -1.6368173571870737 -0.04148765629289621 0.04967082972290332
0.2942847676777793 -1.6401571050618624 -0.04056113133731443 0.03140062043624943
0.28649680864348265 -1.6386222474705685 -0.03734853057883389 0.07215088085391883
0.1415878547130276 -1.634678876843636 -0.03611117060762239 0.04583897685273378
0.1640075448825735 -1.6388845586220746 -0.022654376922100945 0.06455865348601968
0.22441539845701422 -1.637355709527028 -0.019453594533423903 0.07218143503452508
0.2698211395599347 -1.6396858795043365 -0.035648243896233354 0.0836343668901444
0.2011242084110234 -1.6336297564573858 -0.020334045434452098 0.024256870694140634
0.1799346536292313 -1.6435155511157074 -0.031119288544843905 0.042045217314531
0.2406691946246784 -1.6436466570338808 -0.01620777618825202 0.05629902056171436
0.20691421585326908 -1.628308909263498 -0.017356006992264188 0.02204251152234261
0.1601784751726702 -1.6370672769148993 -0.015358541328204127 0.0413372755555335
0.19409257141628197 -1.6343856293041343 0.003294325870653773 0.049025718599005716
0.25091816530597383 -1.6458338657400595 -0.6941629054827778 0.016597374967750555
0.1282104961206815 -1.6451652638639869 -0.6934149286694327 0.0007246818478228244
0.21640200118790118 -1.6422683980517192 -0.6949965751769812 0.015566930371137013
0.1714299109050696 -1.643535332364731 -0.6992478998159183 1.5049933763844229e-05
0.11819145499977275 -1.6547208404917104 -0.6963271354921491 2.0380298171523524e-12
0.27109895648603266 -1.6521711400979338 -0.6885488956125875 0.10209436459183016
0.2626442332710765 -1.7285890713354317 -0.6879591686575792 
0.26856248490800544 -1.6883879334918626 -0.692247256349126 
0.23599840430817548 -1.9734339922173096 -0.38293945576095423 0.006826039668883609
0.2039871438088417 -1.9625572811117378 -0.3868507086521964 
0.13040694833954558 -1.9421955577662295 -0.3795584310304081 7.984318807398543e-15
0.1757725487122446 -1.9331610376122308 -0.37880746699717055 -5.268475280354214e-14
0.26407320646031057 -1.9139901580718326 -0.364160299718518 
0.2089434952534166 -1.9264511146025294 -0.37018418097391964 -2.306799053073145e-13
0.2966097616476716 -1.8799528733744557 -0.35404076133639806 0.0006105654755076341
0.2578161287244444 -1.857226713296125 -0.34174934876774093 0.0010194518261060564
0.2797955096517576 -1.859617190407669 -0.342467621008168 0.0008008640415840001
0.23866965987285327 -1.8605489195836664 -0.3391947919899351 7.539199349620418e-14
0.16168181531426054 -1.8700107444039673 -0.34002425123473634 0.005706901697283805
0.23099679911678406 -1.8765226395238208 -0.3471369509186193 
0.12217706776418664 -1.8912205193443754 -0.3607428988563038 0.008713586399642419
0.1309675554382541 -1.8747510757956185 -0.3551272898910918 0.006135619653341721
0.17612985976224393 -1.8837265003075123 -0.35816808259275007 8.115110865061334e-05
0.10114674438702508 -1.8876798954329206 -0.35630686221218566 0.0017250915511047818
0.19481192809983955 -1.8999253550074104 -0.36020016462079424 -1.6181249938967212e-13
0.2807308674362915 -1.9018765545553307 -0.3648764047334382 0.000696168774691943
0.12576810258502233 -1.9066954339048467 -0.3712878382504441 0.00589330198306236
0.1540683429137893 -1.8966048895447796 -0.36141674225681314 0.01324294269959687
0.2050700058089231 -1.9091687569413274 -0.36536978959522054 3.4148896783241794e-14
0.11386458285431071 -1.9035788703010736 -0.3705816137300536 0.0014647266273471698
0.15404536126031426 -1.916706423817232 -0.3716818968351475 0.005924403266477921
0.1979938367794881 -1.8498647210422847 -0.34316789767995304 0.002314518495924857
0.3077064895759955 -1.8367171575637347 -0.32934656783943395 0.0036852806294832056
0.2847625941952561 -1.838933696144449 -0.32940654649338674 0.001256219604962835
0.2992742743652186 -1.8438249002439637 -0.3347086585666769 0.006691532491554244
0.2767944541604074 -1.8244414658984813 -0.3159226259799726 0.001589170248528251
0.24723144003870212 -1.8202265578623293 -0.3171090731659954 0.002927201232650833
0.22756438682267513 -1.8363171925651047 -0.3282459065185747 0.008510622506515287
0.22645231843456437 -1.8158855999417147 -0.30255089208810193 0.003939383644973725
0.20310340607868832 -1.811512708789808 -0.3065457961866717 0.008454961366275883
0.17593852504588603 -1.8387288964227806 -0.3221574276295708 0.014397928289595113
0.20311145444076287 -1.825253382043993 -0.31822158091164127 0.010110397648237129
0.15971481526204948 -1.842321311862952 -0.32717641238183026 0.015881286547714823
0.19589187471255762 -1.820604402463979 -0.31516385736863306 0.007620437577194885
0.09095134940385209 -1.8484253958450716 -0.3308287951959436 0.004783054192921556
0.14294863206308805 -1.8362206516009056 -0.32066547955961316 0.0019536521465794666
0.15296333293503747 -1.8209174499051033 -0.31003814857418394 0.006795447765212575
0.13835856161429674 -1.81717676426911 -0.3099470337685169 0.0017514374299843077
0.1630312495406004 -1.8199879216059736 -0.30579920710872527 0.007237450859463405
0.18962149502794548 -1.8352578532481298 -0.3248802242377591 0.005094876261003771
0.10259513720926809 -1.8364025965329798 -0.3287057893349754 0.011733626752010048
0.10954909190798666 -1.8468477978829168 -0.33850211356043225 0.01374304600162226
0.1414432596708023 -1.8474127281446855 -0.33760400230943866 0.0041838960166955905
0.3329557045524794 -1.833527473808748 -0.3158592425435376 0.02366814375216395
0.3233578792847282 -1.8129386793588362 -0.30580378361414934 0.01090187687043303
0.26735867668709506 -1.8173615900945506 -0.3076381916453546 0.0012740862525480322
0.3100601922605114 -1.8024910611284293 -0.2951114279474249 0.0056575350112029
0.24466213924650532 -1.8178117681738284 -0.31122993330969856 0.0057787040353955025
0.329512806658179 -1.8177814063473055 -0.30557271615883225 0.007079622830293829
0.29810715509481384 -1.7994782603475892 -0.2882725279903111 0.001649551239045918
0.2530653925943798 -1.8059011972176187 -0.2981419083397177 0.006843712223909156
0.2213321025096357 -1.790987322184281 -0.27388563218344003 0.01554146661914702
0.24498919305703884 -1.784648228649932 -0.27923932019267583 0.002054397084044938
0.20470367490033559 -1.7873579645395252 -0.28024150696831174 0.0074684318664112416
0.311108750753609 -1.7922433351195908 -0.2725589024706162 0.005312876610500365
0.26430577764016255 -1.789449229340364 -0.27848856424781093 0.005161861878836003
0.2421516061146939 -1.7984086398170644 -0.28885417809572234 0.00877033285357481
0.3317345919351731 -1.7893001501201151 -0.2711708873100297 0.004557923408902898
0.2777377805966366 -1.7861839382305573 -0.26930047927371303 0.001279445916660362
0.33750825602669743 -1.788413561070505 -0.2699515719990955 0.004674381529059638
0.14366281633397704 -1.7925509263721684 -0.27883973909063325 0.009163891698822832
0.16252095561782953 -1.79236957024 -0.28864483283649894 0.0012764437932800965
0.14191609523167223 -1.8004266698964524 -0.28576847309491704 0.006242841416321781
0.12634534615779228 -1.7958990591938617 -0.28360318219667585 0.005532930105735038
0.18335287208445444 -1.7865697845525175 -0.2761958288751075 0.015476127257624463
0.1851118937115915 -1.8097380471609283 -0.2956738293816538 0.004320042426386782
0.093716637970403 -1.7830070343220508 -0.2719586421011432 0.005337922018770244
0.09920030808143608 -1.7795868978233562 -0.26703499439276907 0.006895343733940812
0.07459853360806026 -1.7948193094494485 -0.2746909503778778 0.006842339810796337
0.31685480087922513 -1.7749654442003235 -0.25393294062383304 0.002347708801961154
0.33024004174533156 -1.7749841039844134 -0.24341445090765765 0.006736532153953053
0.2511561627575525 -1.7730940628640595 -0.2548637977134858 0.005750652795333508
0.2395241887968581 -1.7656117997806227 -0.24491429189118152 0.006036106297890697
0.2471953698844076 -1.7714014535877265 -0.2487794610323151 0.005682615884684953
0.2337435112241258 -1.756053908044302 -0.22595429941235398 0.008136069651946866
0.20270369944054126 -1.759185756723862 -0.23512023000898385 0.005136445266527751
0.28236079194795743 -1.7672845046931855 -0.24003825823925246 0.0031867898922519817
0.21762989246047104 -1.7767741880145143 -0.2510142927796874 0.004157010595999214
0.1905801641360044 -1.7548260072401003 -0.22631478897814203 0.009208913075474896
0.09455788943195945 -1.761858014055012 -0.23743824059241203 0.007922599424645148
0.1639081363124539 -1.7560685724271672 -0.22682315894592495 0.004739593705719075
0.13515619218684355 -1.758198824470756 -0.23120130436490804 0.00482926219333108
0.21066603343838075 -1.7604505138783968 -0.23513857629331375 0.007428361858134772
0.19698918921695024 -1.7542417464159543 -0.2200968341994285 0.002897814024709336
0.17448538808478029 -1.7567060408523305 -0.23452567976409816 0.004009866294862955
0.17078641970477276 -1.7744864316986444 -0.2509941735757694 0.002878585471163572
0.13504313010141628 -1.764253232972748 -0.24103087555843503 0.005797938941456838
0.08820353965171657 -1.7617450145304117 -0.23579817784524035 0.009278225635428947
0.11848576220581436 -1.7596769853329064 -0.2343405471915847 0.00690762249384754
0.2632000376165088 -1.759142316228422 -0.23293689931084843 0.0026560598251975202
0.24066801141948935 -1.7552396192128246 -0.22428962181265094 0.0020273173077048428
0.30002935251755825 -1.7576988705729693 -0.2224807763453903 0.0038976417390477673
0.31600030848684707 -1.7621847836072988 -0.22132032333128066 0.0063043446595891115
0.29111656336008235 -1.7422485691492675 -0.19673067660267496 0.008195194039152715
0.2844847104850928 -1.7453279222148144 -0.20813290510390037 0.004378258842186299
0.2715981336803905 -1.7455951992050034 -0.19843337725725488 0.005646857616695188
0.3081413245723269 -1.741404839618512 -0.1878734408787771 0.010834086179863724
0.2253086059212552 -1.748061926757155 -0.21025649323505394 0.001570759887517251
0.25038349918804076 -1.7447744330630441 -0.1983273777572952 0.003662443386189448
0.22475200573133472 -1.7453407096678488 -0.1888435957512373 0.0011627018801900694
0.286246410637729 -1.7383695185572106 -0.172169707003182 0.0010566894535970217
0.20503792169506374 -1.73642958315458 -0.16804294130686467 0.003863502268696553
0.20957151666336635 -1.7442846747360512 -0.19573919255040906 0.0019457911599075404
0.08482109185732865 -1.7593017785753147 -0.23250793181129836 0.010119719095720372
0.09060611382748764 -1.7555683361348864 -0.2241383320118724 0.011553595127239248
0.13453794290577356 -1.752197673710507 -0.22312037068023408 0.0026436173219193254
0.11826601549215623 -1.749682024591067 -0.22227636969801443 0.0016065172870303116
0.11522793413735409 -1.7444878465529594 -0.20795777003727903 0.009327211762801674
0.1126140377053771 -1.775925815495126 -0.2567815314414778 0.009636337611137354
0.15995958785267375 -1.7739519244361523 -0.26152306146269594 0.0075918691756796716
0.07204815535451708 -1.772736417785909 -0.24359858881686156 0.008682834136515875
0.09133953251297225 -1.7798270520599953 -0.2510044235463695 0.00576182502089422
0.10821860960351112 -1.7686136738008011 -0.24784790318359187 0.0066508089068482625
0.14028444315974906 -1.7710889314577665 -0.2603425075435465 0.003411843528274544
0.08397395290074502 -1.8102811570481478 -0.29451660293979265 0.00041584068713542734
0.08048623264913535 -1.809372040985216 -0.2928155067369896 0.0008658494961374277
0.08178565372713545 -1.8046936403627432 -0.2904337717176351 0.001166742837479705
0.0939808714694599 -1.8194482160428382 -0.31303119648190236 0.009394485718408745
0.09389816598301261 -1.7407754954541212 -0.20271397808669617 0.001977660138996958
0.18414204858831623 -1.7507356180185365 -0.21205460903640236 0.0022044526770492907
0.170643004898023 -1.7453915024752138 -0.2094438555002054 0.0017186933428686353
0.14683790328393517 -1.7443436444544722 -0.19980755176263493 0.006051024197304688
0.1204195715183199 -1.7380226123969997 -0.195549398692518 0.00197763933693122
0.16551213935747874 -1.7377030147447055 -0.18622182383129013 0.0015984944087277329
0.19256700758212378 -1.745905030409201 -0.19496357882273435 0.0032086298789798223
0.3130077296360386 -1.8839055958846833 -0.34717647453952594 0.04051695736283678
0.3265159924559077 -1.8532315862135746 -0.33610301079084215 0.025195900341109616
0.30636484338841274 -1.9012188515654704 -0.3601156898805058 0.054471402712177014
0.29639439045859733 -1.91946882204384 -0.367701315338633 0.0038670046755177804
0.19813782041083733 -1.7478810486506418 -0.11644250155895736 0.005785867952083267
0.20397240545833004 -1.7358263244423082 -0.15260790007643446 0.003477361149240124
0.10325819165566828 -1.9410386516799503 -0.37953292222395413 0.06357146434272411
0.06265702659418515 -1.8698331422722425 -0.33731336162123854 0.02632130850898181
0.11638683577841713 -1.8514601001639917 -0.3417493708430292 0.013848435938169323
0.11164488005185147 -1.873176982896559 -0.3490916948263382 0.003430365727844625
0.3450563235096475 -1.8068918030710504 -0.2865373744531615 0.02632765330533249
0.35656942587798146 -1.7666707538734885 -0.21609440797054622 0.07926566852510297
0.22242662125790802 -1.7364247047892585 -0.10363214831167512 0.003958055650013433
0.34659388049871165 -1.8239921691733436 -0.293359340695725 0.06590131163439443
0.2939224106567881 -1.7373155807142797 -0.17210223809136574 0.0008248616778863627
0.27099623645880677 -1.7355080485816654 -0.14414485731032636 0.0013406924816217864
0.2546725977529535 -1.7392072441535986 -0.1399836295909175 0.00751644156607859
0.24640639754321775 -1.7375230260173617 -0.11374871233014874 0.0062823633321199834
0.19686620309754366 -1.7457682328613555 -0.08778595484632719 0.006640134491170883
0.16629758147879695 -1.7390533635650915 -0.14975774566463582 0.008822065767993385
0.05876974926164601 -1.76299789929941 -0.21229432737906162 0.009736984312378377
0.24584590462676598 -1.7387948265267366 -0.1312434179165211 0.008316376665824042
0.23250584979358618 -1.7409349071694982 -0.12802047453099985 0.016494978211565068
0.06831351277773975 -1.750476820134525 -0.17778576487207465 0.02041727793594398
0.05365834909640786 -1.786281762272436 -0.2543320916753348 0.002613451645753157
0.050025367386617524 -1.769912751721054 -0.236871735490885 0.06044548282282104
0.058627189120316635 -1.7551808907287811 -0.19828645155654126 0.0264896522769068
0.17863804958377064 -1.7410451724835054 -0.12894845621758144 0.008228518827572142
0.1739680533912854 -1.7412736832979951 -0.1482589017052203 0.005912459969956067
0.17345202525368955 -1.744131999989855 -0.09590520027091486 0.007732276401552197
0.07866137271867694 -1.7442128315260226 -0.15391195772693117 0.008748224922062155
0.1334106601525374 -1.740515285653878 -0.1794916920464249 0.0076981197455233685
0.09157491236213418 -1.7455014763767644 -0.15797631147615313 0.004544686810816754
0.13707849501189523 -1.7355544358313106 -0.14880159804368562 0.005677741226700838
0.11497934283170247 -1.7435028188112967 -0.14892678712899568 0.003469706058164796
0.15435263108234779 -1.7363127417766646 -0.1464526375890607 0.009849749513505892
0.1452606502552047 -1.745260818832221 -0.1211696038295499 0.005662811026670126
0.02988928456422059 -1.8121793915492894 -0.29151769252325244 0.014127260705574395
0.015873238755430397 -1.8036511231917995 -0.30278557632233327 0.018281593865526257
0.02680966632182812 -1.6384339395923084 -0.49936789880086346 0.05012593944575492
0.0266761082320593 -1.8293088086464604 -0.3092275503775804 0.033293571884902375
0.02818669150183833 -1.8401817800817608 -0.32916147272393026 0.05006777978600348
0.029469075929267157 -1.8559532448019351 -0.3651500684196441 0.004378935517044911
0.03996833016645798 -1.8757244553721626 -0.36197235112935844 0.0379301653770231
0.03583325476544543 -1.8561205355450012 -0.40537060359976995 
0.12940437617638484 -2.001630039546572 -0.40854398902946654 0.008819222928846897
0.058553419687722444 -1.9334432808531445 -0.3861382338553601 0.027040403751477732
0.29679245290534256 -1.6787626758636354 -0.040422705372858726 0.028271493965831753
0.013510636655818406 -1.7582585370483899 -0.24748880402843937 0.09242851355776523
0.02509820378638837 -1.727001668594244 -0.17469719295882621 0.019512767784311817
0.012393736095576967 -1.6406312873698368 -0.1893852830973403 0.003962646207254192
0.018568111143404082 -1.6675330973347664 -0.15905002600018833 0.0154104545119555
0.04590114257888992 -1.6520577554122973 -0.1059546168741864 0.0588212447497982
0.07046613855248088 -1.6409339524457809 -0.08902647837229626 0.010914538384851966
0.05398165523746121 -1.6478948675431389 -0.10193822758819975 0.07291504050446643
0.044650672063685774 -1.7136671556805558 -0.12175890186281209 0.05644015161887034
0.33930571464712417 -1.9062739920314122 -0.38220306820094446 0.0834573336426699
0.3418540407242174 -1.9112145421815814 -0.4122222082409195 0.0031016712509073755
0.33654283418470154 -1.923507822756125 -0.3994775040164619 0.03742183672674494
-0.003591498871001478 -1.654800845757692 -0.3821791717369509 0.0051832926749566235
-0.007508669604468074 -1.6904243255381608 -0.3517576492179031 
0.1116716256830011 -1.98167357951521 -0.3853738361591271 0.0008868480613983725
0.0895250242531523 -1.9748716675516569 -0.41541815180879116 0.016348831733262664
0.10991183640728217 -1.631863545147045 -0.03332288776809492 0.010599282785483334
0.10105727387135892 -1.678590446962398 -0.03630887435320451 
0.008812516855489033 -1.647128384506996 -0.4105567660154062 0.012992951980127005
0.11331648566912914 -1.7267828589298981 -0.03546812213263481 0.06208588911567537
0.2621628141193535 -1.742365129009995 -0.6857608019851669 -1.9665710488692897e-13
0.2565841820325011 -1.7972888890412881 -0.6651042480432802 
0.2914785184228051 -1.7414124461005807 -0.6513761698844918 2.8230856941377494e-05
0.21075474863522348 -2.026049473799298 -0.4164445776037246 0.007389847355736071
0.031999530068003317 -1.7597692612437585 -0.21526856169751532 0.04681556730445734
0.31907504424397093 -1.9286743425264796 -0.450212100655648 0.0027578412941448097
0.3084594836882106 -1.914040244095589 -0.4866474048722487 -4.489599984249934e-13
0.3055418272926865 -1.9459456950506746 -0.4487656593517176 0.000615597379502639
0.302152786239151 -1.9435389918212043 -0.46224211965260087 0.0025375443138475977
0.2833041020519921 -1.959969619887913 -0.4763143900090112 0.003427222972256669
0.2856335419017354 -1.9692577411243555 -0.4466367456923385 0.0017869017052905595
0.26948074587708826 -1.98701505706649 -0.44841661974015534 0.0017318966611565743
0.26486011176387625 -1.9765304298934068 -0.47453807621158905 0.005341729898935535
0.36726726107093227 -1.8179246346783486 -0.28772712113159205 0.0465369433040383
0.3837593603024167 -1.797813652935127 -0.32368041513504936 0.011615085415722811
0.37065639494787117 -1.813099066295529 -0.3059301827385699 0.038975321128290004
0.3441385624032368 -1.8904235119425918 -0.41371926593971486 0.0036387229529428497
0.3486254554793756 -1.8754923510180153 -0.40742010302315307 0.003521264436651128
0.34718410629424123 -1.8710438456023988 -0.4270469008140275 0.005085909990831445
0.336193835351525 -1.7173730532580558 -0.10743565926222635 0.019424763673397367
0.3839981465243985 -1.6573979262943013 -0.47135487365156353 0.07155188285716807
0.3845939350123323 -1.6430251748384561 -0.4738254870264319 0.05122910673250909
0.36592098126238537 -1.8579295061242187 -0.3340382108895667 0.14214981028866822
0.3581582499299783 -1.86772044155394 -0.3408079733590261 0.11741973040664481
-0.0051707980639748175 -1.6379966392029714 -0.30036117817110297 0.034273255855760604
0.3538218752961482 -1.8695675145669575 -0.3838200887989038 0.004941216652709722
0.36349007472066097 -1.8530850920854396 -0.3793081187176081 0.004239137887565885
0.34985967943885543 -1.8867395034574532 -0.3620939115783749 0.10493043187340031
0.352694126033216 -1.8762128234803146 -0.3822700548355325 0.002608198084045894
0.3237981841079799 -1.9104132739615431 -0.45913501014931263 0.003110430371855364
0.401175298470921 -1.6431131080948786 -0.3862549496697801 0.02733954008972464
0.39691801897579654 -1.6732450769385745 -0.39797341588910273 0.012604163640065509
0.3974362578230917 -1.6597372205176635 -0.41949521794150146 0.03563993095954445
0.30300608384516553 -1.7120880391579283 -0.6460217865543243 2.375033649827168e-05
0.28292948654918226 -1.6421787287685747 -0.6697687240581662 0.028449494711900912
0.29580137800566053 -1.6571958694899027 -0.6633332494415928 0.12062695859047076
0.3030618143380868 -1.6915211490644986 -0.6509418294182815 -1.0561268920025996e-13
0.29964148795211626 -1.7321985382287461 -0.6433644731383644 5.3340308537193606e-14
0.4026924363238613 -1.6486751662208323 -0.3118097390642525 0.043910946080410185
0.40257246106316175 -1.6415592901055491 -0.3459536463506995 0.042413241964662084
0.4011720262599042 -1.6566072072167994 -0.30360689340226477 0.021842851487454705
0.38848029155370556 -1.6374710944263755 -0.35192254095393105 0.10304927838496193
0.3795391668040707 -1.6694043590025958 -0.4740421850953716 0.061282866589790326
0.3873737802358742 -1.6755033964909118 -0.45220064430404244 0.0019198696373074287
0.3789393997086295 -1.6794771683454923 -0.47263182690247907 0.013557193119029939
0.30316056455714663 -1.7619440283659473 -0.6306397757046465 -1.1077621661473219e-14
0.2884450096907053 -1.7294707261671438 -0.040017706244813524 0.03472895068855064
0.1586945419814431 -1.8220066479762915 -0.6579184779677631 
0.2995547360247614 -1.7198642927069452 -0.04702765782505177 0.07173107372577717
0.2840563117678223 -1.694220911716045 -0.03490956778221996 0.007631597503865327
0.3660619365399083 -1.840291519408471 -0.4052457146591419 0.0022854921612969754
0.3621559476140966 -1.83884961944185 -0.3916133365168948 0.003698298147419357
0.36240162660175185 -1.837870191849992 -0.3611451402050594 0.013078387349018296
0.35623349354295764 -1.8497752239101466 -0.4323418845043717 0.0003230390090772701
0.36623823506598474 -1.8300184827896888 -0.3661463180167867 0.006595109091048404
0.3668085219702382 -1.822369391249734 -0.3993144133334941 0.014112653384936936
0.2878240302570698 -1.6699667011979216 -0.023408878277812815 0.01804207811324536
0.32056693603248143 -1.730400235586317 -0.06195184407964599 0.03729302106053004
0.2550141770667149 -2.0114382471815366 -0.39702708778515144 0.06931276864214501
0.2506349732609457 -2.019839698691142 -0.4088126255197239 0.05581297070765347
0.2645459942612516 -1.7125279216694196 -0.016979549582590587 0.032269142623624195
0.2674057643070553 -1.720989825588059 -0.024393294776966442 0.03185748982492728
-0.006823787081869475 -1.6639131821458133 -0.2835009870833917 0.0027359042638405644
0.2691453647901697 -2.001791966876186 -0.39242259674228835 0.03845394723092919
0.2713301294091127 -1.7020506056178155 -0.01653658998908148 0.009661431214471973
0.372793147709623 -1.7695029445565853 -0.2644820580933788 0.01231902109870373
0.37046495206854557 -1.7988568777514926 -0.2769475442390674 0.09755072677740603
0.10117506762570203 -1.706893981483306 -0.04454115746383303 0.0001222540379660721
0.3093850482408048 -1.7114270058108865 -0.05396330925498798 0.06279843180980321
0.31148836383049955 -1.6985281865696764 -0.055928368419293176 0.021755622315546383
0.29881640577830154 -1.6831870039320482 -0.04649560457634738 0.010196447134892817
0.29601355044336614 -1.6691508185369215 -0.03669213450534363 0.04105153537564257
0.2800619756089475 -1.9937842138059947 -0.4202213112111199 0.017685864807859466
0.2824610339472208 -1.9846877327484804 -0.4354406718652683 -2.664244871150426e-13
0.3721098911714911 -1.8150765693001947 -0.31565386294952963 0.02651662693767461
0.37064454741667124 -1.8259849772995784 -0.3348811903612897 0.021000040730589174
0.36971935444181375 -1.7891980148620379 -0.2440954293779025 0.011233783612633302
0.31196500662054477 -1.9614220324496725 -0.4120379368265386 0.08032483453083929
0.3085189942585785 -1.9728294764912808 -0.39457866686527077 0.03183343043608918
0.3807479250814558 -1.6525497134218574 -0.21924912880013828 0.06765860605197486
0.38195281931296104 -1.6454747525930502 -0.2065987630729571 0.04065090241649306
0.33636183282519877 -1.9066123663547427 -0.4273482647771723 0.002777879902783713
0.3241709136368758 -1.9416945346637478 -0.4171647474575377 0.04053884148856458
0.38642513550793633 -1.654526671055442 -0.23362453991069687 0.06773570692294728
0.325705612267185 -1.7162395323110826 -0.09427441788546333 0.038668265043243805
0.3292452316518456 -1.7296424004279096 -0.1021796332289096 0.038606166272526235
0.32217273127573376 -1.7055075926973644 -0.07447007820521108 0.027812911957026093
0.3666853278227546 -1.6390897178099368 -0.15864400208260412 0.1289409202112807
0.3690264846241764 -1.6682481414994512 -0.16981350173445556 0.04199303451282677
0.3565084993148084 -1.6557232074936434 -0.14224430534152532 0.12001465306833078
0.3632281992401851 -1.7481379133781547 -0.1497549784090155 0.01730188481040758
0.35046681193361123 -1.7164307408883916 -0.13735990418088498 0.036370734916891856
0.3722030891926069 -1.7404040461573536 -0.177725475488215 0.07186132446315141
0.3651363033181015 -1.72159425081544 -0.1654463068268621 0.03238253442352687
0.33375209189989213 -1.6596909329856573 -0.08867616010203726 0.05390503775252926
0.3659810351396971 -1.7531850339547237 -0.1838316384497495 0.06634052092800415
0.35350778412303163 -1.6389943796489566 -0.11486540406382832 0.05684115948493132
0.39632929732573996 -1.6588573889979865 -0.27117723159668045 0.06930536828713034
0.3958777548384637 -1.6527621735388927 -0.25425084674115944 0.060042092992634376
0.37874852859786884 -1.8052801228522384 -0.3765069933011833 0.004144819934844217
0.010055141148543022 -1.763445843205897 -0.27333211827709664 0.006202928991294853
0.028159782139539805 -1.7789329845412227 -0.23834246550965865 0.04532575923065193
0.007080278594534838 -1.7519823137453165 -0.29219885571569343 7.395475768124874e-14
0.0053940186099366 -1.7592334521429525 -0.3248671014135453 
0.015935333637469205 -1.7333233304037543 -0.1983046865195329 0.0070266180115980065
0.38199581724888304 -1.751487082939994 -0.2456151875479818 0.009706566062497259
0.3877287477041565 -1.7576701255833558 -0.27692767058619655 0.008533218575099177
0.38088609724532035 -1.7493232769076894 -0.23786364321934036 0.041775616005400557
0.17543753109645185 -2.027273281043052 -0.39583093312604073 0.03990106976948125
0.17492322889951584 -2.0119229866593895 -0.43582506645472713 2.4636187520429245e-12
0.16086615451463837 -2.0191989564833417 -0.3876529599034631 -1.1935291760730558e-13
0.053501185405293965 -1.723267260636961 -0.09827794083077752 0.003829541633469339
0.04678200578848959 -1.683294167479775 -0.10753224334353238 0.0027967623559161867
0.3890970933901306 -1.6875013589459775 -0.3173844585782844 0.00959730928035838
0.3887629408190342 -1.6793981672598717 -0.32662734060065535 0.024110814134482413
0.39480973883770537 -1.6761253689426001 -0.3749552091360118 0.016995665813946452
0.393463173429473 -1.6666504795260022 -0.34378580348555343 0.038063479774506345
0.3914690224672535 -1.644220257378634 -0.4389687734438547 0.04257517584539839
0.35788056144573227 -1.6363744033866825 -0.5551938679632975 0.03789050640842044
0.2283846010789515 -1.9895082101196588 -0.47448518579660304 0.0024868211640754266
0.2399671100248578 -1.984568206018629 -0.4788253143436446 0.0002345271076696301
0.020086460810787368 -1.816503294848988 -0.34443248080931593 5.713847360450526e-06
0.017274569823091033 -1.7996013405482878 -0.37496398177183754 
0.011771547035899194 -1.7624990615864988 -0.3879248148364034 
0.3491083715991007 -1.7287532843875182 -0.136925287706257 0.03945667695108302
0.3269494452395513 -1.6581162673840604 -0.07221101656999501 0.0434660359249688
0.33758846031733647 -1.6949096397785983 -0.0802192909497526 0.014195414428629706
0.3381509115816767 -1.6808937342106567 -0.09045885771463745 0.024062409991061507
0.3310613019115713 -1.6567628509927723 -0.08324483596330211 0.05575293533150534
0.3757079612548578 -1.6586274162423085 -0.5070836868336744 0.03592071238506592
0.3706888543868092 -1.6507122061699924 -0.510208772375557 0.023759576614855858
0.22576597735310036 -2.014115037059423 -0.4249740523424758 0.022844813835360616
0.3080089116037298 -1.668720487113012 -0.051674409302820815 0.025942829856597176
0.30396573128268123 -1.660760201273122 -0.04174312984154604 0.027005684032970788
0.2808008432998836 -1.657466651108747 -0.02800144934577386 0.029959810482628014
0.07720927667199741 -1.7240696176255093 -0.07236966181920419 0.004458120895406838
0.06701788323239452 -1.7223568529520787 -0.08402119869661086 0.003865449034384519
0.37052151431055913 -1.7826116766377653 -0.39214392764667655 0.011993550325448838
0.3724541879292067 -1.8034352263142426 -0.39790275152153914 0.010995655427195232
0.3882704300891424 -1.6782162042908029 -0.24354627848580054 0.02210568217469434
0.38762480387081905 -1.6749608428980192 -0.22541498014323802 0.011918164179599565
0.3934634538488841 -1.6604083251483615 -0.43889771009994405 0.04850158825463341
0.278960881883294 -1.7127932044764855 -0.6745803743962554 2.8803604143052793e-05
0.2989005755711637 -1.8473377900271954 -0.596638328866112 0.00014809371044922695
0.30393961634890465 -1.7946619198415568 -0.615988492382638 1.6752158615267577e-13
0.3181828529649816 -1.8123667275281374 -0.5829896298193177 0.001600011376733916
0.2620098257562103 -1.77526767205061 -0.6706667650980417 
0.2842803765806887 -1.8138817219721415 -0.6303790442441656 
0.2865606578111822 -1.8526967274759378 -0.6038054712735766 0.0022135183600055165
0.2798434439495662 -1.880153066130809 -0.5888135781105341 0.001362565528196796
0.01556576292644743 -1.7833177674422722 -0.2844525943578171 0.010186068743949039
0.13469584599741577 -1.9968140881886587 -0.4375326390184625 0.002264313910709087
0.09137590614189936 -1.7389325915737657 -0.07215670461994367 0.0469710980784317
0.08382041082188973 -1.738743207391011 -0.082285346126695 0.04253164673650479
0.09701776688002556 -1.640998330921298 -0.64592406969516 0.01352018068577327
0.10539278849450132 -1.6487835464098317 -0.6692100515672855 0.011865974400585275
0.38106457474496536 -1.7779716446474039 -0.28559423687727864 0.022669716541220596
0.38199686376343484 -1.7694498830757883 -0.30058390470116025 0.014978081380553267
0.37898291614065027 -1.791347056097534 -0.3132327032029209 0.015198112062756756
0.37835034763168635 -1.7695566699057659 -0.32232346998027667 0.006404256859099075
0.38257838437802255 -1.792506328445115 -0.3351160245107083 0.013037052637734674
0.37904936236775405 -1.7694692937263217 -0.31216557154159114 0.008738210543544596
0.37798227145960417 -1.776160105772051 -0.33657059180794885 0.010292934756048611
0.37913057278129886 -1.7599158858091892 -0.3574881798970881 0.010481574523417038
0.38368174222068424 -1.7497327641290632 -0.3308371701850647 0.0031948925973337553
0.3885740076543028 -1.747865854181248 -0.3676102409291348 0.0067803694046394344
0.38437142564448185 -1.7441271528253914 -0.3864860510055169 0.008618552100403404
0.3844321600378279 -1.7197901182859785 -0.3864825469172049 0.008749983051204988
0.3813407528137829 -1.7265764559399244 -0.39974602128095216 0.007727653563887204
0.3851197791814553 -1.7354426897052846 -0.3734666097195626 0.011736438096380274
0.3915001053861999 -1.7104686840962737 -0.3685496805580543 0.01233362937465528
0.3929826695889145 -1.697637673015509 -0.3996336452619628 0.015889826902108297
0.01279970703807652 -1.696683396911905 -0.48283665934788006 
0.032998941487714754 -1.6495285763597396 -0.13278706023716155 0.02475845378339806
0.029941268103541446 -1.6648387930625892 -0.1345974701701652 0.013733515539020552
0.37938499656421165 -1.7566405429279262 -0.22074402026088297 0.03859127593569174
0.36718143157950667 -1.7138743004785213 -0.18286965269378647 0.020955438274803975
0.3877576809188787 -1.7343754652562435 -0.204928654212498 0.014598156410278593
0.3827580261411494 -1.7212477389664154 -0.2146681652526575 0.015883005286253127
0.3801565448184072 -1.7093283630737452 -0.20821530984048336 0.018223708827577578
0.37674872656024344 -1.7044547762912095 -0.1916877205559056 0.011568460623249247
0.378109419543757 -1.694622056268113 -0.20576809293271847 0.00593374733258274
0.3820645216171484 -1.7139423082286387 -0.22874600908782855 0.011877926199159778
0.35894939422649613 -1.7058022261819807 -0.14607557118893866 0.010655564835292728
0.3636515917089709 -1.6770869095730425 -0.13774427291757751 0.008944494199938093
0.3587291976510578 -1.7009192349467024 -0.15180179052420884 0.00835394629610823
0.3787298842759448 -1.8039656238677142 -0.32669841211197664 0.021312122661863542
0.3656461536155199 -1.8481144029548566 -0.3330239238665357 0.15988773816013876
0.3630786375891396 -1.8118166340922597 -0.4482832726988527 0.0010966881363923245
0.36008595956541717 -1.8080322100622148 -0.4568697555033199 0.0008581455365559613
0.364326187738309 -1.8059404308251874 -0.4423399061604479 0.0014860718570415797
0.3601883338665363 -1.7861563852668856 -0.4893930190357268 0.004432129963352177
0.356886049004923 -1.8155165089360217 -0.46729118130690045 0.0029349667686533825
0.3617629443026001 -1.7901779278814436 -0.4860257823628925 0.003271702272721025
0.35957953829956973 -1.7908822295270441 -0.4901754319120906 0.003334008924087885
0.35822058479038715 -1.7861549825612593 -0.4939273231772246 0.0032593701832890495
0.3573662199729692 -1.7730364707287987 -0.5015644953866999 0.006481478455597579
0.3773045099878723 -1.6673052714857186 -0.19645190172930524 0.03329531730253988
0.37727535684603963 -1.6428192173545269 -0.16830967400726735 0.11539382652403221
0.37371147699384927 -1.6858889592417865 -0.1985903620284748 0.005295455761649149
0.3830552229314545 -1.668955480376534 -0.20964849678339836 0.01413725278278651
0.3706291983826363 -1.6757262094962289 -0.1792779772549055 0.03466126914498253
0.3897577548581475 -1.728593401872227 -0.4337351330464051 0.008214161545681319
0.38491414437056753 -1.7249345693030569 -0.41641461831492516 0.010602336112752492
0.37981553865927037 -1.7598919268953062 -0.41743985822879875 0.007235047818876097
0.3811959271204681 -1.7359854657602438 -0.41929921995003666 0.009774652043103738
0.37349147537195443 -1.7051443857190782 -0.4915489434454414 0.0018460038279212818
0.3762216148903338 -1.7228172174529144 -0.4746986414948044 0.0009408668726742182
0.3727738900331299 -1.7139814344582778 -0.4861128761469395 0.0007472134381992488
0.3820954649757404 -1.7086316011090288 -0.46069577854246013 0.0005557833818305148
0.37265861075770945 -1.7284536690837644 -0.4869716484296498 0.0005668474511321604
0.36616006093112263 -1.710571345013023 -0.5134197658548159 0.0027982223370123477
0.3934720798431921 -1.7024279952274957 -0.42216274469862836 0.003264994211328333
0.02956395368600947 -1.6442006999559537 -0.5243725648623463 0.04056225241660432
0.013252050015963347 -1.666387819541546 -0.5068648608326359 -1.6479544365325988e-14
0.37461323035681826 -1.671516217039831 -0.5090469579472436 0.019659629491490405
0.10623783755103561 -1.9816558916485199 -0.4223953335874893 0.015369417241139334
0.10394377234249484 -1.9764675161318135 -0.4367414779467816 0.006588859038711787
0.1180047238060575 -1.9876312818761135 -0.44243627038966477 0.0007504832586871687
0.11808365169462154 -1.9745130189547169 -0.4738214497017774 0.0019465762240339914
0.2004949115060524 -2.0011562579647846 -0.4734023781226191 0.004129545501982428
0.1990802276035298 -2.0042564900681747 -0.4580091294541917 0.005013664487611311
0.17817278934028155 -1.9993780410619737 -0.47403230880478325 0.006219371321762118
0.17959283188388273 -2.006536454698246 -0.44899796903823835 0.001658964020693948
0.16591495778820262 -2.0103880401778014 -0.44633437538006904 0.005298479907724993
0.3937696430556963 -1.6609330258644392 -0.3749245953319608 0.05000825392136349
0.4000599147531291 -1.6811020235373793 -0.400000311594304 0.0015471096570636043
0.3840763445114031 -1.648519118241237 -0.25150501031990496 0.07303429984252173
0.3849837598224819 -1.6471641170146076 -0.2431111400365192 0.06651657049384896
0.39185199549396993 -1.6872888197892881 -0.2878854861335989 0.02688496707430897
0.00869431760152761 -1.652157726936649 -0.42162512913938693 0.013365810906754878
