x y z curv
1.467904112779292 0.20695911568110356 408.8008561855498 0.010533814412083835
1.5874349429902 0.2004318542781488 408.78664121953534 0.040780201070602935
1.3997482669934311 0.20128406564056697 408.6603320987604 0.010547754281906857
1.3992162147329263 0.20355934379107568 408.7752626949736 0.01123194189524408
1.3848244665158482 0.20278674516237577 408.79463684174266 0.06141928485880599
1.3678891699971027 0.209217362887406 408.76480937049575 0.06944509403524564
1.496311778731389 0.20383601363758969 408.71087570820464 0.003112033303051754
1.3979982411312635 0.2038113046967128 408.73684993334825 0.008313649598265572
1.437391808499271 0.20419713076126048 408.7991671689533 0.013195373445180871
1.38222346484867 0.20435286037839612 408.6713068304335 0.0032428585500162955
1.5192090029391887 0.20282392869427107 408.70631359523395 0.005092137855581118
1.3987092914567711 0.19977554765729358 408.6969189495783 0.0023718674717684144
1.425700364818982 0.2003640631279608 408.73973772777254 0.01736521942447813
1.4044257883329316 0.20418531869701761 408.72030353778354 0.009200577645904873
1.4450101209040598 0.209677230571631 408.78446604080983 0.007370447344374397
1.4200056383974327 0.20183174710024804 408.68308509956586 0.007053827549782814
1.5263178971143996 0.20222512822839053 408.77063625841646 0.0031130346080687024
1.4177852672200288 0.1985071390800693 408.6476247051032 0.005404669879109791
1.5688357030617754 0.19612703142848403 408.77081604101386 0.008644710696954171
1.4109848401178593 0.20324868434003568 408.6742603065229 0.006306686844228809
1.5440676921073526 0.2025620243501482 408.763415950543 0.003814555988512238
1.5094639751959658 0.2028280152275253 408.6879551729815 0.008904783197762178
1.402960019685267 0.2061188551904008 408.7439882648694 0.013746270393976105
1.449939196363196 0.19226072963300359 408.7123976746413 0.011175075058008577
1.3753069354985263 0.2016725265362271 408.71427099259853 0.0034330986435972075
1.4848044600108743 0.20501707624822374 408.7873450940742 0.0066009399970990545
1.3811173048309766 0.20358070397176017 408.71368876302444 0.0034684555674955714
1.3747581214803903 0.19964756446445747 408.77963760436245 0.058286534827473285
1.5199327297492948 0.20417359951920425 408.78330343169085 0.004752110619429328
1.4381419660296006 0.20307503429662827 408.6513478041353 0.011305283588127405
1.4649573743837399 0.20936898834360917 408.79398158003414 0.008745866246308368
1.477950629419502 0.19902897770548558 408.6685020826034 0.006298053981945666
1.5332378421370942 0.20145170019446976 408.74859988424527 0.0042004765540445835
1.3733500124606632 0.19904891465716365 408.76934394284945 0.05847103730761212
1.4109937437013604 0.20731488012697694 408.7873329042756 0.007196096509063044
1.4122815882938227 0.20295543770205862 408.76269226428184 0.013321641039290977
1.3880873021288347 0.20586598636731318 408.73246453679286 0.006209488380064607
1.4170227476932173 0.2049978849644784 408.7643794423878 0.013060433521378123
1.551496139082987 0.20412097766961446 408.76416496039326 0.005162228165042742
1.5085327357688532 0.20616640129586106 408.78448087025015 0.003180349056481105
1.432835485034553 0.19473602114001107 408.7300470774256 0.016823608955006362
1.4232153992435987 0.2038797282954615 408.7051224128705 0.011723111818283118
1.6113161984454054 0.22333984516466146 408.7421934907987 0.01914981236336805
1.6091052713776897 0.21720526947046218 408.77139411107277 0.02649671178742203
1.6161971360824674 0.22392831328947221 408.7159633050399 0.011378516773900173
1.6095641332299213 0.20662297494765453 408.65893385387994 0.00801228075469483
1.6080231209587788 0.20758625061787536 408.66351195768806 0.00989923370407654
1.6042563809752772 0.45105440595701296 408.6032258158591 0.02519033617536933
1.6017838804370188 0.45588149142193896 408.65049177664457 0.017040856749896856
1.6102068421717155 0.45590460430320856 408.47580472941536 0.01320635826363079
1.613567392311231 0.44827462451902 408.70447969564805 0.0308245725913965
1.6113179785798468 0.4431682017436978 408.72549405297957 0.02327468381930771
1.6058088746055985 0.45426025927863234 408.57891008902493 0.00669361421865675
1.5612276334346902 0.4546984202169254 408.47010001124573 0.018410678944893996
1.4760208801103236 0.4528261990959761 408.5825743032435 0.02046181750826541
1.5085307063834255 0.462951092313885 408.5999097973402 0.02430035466536015
1.5984348987507997 0.45781671764540005 408.53603630673865 0.019232102922907515
1.4353791334380306 0.45385071078007133 408.5207581484732 0.004850856986912838
1.5908106700558715 0.4577199077782824 408.69362255497487 0.016948803889918915
1.5840875127341072 0.4645368109225208 408.48716577203186 0.007850573550086531
1.5634267879054855 0.4615751729417784 408.5868136181552 0.015872853571973232
1.4892028651257152 0.457394352653907 408.55019352360546 0.003884600547078645
1.3990942685709156 0.46110924308873974 408.51095156199136 0.01006885206363485
1.457399370696651 0.46045043019597304 408.50871802458914 0.007361848388077439
1.492945799281096 0.45513237334799117 408.52535596816426 0.007245532597945748
1.4944242885338856 0.45447571752251364 408.49627741338725 0.0091504136727609
1.5954725589826912 0.4581531535677994 408.7031421962216 0.024174670185427783
1.5657105963416906 0.45686216465976764 408.5588785735273 0.013784687354523732
1.600613147852429 0.45828959573495504 408.51405856277495 0.01903529608601858
1.5253442478454227 0.45302404298563187 408.6326339139111 0.02343589778882083
1.4605963404117788 0.4602874368810097 408.53276069045666 0.0030810119873187283
1.5649332578324602 0.45716304921365286 408.73207365827835 0.020880225272158246
1.5461963104306058 0.4581337857558788 408.52791139578477 0.010464128246301916
1.5149523736930215 0.4505940214457269 408.5441690179668 0.010769091891675747
1.4782066814628392 0.4572077808074737 408.5287494553281 0.0032233571037790535
1.5921054185250205 0.4660339856746635 408.5342701645873 0.0032027789528778095
1.5726732338539486 0.4536543948656486 408.4687549046291 0.015500730512360311
1.5611092886248017 0.4558770847480494 408.60066119379337 0.01850985913314644
1.5341279143501638 0.4617570038550034 408.55065413157166 0.009843783055966495
1.53202075855379 0.462604569556087 408.54613938549227 0.007866197411416056
1.5071795379303832 0.45543901664766656 408.66303177938437 0.011191998586281717
1.4926940869121608 0.45490921195252243 408.5102042315096 0.011794731106686135
1.477455843345731 0.4577587512649052 408.5105032486378 0.008686343217757636
1.4417827427751988 0.4562191659197924 408.5039878286668 0.005775224910818866
1.5157728507523662 0.4618022579818688 408.49473621497157 0.010921701259220276
1.5263735820025055 0.4558274987766377 408.52009860263337 0.01022589078974426
1.4662733330791413 0.4580922355694258 408.5539320913001 0.003660199117614532
1.538739123160086 0.45529221342185494 408.6812784155649 0.011507422384659587
1.521623452042535 0.4544012819880601 408.61764969942385 0.01835745858866133
1.4109748530917314 0.46117453254869933 408.4748471458931 0.006865617322216069
1.5374927260989195 0.4568650640264763 408.5076140792836 0.006535909746366819
1.5799490813346524 0.4523236275792435 408.7118001440978 0.023080108777914315
1.5781082224851357 0.4546373368530136 408.61876233862216 0.014919197991126405
1.432024300297616 0.4566142506178862 408.55225593358176 0.006774959105613163
1.5589193044244614 0.46516222513173155 408.65253726163985 0.0070782723378981305
1.5372880985916761 0.45582820347369507 408.51782834120417 0.0118482359531786
1.4887382854155005 0.46482494254452883 408.61795241105847 0.017004202457109725
1.5194659038613985 0.4562488582616124 408.4904587643402 0.012596460490467509
1.5776672465102874 0.4527238813834184 408.71772085300313 0.024979647537302814
1.5941757470561708 0.4528505354819788 408.57110545816016 0.019396064842107503
1.6023899167356965 0.4553669737836979 408.63301509466964 0.016894418744682293
1.5654730234284817 0.4562040454253995 408.67832618038176 0.010450783682215825
1.5814981360104468 0.46527830993129987 408.6638863537487 0.019730267948755577
1.499687169578567 0.45174211036434225 408.54437183499766 0.013408078253892475
1.5836135264957705 0.4577864124574443 408.76379530764336 0.015602035942690344
1.3870789309935043 0.46070644550992385 408.47895549887676 0.004848359630768192
1.5481585911434708 0.4635675237481871 408.6219992127467 0.012458063018797521
1.5953262193237487 0.4607577522868049 408.60280730519224 0.020650730969757135
1.4746733924125413 0.4512437176664249 408.6020080012269 0.013535933298022091
1.4658385749460452 0.4594476430073705 408.4900380530315 0.006095532261183966
1.45059754772598 0.4560490745745987 408.4932789974199 0.0097267402656892
1.5583428221098732 0.4597225792042074 408.51852853060876 0.007154628989939347
1.5334655331286042 0.4577379808805716 408.48938895841144 0.00864191893664849
1.539788683480645 0.45563278124805884 408.60146642888617 0.0139246249303416
1.5188895345651658 0.4526956613075416 408.5607337090192 0.017308747193856007
1.5249885884275196 0.4516013344187858 408.670444703708 0.00734763541375568
1.6003615378791036 0.4543585066102141 408.597705018441 0.023954814886871963
1.5652918757887344 0.45959695750897017 408.5323106700391 0.009596530761129221
1.4781402502674144 0.4559456369147926 408.565735481695 0.0030163319701976936
1.5063166572283027 0.4617006782440826 408.4976267015616 0.00822217603376417
1.6109356023409176 0.4648308223530925 408.66899694995317 0.003806055875702813
1.5247592081546633 0.4603098640600541 408.57041184348236 0.02210643578355083
1.5473215494844088 0.4532293973165052 408.4802898291717 0.01058828506914777
1.4687524002993688 0.45936383112174956 408.6189991646159 0.010870102028254511
1.548639245077501 0.4599588214787697 408.5859316346891 0.016908249109708215
1.5757035759571059 0.4522996836659183 408.7027341708482 0.012707277643130371
1.5946324765788324 0.45499837997390025 408.7225917909665 0.033602057622768446
1.4967219632100026 0.4686014002417996 408.6410695221514 0.006581857976203984
1.547587029368759 0.45497443200105536 408.68674524528126 0.02577516605817231
1.537363571234631 0.4599966374466486 408.6383257747692 0.00976261954195535
1.5243747978316684 0.4585239737558181 408.65209123670314 0.03137318402753357
1.5499987618634294 0.45440511250025184 408.5682642638955 0.012341541174040162
1.513346153821243 0.4569815813180647 408.5110710480117 0.00655098901939297
1.5870005893975163 0.4569199816392992 408.6477231922607 0.021945823317246572
1.4189055108793713 0.4562484663742476 408.53036113210607 0.0072277025409783185
1.554395591286931 0.4628155239456651 408.7186018423358 0.011243666910974214
1.5036812033295506 0.4637563203010068 408.4623865280949 0.011603171650729997
1.4812272109126792 0.45161274077495983 408.48070359956535 0.009238245318445672
1.5387006952011872 0.4547879726509645 408.5739133868025 0.018891554952351418
1.5811209125570869 0.46496289691869763 408.58135445187554 0.008820643776310814
1.4801483604486225 0.45571801302053755 408.55090622538114 0.0037071959484084194
1.5745886817504144 0.4643860979251004 408.7508387402287 0.00937683230786973
1.4723146265011164 0.45627083140705677 408.47000682495246 0.018338639028286387
1.6048408089839123 0.4507945263185082 408.54704152878304 0.018718005253075792
1.5619568081205162 0.45444544413761706 408.70609560465806 0.01019573050549638
1.5647709051435983 0.4551633960243222 408.68785822952094 0.017169378529773915
1.5627636891798673 0.4561791778162979 408.5000339445236 0.007866331792306355
1.4898223911643613 0.4499050698531622 408.57091396678754 0.020474333667424207
1.3864239170919537 0.45503523334030926 408.4708175989204 0.013459503325815948
1.4877704756499974 0.4493402445016869 408.580896094716 0.01957570225908836
1.433326649188182 0.4631602894734892 408.4808644685208 0.005845678306662559
1.5997879903126733 0.4510970702609661 408.46801170796294 0.014693317280840735
1.6081937156397708 0.45030678114428785 408.7622444146048 0.014041167718133844
1.4224609160202213 0.46121682988231155 408.4763257754004 0.007159679546567261
1.4715274024837846 0.4525505019468652 408.58935926939824 0.018281884826656554
1.5695261567467984 0.4554313291606689 408.60770526292083 0.02205163306911718
1.5755143092086659 0.460901173973817 408.74446471845357 0.015002335422952788
1.5892758166427212 0.46218981030434575 408.62129558652435 0.008824011232477223
1.5022340022719367 0.4629111473361153 408.59989801119184 0.021033635085182908
1.458552313821758 0.45880260156365427 408.47803743607625 0.008629038196057561
1.451907293766811 0.4579121049398852 408.52076896446556 0.003166290376088305
1.4639297886955058 0.4554348558027028 408.4685289565602 0.016865323541990572
1.579476117088506 0.45690367449759584 408.5253064937868 0.014261188955622471
1.5414855815205197 0.45660474765729525 408.69066500183465 0.010862279123224758
1.5639207458783952 0.4586508558585883 408.52442074883356 0.007222203183427111
1.442569977975578 0.46023454946766373 408.46487044394894 0.006414690778934073
1.447036122143592 0.4574932985766366 408.5445067671981 0.0030947211499962927
1.5401236569819012 0.46084311218292906 408.80609172722336 0.0027046220940479464
1.3790338255983259 0.45499469480487503 408.4996381281145 0.014898852591036751
1.576551581124716 0.4572980647434345 408.7823617388731 0.015481936876563523
1.3973655477454885 0.4618544599378365 408.60095832040656 0.004431349988921664
1.4573134587580905 0.4564370571399614 408.66243955376075 0.007137177144606252
1.479987762694447 0.4550225009115667 408.76893886376536 0.005661120941133721
1.4198188447416689 0.45991516833771373 408.6779196749759 0.0080961466543907
1.430875525182737 0.45316189233961257 408.6143547185527 0.006495967712846506
1.4862116242406664 0.4557844078826399 408.80431444281123 0.0006597626313461567
1.379795537007607 0.4556960641342515 408.71516398641205 0.013332328482374851
1.5206710384837372 0.45275357592596294 408.6996841596858 0.007744572591976155
1.4608738309356124 0.45205453400698725 408.61138035781704 0.015307885058809373
1.4170400183714675 0.4543597265320071 408.7976772561933 0.0027590106551773136
1.4839285113806118 0.4645651530653607 408.7093623100882 0.00625786228471626
1.4361439695688094 0.4597272159956008 408.6671537996407 0.007778054465067842
1.5302649123804506 0.4603446539046381 408.7061192987589 0.005713179222016971
1.4281318811086021 0.4637612521014509 408.6417689749261 0.002499062202962034
1.5037539723121165 0.4534293022482142 408.7584784239844 0.004679451729400274
1.4880002219593866 0.45755285170012044 408.69783399741056 0.01034940092403489
1.390103454352023 0.45733515834734506 408.6346525678435 0.011587369926448198
1.3965719510007613 0.46269331562343485 408.7831951257627 0.0038556558697218496
1.4384295900081572 0.4551363054022972 408.6100448104249 0.008164972735178626
1.4454681962142457 0.45444390156483205 408.77819459256284 0.009722397099075944
1.4420185504333616 0.4467228237908638 408.79725329256354 0.0028795655508499288
1.438449278472023 0.4578270907314453 408.77077267025237 0.014049685415370806
1.4477982952514676 0.45740552753414654 408.7231360450032 0.003623107786674423
1.4588727949538196 0.456116208510896 408.6347823173768 0.015446238416210768
1.3714239205206291 0.4549095190369005 408.7008411043795 0.009274235005261944
1.4459734979136118 0.45626682887657816 408.5943161106132 0.009081864416888507
1.461091810985029 0.4640749697009002 408.7087644095087 0.011608876807226711
1.4101175439445912 0.4547713342554977 408.57245983086335 0.007388334325027486
1.4219191939658433 0.46449570365179504 408.70804693874436 0.008687430135346426
1.3906936604319977 0.46040569127930275 408.6969019118887 0.00921846197532056
1.3871527367609888 0.459665067883056 408.5509290828054 0.008001388259148041
1.3812730457425457 0.45620294843343806 408.7552230067741 0.06089373569130163
1.3985629553865315 0.46167357907259265 408.5567704745388 0.00541757437268759
1.465072031690727 0.4539776431240851 408.6840748067391 0.008317403135244246
1.510478827036953 0.4483861018481545 408.7957088293411 0.018350850403377184
1.4224719164901467 0.46142678779764057 408.6673832160007 0.00762262010597463
1.489161640873892 0.4574196097538191 408.676907879655 0.023678904084302503
1.4018837516827605 0.4614728994236492 408.63589651071646 0.008302279336040799
1.4217985815161083 0.4557354618265963 408.55683775137067 0.007707911796378032
1.4737556791091107 0.46133238875275057 408.6511071655118 0.00860225211931572
1.4065589802811573 0.45934028305176194 408.61804616718405 0.0094475664374381
1.5085458379188394 0.4496401019301521 408.78821915808845 0.0177072706026526
1.5273323869866666 0.4545295303111176 408.76633427400105 0.0108259371434114
1.4036301839781753 0.45723471265533405 408.70821483832435 0.0066129342650000904
1.3641705863173719 0.45704167299914117 408.7808385186748 0.05078668757391515
1.520610202726631 0.4584929377437247 408.7235783209302 0.016461561819365443
1.5523656748046917 0.4569189769465446 408.766277068881 0.010496312693530864
1.4924783966636435 0.45666309893769536 408.75831291542534 0.005193219819554445
1.4991156403524535 0.4522473945748405 408.6960380384554 0.008047895682918913
1.490999851612694 0.4520084085395469 408.77510274823516 0.007464601905042425
1.3768459303024645 0.45933869206987493 408.6248666817766 0.010920673954013931
1.367290944356929 0.45642268851635304 408.7240468709645 0.013666918144180149
1.436778104162183 0.45900302876070237 408.7691737177429 0.0136398857809708
1.386737538386532 0.45718950024815797 408.7389990282264 0.01703827606874426
1.4456681263073594 0.45738102996801416 408.6351020682884 0.00933075778036391
1.3734060224839106 0.46149489960361606 408.65572692532174 0.006128581642748244
1.4348669271636512 0.45247904806591394 408.59636582290426 0.0048445353491181785
1.4730952280130805 0.4560349868357366 408.67334194134116 0.009878085469609891
1.3902081259229586 0.45883541275976536 408.73714947668276 0.01879930178404804
1.4427531655479517 0.4575834060462426 408.676657404989 0.007368493329958329
1.3817588633863278 0.4595492153105073 408.7765227055313 0.03312683943333027
1.445430050102228 0.45881045551353333 408.6516541991021 0.007259144502157671
1.375009254456411 0.4564412600271192 408.6753212972227 0.01845861763456022
1.4311836454476803 0.46441420954940177 408.69022913350557 0.010195798707044141
1.439926856290958 0.4549985477955658 408.77692469742493 0.012832073082019994
1.398010450474105 0.46175843565712354 408.74934835427865 0.01160845416376938
1.4125635557643983 0.4592898856291533 408.595846030613 0.0060370782257271475
1.4687800255714514 0.45675327401629245 408.7852535502543 0.00897484437325731
1.5485421500791843 0.46015188159181836 408.7727197695303 0.010990999747274941
1.3788959116814132 0.45914476289219397 408.76786331775986 0.049090649966069516
1.4993244404595671 0.45748085265037236 408.7339700054101 0.013205738020571185
1.373668417285799 0.46077279248612024 408.5969546807528 0.004764853777881136
1.5914456043849998 0.4578622793709653 408.78706494542973 0.0071691995283738735
1.4644941619462089 0.45919659954663644 408.7251054070653 0.007582755141157671
1.4440459218935426 0.4620065271544512 408.6936126556888 0.007134987023758511
1.4586958816203635 0.45521538579478915 408.75428528489914 0.0043014098317325535
1.37081677546939 0.45503405673136527 408.7322324050816 0.017154001899351932
1.3773615470302647 0.45624812149801963 408.5401503533545 0.01567421457573641
1.5233245325514844 0.460324878062422 408.747760985503 0.005676363978776384
1.4265183323186037 0.4606089922116164 408.7613982235998 0.005458200902234094
1.3860561307344312 0.46032336353091335 408.52392299544096 0.010152295220926102
1.4927933741684134 0.45795638914828163 408.72586144801204 0.011959464692446383
1.4121059930674333 0.46460335757553456 408.7477016302633 0.004127521293129403
1.5284206179839375 0.45651796998551913 408.78784582470536 0.009201524284212843
1.4009169093696714 0.4543345089387506 408.800066962406 0.0107408988397048
1.371519493391044 0.4566150966061313 408.4766714643833 0.01227575049885062
1.4410852374496668 0.4549543337995748 408.73587021093863 0.003989209314402838
1.4415834403652303 0.4573527808664727 408.5794115536758 0.0028133507455589232
1.5549345827732108 0.45277281989117546 408.7553730854799 0.006454772824762799
1.406684815827198 0.4590129352251194 408.7796998024955 0.006454236207870263
1.503674542900601 0.45651353960486407 408.6741033723595 0.009502650694808008
1.4240746242060174 0.45341137789590386 408.5737330569888 0.006311904458846311
1.402924642717949 0.45597515926603666 408.58733266725085 0.005001010697932423
1.399373082061959 0.45547571146908006 408.52223010419317 0.012828205665724384
1.4756985057801337 0.4589367144163557 408.73840303157266 0.003763852876792626
1.5712236242988433 0.4614964734766452 408.7959851393546 0.0039673145364257645
1.5574265067750357 0.45598763994246877 408.7943349993863 0.004876629211488479
1.3984698969251217 0.45835282509510894 408.67511278395796 0.007975342472902906
1.3793961173975482 0.4616054319598079 408.5816813298134 0.00790834863863603
1.5027708861398186 0.45151099848661985 408.7793811151437 0.011359380187500675
1.4582358892181164 0.4523918718876966 408.6128128073485 0.01563992280861894
1.3986561595029647 0.45289343707307006 408.53440487443885 0.0062473633838094214
1.4506283690268076 0.4559864963651277 408.6268178371161 0.010231852426640816
1.371363538694663 0.20500570525948558 408.73023304712683 0.04377186900861839
1.3695266854310546 0.20891128213859997 408.797538951495 0.08159984731335092
1.6015809044206746 0.21034244432350177 408.7183388047397 0.015652192447433565
1.6041694095951646 0.2121195792478449 408.78699177126333 0.0275677066323094
1.6068459832161257 0.21205785163879412 408.7691317543969 0.023449195926888905
1.6010587592299157 0.45422719954599844 408.55516058180456 0.03598246223121952
1.6118801547361985 0.4541831160923817 408.78677241846157 0.0029520644112987675
1.5996779749344479 0.4532332255501373 408.7783079276234 0.007957689486267423
1.5984511628697753 0.45624284776131085 408.6235222664164 0.019772877936552975
1.6061153047371108 0.4586599663085917 408.7239126137601 0.02328217200696824
1.365913576805997 0.4556816249072867 408.541196973191 0.013022947073396875
1.3634310924662816 0.44644445646787556 408.7615449707183 0.07675409096414458
1.3626875835223062 0.4490222170690012 408.6615690969556 0.01794008519423066
1.364642398448734 0.46267818057518006 408.7098936593263 0.0031089820638888007
1.3017941833308504 0.028780741176038852 408.3968174784953 0.03793259679446623
1.3377440375621947 0.08056231029604013 408.3918605960289 -3.993714297326243e-08
1.037642913709212 0.005140852833275051 408.42266159006977 0.07186233831218992
1.6093051170422332 0.0008796874631551927 408.4462075854851 0.012680212448892317
1.752655470382516 0.003998448632420491 408.41773806430245 0.03542823767832522
1.549598248994524 0.002733011058055384 408.44999287953976 0.02660653728784678
1.837220763183674 0.004868394362229791 408.41183511409986 0.10568167465343123
1.8995538784714627 0.010623162764715956 408.4039299532839 0.028699785304717448
1.34729522767462 0.004966578951321662 408.44398771892344 0.02064735354559553
1.7946567502092907 -0.0016447339712899276 408.43851402711596 0.009553835169261714
1.3796381935081423 -0.0018073643318943823 408.45535390522485 0.011297070214631433
1.638672924192635 -4.1216137201942685e-05 408.44757422291656 0.006233322798338012
1.8992537364271223 0.003192596390087919 408.4242193143103 0.026880737089193363
1.3062577046980888 -0.0013210326695220834 408.4434034194471 0.014379958412176288
1.7684394947690811 0.0008292007861118141 408.41720918154215 0.013424009609501969
1.8363836682789667 0.004771032705808626 408.42645367708735 0.02245318620409945
1.7207076415247569 0.004075496779806376 408.45785138356206 0.02177151591164548
1.463192127552331 -0.0035077752397290433 408.44247746609204 0.013969085379502014
1.583384147516842 -0.0004048806972215789 408.43046415183386 0.009537956476301058
1.0940846620109996 0.0065167469064760985 408.460410056664 0.007379447116490083
1.581226275559584 -0.005427108504291187 408.44879840312234 0.008943986604306026
1.7416039004040733 0.0009323177505394277 408.4234123894468 0.01683132215395517
1.6784098023902987 0.001646572563118159 408.4178941488343 0.028053601286064395
1.8107984908269072 0.0010280641993042844 408.4389577063823 0.006864926071871073
1.2090812705902303 0.004840339850167353 408.4557072760633 0.021288953847425598
1.1826890983750526 0.0030878800949676495 408.46255276150697 0.01666678224560036
1.6521415111751439 0.007771732115486702 408.4333361872816 0.016604538049626732
1.8611602345559448 -4.48313711213736e-05 408.44099403208344 0.009747916199015565
1.6840329445378632 0.0011316624236137156 408.42534972722575 0.03968903343761225
1.7733269788088912 -0.002414458175337888 408.4169361724329 0.009177914381591087
1.7531492504066168 0.0024908935969927158 408.44035684641597 0.013409727363527251
1.4936775076258384 -0.0019014462913421772 408.4499670338141 0.022316102268320155
1.8768913326233845 0.0014015457369591488 408.4479783323663 0.013481622953761041
1.6696003117568692 0.0012901115532674657 408.4671040685098 0.019167702279457747
1.4553473217163313 0.006700277811305191 408.4597764846079 0.008575691344913743
1.5594483310873628 0.004444961027294512 408.4499402462617 0.01249807718239931
1.1438166772639011 0.003559667370534525 408.43986294008806 0.014232647926465012
1.1135617912282259 -0.0005414152140588158 408.4399979223146 0.027020152667303076
1.0607101770915588 0.004868183695022874 408.43726790892214 0.026089517651979484
1.3801161357769147 0.0006546295162579091 408.4355043162177 0.015138390408185142
1.3071035444848598 0.003188341916410628 408.41687888261447 0.04153338969332277
1.1815340766878633 -0.000969184048289066 408.4362409264306 0.010320834751867741
1.143798864703175 0.00016575396389185374 408.4128383819042 0.04699062310037932
1.5236573345325517 -0.0007632958645998915 408.4041584508177 0.04766363341636187
1.9166599338527484 0.004189079701409879 408.3882746191763 0.06240586154775353
1.5757614856172026 0.004758857947585855 408.4070208434172 0.0950243522160578
1.2014212702245155 0.006559242514146493 408.413308674823 0.03773805488666189
1.2709005711314032 0.0012425955915955599 408.42142551817324 0.009208945114461093
1.4140351646394704 -0.00016104434338432266 408.42750078564137 0.011651117892280387
1.026952326978504 0.006740071601037128 408.4574075242269 0.05758366534060796
1.2261834171779593 0.003687010035192253 408.4348464107009 0.005387596147637773
1.6591944109496217 0.008280351623817225 408.4037129851905 0.05214481239384819
1.158150326580708 0.00689269010617599 408.40839895831067 0.039318606262761624
1.1181698904169435 -0.0053403685118134855 408.4200072539018 0.031173321681655798
1.81760012608526 0.0029483628153046696 408.40362563057573 0.14066114475323332
1.1554705970632402 0.0026985148586810693 408.4199902790604 0.04016693797983929
1.489545397417365 0.0012255200110021253 408.4114543133537 0.051498922199611115
1.409964753148071 -0.0021916639859550033 408.40041575712735 0.04550056875816944
1.6442961643528111 0.0019552016306666475 408.404459392965 0.053266467152337155
1.1894981063822698 0.005246047589417498 408.40961081535477 0.036643929141086266
1.5051664663933013 -0.002191722694011907 408.40036340442583 0.05169492717565572
1.9347570213140683 0.007036248030150582 408.4054809726545 0.11757823047566049
1.1593838979717375 0.004286040456322414 408.45849898871603 0.013553651291731665
1.128810990830072 0.0022356894101301155 408.43910546704575 0.006071040034517877
1.8046688171354435 0.0030222928393102396 408.46337719863664 0.014123097282450921
1.0493018377936356 0.007135566868936049 408.4342891757227 0.07590727202915296
1.761769064765019 0.007165685382971047 408.446816388272 0.011789595896817402
1.0882484648824384 0.003451992405425609 408.42724303892373 0.02300452445656259
1.169619501368987 0.0031885979626752508 408.4456142589973 0.014113491893309628
1.2430674404565136 -0.006020111794328745 408.46516235262203 0.011176624206198157
1.0487820321490788 0.0029552279078881956 408.4447241376897 0.06303591105106528
1.3209403574518157 -0.00040430200747069815 408.4364782248717 0.012207514279920588
1.4266872502658776 0.000388081912457555 408.4524218422861 0.024422272426102416
1.0752073218965195 0.0018614704293579954 408.417001101358 0.04943428607476222
1.248068294286666 0.0018389942860952521 408.4200613188896 0.00631937403293049
1.3937306837605936 -8.793049145304922e-05 408.4364591577009 0.019762266973384835
1.698489889538894 0.010594382531261064 408.45916327319196 0.02323762121602668
1.3275950075384648 -0.005112111020605738 408.44756898110666 0.009634233097298345
1.3437805638094558 0.0040759993574801924 408.4337514309807 0.020861990455633053
1.0855916927669933 0.005894330773349034 408.41767350970827 0.02006475492993126
1.4392502426048535 -0.0021466531526728163 408.44463493207763 0.010423298855935638
1.2005945840887602 -8.056906144725609e-05 408.4335514761247 0.017640675732228536
1.3025741239147521 -4.6831273454656704e-05 408.4489737266457 0.016547309538646058
1.3727704012294324 0.0014712663074054229 408.4272673700387 0.012041194512517499
1.101107704489721 -0.003124163235939649 408.4385190789271 0.012661976312881325
1.0695705344507513 0.009238206731566601 408.44816146192454 0.026707217211420456
1.2727148155481633 0.004767110731435613 408.46192901027246 0.01018195108659143
1.0676967766011098 0.0107528981036475 408.4050291282152 0.07872072008139393
1.1880214578470227 0.0030858141505363803 408.4166669089571 0.020488514069874633
1.229995487373588 -0.0011113730830263095 408.44860326755764 0.015246403675182318
1.3210431787708188 0.001669783264065557 408.41448430259413 0.03766645917439667
1.6755775386680223 -0.0007904429698517923 408.44151872040544 0.023321040649172512
1.240520003528409 -0.0009337599699141153 408.4413133001673 0.01412383738385858
1.790756023515729 0.008697470558131236 408.4674895601128 0.004855473640693375
1.5132126781708866 -0.005881310490760664 408.4505930344874 0.013358325395997796
1.85661856405455 0.005131849535341875 408.4496957455851 0.021823194433911345
1.3364055284057952 0.0009779221890040195 408.45875057758 0.01790325728719423
1.8250434908421584 0.0029734486258949167 408.4603455195707 0.019994602060235695
1.1936683902348877 0.0029544652757755446 408.4320346699485 0.032001063065865594
1.041142155813992 0.00022593269982745367 408.40175807842365 0.08154764542907919
1.1626109049113744 0.007972673021338488 408.41572849771757 0.02636467054454286
1.1182269882253963 -0.0006074496517372145 408.4490087267111 0.013943593625419413
1.2170983391536427 0.004042117199770006 408.42904884390924 0.007457501874559359
1.1205340016510221 -0.006736254374799326 408.4179111235285 0.032505254477692216
1.596907940640205 0.00536159116755967 408.41843219094665 0.056657570560517165
1.7371918708738885 0.005290605331250021 408.41000330989203 0.036148772957501886
1.5179751286950136 -0.007193155892484813 408.41889643376516 0.027812436115888944
1.7942069218477774 0.001322012761176548 408.4088053442368 0.023149449649268
1.4371662452198022 0.0020337206007674377 408.4156938868015 0.017528510292789262
1.4647692842391815 -0.004256348138904522 408.4236718625056 0.013666814799161563
1.5879025326464058 0.0032776495029101277 408.4235478826474 0.05499266001549778
1.646684823796467 0.011511036873406693 408.4014356743364 0.050701846763505774
1.713290454709626 0.0011330315082893972 408.4138995774103 0.010557375545633008
1.4659243400403192 0.004928156136115123 408.4052394853963 0.06396175233052505
1.8730938571627123 -0.0007678288839321045 408.40085843408167 0.07028253330786645
1.6904735173452092 0.004121300478253349 408.3962084065304 0.019913127401888997
1.3495472160039468 0.004084367384245296 408.4135308776068 0.06811047693347194
1.2051910153321534 0.01178322236189321 408.4006081933701 0.0518689972686357
1.9337387953461505 -0.0024775754343241254 408.41218098542475 0.06243561643883928
1.2252952503045216 0.007392807311295315 408.4071759874824 0.052136233799132466
1.886801252870928 0.0014766108838385065 408.4366686670303 0.018094625790705938
1.9374612358564824 0.003697682036156312 408.43859246187907 0.0663443218475784
1.6149226258904985 0.003302934849164689 408.4313239597563 0.010665569686549352
1.4985200028030845 0.0005925383979361806 408.4298582717581 0.054987526335501774
1.8547115101964766 -0.005457839520938016 408.3942657572496 0.05841402008631884
1.4325073920029792 0.001356088276728022 408.399249233413 0.05108120225752225
1.2960539584136308 0.004624591953271812 408.4070921016378 0.08593604931609158
1.1242577217560654 -0.0050721306254772735 408.4067685374446 0.031682176849492864
1.282124035885478 -0.006446504998797696 408.40731965031716 0.004934255884768498
1.9203719937154153 -0.0019975888871701453 408.4492257332155 0.015413884845197767
1.8800451567946599 0.0009052571945765992 408.41034698357015 0.08414692608652927
1.3456208085073469 0.004784772382975874 408.4271456627609 0.017824718247371127
1.9129723267723258 0.007979891843824416 408.4158920732811 0.028217685380401095
1.75072906813414 0.0029802454720969165 408.3928290766161 0.046739151062044654
1.8600523787644285 0.0035720155994520635 408.45001741377746 0.021399987408189804
1.818710869584775 6.284466351026263e-05 408.42860669663105 0.017860836115112504
1.7460951277098788 0.0034201730269933527 408.4360079646054 0.017309890374384785
1.5593352736612225 0.0006901670341706002 408.4365916442134 0.023435633937660592
1.6142054581109953 -0.0037281979098013544 408.4018439360645 0.05822806666803477
1.4522429727159545 0.009315450458765692 408.40326547407335 0.0599760690173875
1.805311652310374 0.0020563024216048195 408.4067283910739 0.016155088895846232
1.6884879800732757 0.0015499060088229274 408.4348650069381 0.01942098557280845
1.3744627750239864 -0.00037618181254744443 408.4182658873114 0.013427363899040241
1.7507298948808547 -0.0033821330195705325 408.40107867320444 0.032718692082116134
1.0988811006521149 0.015207858113102284 408.398353479686 0.02506507627989464
1.2781948071774583 0.005963979575754593 408.3963960133623 0.06137373629357542
1.9040928776915376 -0.001653757491511611 408.46380245993606 0.006715755728478516
1.5959750679508296 0.00749035893264503 408.46143829315497 0.0189654372308957
1.50478463480303 0.010918005738445303 408.466080475293 0.04068687060046968
1.1960768846020098 -2.8342132907395803e-05 408.4575006347976 0.011715180403350066
1.1429060086157898 0.008035173339235775 408.4697085565685 0.004597669612475509
1.8339821402763827 0.0038393932205961893 408.4059929617562 0.10956410085588295
1.920614563574325 0.0028303957879822644 408.3995907443109 0.06613344834867135
1.5762984185783928 0.00475110429863878 408.39554258407105 0.09938743760931164
1.6313812261586074 0.002127451416879121 408.41329297975506 0.056868162206529745
1.369192395373339 0.003198115210767476 408.40327856187446 0.07706071842647559
1.0460165773330345 -0.00019532605791500006 408.4057686758759 0.08760855360839907
1.0874329521954325 0.009341644267609363 408.4008043817149 0.03505362626060381
1.5880184601258298 0.0008682796013331053 408.4056104145259 0.12661181549838477
1.33171700128773 0.0028017520762599088 408.40128668667626 0.04273166804207437
1.2093745866056418 0.4421071458608566 408.39845796414227 0.04617920557974238
1.3506404460903698 0.26886162767274624 408.3916244732377 0.0002525583819666104
1.34329280417037 0.3266572909871004 408.3984248066344 1.8308876023552683e-10
1.3648208664940567 0.1989464827624655 408.39900093533447 0.0007269821192905293
1.3252050392353922 0.42955131970933563 408.39503770543666 0.08850850294747464
1.3536221900645866 0.21956101289571062 408.4001855679602 0.00011659520427875186
1.3605434301911399 0.39553387371869236 408.3978168571734 0.004350291701144581
1.161019344303253 0.4439225262216529 408.40186149081535 0.0362993556504164
1.3694479559686952 0.20225160771650152 409.04402505309343 0.0349594328666778
1.410602208494801 0.20900359522477488 408.88001155684395 0.0035023874292077397
1.4116130503513002 0.20770492598877327 408.9882478818463 0.0026934625889788403
1.4102710251512762 0.1993755573367408 408.9082185997356 0.004722983497517515
1.5486711387180703 0.20602412688745828 409.0766004461785 0.027873369777881053
1.416158931338785 0.20850562231008898 408.9537054155283 0.007334579379955703
1.5375275628222638 0.21123269758115765 409.0491180259037 0.010496111079832064
1.3843785287745505 0.20510259468695913 408.90661429673014 0.05940820467065513
1.4985231210404444 0.20249650677544484 408.9795903923146 0.0038313473940558966
1.576133675055528 0.2098468177170985 409.0780497142223 0.0192406432570594
1.4296385272127436 0.20528445630769404 409.0245959929272 0.0025335695903073666
1.3689655142588324 0.20782205884889718 408.8774144709289 0.07507827365624549
1.5693002373437417 0.20944907520393558 409.05896487579776 0.020505557377246936
1.4191159222981096 0.20967663783004004 408.94615522657676 0.006225702373142123
1.468776141991412 0.20523036719217136 408.98357399038497 0.0020880723043221272
1.457332391272012 0.21117441995825492 408.96138805563953 0.0050246523725820825
1.5158355759171587 0.20818325325833423 409.0420417488169 0.006966949896011983
1.5055396548634423 0.201586472884477 409.0574821255068 0.004972719859799199
1.383963558457663 0.20429058406509307 408.92856919087217 0.06944648277206414
1.4096493680267814 0.20701899549246552 409.04494625922587 0.00471973450057423
1.4204514564380633 0.20383429704721287 408.91783358538544 0.009051820674994437
1.4120978300581077 0.20264497044967275 409.05743944200503 0.003154330781948904
1.5116317526891743 0.20529725630995405 409.00672721005077 0.0030960660433692155
1.5068199557942525 0.20345997566703242 408.9846655065547 0.005238789336795342
1.3760537900709147 0.20295532669855196 408.9195848181497 0.056741316050405784
1.4980356895932436 0.20765311476201476 409.084196746418 5.3989381860206876e-09
1.4985600977953306 0.20300903784432892 408.9944728427263 0.004204355261149168
1.5447857290867524 0.1962222929845032 409.06848946953824 0.002877902359575196
1.4488591939833362 0.20995464372173572 409.0776825943546 0.006374097510352189
1.521554748063541 0.20901038224944693 409.03626129916154 0.006825832846692481
1.474008766107166 0.20179967482619776 409.0431217803217 0.006315084762763111
1.531854964405684 0.21100424243348476 409.02607218243315 0.0018028921569047305
1.555047626579779 0.20884534197697507 409.0366036184104 0.016795803291932834
1.379087276426186 0.20774972367220088 408.96026804957995 0.07701925678460937
1.378762381427124 0.2053344989436357 409.03262576780395 0.0306516400423289
1.4132858387976708 0.20655335562064356 409.0251219931 0.003126362173215872
1.5759748985413051 0.20787574624315425 409.0647449614549 0.01586302504168483
1.385037136111046 0.20767065913066998 408.8847776560545 0.061414912271146115
1.4992967586974841 0.2005705343438147 408.89563293662064 0.010882245522399678
1.581092070357118 0.1976657891317124 408.9556034547087 0.007043222089232461
1.458942149778485 0.2077300521596019 408.8697687676868 0.013044282292502601
1.5239451039182252 0.19494425274991817 408.88821980347416 0.010120333684626618
1.4986041884145198 0.20736205481415537 408.8618231283026 0.011554555665494601
1.5641655982674045 0.20357931538897112 408.9627952588279 0.024510052486221918
1.5963738273350117 0.2062678755229394 408.9398080329549 0.03431590689999286
1.445877984273943 0.20496648201053427 408.80636611817107 0.014517396145214436
1.5184871314967259 0.20697625205160367 408.8407880363971 0.01151872162530932
1.430491139280155 0.21276852811619107 408.82945734397526 0.007738167315118592
1.524836876917539 0.20749917965309236 408.9743855819838 0.008084245057348925
1.4528002247429654 0.2034713745287726 408.8491328573095 0.009915941615681084
1.409291341546846 0.20957951855326692 408.8556953623288 0.010285818481790932
1.525510114882825 0.20565862858140477 408.85033557308225 0.009344134870542246
1.4257528687667502 0.21210206615201743 408.86379910147554 0.003782917413996311
1.5570610705531185 0.20338969617282568 408.9286180391166 0.01644062125679092
1.5661721832014233 0.20737282711912697 409.0155853634249 0.018322719823863208
1.4672584493740999 0.2017441384557397 408.90048309866233 0.00356263601231059
1.5084759543545336 0.2041823666912484 408.9108110379773 0.004485740688546047
1.6023507894440456 0.21702150239657247 409.00600064834947 0.044453767911184716
1.5536691263650821 0.20122769267830634 408.83193995691795 0.00527703220404754
1.5929904627936613 0.20691264956995187 409.00295441167475 0.03521640557389516
1.6011231189675441 0.2100677262744702 408.85940597938423 0.0022236007168053894
1.4376012193155354 0.21010766748912638 408.839696134643 0.0071339112328301394
1.5855715042682028 0.2065200296159396 408.9262480122742 0.010921396742465474
1.5894688870315308 0.2083229565898928 408.9038445985999 0.009361653539073813
1.5426249921166824 0.20952470315596902 408.9472905360501 0.0013876413072045116
1.5721590938033714 0.20234291050572215 408.8168937856828 0.006899340919402313
1.557206664951512 0.2052348461301419 408.82064602617476 0.007627067984513678
1.6106199514466313 0.2230271858329185 409.0210744580957 0.00670390396166313
1.6160033985729594 0.23259260629446965 408.9611340818623 1.3637611253647033e-09
1.598874748492897 0.21091938040413644 408.9098509684597 0.00750673782169073
1.6092419390343593 0.21357359312624072 408.8743986469739 0.01954804621084009
1.6056901892925362 0.4526486725381042 409.0046541075502 0.00031501810365742604
1.5958480868724274 0.4497266523101033 408.9922758733953 0.0008356407217953891
1.3656479192159436 0.4576542025565611 408.87263513148986 0.0038619633006923655
1.602543961186375 0.4482616724134515 409.07289629816535 0.03788659305911763
1.3641558943355692 0.3198744659856823 409.03279356852846 0.007747241394546654
1.3599279021999295 0.2825827068528074 408.88189167083306 0.0005441687699071337
1.3613735027356189 0.3349840970987585 408.88632840652866 0.0037701073893770796
1.3626549758981448 0.3142738808584398 408.894144611822 0.003308009481288731
1.370267800687464 0.24929296248173002 408.92493076465405 0.013538434075922201
1.3664070689278345 0.27067884296207106 408.91633935555024 0.0077767469676781695
1.371545356856112 0.2553771791970153 408.9458393542599 0.010596497075272916
1.365564435889841 0.437094853560228 408.8642090124185 0.00783266432288949
1.375809867167027 0.4358603325712015 408.9064259223203 0.01301091043426267
1.372177479115256 0.45991328006029664 408.8528817519411 0.010697816975806837
1.3659357445790217 0.4343108495796862 408.9129719996872 0.023506283316164105
1.3737470385095734 0.44159875387671726 408.93298547108725 0.016980385432765515
1.3627912325436606 0.422486937075423 408.8933945898467 0.019548042319788007
1.3637142358572005 0.40714404318324193 408.9719496504045 0.010679698156936389
1.3615386783434362 0.3855996324028754 408.94245619202616 0.00653881042791048
1.3668038473475943 0.3402624231340779 408.9211755467274 0.005001765834938216
1.3646951826942113 0.3420258744670352 408.9291774359613 0.005093083136941668
1.3623015745249842 0.3503627607751003 408.9615487032172 0.003565063206347004
1.3648153075709544 0.36267527144661454 408.97679370852086 0.002850082646175631
1.361984532787497 0.35666449892054186 408.9902823154092 0.0032189307986092595
1.361387565041728 0.3464645254979546 408.9425012540361 0.004322768572127993
1.360750822376609 0.31147473285102517 408.95309240371677 0.0027401600466630334
1.3662777710813305 0.24426061860577777 408.9706700159522 0.01104944600270871
1.3678060819695999 0.2299390110424267 408.85814990285843 0.0864994208967817
1.367975448881917 0.3016772905769223 408.9891813117571 0.008582057467612543
1.3641714823107622 0.3472240531408522 409.0043483350389 0.005065859325526729
1.3688701579493703 0.23008526540527416 408.99184298005684 0.059144537585244496
1.3690740659276228 0.2385944244830151 409.0028431748247 0.013103350021806069
1.3632983443251154 0.24352693034282916 409.02169053544117 0.015329110260062194
1.3741213107803067 0.20717233814920977 409.06816886890584 0.04182780342153393
1.404532419727205 0.20330532346117242 409.08606892309353 0.004309297811562676
1.3754515446131348 0.45117532488172707 409.0734431163941 0.021352378084541337
1.5077470524291983 0.20607010851997146 409.07277469017794 0.024732581031570222
1.5285257531647296 0.2084353615757969 409.01806608620655 0.0025329308639435474
1.5417538098834833 0.2025285855914722 408.9110989176701 0.007203495404592465
1.602900446113738 0.2085947674523682 409.0759452492502 0.003422719836442292
1.582155011539116 0.20487643235665143 408.8427514263026 0.00972254520421797
1.4993173140418166 0.2028475971453594 408.9496542679067 0.001434144200778334
1.4301661316123904 0.20892425143955434 409.0512879430891 0.002585743715152499
1.6038884976981824 0.20478269260956147 409.03552140846597 0.039147401490183927
1.591548949852547 0.20365565631778196 409.02083437339326 0.038948675390310585
1.6108664558279855 0.21361422494919202 409.04507995264106 0.010462137917170856
1.5521046271014904 0.203531163942483 408.87889091955 0.021277895792847144
1.4611131170007217 0.20772101692084047 409.0214379648169 0.005734872914349907
1.424753945870354 0.2060809473462467 409.03655316681625 0.002667828244649339
1.4666539902142761 0.20838888074860715 408.9968913461864 0.0030653764610464817
1.455916061350394 0.20955673326663027 409.0313711110234 0.004501199346765114
1.5700155924476142 0.20016225761952236 408.90902976498273 0.0013262895719721125
1.541585937050095 0.21045098819301616 409.0227644826482 0.0027229584326296952
1.4266168642311667 0.20523990512808873 409.06925786807824 0.0043312185097104
1.443771889915946 0.20713966121425179 409.0685779828642 0.01876163707622909
1.5144386934294582 0.20442567379135201 408.92861388432874 0.0035960655128054256
1.5033324606031506 0.2085475567654848 409.03784700729966 0.0060489725407506705
1.5656601099879615 0.20827190226489123 409.0377243302499 0.016794925653281098
1.525788361196664 0.20704979716833707 408.995629905095 0.010397740623781064
1.5724662562742637 0.20346199932047088 408.9993050355677 0.02421538724711302
1.6044373147895359 0.20528527068770414 408.87838381141 0.02411154796862893
1.607479710571892 0.20885918160066458 408.9434514406817 0.036657518823315506
1.5170670643987283 0.20147761637841666 408.90334408862947 0.014937554328368026
1.5048694962075715 0.20443976185979626 408.94217796544194 0.0018608129258806665
1.5884946201894894 0.20201268732374175 408.9951327448 0.021305558366861682
1.603314283068642 0.20005618719693744 408.81680315045736 0.006116142309978518
1.4769639761222177 0.1970748890824871 409.0776109923275 0.0019968451650955676
1.571407538870262 0.20469095269305887 409.0206220718431 0.019404573685422
1.4500206218894565 0.20830240467138963 409.0533941589839 0.014223429622453938
1.5725796951142403 0.20361863749026202 408.9328875193955 0.01483681975407783
1.4628654733115076 0.20734952298240464 409.05927096587016 0.01047198126299361
1.5993720911232967 0.2066459247707526 408.93467543912936 0.01593919461265661
1.59357728732692 0.20182548223648072 408.87671068731845 0.01019266718650028
1.5612674910761244 0.19987060450676136 408.983240866018 0.004397880783203654
1.481573089299854 0.2088801084499728 409.00847345863616 0.005688982271016904
1.4404804123174795 0.2093420262794394 409.00398339727536 0.00288657670096657
1.539957707936102 0.20876819901586904 408.96721770988876 0.007199348354476559
1.5106300091484774 0.20520657655255164 408.9745693578438 0.000309636391344337
1.3627742816367874 0.2112357634691656 409.0639723140606 0.028683826435616146
1.387918056960241 0.2093324078181789 408.85679781666397 0.07857706650562181
1.5587804828490373 0.20679904075974612 408.80219302219166 0.006451923308423964
1.371956048099164 0.20435890290484302 409.01367791025746 0.07780090036751132
1.3948145330372554 0.2080836510097804 408.8856083012399 0.004683943212790999
1.5068519177821436 0.20931180123485124 408.823399972053 0.006507172224514608
1.431759311670185 0.20479349185672593 408.88870304681967 0.00439426023839892
1.4677510376477048 0.20268462543525528 408.8508427608918 0.005434432309983366
1.4957242990828679 0.20817160381081593 408.8502753751142 0.008123780090706544
1.474278563003775 0.2033320599990476 408.93007624541895 0.004875452503873884
1.537017943662066 0.1937830800717163 408.8715982349374 0.011572141451667994
