x y z curv
0.12109108752590295 248.8428275833969 1588.4138284534447 0.016560306720273206
0.11784335440690648 248.95767236869068 1588.392614803834 0.007174622763517026
0.1182443102847676 248.8570159945723 1588.4053616271271 0.02267875606513557
0.11882741714921898 248.85033421265481 1588.5214507433864 0.009098472419693616
0.11850367611484001 248.98609907899078 1588.4317829899796 0.01242839455553295
0.12097292695732607 249.08559448959758 1588.5146027561418 0.014050793913816473
0.11501885626741516 248.92893988464758 1588.5139574221826 0.01323408298577983
0.12673218314557796 249.02964587960213 1588.5330677435652 0.010161563521271073
0.1207104078730992 248.95885029397857 1588.3164214246308 0.010415773648717132
0.11818408228691606 249.02257772162687 1588.4317503082493 0.014371053449825174
0.12012234741281812 248.88815926499052 1588.3278148697582 0.007439931242821914
0.11253234929862213 249.11291327039115 1588.6002119412542 0.02018927692933504
0.11737282941248604 248.87497135495138 1588.5459459896342 0.0102195192874392
0.1197747417573929 249.06677050387225 1588.6034313768798 0.008359547500630424
0.11650943514481753 248.90498182896383 1588.309289429721 0.00571192679633571
0.12224357480889712 248.947561538496 1588.2354368474573 0.006653945185064642
0.11273876973171472 249.07627082118847 1588.5203110565424 0.012412756492865567
0.11662966676949457 248.86637200961127 1588.574214271593 0.012055069734741346
0.1143198308570763 248.98863398749836 1588.3296032558362 0.019602884699603456
0.11908880200939348 249.02086442035505 1588.4145640177971 0.022725124383006716
0.11695156124295823 248.98243264170537 1588.3176787311368 0.012630135451662342
0.12228230778133443 248.85007045014433 1588.60237744793 0.006019804921759989
0.11860459062628423 248.93973939479824 1588.2790123377895 0.009586608498111432
0.12309279991630899 249.017973804441 1588.550957661224 0.009266477192117033
0.12428528599111582 248.85801990172138 1588.5942143257598 0.013216663986572025
0.11840744296373028 248.9316805887797 1588.3179516109365 0.006817136937769292
0.11172496459428094 249.0925993895894 1588.557773460451 0.014337857980839157
0.12134774162518391 248.9672272262214 1588.281095524948 0.011606307154466521
0.1202295998191745 248.8785495021967 1588.4392503190768 0.01200859152473711
0.11784974130805245 248.98935005697706 1588.4202190402714 0.005833767940807557
0.12100828538206171 248.9892796506129 1588.3815311746828 0.01380519830484023
0.10752148429672692 249.0137747537558 1588.5945785404185 0.007692723611479381
0.11692285148761748 248.859121611999 1588.464792569342 0.013871592463319295
0.11804191785095522 248.9255715024357 1588.4765485407904 0.008186915201028001
0.12106566298008423 249.0032678456106 1588.4248199287956 0.025123376593974504
0.11347168269759667 248.94268263328004 1588.2593165745095 0.00480943882676199
0.12001038833140287 248.9914449767718 1588.4864514341316 0.021287101729894512
0.11844260020494116 248.91721054003372 1588.5693207189192 0.00618227678264589
0.1243780161315018 248.9232675912075 1588.3440839101447 0.007049002184688827
0.11548686248170476 248.8985830717873 1588.3205521455282 0.009693111623959293
0.12057316451913587 248.97177359706734 1588.422990629541 0.007178762998682391
0.11560891617649403 248.88399268627032 1588.3762447615852 0.016410544823345842
0.12038319937627695 249.04422500082737 1588.4403282292078 0.018529520675196497
0.1209618326274247 248.98015309342225 1588.459624076426 0.016606181063479324
0.12178183210939963 248.96613244133175 1588.257921528605 0.009198950909563281
0.11307498712162911 248.92413080970067 1588.3631976037482 0.009666351513967358
0.11671508565407247 249.0637979652442 1588.5024977927708 0.02114222399264582
0.1193570211213506 249.01489262276147 1588.5224616713247 0.011978253466236854
0.11945171273525614 248.80481474825783 1588.5344013738575 0.024226519904268187
0.12204395368342655 248.9396173991863 1588.4355201584988 0.014282292653009584
0.11391815447934961 248.83254480270537 1588.52162065357 0.01555768564631968
0.12312234018154827 248.96966224876232 1588.4909892601286 0.0064375148082540645
0.12085821338959815 248.886668041998 1588.4815779009073 0.012209646467440449
0.12492024606022702 248.93603836316368 1588.493315814635 0.00249176401157352
0.12251341861343867 249.03763528021062 1588.5496691042267 0.013843548944580546
0.12333974204018272 248.8306644196591 1588.4595067551274 0.015430494839115223
0.12365571436381421 248.97502345927347 1588.4469148289706 0.006673741511228627
0.12802297046782163 249.055563901616 1588.5496474506483 0.014732190038046648
0.12015786091976363 248.94603424248407 1588.3005394662543 0.0050532691842129955
0.1115840930249977 248.76137804912605 1588.6039826584438 0.0023271622408980483
0.11177486855776528 249.0372730269644 1588.4016298745612 0.023669463370068953
0.12082310218326933 249.01929461904624 1588.3590527975064 0.01777741925050263
0.11859534344126156 248.94405156540185 1588.5795383423929 0.018228238367239278
0.10901408642302696 248.9628159390689 1588.5986895292854 0.01696810648880688
0.12108341451215113 248.8822430954248 1588.5504854356798 0.011944527895429038
0.12361541467001617 248.96402968302468 1588.5678716502625 0.018084948444853116
0.11216645816853214 248.9190907736886 1588.4161394407172 0.012477411444062508
0.1197871631813805 248.96638872649194 1588.5307260721565 0.006947958508192265
0.12032965891753632 248.9265920668419 1588.59410041326 0.020092042863340112
0.12333186354758761 248.7629159729714 1588.558455657471 0.015202295531483279
0.12261886407437352 248.86281926852254 1588.538318017524 0.009101888031951192
0.11794797556867631 248.8434422178612 1588.5244775105832 0.010537216124494589
0.11793801628951209 248.8956449428536 1588.3785670132927 0.01517450596614876
0.1184079765317935 248.81534467234954 1588.589108904149 0.004611117180907093
0.12689646291783602 249.03072810965156 1588.384069758289 0.01912093531771809
0.11872816653710923 248.95979076370062 1588.5840849169824 0.021178056940756296
0.11745639047696937 249.03751603503974 1588.5153635724691 0.017454423346873887
0.12258272415241749 249.03993083949197 1588.594030756796 0.014927302323726603
0.12058035843628678 248.98973483984074 1588.3730787618656 0.0184277974249324
0.11368600052705917 248.90420726567407 1588.3649690950233 0.009608370822581683
0.12205739067003663 248.8885003691881 1588.4872304658734 0.013017752280518649
0.12036078407800607 248.9214569719121 1588.3033972596454 0.006288417524171157
0.12458313185583869 248.86341416450497 1588.498228517947 0.009881658063184634
0.11494874583976798 248.94752291951417 1588.2914180542439 0.00817265024912765
0.12012762320368554 248.87939868237095 1588.6036297655378 0.010511673203059232
0.11751321716251491 248.93248301033128 1588.4366794332182 0.01829592225905716
0.12511254532513255 248.96800146488758 1588.4769104314585 0.00588305933061664
0.12225592452840038 248.99154287624927 1588.5492780950754 0.013143842676740508
0.12356696034616392 248.97892194196936 1588.4772029619853 0.0067974743708284725
0.12432936980366127 248.90664748629038 1588.5551701997886 0.004589742595364249
0.1265001925137675 249.0172610896528 1588.5032212735396 0.018530626107476297
0.12174229653538937 248.83299329638766 1588.515466217822 0.010085338114934563
0.12013093845066315 248.96113674332395 1588.2914726626304 0.00776601636215426
0.12125560378105084 249.0160045618995 1588.5736757289567 0.013929403339231226
0.11968270496331723 248.95019946223604 1588.358228030383 0.009894727686954367
0.12094645915780548 249.03527644618177 1588.4660623173565 0.02363138900870059
0.11505436678033949 248.84607465986264 1588.4363028236505 0.0106237401409122
0.12378165169901267 248.9202036613711 1588.2914040032533 0.006761019450459838
0.11823833816649479 248.8677926902885 1588.5689379422881 0.011488923550305808
0.12188867578487415 249.07471768493775 1588.5491328803237 0.01297263057992901
0.12270638732414499 248.93938852599052 1588.5904104800668 0.01780429358932815
0.128156240771628 248.88954767197907 1588.4490652032334 0.006878494523975651
0.11555782374079532 249.00494749409347 1588.3408031491022 0.017024372916508355
0.11333280473838153 248.8934411545778 1588.5130478135266 0.005919868438295038
0.1179400150073235 248.7966644376407 1588.5324997379582 0.02959371827058841
0.12125741466660325 249.033197129347 1588.5627875562302 0.023795785943072207
0.11270904503760089 248.98316770854325 1588.579875707558 0.02492377914410287
0.11877542145835464 248.91960478240222 1588.3795295525736 0.014278918473675626
0.12091688368798652 248.89465522063512 1588.4886034521235 0.01105224231841987
0.12227182479797764 248.83445398591954 1588.5531988364482 0.013040931231102391
0.11838623889301315 248.9630934903279 1588.512849931002 0.009485610234337076
0.12368517401485553 248.966058181858 1588.238755443565 0.01346507681406186
0.13100027553576 249.01706834746602 1588.3906945211131 0.015363212236374043
0.11751620355386082 249.10368150310114 1588.5742549769047 0.023862542220561625
0.11979569674019978 248.93464806464632 1588.3357809417118 0.007104420923982303
0.1178703327898297 248.8498022736585 1588.4924269446967 0.009981978822063465
0.12328882325034349 249.0520641271863 1588.4907376059548 0.017166235123340562
0.11926678730591123 248.93012154756138 1588.284431488168 0.007502451442361398
0.1174702459784977 249.07671274229597 1588.5732042362888 0.011600966576534734
0.12258164633731798 249.01864577016048 1588.492260626869 0.023931375196835056
0.1152573260671407 248.8241208092076 1588.485762733842 0.014527802077498878
0.1215017531907858 248.85081355871552 1588.4668864994644 0.01259398980344957
0.11483551412917904 248.8722588793876 1588.4751225286898 0.009424349037743019
0.12462437347964096 248.99910576690078 1588.505450248465 0.014970762031052012
0.11563419761990447 248.91625231577476 1588.4911721160422 0.009345014567331522
0.12259375049374893 248.8656532440721 1588.5606782114235 0.0150985402342779
0.11731122146272607 248.93257739916578 1588.2521760933598 0.013432021662388426
0.1128611486242066 248.81577206394613 1588.557155292116 0.018139024922819075
0.11855499957202145 248.82206792961907 1588.441094636785 0.011849420740892864
0.12059326128052482 248.8125221230995 1588.5237374618148 0.02787817193767203
0.12326815433102267 248.90717131330857 1588.4288091254346 0.017065834385439193
0.1107113513026848 249.03643996193537 1588.489088632451 0.025710907545442665
0.12006262874198569 248.9642325515181 1588.3346988651126 0.014923568684665232
0.12113388699348203 249.03246835797714 1588.5720526141267 0.021203558605008246
0.12136548826240572 248.93594765232632 1588.3086829487013 0.00742094575087255
0.12085349382945988 248.87654307644743 1588.3566093339798 0.004889939301877105
0.11427230170913603 248.79315098590482 1588.5674784974751 0.009174269096269628
0.1175610578885933 248.7889666182185 1588.5602700920006 0.012307516267871188
0.11965217968341228 248.93232914261282 1588.5796292644727 0.01437798415368347
0.11587893276794836 249.00283464802388 1588.4091135607462 0.01755318042345318
0.12573640574051603 248.97951673473278 1588.5431888471162 0.011536544622873292
0.11829957160900664 248.8490770984662 1588.405493461793 0.032998475989279234
0.11480019350072927 248.8344024529044 1588.580928105845 0.015035301874310443
0.11993787360904827 248.90263799317185 1588.3381572605697 0.01328713321796526
0.11873217936748544 248.7972823468777 1588.5486116548443 0.026559439921286468
0.12410248678199581 248.91349817933536 1588.5292944726452 0.006308076900079255
0.12346468106847157 248.9832156561154 1588.268443732661 0.007987797414390568
0.12308740833619577 248.99566511181044 1588.3135713137815 0.014346163709602884
0.12163362526438634 248.90708003647558 1588.3874671948543 0.011453404253974696
0.11880024054524295 248.98012520331093 1588.5057791399083 0.007884290833061533
0.12104938267485207 248.9417957691973 1588.5519301197455 0.009235334413542849
0.11994868516629675 248.82269929182317 1588.5106416906397 0.020413443051641618
0.12180575939237442 248.90595320346796 1588.4553160823807 0.009759129363103658
0.12290638547251409 249.04912428486676 1588.5926815913922 0.022770722317013745
0.12017692059505526 248.9477836458034 1588.4898752592603 0.0052860691974312935
0.1170607462037858 248.90649467717657 1588.3363477753162 0.013211256216269432
0.11806988396482535 248.89201400628778 1588.428453286529 0.023670432706836594
0.11272002891196156 249.0219007401323 1588.4780884910283 0.027514024679087958
0.1245342649342841 248.98738771207564 1588.4422993799074 0.009812949839703392
0.12158508666382929 248.95601271373442 1588.4191369960079 0.006147447607551422
0.1192486948347234 248.99092956713127 1588.2911504335852 0.012807449774230564
0.11878037399079529 248.83914329822937 1588.4891105626727 0.01463275136043894
0.12338488556737758 249.06215488886022 1588.5538584672736 0.015182944955917283
0.1235868690976734 249.00136878017503 1588.3114021944446 0.013593093910935796
0.12128876752094728 248.87246420061743 1588.5026795011956 0.010403713833693975
0.11757815944796828 248.89103759535112 1588.5376894444714 0.009298131857992525
0.12027054729490155 248.99042722667414 1588.4801980157692 0.018090018442115826
0.12153329689273179 248.87247098410685 1588.4531357035885 0.014903357721285078
0.12232655553742552 248.824754039884 1588.6078785633567 0.006586205037657219
0.11916148904541365 248.88979294291107 1588.5780323037552 0.011330002382640304
0.1207080497539472 248.913922772771 1588.5517452066715 0.00815300599026072
0.11952195053361027 248.90534792174037 1588.2804220761766 0.00759045413204606
0.11640596301043206 249.07610412891253 1588.4707889726099 0.009529984081403275
0.11625112814595487 248.9549235131669 1588.4506135319423 0.004842054000235129
0.12213993840982283 249.02867839715827 1588.4613355378617 0.022295835779151535
0.11754779404218477 248.9821455643652 1588.4105400037254 0.0061681031840712655
0.12498109480308836 249.05909083621617 1588.4622379524437 0.01950396457973494
0.11924168049041259 248.8511887653393 1588.4526997926168 0.01370394571363724
0.1223292436746552 248.874748488711 1588.5183369267359 0.008656060354614541
0.11745748125479187 248.98977909202807 1588.5638138764934 0.011243080684177781
0.12196037490643655 248.9254116762772 1588.4661319860747 0.010296623054805247
0.1106486387361947 248.80921409708372 1588.50640790202 0.02284788745874886
0.12000387443053677 249.00118307467275 1588.3728670769462 0.027900685588811584
0.12404318337736066 248.90913377481277 1588.5889236663445 0.012116549414696306
0.12463585886190809 249.02713198405095 1588.3734937980673 0.019216184034116297
0.11786412579565768 249.00422341790699 1588.530401753074 0.010822688089496203
0.11733770121852868 248.86776624616937 1588.4290225817522 0.01513879338245096
0.1223014980952392 248.93411670912917 1588.5634052015073 0.008097103002819179
0.12061599717554322 249.0418615812821 1588.4103660333421 0.024092509305984222
0.12244776350925636 248.87409835149592 1588.5903924931622 0.018874348552959823
0.11723321665369887 248.9416455281048 1588.3904669589795 0.01289460987759218
0.12023645276258754 249.0051354856792 1588.400448528379 0.015566397883652173
0.12269742294881662 249.03418197371573 1588.4277324538941 0.0054144150455264555
0.11888901586065166 248.8927091651637 1588.4745985302552 0.01254166658638316
0.12633811630837458 248.874503602452 1588.4118078470049 0.010838506116155245
0.11628673178844028 248.93079044128115 1588.518069737117 0.013053446159412048
0.12119920110902994 248.99362443571783 1588.4565181111545 0.01638159178355554
0.12273659988754537 248.9457763780759 1588.4626862636785 0.006751277526541489
0.12355822768494334 248.9629650961176 1588.546700822186 0.009525677808298647
0.12506616169056392 248.84983522567015 1588.5610755217829 0.012148531623224004
0.12003914019232018 248.94692452940055 1588.376142937054 0.009019737583502609
0.12996764977659692 248.99070641892558 1588.357031144489 0.012242610691812504
0.11730506898525159 248.87613019067007 1588.3855471948084 0.01566627929889279
0.11418889199603424 248.9472911485471 1588.5413908285702 0.006102716087202193
0.12031962272881555 248.76540370857396 1588.5854571260138 0.040211574176181944
0.12095121578301321 248.9455328914877 1588.3199008532156 0.007025669384114094
0.1225894369715364 248.83361817050653 1588.534387418506 0.02077857541095793
0.11610095777121349 248.94626431074875 1588.439990480299 0.012326421794777746
0.12292989488051118 249.03967857893034 1588.5386119172458 0.015178005645886446
0.11897987997283277 248.90947989038787 1588.3052627335335 0.005426715910933328
0.11699972564751066 248.9841827062719 1588.4060941614891 0.014351131899492749
0.11833044105161784 249.10028551915008 1588.5544180499135 0.032302569175838854
0.1190158086686028 249.04219698725194 1588.4812334254289 0.029794619165732217
0.12117846075394983 249.05521779269188 1588.4518623218785 0.008566494253935599
0.1152125371811341 248.84731965283683 1588.5810255082013 0.013722324797385494
0.12043133157213262 248.919818020393 1588.5681228970202 0.009781453276934209
0.12239254208216932 248.7843371987294 1588.5554924448115 0.009715857785704511
0.12291765458245736 248.86371433434644 1588.4902668504337 0.00915677289941774
0.1223340738675411 248.91815657061755 1588.5341429086366 0.009468605736153267
0.1161123152193687 248.95581166129517 1588.2168293356438 0.012323383995891396
0.12012831053963678 248.92003950116262 1588.4661207840782 0.009295292379461256
0.11533400341970639 249.10917210861467 1588.5399939212668 0.02435490667518869
0.12130141810605505 248.95145929429376 1588.3705799098152 0.007516348641631778
0.11529457393448381 249.06924083877973 1588.5586253791337 0.013925376733642232
0.11602591961451393 248.97374777316193 1588.397283258888 0.003261184529446522
0.11780680151043009 249.08032679182156 1588.5805528030783 0.01040090679391678
0.11228880920315076 248.92651372828027 1588.3954972673014 0.011386634206015638
0.11823009789092308 248.8122228467249 1588.6005790516372 0.003702915021380398
0.11854634143498831 248.94500080960896 1588.5048249033985 0.010327352872078295
0.1209895488252979 248.92533425427436 1588.5524395987948 0.011151401005413954
0.11772184720491538 248.98144867003055 1588.3258614100462 0.02173667870434211
0.12172048185001635 249.00751779728643 1588.4784152621885 0.019316655498818065
0.11627964979201277 248.97661796001583 1588.2931802275139 0.008829293093533563
0.11899972855040038 248.88580978254083 1588.5678481697005 0.009338515145919596
0.12169822715979971 248.78911490313928 1588.5764522648024 0.011003820469830481
0.12433359121324318 249.0010036936543 1588.360728961714 0.02878481448981507
0.11564031235602015 248.90854929158658 1588.404518303546 0.015337859312537703
0.12541317070441513 248.91033187082346 1588.4382846575268 0.012180527893120751
0.11958457728622467 248.7939590944562 1588.5242739586183 0.029618698212436338
0.12236323853538686 248.89323675842124 1588.4090239856312 0.016096357945890014
0.11913352140598758 248.980521460417 1588.3205769587494 0.01864111780419769
0.11928043181859005 248.9335495725585 1588.5237178965085 0.011327561970774839
0.11791167163003041 248.996002405529 1588.5243915400663 0.007911545153674388
0.11579963133512003 248.9555359463136 1588.3446702556346 0.016325570900272687
0.10894255897424142 248.80792451878762 1588.5441754426342 0.017666383620188162
0.1229042160515494 249.09163586566555 1588.60665134664 0.03289789339111838
0.11768723446558994 248.99930208185526 1588.395059989545 0.017858339364016033
0.11611078893782353 249.0606559354897 1588.5034642849525 0.021027163274105042
0.12359262506152903 249.00545767833813 1588.5144298106247 0.010688759309528537
0.11515301718458051 248.8893340809659 1588.395595908282 0.015493420120184368
0.12181698389730271 249.00586078383515 1588.5748856815985 0.022925031084812135
0.11339064815794075 248.92214338411532 1588.2539889508644 0.016134106263440078
0.12302833557436532 248.95379015780014 1588.570144852447 0.016416959630383948
0.11794389975773589 249.08257312917894 1588.4834428167394 0.013165294542289317
0.12538711928723512 249.12545850249768 1588.5451856113457 0.029968228390316227
0.120055694671029 249.09870334353045 1588.5295518107446 0.028319872775541453
0.11869174297750049 249.08536570377953 1588.3672357407008 0.011231960345592932
0.112483287510596 249.03693974022195 1588.2698830618494 0.0167986038068263
0.12086978680141998 249.03793163740352 1588.192532501522 0.00887815687411076
0.12492155301200233 249.11058792105527 1588.288633519731 0.031730001425463665
0.1230147252277829 249.0804962653119 1588.2409728883035 0.015348765238152498
0.11649829506183033 248.99509605374573 1588.1585639844225 0.004884128157790644
0.12654387650057472 248.986740487825 1588.2492536510274 0.011670396465360895
0.12504142285060887 249.03493031237642 1588.1556554839465 0.013234791937719413
0.11747344253273871 249.10437658468862 1588.4355124079548 0.013010203186397475
0.11520613562788422 249.0895243928559 1588.2513388989153 0.01621001729217219
0.12078652561040228 249.08744655476485 1588.3467226400555 0.013791952455734712
0.1189177823210986 249.08513216467693 1588.425598240737 0.011605828397246743
0.11847862878230947 249.08509418234175 1588.4085178170415 0.012781273751424427
0.1251044288332993 249.1103248660849 1588.296641838704 0.03557776316895687
0.12110414392714239 249.0491315297001 1588.153813240419 0.03253903907785278
0.1174332675028111 249.07704490579712 1588.3355648482088 0.014002528521319281
0.12372371646957972 249.1047784540805 1588.5212689747839 0.029509219832665284
0.12341111493739355 249.04182808280797 1588.2089221449799 0.011971888767136899
0.11989365841913116 249.04417893500772 1588.3505790320235 0.009153188943353466
0.12014235717474127 248.98411920850208 1588.1477599211858 0.01786357394982051
0.12011044590984231 249.07553838105113 1588.1647129096632 0.006717207803270082
0.12383180786151918 249.12392746063833 1588.5338745702227 0.016027740573267217
0.11672792862303803 249.11596473249983 1588.3302795541779 0.02621617659400449
0.12154118694389658 249.09705902533332 1588.177594792769 0.013193270680468445
0.11858643610845397 249.0082820760503 1588.1776031373836 0.007067418528990821
0.12491014516570732 249.00040717833497 1588.2022609109633 0.009529704735186032
0.11215498365695187 249.1259986469004 1588.39346278245 0.03880524960617416
0.11897696537271443 248.97688154659537 1588.1741623504254 0.0070565521623772295
0.11435767991300061 249.1098135830784 1588.4057611782707 0.021981120092960868
0.11920814634840901 249.08157943142973 1588.142408009429 0.03588659396782276
0.11507006815136335 249.04181339708583 1588.130799816378 0.03007212303998418
0.12101725193323877 249.0589419052845 1588.2375730743804 0.019460463141670395
0.11932142639854873 249.05312067264416 1588.3665607407092 0.016963966160917547
0.1272422903575571 249.09347728828828 1588.3242900191635 0.016315134425281354
0.12149466660980564 249.06656460766814 1588.3294907474462 0.015409033755048701
0.12390934517289592 249.14008596375777 1588.1623860246707 0.05734275231727635
0.12144366991210725 249.06277387018667 1588.298621903549 0.017745669330270032
0.12279530654088194 249.05534709013241 1588.3725264534387 0.019894059807928566
0.12347002031731437 249.08654598051308 1588.2099909988683 0.010638446286881917
0.12320577672259019 249.0398240711681 1588.2480576354053 0.014353933956817569
0.12388399214301966 249.11304261160873 1588.5097429360512 0.01670357837916865
0.11554241559020609 249.1087984652253 1588.166564496538 0.022676424263994122
0.12090714355898884 249.01590419019143 1588.2292458284053 0.012992573264443565
0.11934246775642715 249.0355807518377 1588.3317266965062 0.013512626755160443
0.11975664716814098 249.0560563134112 1588.1437662636056 0.036776265524707266
0.11921260096291678 249.1097584480477 1588.2307007202471 0.017496087798116365
0.1189840859605535 249.02097670810096 1588.1359180890934 0.03601640652056542
0.1179202251030793 248.9894735650107 1588.1696877101285 0.007622692177539754
0.1209942023937698 249.12092779012406 1588.557446801769 0.040375055522163285
0.11822429388462569 249.08486918837548 1588.1629580759557 0.007374995331271427
0.12529480194490888 248.97581498469262 1588.2307340454613 0.012599229265560664
0.11601286850241392 249.04945966695928 1588.1987990157013 0.013757773663204562
0.12693147655322506 248.98535568198642 1588.258971673101 0.011187088611306129
0.11586467078192535 249.03615083751896 1588.3709450179329 0.023266854955664818
0.11781251170747771 249.13586068439258 1588.2198550024516 0.0006600779466507328
0.11647535496797276 249.07181473754127 1588.3168680566976 0.01355064349779456
0.12126412082345686 249.0876028616939 1588.461031690154 0.013154710260230055
0.12489298171270763 249.06877779438165 1588.363109231082 0.009764799607881047
0.12134360913201472 249.01145262885117 1588.1689094592086 0.007578578258554461
0.11453080008227354 249.0736872592579 1588.451606009612 0.007041041224039523
0.11578335897224566 249.11057876786785 1588.1289929972056 0.04214200956660906
0.11766160336864707 249.06775835404486 1588.2564081320977 0.015433951330423438
0.1226816442191359 248.9745914404133 1588.1865668426542 0.008121584610673143
0.12325797683418807 249.1357390185371 1588.4373976779234 0.039032611455274424
0.11972408057445613 249.109811228701 1588.4679011661178 0.02031775979934839
0.12308216606837558 249.0062801614685 1588.251818039813 0.021051982719523316
0.11794960662954843 249.06527873490728 1588.4119382764063 0.017137753652285447
0.12186687810546994 249.11609095245709 1588.384200799261 0.048610438908093016
0.1236215946687516 249.02649032984144 1588.2122635595176 0.0120397577913727
0.12137998602863642 249.04308533515027 1588.1836191070793 0.007954081509411784
0.11919736137517131 249.05041390864122 1588.2453530555042 0.018788991520100065
0.12155907270937337 249.10987689668093 1588.5018288647855 0.017647178260763844
0.12197133657826607 249.06638647852813 1588.3511210146967 0.013644666337454335
0.11092526725997491 249.12540773089313 1588.1848625487917 0.014184549084628233
0.12547700018130603 249.00101043402393 1588.194490696712 0.008823748728463272
0.11906057744996164 249.01555860101 1588.34092849399 0.01707650001451153
0.1253548426438815 249.05771542094678 1588.3124219218616 0.014423463676579628
0.1193499349742367 249.03047960398607 1588.1752367796964 0.010137836444752253
0.12145057426419055 249.12350633361467 1588.2773943288166 0.04127144662518079
0.12313355192274839 249.1037654916252 1588.4172754445456 0.01504312573593463
0.11910762974015972 249.07691802129403 1588.3118729218597 0.01608596432741923
0.11737052870786652 249.1104469288891 1588.150970699428 0.02658150595678874
0.12486249780972891 249.04597787939684 1588.300645085882 0.011000642574405702
0.12453337100480769 249.12197988534015 1588.2431201332538 0.06844386953414795
0.11936310617398405 249.0225005659414 1588.20449710904 0.015363314900010732
0.12180042288658315 249.0830771448819 1588.2925389153959 0.017759528845015825
0.11848004394329434 249.08572529974444 1588.1972837690262 0.017767168612432886
0.11500323950132707 249.01479255865343 1588.3179348493443 0.01716053860830701
0.119701992727173 249.0245075766143 1588.1489268345945 0.015474222798624995
0.12079079505362035 249.07844049608224 1588.3994298252987 0.011798919536565533
0.12707977568817197 248.99222907919727 1588.200071746306 0.008795145282594032
0.11257481908160955 249.04235565852673 1588.32315657245 0.01475726920448524
0.12425125666615933 249.12991902594695 1588.3539999599727 0.029065046344887546
0.1108257838968427 249.03225315016482 1588.289606569111 0.019962484995239314
0.11506038707825895 249.06018183899982 1588.1719807411737 0.005314485761747869
0.1215362733575054 249.11079433910663 1588.2391597719422 0.06760852496599387
0.11596080335720461 249.00072784416543 1588.2689373842586 0.00918213540779068
0.11723015853894356 249.05461825865248 1588.2791786645746 0.01643680239808495
0.12128730367241539 249.11306734406634 1588.1369788842796 0.08395917360908578
0.12151003908943595 249.11757089071233 1588.5654463909236 0.05366791162650481
0.11497542572019308 249.11696048605796 1588.2012318568395 0.009957831114185129
0.11404875063308764 249.07587648496738 1588.4242396792006 0.009623430744968247
0.12237186792957643 249.04524833057894 1588.1574953358122 0.02697779634523153
0.11680201114068788 249.0781008167231 1588.1746899616987 0.007640775632972333
0.11631104839885816 249.10162568937034 1588.4858035660243 0.012797696691892426
0.11857537885301726 249.0864053516693 1588.1360761920016 0.04016298633088715
0.1270597651297017 249.02737934066627 1588.2334054050887 0.013762988517203546
0.1206773398208451 249.04755909262317 1588.23864287103 0.022137722735396312
0.12018964951191313 249.09582272347666 1588.2383234455 0.01987561343521501
0.11678099616631596 249.01922865592215 1588.3001288980995 0.0197818292003544
0.11732063279898448 249.05237999539668 1588.2224484714307 0.01493983909831295
0.12139823679726479 249.07285768917973 1588.377772182941 0.009965573056198109
0.11215210189542857 249.05679480465741 1588.3960807011983 0.014817891064466146
0.12468356406194928 248.9974338932578 1588.237999848714 0.012971513039160314
0.12607239309639623 248.9721541820662 1588.2243257160035 0.013651979888324383
0.11817870635841946 249.07447621415267 1588.1407934627553 0.04576924384638873
0.11651018882253761 249.09918835254598 1588.3641948503332 0.014779784425025054
0.12213327199564725 248.98213534947777 1588.2108300697141 0.015798563199543533
0.11595469092115587 249.0731434797849 1588.178761391296 0.007156197358633753
0.12106055626878547 249.12010671527824 1588.3239295107219 0.042854998382361176
0.11594926431334485 249.1278037413188 1588.4383015734654 0.02104267047861512
0.11137926772835563 249.06791766859138 1588.224379448947 0.011372697202666883
0.12456377203387657 249.08046353491972 1588.279885903056 0.01024643752201135
0.11594626725782628 249.11446454875488 1588.31440061871 0.026990810368315844
0.11687966957335258 249.10294277780037 1588.4536841099057 0.020848199449883465
0.12239272441271812 249.0927258247165 1588.276657206243 0.009468580177147592
0.12071660755543452 248.99713615301206 1588.1491877514661 0.019091513051839974
0.1161739697809856 249.11544443118734 1588.4551511526329 0.026833163592680762
0.11483025047819058 249.08572501028715 1588.4971310969895 0.01150435628339425
0.12139741932545166 249.06923042695394 1588.1966274685049 0.01527489278205348
0.1258933694030445 249.06035820715192 1588.1303846234428 0.0917420075266293
0.11703492759503156 249.00587176775818 1588.2270481385544 0.01031738147502441
0.11705344511524446 249.09286171622858 1588.1670871017711 0.012153073353343166
0.12498047346649886 249.02775830399312 1588.2477596232372 0.01591094802841156
0.12055305234189916 248.9633166856823 1588.1943678062344 0.007831732572941633
0.11912600032849019 249.1215143958819 1588.2242907352154 0.013544874654669121
0.11700051411635518 249.03910360887727 1588.3382977607077 0.013559483011871315
0.11996659361750253 249.10126168605422 1588.4743352311868 0.019074819366405753
0.12237090312968146 249.0636320139435 1588.467923658624 0.013355281401320486
0.12087032512300179 249.12095847491182 1588.4646226956008 0.02314056043325657
0.11929537031909752 249.1015788296093 1588.38890420943 0.04755488745108187
0.12406595991126895 249.10452918064274 1588.3426878317416 0.04631775863622354
0.11976347709117754 249.0118466876612 1588.2134679331743 0.013714298512992565
0.12176882531249766 249.0060545976725 1588.2900589782037 0.011808446882749136
0.11756281987904746 249.1027365012031 1588.2552574233741 0.012409025675028641
0.12068274074204068 249.02277648866715 1588.2589528393098 0.0175352274921268
0.116928724308176 248.9925996411839 1588.2246826104792 0.012961500125120437
0.121121102342638 249.10774779430878 1588.5122096032185 0.016668055606952246
0.11759144802908786 249.01417193585297 1588.1477081504754 0.012443537433306095
0.12319555130016045 249.07750755525151 1588.3641457754932 0.011099723629068475
0.12252380389849256 249.1256452478186 1588.5929841396298 0.05743662213181713
0.12446131009946511 249.03004205244258 1588.2142973963541 0.010977183237402719
0.11370228645128315 249.11346570755143 1588.5757007405914 0.046068194856916364
0.12357444103172024 249.03027351994376 1588.344775003551 0.008530330967377127
0.1162067163306376 249.0739775655141 1588.2908855727019 0.009789522583617904
0.11870032755335319 249.05846591455338 1588.3262047567732 0.018515850839064464
0.124395257132697 249.10608741606745 1588.307949198314 0.026374684216482532
0.12375310056285872 249.10970302661488 1588.1863795079544 0.014116832412579373
0.11658400543237216 249.1192405255815 1588.271676815986 0.02274794419782398
0.1254873995964579 249.0808493703838 1588.2243097190717 0.011339367334635536
0.1155581168166633 249.042004607438 1588.315839268827 0.016663122172236675
0.12046183055582546 248.95746628537535 1588.201837609256 0.006187879175435141
0.11294693859977763 249.1173724836489 1588.3640529086326 0.05463821701189257
0.11422226540586902 249.034828113683 1588.258537587975 0.009681821739800214
0.8864796136424667 248.8321415834119 1588.3043253618923 0.04234204221370814
0.8859762897759544 248.84504225641714 1588.2836846176872 0.047783433760076
0.9007788630624317 248.74907137650126 1588.4510581153704 0.017082320346550835
0.8904478944832573 248.72101216472606 1588.5169467161788 0.03893988071127036
0.890001531513486 248.87118817239872 1588.2385476316115 0.0616889440270265
0.8778383543890341 248.7925623977058 1588.3732771973853 0.043681340845669284
0.5742104784173861 248.92625101497103 1588.1232647465283 0.012067424974043462
0.860548000587803 248.6938942749696 1588.554070950969 0.021552929028275197
0.8054490638937127 248.92543426154472 1588.1224407656732 0.04795311529191046
0.8952227206703295 248.73387883861434 1588.484163252531 0.03576999986405945
0.8746405381422292 248.87018070565637 1588.2046136306626 0.039065907567010234
0.8988020578834391 248.7481918240308 1588.476489221916 0.024716292808595167
0.8349567972216193 248.85425937491092 1588.253457160294 0.021241001034031287
0.8840189992717254 248.83512618922802 1588.2843970123695 0.05784203659475736
0.8908390915541269 248.87906532141372 1588.222198747311 0.06403887575700147
0.8994793363251516 248.85626863789034 1588.2468271834312 0.062125223612591686
0.8872275366171191 248.7529065574711 1588.4367305289377 0.030667313886100365
0.1057935975687773 248.9080904287877 1588.1468859290835 0.01014070259851098
0.8897558197983272 248.77870644581253 1588.3937476039293 0.04557395175790393
0.17104659260542598 248.927935107779 1588.121994443023 0.011816472044822163
0.8498894716677394 248.76379319509505 1588.4099151280407 0.03815731566348676
0.8708330654872988 248.69816405803348 1588.5629740343818 0.021560285390096808
0.6629460368689213 248.9277809986551 1588.1204390473395 0.011604602796637978
0.8787463909493641 248.76594512332537 1588.4096907800067 0.03346957662543867
0.8888972644079012 248.71122428143872 1588.5406448682181 0.03794758884969992
0.05685496253535297 248.91975731952877 1588.1285239438196 0.023478682512082058
0.006830243959912647 248.92941600328808 1588.1306598667352 0.028666500778320392
0.8754832277939578 248.88228180213923 1588.2271268246402 0.06161549493991329
0.891092579232364 248.86167635219368 1588.263931687971 0.04709125277761641
0.8901573162326977 248.8978155381802 1588.1808711312615 0.04836356270450316
0.8438572932352619 248.87638130942761 1588.213455286472 0.034347628169443666
0.8835447421364632 248.73737047595205 1588.4730253818313 0.025440011700479447
0.8805491696628244 248.73480257250765 1588.4590440382462 0.01532576432075706
0.8897048054780222 248.72777406149234 1588.497011515868 0.034642431597706885
0.8854899707138418 248.79692515001136 1588.3698004134355 0.03148233195378883
0.8946388584950427 248.8262682895496 1588.3145978599648 0.04893917745866746
0.8864807931521358 248.89901003002714 1588.1852996376697 0.04375068327961058
0.9043931195436768 248.77029166790228 1588.4232719371953 0.043551176101313656
0.8905989704713217 248.898610380255 1588.2034000900128 0.05429434771366858
0.8868607994611801 248.68005341532742 1588.5787416145522 0.029465514879603194
0.8811010309394528 248.7822640999378 1588.4162345264313 0.012794107321786144
0.8916465068730562 248.67303612628618 1588.5955170270142 0.04228950583889689
0.8587189898117035 248.81342814019015 1588.3086851399423 0.01943626460202534
0.0965195535122096 248.869832911173 1588.2119310369296 0.010922216612419607
0.01549006990585229 248.88628418790125 1588.1874529428067 0.023452641530124687
0.001067984547231047 248.82403566205636 1588.3233174253364 0.055511569364355584
0.019458766247709466 248.67603271479783 1588.5838734548367 0.024421278927626654
0.06387260859808519 248.75027191375676 1588.4341168716267 0.015373207907448606
0.8201165155791307 248.68454424422777 1588.5649619579945 0.01425546078930027
0.009913396795653923 248.84297756201804 1588.2721577743162 0.0151150950477651
0.030029886385971302 248.8549183276672 1588.2298339169922 0.020307963293643025
-0.005859099651501684 248.6893639970278 1588.572405397794 0.035716168238587864
0.043177315414979635 248.77195573676008 1588.4002478797117 0.022340352807697198
0.0012555105392098274 248.69459640074396 1588.551475742145 0.036742815512388796
0.09810725083597951 248.68694514824796 1588.558237944209 0.012332281514167789
0.002806140273400368 248.7486862404683 1588.4539197378613 0.022493013489264836
0.005807333858746596 248.89214363220506 1588.1929276896014 0.022476977065517538
0.07568588420796302 248.73821157248216 1588.4577695621495 0.011952984647734295
0.007196857615690727 248.78963462787667 1588.3647347026479 0.07166171561851416
0.006091054786833618 248.70060090353812 1588.542694120008 0.031447106612500025
0.00946580878261877 248.74864006871766 1588.4600926321855 0.01652048136389735
0.008846574927786292 248.88646301234002 1588.2085763032449 0.011900085969775091
0.8003555295011874 248.67265328222598 1588.5997577482822 0.02615886136495313
0.01714925868803622 248.78387266451452 1588.4005982483932 0.021363908853027774
0.018247503335987052 248.78872060388275 1588.391587756924 0.017741781989194107
0.025200626130443264 248.75906666147776 1588.420879079316 0.019539989602039957
0.06473894102112589 248.76328374941977 1588.4174877273588 0.011154585095559383
0.10924415558913642 248.87873731303233 1588.1988310175543 0.021873270095302426
0.040828030261492364 248.6900365884187 1588.5441100578919 0.027203508680161248
0.025828076235854355 248.88996611867285 1588.1636383990797 0.01605892999205119
0.006734039862729014 248.85454743778317 1588.2501255730535 0.0363618529561602
0.04339814551886913 248.8825201273125 1588.1931034202833 0.01819187589200566
0.013150609638790637 248.83334669237726 1588.3189398324782 0.041670570053801266
0.8362837061617595 248.66542376160456 1588.586613866102 0.02491063034906115
-0.0030519182252903114 248.75631261835386 1588.43095750056 0.018551507146989707
0.014858497443036085 248.9198938669057 1588.133435197415 0.03657899033818529
0.0646046604433873 248.8240337127751 1588.2950627930647 0.00921872943532051
0.0011053880073241514 248.78776026519662 1588.3797463837761 0.031604783014366374
0.016636000605411795 248.88676551736518 1588.1916223511796 0.022108768788384248
0.00542693623105138 248.70692026709304 1588.5401522955235 0.028690400149972484
0.10433905273502862 248.76250743032014 1588.4148454512504 0.009702867751293805
0.002698879703796571 248.77309866933223 1588.4099843185973 0.041915715275375076
0.0254040205106077 248.7416202020816 1588.4552094679254 0.021138030022091202
0.04270702876000816 248.66462565974513 1588.6001441487022 0.01941398887848117
0.18809747494529422 248.66986298151147 1588.6060486582926 0.06925642889751964
0.0042920133975446265 248.8771801653272 1588.2152056135637 0.030237731803415716
0.029465431807454465 248.70509757979426 1588.517988713622 0.012820912399544863
0.11406770585938557 248.88682738075357 1588.1813109878055 0.0119547333066573
0.8643562760403145 248.67136107914376 1588.5867241960082 0.02478151847620134
0.027188183215535185 248.88971215491588 1588.1739285891053 0.01673822290456581
-0.0018402345563223695 248.6828891981262 1588.5915309501752 0.051023929002047504
0.016397897187953203 248.89182064553071 1588.1757290859032 0.02794585350864162
0.05557959904320907 248.72393216282998 1588.486139603615 0.01005940896349984
0.009695282834090983 248.82365496704347 1588.3454905100557 0.03697398302654684
0.013895156966746085 248.74430533942797 1588.4736999621405 0.018276375376548037
0.0005571867407449959 248.73038217034897 1588.4886686199236 0.013753266412955746
0.8107512522131943 248.67282348343684 1588.5753130022747 0.016823823325361593
0.00778252060008512 248.77100382840158 1588.4247491137492 0.02308867689659142
0.0732542273205783 248.69020143059677 1588.555352216314 0.010197797931043806
0.8193036066564009 248.6710280714785 1588.5999433283173 0.022764353091036475
0.03246392246540152 248.69156382750168 1588.5354724347958 0.02080796216828141
0.018550747173787765 248.87384703650997 1588.2313106922732 0.021795750185806675
0.004924609032577741 248.73463940300036 1588.4820952233606 0.01470795663981124
0.003790282208402043 248.80362409290876 1588.3500282648133 0.043392411597523925
0.07302556959116782 248.8906775197093 1588.1728403578143 0.009354274405676514
0.06813482940990677 248.92812039347166 1588.1242672408162 0.012954946030285533
0.02968422266251962 248.92742701984827 1588.1160162948838 0.02715674420680967
0.04927667988317238 248.9266840908683 1588.1247574783667 0.02584331267971633
0.6285836545704944 248.91571743309302 1588.1189309523045 0.0030548940947117244
0.8596711761157657 248.92505261566188 1588.128718253174 0.034426863112421185
0.42994706756847956 248.91721331275772 1588.1226739992092 0.004236339627804634
0.8821943254727876 248.92786182561542 1588.120209405811 0.024411214581923992
0.5281094728139807 248.92182939143325 1588.119603612319 2.8751571136186224e-07
0.8425404153605098 248.91911843263298 1588.1331769327385 0.030376015078732534
0.7972170270070247 248.91547377593085 1588.1288824239573 0.029979318324556532
0.8570523533291644 248.92999997924326 1588.1263970022121 0.03410392318219722
0.34059567239213495 248.92262047275995 1588.116398249014 -2.7633620357115166e-07
0.8755197977350898 248.93231861747276 1588.13244950416 0.019033954267397523
0.8913468005343954 248.68332110592158 1588.570418003051 0.03172788385371873
0.8930255428756378 248.8678802159114 1588.239627330414 0.06467768479918647
0.8890545024983637 248.79186698063887 1588.3768211453155 0.035518817190486766
0.8963550842350196 248.7937327795095 1588.3603611853132 0.05020486887784367
0.9046661055862208 248.71746918355814 1588.4978391142686 0.022198040337654257
0.8998399603749933 248.66783704498312 1588.6018252538208 0.06677412300914762
0.8998940624463299 248.80413539894107 1588.334571454152 0.049199252823098054
0.8903220971965208 248.7778926419323 1588.4021198980988 0.025409033591709013
0.899076992676036 248.70577909007025 1588.5289000594157 0.05177388086609642
0.8913103544562274 248.68005964019818 1588.5987802369095 0.01957301254037077
0.893391899510539 248.66978333542673 1588.5848253425265 0.03742597169949904
0.861857451607269 248.66586754404435 1588.6018273207246 0.026418435543179304
0.6788533218567209 248.6643646104467 1588.6043323554538 0.051374590756393355
0.08843526942115738 248.6729450942237 1588.6008878359833 0.009744622833328179
0.7890715498141164 248.6615374835417 1588.6043850131605 0.010503072359576555
0.84512222541002 248.6602482933489 1588.5950792152769 0.030487128651256638
0.6623578969071419 248.66307708744176 1588.6044896843541 0.10220256604397883
0.008711140896512424 248.6577527756087 1588.6028708160763 0.02785399920713741
0.2737173153113769 248.66286624901983 1588.6074689932561 0.03456301892118025
0.12972509149952632 248.6625398225155 1588.6137239077173 0.023429655219281927
0.026338557332649313 248.6636018330718 1588.6082685951149 0.019155056313320342
0.5245123808640475 248.6627675229583 1588.607507812586 0.06463721354242377
0.2498431712797912 248.66389579520836 1588.6008407569875 0.05842149993263219
0.17696510496928006 248.66016176446752 1588.6015375509016 0.04612073740502833
0.3239473774636661 248.66482109521328 1588.5995184390317 0.04300909849928244
0.427113345101363 248.66650939232568 1588.6133607183033 0.052234986506774515
-0.005693909612584419 248.8554330279189 1588.2642654158099 0.014392762450056074
-0.0018342539231871516 248.7190865188492 1588.5094069282047 0.01352620196387279
-0.004665094552197737 248.9094637425442 1588.168943219253 0.01663391390174765
0.0037055861866611573 248.8886126863999 1588.1788796285607 0.02015547546074017
0.0041619489583614635 248.8180647144712 1588.343713582913 0.05351940032832666
-0.002527062083346401 248.91362947505667 1588.1457294486447 0.01997969030332404
0.0914703072423878 248.90380260804187 1588.147156800551 0.01602203130978817
0.33695767104200225 248.8647251461709 1588.195785251503 0.011236208466415182
0.2487953379207463 248.84954896862467 1588.2160538632418 0.009293459486604625
0.1282555631875525 248.8868932653793 1588.1721973317556 0.014969748275273946
0.12995431220790526 248.87700163476268 1588.1932553515737 0.011898201090838629
0.1287052982042529 248.8708811480786 1588.1998913488633 0.013705913091200688
0.07901128596854043 248.89613674455802 1588.1610452260747 0.010691413379174982
0.4179003616581982 248.84179925631352 1588.23231800964 0.020892475735780566
0.028544483250711544 248.9074952272407 1588.127792217274 0.013276402111920995
0.11281223259865983 248.8908372467709 1588.1602987287808 0.020734591269254584
0.09331161929072063 248.89000222408427 1588.1612048490686 0.009749389414137482
0.5391695584427976 248.8433194558856 1588.2393128153803 0.010762230258411134
0.10463250198409839 248.895224460841 1588.156017223182 0.020245041137446993
0.07842782248183595 248.8942041729808 1588.1492733350674 0.011961048945668209
0.11165732602451421 248.8871817057262 1588.168673975106 0.015723893879079128
0.26705595461224035 248.86873661387287 1588.1857402551236 0.013864998303988829
0.8688196650557692 248.91382478011695 1588.1309604608607 0.026140735743741268
0.7643640169625314 248.90559850140198 1588.138058358418 0.02798916687468674
0.0862660563704852 248.91204066562676 1588.1267891062828 0.01218937968507064
0.2947750585587324 248.91536094043138 1588.1219187688623 0.02158705375932612
0.8267901432081327 248.89528938221875 1588.1465565619837 0.007187931888915716
0.701342475578847 248.90808393773142 1588.1262409919998 0.01746466759010592
0.5940958508250488 248.85292093796892 1588.2178997352923 0.013128840990648804
0.8163649673845107 248.91097415560625 1588.142354015656 0.020461876623279057
0.3284875019096238 248.86917054507273 1588.1824046952063 0.016702349286024914
0.6732404636952103 248.91582739294833 1588.1210177168027 0.016804748974368323
0.8055619157599062 248.89179092729606 1588.165005408349 0.0268161331704768
0.8020958243563237 248.9146279173519 1588.1362058130894 0.03148238623611361
0.684406959864079 248.9069075251189 1588.1267072482717 0.02762621443267762
0.8526773971309736 248.91098399533783 1588.1389474557727 0.02371991473472774
0.7741868632667276 248.89825152116424 1588.1552245420219 0.007227354633943574
0.06561899764811194 248.90865383906143 1588.1393096941642 0.026108968885405377
0.7857931784226647 248.8922645182167 1588.1462639712145 0.009042880959326868
0.7577914790714212 248.91484172930032 1588.1236901088043 0.04557487200611379
0.11617834652980841 248.9064311354525 1588.1500317016523 0.036347462316988946
0.13150193568037247 248.91680604878624 1588.1328023022238 0.0314953591829947
0.7876804228880248 248.91011147441415 1588.1289559247414 0.02139802173331975
0.1047126584963849 248.91276555111972 1588.1311398041162 0.01187510536747807
0.8595848449376177 248.91192946147086 1588.1374126504325 0.023073047923651925
0.8268849882350742 248.9200898867698 1588.114007062373 0.0052985831836251385
0.7519309482370126 248.9161069103557 1588.1189544255967 0.02102825669948529
0.8502332799979069 248.90466190625273 1588.1482345050872 0.02012988500072436
0.44387901733637597 248.88407970662678 1588.1543819172873 0.014702603669272892
0.5905739247197175 248.8519342782496 1588.2200286569944 0.014933592514752176
0.8265260565281765 248.91049795805088 1588.1368220410507 0.017337896895951804
0.799240979129233 248.88002163533207 1588.1865188464753 0.009407782047590855
