x y z curv
0.6044904302781466 0.43598561167976807 93.00221612573525 0.003359471170411657
0.6001645630121475 0.4125346900572696 93.05958977869199 0.012486374369464476
0.5986536021028322 0.44203884524707737 93.09833436132867 0.004422465622651256
0.5966274617335741 0.468689511917323 93.0321181645005 0.027931135148021643
0.6036704639620539 0.4860298455229831 93.06715479946432 0.026523807028977497
0.6047960514295322 0.39552860817522517 93.01682834748266 0.004004400929929581
0.6022976183020502 0.3503573822378801 93.09487693592489 0.006108985085838881
0.6030534575244694 0.31464184581206045 93.06625708636929 0.009108614303452002
0.6045577916013131 0.32961548253620254 93.05149295423386 0.00777690567353946
0.5965918414851712 0.4362968852015469 93.08181567206535 0.005765536598867586
0.5966253741058628 0.49582841935820726 93.07058441132169 0.05563122663312584
0.6010986532842019 0.433627863262106 93.01636579758403 0.005553032992107971
0.6110924382291952 0.4670795989088624 92.98611427824972 
0.6082369694291244 0.4006318368911283 93.08499751592437 0.003986559894714447
0.6012236503251945 0.4249774384418685 93.10571988275282 0.008012200386401349
0.6066041841739819 0.32327981814851786 93.02854745036684 0.0031725459760779283
0.6014276709081606 0.31034874365427134 93.04761246441858 0.017172452620227045
0.6003213006080949 0.3758137146026426 93.0623057133127 0.01537661588210125
0.5989046573991232 0.3853740396023799 93.0503620368329 0.013778445752033384
0.5968844300036463 0.39502288758493986 93.05767825010969 0.011889831302471014
0.6047623672070335 0.30956537696237246 93.07495561268493 0.013419501298786093
0.6022905355212248 0.32585831405865684 93.0988656052792 0.004821321141828005
0.6083174122149576 0.349329310305864 93.0724562607183 0.000867962178743851
0.5999419093679489 0.3600361714474544 93.03956264033255 0.009815681831712025
0.5950416806956808 0.2334791300392058 93.09723972251665 0.0556037739539614
0.6021832244067165 0.42905730929116837 93.11051002387602 0.0060723020615556155
0.602809090755843 0.38153115037097907 93.1045891479612 0.006941649347697729
0.6010415504565756 0.41556676349316024 93.06893538101232 0.012729282658635616
0.608988487281826 0.42362797177042216 93.00139032690586 0.0024310838016190534
0.5980675937402554 0.2718916565965437 93.10678125964608 0.007819449349992541
0.6070299469956625 0.29968194091686295 93.06707118624949 0.018936193305871193
0.595101575742972 0.2882882744528012 93.09754425103287 0.0035762061331193456
0.6008559279446927 0.46957752362551625 93.09009407735832 0.028565422488724224
0.5991887560985584 0.2689865983793525 93.09576050894638 0.013961321895804034
0.6055348289950995 0.4959630490722718 92.95381611827378 3.3842477717234103e-10
0.6026734862050703 0.42819189556966747 93.02999522122342 0.0054419161581775195
0.605770050255406 0.4101359485138136 93.10004766406597 0.006347627801837598
0.6023603450750045 0.35417717271200483 93.08683085394048 0.006626395602022753
0.5958921978811786 0.22445966964188757 93.10472531480009 0.06002584211637876
0.602806434046131 0.42177270805664013 93.07511460498739 0.01210475772747333
0.5996536347079443 0.3845517269811292 93.08242208724015 0.007361096640361916
0.42258664761190934 0.49846913448921587 92.89271724091039 0.010508842180093807
0.5872221636421012 0.5040799814673536 93.07732704068978 0.04997925589696606
0.36036424423311597 0.503946368705927 92.88103760484134 0.008732981630552934
0.5444930330915875 0.5014429697032511 92.90608575104571 0.007749474858712386
0.3929789372656512 0.5066543914912549 92.87200027959607 0.013209483083650036
0.4368032652482236 0.5018173651627559 92.88321343378475 0.016088479313934798
0.5899947696748576 0.5058204326141605 93.05533398920035 0.0263340288754384
0.49735094510160854 0.5024978613914187 92.9710204639884 0.014780047510869412
0.3721552694987673 0.5059276345317671 92.9073032302975 0.008913264723215806
0.49514981301265865 0.502260685921227 92.99009696068703 0.010332929659431304
0.42614599753473414 0.5033030514477876 92.9356121956642 0.016111110783005415
0.5255763310374055 0.514149335207221 92.94379333531256 0.0034716787325863715
0.530536564654305 0.5086692293360817 93.01376193641032 0.002914714002050034
0.321183900810582 0.5023250804501762 92.8670635968144 0.005441769419946309
0.48051741620792876 0.5059753965268927 93.00069036558004 0.0027616667922084827
0.388171950856784 0.5096830920846731 92.86731259277458 0.008500857081276734
0.5029723106748389 0.5029830507872924 92.85681134120205 0.01314138371380304
0.3902259982923665 0.5045685853413338 92.89121386116564 0.011817519902934327
0.451459417747973 0.5031083396058231 92.87221174695681 0.013400709722488007
0.5929686945932441 0.5097328936088883 92.91274377407044 0.006149216298592641
0.3664014891660119 0.5061794706869864 92.86000724145741 0.016162421052809083
0.5330821793608271 0.5052415529363156 92.91012044228668 0.01175833268036311
0.5142000457287372 0.50313284547934 92.92827280908317 0.0240352225459491
0.5863812614182402 0.5032262065147199 92.85534600768251 0.015518103216235807
0.5674104922546179 0.5028074736751698 93.01019170905903 0.009530128050806148
0.5971720148388295 0.5077324199932682 93.01750328954428 0.06100625395853622
0.5534661125736436 0.5045785516144733 93.02292504755026 0.008708151318418123
0.5674896256471178 0.500894573474057 93.01728146079864 0.010781649948508186
0.5951502163988761 0.516532113124225 92.98233364871068 2.0254270715663648e-11
0.5679985576802805 0.5030958677931716 92.90861678789175 0.011597414659765727
0.47145333494666597 0.5071106033170001 92.85523778871575 0.0035991195159072687
0.5870408447583763 0.49858865918450257 92.89254011658365 0.00659671542089256
0.5091840716530904 0.49942418670162647 92.91218317397323 0.006706302827700019
0.5272777503175791 0.5022454164382222 92.87858911246119 0.006424292869409021
0.49440714498407273 0.5041669161910918 92.88494550764362 0.00548726725517287
0.34689731315268635 0.5069859519015721 92.87989894757804 0.010322210367771326
0.4623577701225146 0.5046029638842654 92.89084257291515 0.004880782760447783
0.5151148545628637 0.5022100294734507 92.8503246636891 0.008454919981337194
0.5447886419540185 0.5080540001561066 92.92486171949649 0.010027815250078747
0.517503580074155 0.5112255986260348 92.97602089876993 0.008460719235104877
0.5836637385119755 0.503558680864653 93.09314683885536 0.061294597566052836
0.5720714373765264 0.502019819442603 93.03830167978455 0.04709756021848877
0.4674931228321413 0.5064248250287432 92.94961742941054 0.012163050290399038
0.5466637883854574 0.5080740664261929 92.92132835349675 0.00979379374302443
0.5499107360997054 0.5068980793174821 92.99235644020303 0.006635948605460974
0.5163579021237412 0.5029947167494454 92.88606978684906 0.005195288464547587
0.44969945441147735 0.5021607698061126 92.86089046245066 0.012137418486337722
0.4500838596059231 0.5036890947267244 92.97121660386966 0.006129315721835845
0.582532504585647 0.503740697634798 93.03091378738443 0.08882021534051368
0.5123148649751812 0.5000711556340932 92.87180388702176 0.0028396179776195777
0.43524273062826035 0.5042737116398925 92.86481450689863 0.012352766028022781
0.4090325588239174 0.4983644175444054 92.91306773166036 0.00605123514835491
0.5471368579179251 0.4998467584209966 92.87212739363143 0.01370630134709028
0.5713314278809113 0.5051171816945562 92.8711651045477 0.010261503066287588
0.47777292980288605 0.5073962298322692 92.90830475636886 0.01949171962895011
0.5879069638879176 0.5029677081347026 92.8379670387341 0.012630119014009579
0.4785376655872936 0.5026106376855333 92.8906983387581 0.009881804137156835
0.40398462219913883 0.504209180259691 92.92373838287651 0.013735295743871327
0.4528953415362746 0.5041984624258432 92.93953450421841 0.008198756405776428
0.35246980962153956 0.5095833525634673 92.85999484769978 0.01262780656564282
0.5934549934475424 0.5030699598777006 92.95716223505717 0.0031714644911162416
0.41763382448028585 0.5095607566841395 92.86316818316277 0.006035742380350711
0.49465787863185967 0.5052780150144598 92.90419609234483 0.010915389125254792
0.5508143128483554 0.5114400252769444 93.04906149124415 0.007137116565974128
0.5664808996399617 0.511432890838126 93.05375297829642 0.012639463903673907
0.5062922142200506 0.5022143661882273 93.016509441431 0.005119450933213561
0.5732292496952985 0.5073996085314209 92.94541001761998 0.01817170525122202
0.538049886801395 0.5038886108663991 92.99103296614713 0.005305349374590786
0.41029603339225834 0.5073054567638036 92.92712207868898 0.012658729588708515
0.5011520631295362 0.5030805824840655 92.898442374525 0.008540841031806775
0.534279351641884 0.49993792286324784 92.86906618347054 0.007263854801810916
0.571222226098106 0.5038547235775834 92.89445523688568 0.011774690010368901
0.5540733645673233 0.5015570386374312 92.91471854538432 0.0076521006624874835
0.5336707516821282 0.505592389821954 92.88305025222552 0.00480490034202615
0.4480549806676446 0.5029900615299207 92.9538406734997 0.0066587255884725345
0.4824585468756953 0.5078225406602402 92.95278185481152 0.01058284758376845
0.4659276952848944 0.5031136656142292 92.91709840744747 0.0073931506100460434
0.5212463253086813 0.5043067315853986 93.00856054553805 0.007559337161202562
0.45285660180262216 0.508322213181414 92.90199741405706 0.0021960011957015057
0.5292814142768774 0.5085986653064372 92.92358848184097 0.01049000387544556
0.4674252192845806 0.5079084038450221 92.95425766561775 0.010012777528659629
0.3885312544591232 0.5088292311054202 92.90230479788315 0.010927765102672028
0.48641251658226037 0.5132480233406275 92.92497774301663 0.004627060409944949
0.5989417623309806 0.4906455830228976 93.05751684461382 0.055806080985621065
0.5542026774626568 0.5111568685076651 92.95232140165434 0.0028249120239340455
0.49749229517739857 0.5013183304094518 92.9630653833129 0.0164690204980857
0.4867305180242047 0.5065192056173964 92.97808521638412 0.015898374167773902
0.5724571672481363 0.5045310470103156 92.92857130320199 0.012463945620263673
0.47505065868984153 0.503316847932653 92.86814254719017 0.004796207226055116
0.39958634555766515 0.5024010558970167 92.9029905194518 0.010779843972690778
0.5560563233923599 0.502059219613564 93.01232650894512 0.008137617488515636
0.4432615595597959 0.5036916410340222 92.93577888370557 0.011503464121128551
0.4328406523370232 0.49724957532350134 92.95604917494119 0.004497350933967669
0.5474089834156938 0.49831805599491075 92.88143518445014 0.005346089497507456
0.4203145693179541 0.4997271799838121 92.95389868939412 0.008123671879942616
0.41973862130428163 0.506853146042673 92.93146703450365 0.01116327624590516
0.4274709589283604 0.5005125656493931 92.9112561615617 0.009489326959515824
0.3782396854327696 0.5052210085521311 93.01726248323693 0.003903831204019121
0.39012411444126466 0.5060158789001307 92.93589423540195 0.01594457949341874
0.5218540070238505 0.5088688917313018 93.07710448356087 0.0297336861611387
0.4001488689155811 0.4998779795338183 92.95628758388703 0.011981605292408184
0.3972619630200342 0.5069502094392795 93.02204630579546 0.002226292773558362
0.4410659788220339 0.5019700645721263 92.98232745569618 0.0030797202449776876
0.45408210013008854 0.5103464208930498 93.0781126257387 0.023778126363157463
0.31089721180550617 0.508257351926399 93.02303197051901 0.019137464110837787
0.29587986999029886 0.49844192095477663 93.00990726615983 0.0048240730592757275
0.3161421149556166 0.5022261588663723 92.90375649805482 0.010288081493065508
0.5046637731289484 0.5032375321683437 93.06134499764447 0.010437345486610789
0.5495327223951537 0.505179137818459 93.10777591515291 0.0038137416641471048
0.3208905471114308 0.5040507021049704 92.97923006391252 0.00472236629739729
0.414606712937098 0.5086190640833043 93.07635860917648 0.010757930886388687
0.44130587046699155 0.5042838191438442 93.08681862385161 0.045879943646081285
0.41028694114569847 0.5066341231389497 93.03999472099278 0.006721528076058203
0.42995969340065476 0.49898497880442244 93.06493487501488 0.012041794087733244
0.4885268792317629 0.5087360114240346 93.06653719406447 0.017845604146938223
0.38048477985765883 0.5085030398186964 93.04517645007661 0.006599584196070207
0.3363493926646446 0.5029140052842924 93.09529685373256 0.02343588028493956
0.5111223153571715 0.50149350016617 93.0538418490314 0.01034867441032626
0.4594099087542591 0.5060215210371188 93.02283143286128 0.005554789784041078
0.39343693699072035 0.5084445351420672 93.10183470656999 0.004394285103280196
0.30738860420270975 0.5031177004786703 93.08019376024677 0.005764474034628813
0.34145362152141606 0.5051648959529098 92.90397315886892 0.009139323087559773
0.32253694639988767 0.504401821785537 92.88092474581242 0.007200665176979278
0.3751085829725424 0.5068705674467284 93.06095954070258 0.011725457244817383
0.36580374079205613 0.5035341133071355 93.03833842955572 0.006568294007896566
0.44928084396235046 0.5029413285180538 93.04401915892547 0.011476498217561358
0.47908846519686676 0.5050846908280465 93.02099773137864 0.0060699502583207755
0.3221585557474214 0.5012477588224248 93.05466806137004 0.01010230015232735
0.5217644599721764 0.5020522942113699 93.05457257782307 0.025480345910420414
0.43497782517489014 0.5014810268165838 92.98345193236445 0.002945091810416266
0.357268221413378 0.5073169746730174 93.00753201830517 0.01558739038509241
0.5500752267098731 0.511581850521458 93.07539782643343 0.007552453954891185
0.33199277284645246 0.5047553619636735 93.0698081238986 0.010800597256871502
0.36769955238249213 0.5037931040932954 93.05657871814472 0.010342412962024579
0.4248386683566397 0.5081490522177144 93.01773650072903 0.005136695240719462
0.41737233628381265 0.5066909918758172 93.09613333317692 0.01691064920111981
0.37249549683958194 0.5069239027901635 92.95332463190293 0.025963050590609434
0.29778158056499865 0.49905344066581203 92.91334179881902 0.017982243257524008
0.5121278480539636 0.502589414476426 93.0340665829626 0.004189282053953149
0.43577325073529755 0.5016347667189144 93.04332321418352 0.012396459454813094
0.3424718804748651 0.504036986145293 92.94043685351603 0.03830649206141069
0.3945921712118224 0.5099800615517652 92.97536040899894 0.0034796492343711944
0.5086404190363676 0.5014818690449588 93.05456223781067 0.00990516375294263
0.28361546484870687 0.49813908056765105 93.04804700876315 -7.966381063974436e-11
0.2866183087834575 0.49939301191095004 92.9957713311957 0.011517999500890759
0.342453545320046 0.4992496188352062 92.9280609480513 0.022455280017048256
0.31887257053398727 0.49764110002228246 92.92988984621097 0.01300675006056622
0.29888981879852733 0.5118120382752263 93.1003036624954 0.00010636398863410733
0.5203596730656946 0.5021458852038757 93.10707745580002 0.0050905381173615375
0.4306731223889885 0.508380319753409 93.0179021029419 0.009532018744988742
0.36735876554403624 0.506479494520714 93.0253105218899 0.00391391988796586
0.35649428383332293 0.5129914731105077 93.0727791988435 0.005951832740190397
0.4905986429988097 0.5168721644870442 93.07410841809738 0.009192044035201708
0.30017129145451693 0.5003167520607791 92.87511046022937 0.0033812379486103513
0.4120559366328544 0.5026828725322764 92.98780165396946 0.004567262010475286
0.3749874411155007 0.5041474458130896 92.99303083644315 0.008652841655459067
0.3126170200676425 0.5019443275745644 92.99447105036698 0.033995900319484074
0.5279412359796612 0.5045581400462172 93.0670806882208 0.024699143160678574
0.49057625364165486 0.5039525061222975 93.02393494939791 0.0019480143923406355
0.3519811193967692 0.5056758298412448 93.04876801875163 0.007645805280975566
0.45549626106030744 0.5078978932445325 93.08770160144608 0.033380649038573254
0.34998274711685123 0.5005837246258154 92.9108563046837 0.008892149299705812
0.5774974334158136 0.50796777791929 93.08972130397244 0.013435738936056957
0.440018196232286 0.49830536285622923 93.06244045960027 0.011162706477086988
0.32148128502690354 0.5132976735761954 93.02212554472138 0.012541052262147754
0.3284642780646764 0.5096999875687396 92.90375533489686 0.005240455417585703
0.5695279876701332 0.5035170437663423 93.10272735079431 0.014922414969167708
0.3592190145293993 0.4998921060200006 92.94157877052335 0.026346918250306262
0.3323787717338542 0.5018634886186922 93.05172536083508 0.01657803525333624
0.3677407590823177 0.5000631560078509 92.93893062112066 0.022487339568552943
0.30282399313897973 0.5080762154828006 92.95568059066993 0.003880173445886935
0.3754489714149492 0.5038456353717691 92.97578203541187 0.015506329952405223
0.3822522714715296 0.5071028834937678 92.92247676895765 0.012670636769883288
0.46044017705147866 0.510962709289754 92.99686689305476 0.0031076066652368675
0.3511775549641032 0.5157085490385208 92.95562549422156 0.0072258849756185965
0.43484829875565334 0.5053682109099276 93.01025095531655 0.010477508880228779
0.34875631182166195 0.50448105231939 93.05712158381539 0.007691314667984905
0.3179378091546625 0.5064965083556646 93.10576540510486 0.010613014617806215
0.29488407132422867 0.5034649814452989 93.07050711393661 0.0031880771479694467
0.42574011468276557 0.5069180710771178 93.01516375953436 0.009135712844092142
0.3118863540403494 0.502530955136991 92.98124998734745 0.004736139048280975
0.33955746633305406 0.49879633534935364 93.0062935348307 0.004320566822114853
0.3178189676509372 0.5041359178645539 92.9536670975747 0.021251385596950053
0.4020763593552356 0.5044793545492167 93.07211491874092 0.0072128478485602885
0.3023094150428146 0.5012472383680842 92.8696686789755 0.004744777475909399
0.39031365004349133 0.506296810593322 93.01124077188638 0.004723325840179346
0.4725743399039743 0.508158558001924 93.05711623775822 0.0157890302380122
0.38182907104105873 0.5087850617698186 93.07212463300033 0.007459877394235699
0.35996071644496486 0.5106569049738545 93.08580424840734 0.00859390301110093
0.3023320948261803 0.5040402967940113 92.9089133264943 0.0089431573176085
0.3439022811272181 0.5014806241487919 93.10521451547804 0.012819465942408558
0.4836043786030975 0.5052894878810043 93.03153018887268 0.004844507537086407
0.40721427446954894 0.5026747943751265 92.99757893912113 0.005487852838328553
0.3054096419334209 0.5010881502650567 92.91712287301998 0.020253640264897378
0.29222306025989453 0.5019828496331734 92.94281046787587 0.0096736734122414
0.30141741027416324 0.5043344673385357 92.99669053356851 0.03344683990938376
0.2916307730687722 0.22072753100329331 92.99155815234921 0.006332096736586983
0.2945127837396136 0.20907669910712873 93.0692661336424 0.0037282321759599295
0.29341827495369405 0.2078323749304209 93.01760404434035 0.020102299690564426
0.2957189357762707 0.21001267982496916 93.03652858155218 0.023728808251074953
0.2857830137486653 0.21955973463483158 93.02293220048414 0.03312646980435235
0.33371722303649354 0.21047679454321214 93.11865630126314 0.005945124919839779
0.5969340753252833 0.24991553278855974 93.114679682103 0.007994230319835332
0.42573614505788254 0.5049674707009336 93.09860006765756 0.028492689094818058
0.5302056957529863 0.5053788245149494 93.10773941323187 0.002284230941777796
0.3820477509450898 0.5035053784985227 93.11303852264679 0.003202149218234183
0.5253366889747152 0.4976921849932963 93.11442992925754 0.0013461269443632107
0.4924983821183935 0.5008224445493102 93.10295646794044 0.01582579776766226
0.4524326981749622 0.495910839394657 93.10869921617032 0.007194430599426183
0.5914452376405539 0.49354414374211236 93.11517792358524 0.05795431966702084
0.43240989281854625 0.5061708278596875 93.10529171606424 0.00890498489142654
0.4852082399981032 0.49426491072043705 93.10882569604314 0.0003174302320881558
0.03693173747876256 -0.0032775626479592465 92.7213983879364 0.10790344553776818
0.07776172692720354 -0.0036084992639199252 92.7328803783392 0.011522701623688528
0.0783025818489232 -0.0037995794753915672 92.74223824796785 0.010663423960450997
0.05926945343784829 -0.004025759252947219 92.73469748010957 0.015346459019647271
0.09852207500485803 0.0026538848442957093 92.73013268758736 0.013269760072313353
0.09308610690513418 -1.4005987406011432e-05 92.75787781701021 0.0022891958257520257
0.10781902834725222 0.008375722315761766 92.75060504224574 0.006774259554935806
0.13575181910929057 -0.0013347210017842686 92.75250582159383 0.006991417752343635
0.0224511178400914 -0.004177558798758419 92.71582889094667 0.11988434675693563
0.01160720462763205 0.0025120404414182445 92.73701986876358 0.03383021626444862
0.016288314880639504 -0.0006364786860266287 92.7272995548413 0.04170664126218064
0.07884563817047426 -0.009578680067094171 92.70926431491286 0.03243398027740918
0.03256100884188598 0.0025445727344752707 92.71101671244506 0.08149388649996227
0.06335795463172542 -0.0035528430601507715 92.71995651010364 0.049521136101324956
0.8280541033092257 0.008052393865614033 92.70829294591762 0.09122133477383604
0.8779521352621711 0.0010577490508804493 92.70879871727898 0.08125346417586722
0.8427136901521851 -0.005628955239480308 92.71271635527124 0.0393964028479445
0.858890717163098 -0.0044653073566837 92.70204065016746 0.08350050247747129
0.873264892541053 -0.0021231864320700763 92.7440934893891 0.02839622004817178
0.8685949473090877 0.005313894383603041 92.73005594994795 0.07844538967981049
0.8323903379225525 -0.003166118968783109 92.72109938711809 0.041011294257659064
0.8882578991344914 0.003342543143857161 92.72804219575953 0.08713680309400111
0.8196218385762744 0.0022191106763241545 92.71714583788831 0.07989638233369592
0.8534009419501695 -0.0021378086014728747 92.73698458110961 0.02171166962664466
0.9095179267876767 0.08403965903040732 92.71144765655544 0.06989500820309083
0.9013852167254947 0.06835291159579868 92.71899498094233 0.0625951245294261
0.9026450584073307 0.038786531162811 92.72652837795752 0.013476750976756923
0.9066276365617892 0.11383776232715252 92.70783002029067 0.05742237471024104
0.9005447960971575 0.04928081313541492 92.73401969769267 0.011006499664955554
0.9017851607229777 0.06891775955939847 92.74046918537034 0.026487618473732252
0.8854183140160432 0.010459188601374141 92.74950649674527 0.07538034023660727
0.896868327392037 0.0346631999642849 92.74766808007807 0.018633684053702953
0.897434579516522 0.06256159767198782 92.75313791904131 0.005118853344624291
0.9112875348738312 0.1478866114629147 92.71643525931005 0.04081752559822697
0.9005075047008825 0.17142379373094901 92.73470498176161 0.044102901874439805
0.9000609467232706 0.10288405929991651 92.72898465862596 0.06480468326337377
0.8984876052800385 0.19076588296585448 92.74487225055604 0.0224887996243926
0.900669684275787 0.08173213223936375 92.74075966961092 0.028393911196958173
0.8986872580877688 0.15894647145208093 92.70871743596528 0.10674595198076949
0.900221447402899 0.19938883279309028 92.71942575058657 0.013002515089367964
0.9033029905591304 0.11171780578295183 92.72443925189667 0.08862438533844266
0.8995356591533639 0.06334355494862266 92.73472044806051 0.028137717107817425
0.9007414028137548 0.09863311146739341 92.7391742666166 0.05280728571276073
0.8991911921321724 0.13075011864577288 92.70930737735854 0.07406956577033445
0.8972952307260967 0.013403629822926377 92.72255183199381 0.0738311363655321
0.89932532162698 0.043762908201593974 92.71261640014403 0.06588591898501996
0.8986892338398539 0.0678668749072949 92.70943996430182 0.09619993851712585
0.8975439140891348 0.013608486499544525 92.72416716979039 0.07385303522621085
0.8943863354649467 0.2145257203975677 92.71074129833902 0.12479975587225708
0.8997174062494471 0.23228133776333526 92.73145779597425 0.011064320389316862
0.901918469434505 0.20484335865579678 92.71855678023971 0.015325557714748991
0.8985647929673128 0.24833949323031326 92.72007246294618 0.06698098185369263
0.8998117883169442 0.2512478108054713 92.74591978842543 0.021679900481748497
0.9024800664447332 0.22379727354816104 92.72537838727283 0.0675911670600426
0.8984984438005028 0.20100093629501686 92.71461333660427 0.015435444725338594
0.9043471843913607 0.23569810581004355 92.70664770105361 0.04436295422105458
0.8993116322332123 0.35351989518840493 92.71289575167839 0.01922434828925095
0.9075746069767547 0.37942473594943926 92.71771194600159 0.05727792757234611
0.9041223080356289 0.3338377233734227 92.73150994173008 0.00584465400856608
0.901845007449115 0.40142592737952193 92.7080500896273 0.06163118269708485
0.899865327524429 0.29274397266233765 92.72029333370095 0.04053777239436441
0.9003184053820183 0.3277199380729833 92.71826976272463 0.04415301818544851
0.8997698410570697 0.4775114215724902 92.7101697679383 0.06870308302213742
0.9005085320327065 0.47854066851623933 92.72251318326944 0.07199267234818896
0.8969806689469195 0.46478229641139457 92.7245486726229 0.0624011565273585
0.89878329470541 0.5001653714728943 92.72205432139104 0.1190786098376403
0.9030385425345309 0.4969555865097937 92.73621658146602 0.11498563335930584
0.8967280083873606 0.5051175697917274 92.73985865436903 0.12706330917377462
0.8958073418311236 0.4694808516466056 92.70880509976872 0.07376305683139298
0.9058774735765297 0.42533085713059987 92.74244748768811 0.01695382041377007
0.9012391825268664 0.42366627743742674 92.71948882678056 0.03643336318760603
0.8993183533209921 0.375196455720231 92.72780201177812 0.009163544623451923
0.8967892271537113 0.3588293536503765 92.72238793953586 0.014917613161126725
0.8952854277049649 0.35779396967916305 92.73039169766231 0.017336387648424496
0.894645272857201 0.2925318621115687 92.73739395753394 0.017029324756490875
0.900110567991999 0.4095214276592746 92.74220281314716 0.020930331196800638
0.9032526481580787 0.40926000410495217 92.73087261573944 0.02455330764078268
0.9076507189520236 0.47850597332299827 92.73673244276192 0.06176593696179058
0.8985674020166127 0.3125263387877117 92.73650266166065 0.009950854212262362
0.9013003528545214 0.27450285714589256 92.73432104679252 0.020470065565419887
0.9038712499077257 0.2555258135220518 92.73282061911868 0.017789371311904334
0.9032288049931203 0.2742138492415716 92.72476551924 0.022039165618035348
0.8980722420141308 0.29058602272987366 92.69800418973712 0.05611472647283078
0.9004325085179813 0.30902367509680395 92.70481069939505 0.06747575999409872
0.9039265182701639 0.31315151898646604 92.71653282010732 0.04939157681940428
0.8997435342724771 0.26178077971807545 92.73959096340911 0.02773930075639376
0.8952065920475768 0.26632199650494426 92.7164296037478 0.011077992962971999
0.8960986703038865 0.0008239246911918578 92.73561362369125 0.08346185914898638
0.8888074404906475 0.0016485547137540225 92.73294728832956 0.10342318340901555
0.8162492066875446 0.004227383869875995 92.73424399038868 0.022522165017660047
0.8485612322344016 0.0005945053630264762 92.74345760284545 0.02577818679445701
0.8401208128390735 -0.005821562438848002 92.73289825573005 0.04615734598957686
0.7963061825204519 0.0033553735937315444 92.72897078158704 0.02142623061256233
0.7919647744945016 -0.001629958356088162 92.75777322931913 0.015274249010399855
0.22869207493209617 -0.004880544150264139 92.72439667666355 0.029022345740773454
0.25549316365153224 -0.004989437414790042 92.72236706688926 0.042204805296123395
0.1943738269609994 -0.0006520588126914058 92.7180522025457 0.0355678182414419
0.2719502484424287 -0.0021326387416689633 92.73150629783761 0.06810830673496321
0.25789678057796706 -0.0016150410408362122 92.73901438283309 0.04583613659365329
0.18828234950176204 -0.005224226035378903 92.73547145461009 0.01408250221986152
0.2074200715504536 0.0036254171068212417 92.73595270518284 0.031567265548371116
0.21367838605902423 -0.0011846079185130684 92.72276598894476 0.030595957920045658
0.1719769723142906 -0.003831756133219685 92.7381034966478 0.029163235338930695
0.21701036392441475 0.006557801439234016 92.74316287194765 0.026200819165439752
0.11740277263756665 -0.0007681241791674519 92.71957269392738 0.0692109283385323
0.14447299714701442 -0.0031984085652295565 92.7316015372917 0.09801412938534507
0.1429601614220041 -0.0064260846415782995 92.71622883419798 0.062172905578810354
0.12757114680485884 -0.004987943332672409 92.70965968553622 0.059381600994732636
0.15961149487866821 0.0009078588280915697 92.72828158925587 0.06844470710633624
0.39789308175388344 0.0034413598490782727 92.74027060725005 0.015225698547996568
0.38793497744449695 0.0008355929023123338 92.7430032803805 0.012908540574315003
0.4528189704012399 -0.004830476096642385 92.74328812544917 0.012005365574031469
0.3515717227676261 0.0007034911693826158 92.70918207395493 0.04774766825283492
0.3826061705652733 -0.004422906183389606 92.72804506470301 0.05217316307511854
0.38024788339162097 -0.0009795233824002173 92.74045219423542 0.01592847074847596
0.43586447566812736 -0.002774644058222397 92.73659351683585 0.024588047478515836
0.3613054489271896 -0.0002552151440603262 92.7493608752558 0.016072736814653082
0.35423340097844297 -0.0025974149256709073 92.75207730329896 0.005127204003832013
0.40762882557031277 0.0036804323179993412 92.7360562411547 0.052648249485308544
0.36664611172956013 -0.003868721065341767 92.7290618725662 0.01638033177410557
0.3400106433489294 -0.004110359536335956 92.74296272237619 0.03172803849705351
0.4274047127189433 0.00204368162275172 92.73317255056135 0.04506791784122659
0.4073776598537588 -0.0027768612495175787 92.71634124026295 0.06039300416419656
0.40914122219766846 -0.005406955585087611 92.70736961205677 0.05610022060421862
0.37854697925096265 0.005018234726208678 92.7165545674291 0.10930484399100351
0.3997099850765626 0.0010785384285392093 92.72302380220573 0.07355953003805092
0.4214152072360706 0.00388585513958444 92.72272393577111 0.05584333700211259
0.3296373458874945 -0.004424962565234123 92.72544775819993 0.04991070086432222
0.32416764023225786 -0.002142873236834444 92.72973308121827 0.07287828188542775
0.3377749560236085 -0.004963576929739916 92.72317014807199 0.06689624080705713
0.295682992095367 -0.005336392375081009 92.7140072396797 0.06841094182121545
0.29333890219578074 -0.004042019930597174 92.7392085785839 0.06410636189922567
0.30533144784131405 0.002487854694183617 92.74643213837608 0.029688922394970684
0.34633725089285866 0.002273809783274289 92.70627847847135 0.05886820804326739
0.27025305086881946 -0.004766405433595616 92.71060606114658 0.05049097913018176
0.7985967478572433 -0.00010128235762099668 92.71393623552143 0.033941638374071166
0.7515642196902914 -0.00380548069434711 92.72771787431981 0.012493835378628007
0.7474629658375549 -0.002733820512950556 92.7170566336984 0.011083247010860074
0.7799546317142277 -0.005227617069331066 92.7252962157382 0.012848231799999721
0.7335609317446445 0.0030050138864692547 92.70298855896138 0.036594373979146166
0.7529952103780881 0.003593309838858607 92.71175206722977 0.11080759081203673
0.7214091762341484 0.0016700700888044192 92.72076129892305 0.0457625795062369
0.7625134750223863 -0.005414025255797605 92.743476706967 0.012424882267935457
0.7713131437340515 -0.002069748473438559 92.71577646681665 0.017527494858394797
0.7261272750165659 0.004665298918531378 92.72835675900043 0.048725130470937704
0.6663421982153978 -0.0016116101566247812 92.71093344383505 0.03676748410825219
0.6858471044335336 0.0007547575005032484 92.7123762007634 0.045760214306949244
0.641711033290265 -0.006783167625645634 92.7167115974158 0.019123137146902877
0.6138121295201143 -0.005622621096604511 92.73611276763393 0.037208574919231685
0.6757556447471763 0.0020014071143232602 92.70187410789163 0.05456942844142277
0.6337338410940832 -0.012719997035169605 92.72677356930096 0.026921271989263213
0.6035003227085564 -0.005280106211851222 92.72733408666421 0.049303248676492356
0.7158032724150781 0.0007597448120218019 92.74143723920159 0.030319188336760502
0.6790988893923778 0.0008713686552960611 92.73876203315407 0.016591692141739015
0.7012753073346241 -0.0037938832885612466 92.71841634886773 0.03255210254587829
0.6718489965617638 0.0017437941596761086 92.71724104142382 0.044091233692616236
0.7013620064002074 -0.007589772236764715 92.7459854217365 0.014573550385273429
0.6698443921849349 0.0015502989339585794 92.73116307352855 0.04577077967780252
0.709248228953341 -0.004173017671412775 92.74294657607399 0.02458232015607406
0.6321892688799536 -0.0019850447012809635 92.73987999573984 0.06201765211536229
0.728937022287194 0.0027356074193168414 92.74293241274525 0.023572836111828477
0.6461414258254888 0.001091891970087909 92.74079208079118 0.04524563419275872
0.5522686892185383 -0.008572952844574731 92.71796923865392 0.03391653385131676
0.5922198864181866 -0.007994280038990631 92.70946228045716 0.028794420863787622
0.5290061765857265 0.004161668985763589 92.7198938322456 0.05648647240509689
0.4935899730283188 -0.003275130018997363 92.7246282336081 0.09286852592272822
0.5087428903243194 0.0002323226020307333 92.72018108993471 0.09033773621213335
0.5470178981809148 -0.00153309845900807 92.70796017278698 0.05610913567791631
0.5966171682531034 4.6340879960459934e-05 92.70350383440973 0.08389786713356084
0.5693242185096212 -0.006869691434347416 92.72405159616498 0.05189449814696114
0.5729387180819837 -0.00431510973105271 92.73942147407504 0.023988168786626234
0.497236458101443 0.0030671770227463815 92.74739167121122 0.014354767723582875
0.5197367049580023 -0.0067049702266467615 92.74455001411495 0.01401388715268802
0.5535907912547258 -0.002566053633181723 92.72847498763728 0.03693122870068412
0.6260064491343353 0.0036038475390741905 92.70886807538169 0.11515925628910521
0.4759893231415861 -0.00038550346667028394 92.73287737562632 0.1053150654585138
0.4780782116373266 -0.006586769867214544 92.71716002000001 0.10326266872253054
0.5007839123433411 -0.0062295349945974115 92.70978778488343 0.08004571226231763
0.5218845342523019 0.003519974378939091 92.71242240235973 0.07823435578288612
0.4563999925234704 -0.001026208842845394 92.70892677246397 0.07570776030163347
-0.010349124298655222 0.015952825828750208 92.74141504237942 0.0007045503989227485
-0.003765653392211525 0.008669159088592488 92.73173522185006 0.021166295566303322
0.0016539916474561228 0.05206664115623953 92.70052268052147 
-0.010462989837365474 0.487813317226664 92.72009429013887 0.07279799855843112
-0.0013002118314282103 0.5006379491134895 92.715124787537 0.11738056396457583
0.8808286239723458 0.21114716966683844 92.76017401762282 1.3773174463005812e-10
0.8866308408509302 0.5015042922577382 92.75277326288968 0.11159047613469919
0.8976127828167489 0.5074769812101113 92.74903947070841 0.10108016456263406
0.7201604043765533 0.4975720458982846 92.8122981426199 0.020611766531794515
0.6537885861916591 0.5052421515815777 92.83397665366624 0.008458426466093506
0.7452150475572735 0.4927786703285297 92.80599643755933 0.01778831308440524
0.8684762108644021 0.49863754713949504 92.75630380655198 0.0701870700526959
0.7279873535457266 0.49540657378270864 92.8102397663416 0.020228248378632255
0.8201523631353966 0.5025614633344473 92.77706883796893 0.008177679679728742
0.6054285818680655 0.5000350136219925 92.83944988401007 0.013083794091168296
0.7365686461354081 0.4939093483945775 92.80906237297371 0.019997327283050703
0.7885375311087117 0.5038183087298569 92.78246250939881 0.019382431492466105
0.7801024722533556 0.496696878126977 92.79070266918258 0.02800710915517787
0.711942504944714 0.49835840370930073 92.81810257831008 0.006283200817481884
0.9000963073501562 0.16474061857114608 92.73721674346662 0.052677661408037
0.8907729748451805 0.062299209662854044 92.76358998663632 0.0015748575889828543
0.8979815179230698 0.21833815141284083 92.74866073146329 0.03701496088804614
0.8779225887902311 0.16563334650356026 92.76578115915463 0.003360268459344507
0.8770266913641681 0.1846024150969616 92.76253350313809 0.004751438777140459
0.9044065720681802 0.1381384514160447 92.7456711930948 0.022075854471086905
0.8982046953601722 0.09277407509577776 92.75914160178887 0.004591758700389237
0.8955527119489962 0.11050765908239824 92.7589257744364 0.0023525096387156065
0.901887033291425 0.3867047962839725 92.74808028375486 0.0070978557688006864
0.8955965055137532 0.35179258148920317 92.74899357652829 0.009219930105794442
0.8985624385550937 0.337420174117219 92.74227160184103 0.00899894363476734
0.8983020485557626 0.4713323834345558 92.75140822200783 0.0544233321258348
0.899375316628423 0.4753616523836247 92.75127666701952 0.08992451164332088
0.9029612096054285 0.27720458815290316 92.7417761865821 0.022495369241283168
0.8904080920294339 0.2762580452986743 92.75616139279786 0.01871765262814321
0.9015233827682402 0.32581703584883404 92.75456515790464 0.009544297103610228
0.9053338262611735 0.4553222665957538 92.74222410303322 0.02540806951813846
0.8910149793064175 0.4347692274017936 92.75226697368521 0.01104184145654813
0.12255600875501713 0.5049394837825445 92.79206961758005 0.014670546434434
0.26770413118928643 0.501743973338396 92.82975397148937 0.0033034458858864466
0.09150914619159439 0.5000753512355699 92.78543649420152 0.0058028352614597845
0.057285780794913206 0.506875684506218 92.7762238665043 0.010352287112109984
0.17935967953723633 0.49213711708940977 92.81272944687541 0.021947948046894518
0.021490058997833142 0.5072089953131257 92.75030662305419 0.00906995347186828
0.44729443965092286 0.503471633367927 92.84791121539068 0.010412108787815715
0.6580309618078489 0.005600346178805742 92.75818345907274 0.015570497655911045
0.6324380515146267 0.02226342125434836 92.76518512200457 0.005747879821081487
0.6867012644889475 0.0016440210761656158 92.75137961183385 0.019907680788681267
0.6187614492465322 0.008266749554162093 92.75369364584083 0.007976740787176277
0.7254444825126968 0.005546939336862851 92.7504426194466 0.017878787954928286
0.8744372862480493 0.007071409134484773 92.75128868956747 0.07815730870025002
0.772232893411227 -0.0017827382569560925 92.75186493339471 0.0113968127407085
0.8223776872716675 -0.0011883587267281417 92.7456695319462 0.024176303038106858
0.7593436769990842 -0.0018513498795574932 92.75339249534818 0.0059043222612764875
0.8074424144455996 0.0070528538346379035 92.74548498197491 0.015342135614771355
0.8937858282699133 0.018300449187012763 92.75315329664862 0.07491184677923572
0.460570574133053 -0.0002539109052968388 92.75373081234694 0.008101996162111652
0.48816502867279166 0.0044207762138646495 92.7528497244715 0.01439447245255945
0.5424075873010614 0.007459157720726252 92.74628551095552 0.028846104896708743
0.5724951064737899 0.002879001216309694 92.75058300300051 0.038509874813203775
0.5744808426528277 2.6317051893773877e-05 92.74636387197071 0.03243087609669971
0.4178986056075303 0.005027466895170112 92.75611067763579 0.010313580495964968
0.39434088170228987 0.007950108471412694 92.75763845295074 0.008012488931471953
0.4247684709156272 0.0010278971031957825 92.75160642160893 0.009182769519552676
0.3227241756963731 0.0041924454893139075 92.74380783017587 0.034142026773080814
0.43955319985616625 -0.0007680791791040472 92.74558506839637 0.010385605376723903
0.20339113050900268 0.007684697274989576 92.75764057330458 0.011177757752141996
0.18740095594369258 0.004188760856697373 92.7510416664346 0.01704321855581743
0.2847825725721272 -0.014978580350912221 92.75011501249669 0.005057095302439057
0.25061892174104816 0.0034357777693389034 92.75045898378099 0.02510349943872634
0.20331208095209238 0.007453064865917527 92.75167189570115 0.015072854992982313
0.23701044392340756 0.004413976306632339 92.74709476610228 0.016485223339915003
0.0328772209232254 -0.0030851492734740964 92.74879947988883 0.007478148889980531
0.06623605916527683 -0.002299405174180982 92.75611767888915 0.0012836583666192471
0.0036830378179727673 0.0049446427141431396 92.74871128149333 0.002164419674679618
0.02857404859864073 0.03128557249428925 92.77175679474436 
0.589869587747023 0.01357180525272722 92.75755921554867 0.004770297520327225
0.008413428163887961 -0.0071301352186171705 92.70615543769667 0.02657061844347646
0.04490893956840228 0.005282739738557976 92.71114792863752 0.08624713298950708
-0.0005255326190366384 0.008590747180260802 92.70748897208904 0.20942325421820368
0.05959006004715532 0.018700922525262988 92.69829460091826 0.027367595551687534
0.09428718087574245 -0.004061432021638743 92.71019321231319 0.02973882999647755
0.11220711499527095 0.0011187650742998801 92.69857941659265 0.07483221507860849
0.1648923704964744 -0.0004104107362741219 92.70447087323917 0.04297942653112995
0.1876078167517324 0.006872572662171582 92.7033055151135 0.02524424776378355
0.1201401168230213 0.010725742787980875 92.69645099782808 0.047056634326518486
0.31850560889643803 -0.00365063052283875 92.70746781609635 0.08656573546513215
0.290426730389175 0.0031721436135911324 92.70748404807128 0.09227387781594307
0.3359423021480871 0.01254353178138929 92.70740165592426 0.10294197703523064
0.3581293123662302 0.012715953817795424 92.70537981376181 0.05021613916390447
0.43875375471398687 0.004540403369817192 92.7105630331471 0.09783847187307679
0.20212688595351516 0.005325183068058383 92.7026790056196 0.019755473819279126
0.22146314911590023 0.012386055240909005 92.70033237794479 0.026821831608529755
0.23552012394685565 0.007200360217044329 92.70835128809796 0.03837954076494855
0.24906555302215141 0.01342710642824044 92.70800521396883 0.03508407599186265
0.0023075388949162423 0.15172424391220773 92.70377382524596 1.073766347427986e-10
0.0016343578631775263 0.009516203056285394 92.69683810097231 0.17388405327339726
0.6310938296761598 0.0020619266466493113 92.70029792915601 0.0968425401260871
0.7005931632568906 0.007446312632012893 92.70857804429852 0.1166509385507539
0.6810257332068146 0.0186904761935975 92.70081609444584 0.059366919617467394
0.8382690424891289 0.0024421186810052735 92.70565819840965 0.07932812644953022
0.8742512237096646 0.00783552412603606 92.69556620395481 0.07162388831269488
0.8357428542935583 0.018407284248785738 92.70203552610211 0.09164811689539483
0.7054333840493904 0.0060244333247772425 92.7088671165951 0.11635357605684334
0.7226687471529905 0.006413519730327109 92.69992402360066 0.03784947913775137
0.7559550523897787 0.008930427524981448 92.701844535193 0.058895147662355624
0.8027039608771939 0.009296711959780896 92.70023299607635 0.050008232354477385
0.7952938646627842 0.0036987736794217834 92.70693258619461 0.06609946220848124
0.7868667419334033 0.010383133581947748 92.70696555037742 0.045520310454575184
0.8940265377638512 0.006830053156216034 92.72082636752533 0.08312988470695398
0.5737522954705254 0.000923274353411985 92.71133181468547 0.055652300687182875
0.5520178135526354 0.008002916798805475 92.6934348570367 0.03374991328953197
0.5042505411937888 0.009287014081723477 92.70764933654503 0.05654158267540197
0.4484168259103785 0.012354744435907474 92.70390593304512 0.06581819539622495
0.4798300336396336 0.015905925111604033 92.70727524864616 0.06307052417062317
0.5339910360713681 0.01658675054372395 92.69856375612004 0.07488434112187396
0.8956356133389608 0.12551157826343412 92.70614108411975 0.029697190919027807
0.8960224632811432 0.1441337813284762 92.70801454224184 0.09528688140500795
0.8755697129382487 0.09259007741838311 92.70571379493897 0.05011548481299044
0.8930313570784598 0.04870282028834439 92.70655422699728 0.05129783843369727
0.888019576280918 0.081727598489368 92.70598720865426 0.1000988973954615
0.8981350032337498 0.059131864330329284 92.71118389568011 0.13113877469382546
0.005920848053298403 0.21525326440588863 92.70369585728024 2.3003172183866556e-09
0.006232194390751439 0.17808547560708674 92.70232705948267 -6.810581314095674e-10
-0.006249018740370076 0.17666508862476227 92.70476351836935 
-0.008507731885752368 0.2743639341047395 92.69989804423992 
-0.010837982567483829 0.38635958179397206 92.70955252881927 
0.012290369879125698 0.34761011862346325 92.70114553884245 
0.002799908937526502 0.38403125917001096 92.70390746291221 0.002308942668035094
0.01569006149168531 0.4210096795627552 92.7030606046079 0.0007190735627915325
-0.006551707894437617 0.44306351391235876 92.70307618639026 
0.004881427652842312 0.5072363447742855 92.70160448460155 0.10322306187185043
0.06241003780298659 0.4960622063996169 92.70221110104198 0.020437652542597905
0.21187276201776403 0.5111107867961728 92.70449257231098 0.03416321404854615
0.25465275831837464 0.5023410305184264 92.70874636688302 0.04745097312245423
0.34699744813144956 0.504486559612163 92.70279826247155 0.06242359427510725
0.43969384695177954 0.508979175857349 92.70690091052705 0.060421916706337786
0.4054315192082852 0.49675553709096554 92.70771986473895 0.07306871175095173
0.8963933604472945 0.23922519704579498 92.70138874550327 0.07648646480983372
0.8964983110783517 0.16303272869001703 92.71304251679723 0.07746696993640681
0.8984587867122407 0.1835654580071449 92.704421324735 0.07711893850322829
0.4567457462064334 0.49923522475171694 92.70241345919824 0.11026969794206994
0.5064280343759631 0.5028170653698667 92.71477820677201 0.09120019165165245
0.8966862355159817 0.2569038495845081 92.70336777866505 0.0658196643052895
0.8956985060327588 0.3296567142854071 92.7001074139274 0.046969986740525514
0.9036504225540537 0.40928612354968485 92.70749221751916 0.04765979306176816
0.900024069191715 0.3747904886230032 92.70957539467341 0.08263751953264004
0.896015918397487 0.34311551092956644 92.70230845070812 0.04845303461660897
0.8978626801401075 0.37938517920333714 92.69480352669942 0.06386710674091221
0.9001006350935021 0.4413568973833717 92.70701683227747 0.030195732762029647
0.9050235568041497 0.44706055888659746 92.7089669672716 0.025771386019013666
0.8931882236617356 0.48420058870678057 92.69983287598276 0.07033673010957359
0.8926626629320962 0.4276379476041118 92.70281854765713 0.08181257668917734
0.6606660945468142 0.495703688826859 92.70328476495146 0.09165505293873114
0.6111831776272098 0.49525377211696336 92.69982104888452 0.0505683904484136
0.8979814002761183 0.5042372848200881 92.71115208345363 0.06144011008724761
0.7669345040165322 0.5026924957281742 92.70686011368095 0.02894996824243489
0.742349132540671 0.5016316427994925 92.7065807539188 0.07317527844305556
0.5181832161879222 0.39288541186673376 92.72290102748019 
0.6408974570521575 0.16737696874381722 92.72170366037196 3.9558175643596594e-05
0.5211459210640406 0.35227874351383975 92.71918730145713 
0.5797294724795066 0.18974629041531116 92.71740088108905 0.0006003755867873919
0.5174281809230102 0.18554234906841008 92.72296708352282 0.000518898220700203
0.4027052017555098 0.21563168042698566 92.71554638890925 
0.2390204116932559 0.12244383253276878 92.71862370481513 
0.17804321201179746 0.32809981406125854 92.71727609476183 -3.225491669317757e-10
0.8716778801629723 0.4985532273597124 92.71411847247178 0.06011511177569578
0.8140467611872648 0.5093351946206546 92.71268323411597 0.07292781411443032
0.8794071407716991 0.49989369308999443 92.72079401530847 0.09362720102222262
0.8348183150253969 0.501640964361655 92.71614767345534 0.05055531760450606
0.8598793633614309 0.50038047722963 92.72240597975633 0.014073298201752743
0.7381463590503633 0.49690066912128705 92.72067935931997 0.06380042774580337
0.7981580370280411 0.512875372989453 92.72679186250298 0.006309822081209026
0.7419845675311255 0.4960619848881538 92.72064252213315 0.063201465160807
0.7269265148065677 0.50249356968888 92.70810145227492 0.0759971877898284
0.6934371621784622 0.5074108375304015 92.71287770457971 0.03630394646828168
0.8451953638726086 0.5047527248515773 92.72829291058218 0.007469656014219815
0.8645380023313972 0.503924003688656 92.73333626860813 0.01502887343042073
0.81711144531318 0.5069684996462188 92.73693150615875 0.011335915780831698
0.7831467081868374 0.5002980783594625 92.72290785761291 0.055308324744193026
0.807345322025275 0.501431859597232 92.70662208821724 0.062030679654087956
0.819954641616744 0.5061434667855765 92.72367658080803 0.07369303625777153
0.5701384481264039 0.4938379747571535 92.8470062688199 0.007462597478976228
0.8342337458441077 0.5073871503840512 92.77089749591123 0.00321914828057408
0.8785029809851217 0.5021856738787638 92.75204770426195 0.10789722940449432
0.6452113396952176 0.5006432442624965 92.8266809906876 0.01464349460940878
0.6829369481442092 0.5072501886184008 92.81981626719508 0.01921306846150746
0.7054467930290473 0.5018551277655771 92.80502001403673 0.022688206036354686
