x y z curv
0.4252887884899114 0.38140138004605373 0.10171593491831117 0.14788444260303307
0.38788179831499725 0.35168223483595745 0.32461666138563516 0.037294028883923996
0.39069868447948486 0.36156247716407863 0.2572743430948691 0.09431328006493624
0.3925304982318184 0.35400273594090015 0.21967939479727303 0.034235201676414154
0.4048843006416446 0.36427060051253124 0.1977024623701225 0.058535829667830414
0.3728262589974374 0.3510977533956474 0.2783547144530937 0.05164072048451581
0.3787480712876186 0.3425326690338776 0.3660711899897204 0.06092414071714539
0.4031545675689724 0.3616477501094995 0.1797270701556965 0.052966875668004426
0.37735085299507504 0.35161478859661427 0.358573005281032 0.04417696976656711
0.38269741127079465 0.3550278861699794 0.26630474860097325 0.10496050808488867
0.4000472227908122 0.3636200578162469 0.13372381769386818 0.07229450964897198
0.394453417046267 0.3651184561997282 0.2583111795797825 0.10178234998634482
0.4005942918124029 0.37582163529836127 0.18821053833183018 0.03683257026179385
0.390955326451125 0.3589311288155991 0.24287458722601224 0.043530755816206114
0.38515382367440204 0.3579092230180447 0.3152292309699306 0.06647544024645179
0.3994356855796528 0.36084998383453715 0.1458337039491596 0.04928647111176667
0.39054347813751356 0.3609726031470993 0.27753302446002476 0.06869556966292169
0.3849009129167491 0.3759774336186125 0.2096424280344058 0.04504702421371631
0.37943268736079605 0.34477318564819653 0.4019506110841387 0.04930222053914035
0.38556640654554 0.35006591061635695 0.411741347094301 0.038612436733110295
0.3865556020090562 0.3328024422369436 0.44348088288582976 0.03837628006907707
0.39419674364206203 0.32431884955621626 0.4289132490592238 0.006478991760505858
0.3995182195947614 0.3015623236393932 0.4407228425709673 0.028464141718297212
0.4061866970933178 0.2915100274367845 0.4405641620440328 0.02662851403601502
0.41362634230099943 0.2822068171887784 0.4489620215127908 0.03290847379133159
0.42618004271257076 0.23314024281785212 0.44413591954169074 0.0619740976552498
0.4186808755487743 0.21516999161035233 0.43845959600813894 0.07816548537591837
0.4090840852978281 0.03312164794579354 0.0882576893274993 0.03625128318343788
0.41950039118427296 0.031682317572147733 0.0371364803521988 0.06015537169093299
0.4073364914470989 0.040502244628389875 0.05880197639534919 0.011010245885335494
0.4152507362407771 0.03482558488316488 0.07164548228411882 0.01810592259746478
0.4216048141280806 0.026964494143945264 0.043179326648663044 0.04338761243167559
0.4283020107905128 0.0254451780347658 0.03732117373576281 0.019940606779280886
0.4178155105133483 0.02463028976966815 0.09623298200669271 0.005289333984841307
0.4009238023993855 0.04205283881309607 0.10369554978831438 0.01920135292049746
0.399080555142873 0.037781279291656034 0.12335941880733707 0.03649779348410314
0.39877581245210664 0.04369065920978306 0.1367578255421389 0.01491922191386385
0.37741487277576674 0.06620516729984442 0.34315551370389985 0.038675479250172284
0.38075941323348056 0.06696117297924419 0.31705042078639395 0.03205041202904227
0.38722209361865767 0.06005859034385781 0.35294216624763564 0.02123391757780355
0.3948737526338624 0.05800491483002668 0.2071196020737339 0.004363742343269294
0.3854338134838415 0.06478066977879533 0.27115356542532176 0.008210775813563533
0.3846795148597888 0.06769101473334323 0.2999894877433641 0.02345735291537531
0.38556563167848895 0.05411141012648696 0.2891338863407818 0.014033958586163664
0.4058822599825893 0.05530629009160978 0.15580540766699597 0.00737892272012722
0.3858312214243932 0.05484313808015414 0.2609917881608179 0.011444583950423741
0.39569871812262963 0.06256561324017638 0.16964489170729102 0.0023720935740440727
0.3807948339089336 0.06244314709947824 0.3795735803365576 0.054822220900045536
0.3827576200961964 0.060697956276398735 0.3267869534642768 0.03738424724430602
0.3965176009643497 0.03894525065106023 0.13641381714797454 0.02082222743883929
0.38813395354403846 0.03873538103324984 0.1683731762621935 0.01066563482198392
0.3829540190883467 0.0548556235980969 0.24262105196413747 0.008313651054803676
0.38193807189070106 0.06665344640739158 0.26954166224135073 0.006935673342436134
0.3703198518073219 0.07153971361351032 0.3695987753946557 0.03830646008489899
0.38322816037343793 0.04368590348342586 0.23968248444114498 0.008643131509493088
0.3876560410661668 0.08114375035745656 0.4359372134922065 0.0037740595649181194
0.3905752521279041 0.08707543652396599 0.4439650898451242 0.02516055208802899
0.3980929772777585 0.105606750868535 0.44109346683970224 0.02081031174702459
0.4178191223416109 0.139168691185789 0.45016849095432626 0.04744476668838286
0.41890277272004534 0.15177347880354755 0.4479584877928222 0.03701447755391658
0.42087581685960074 0.17704449258989255 0.44080879393545186 0.026453109694106722
0.4196978684339269 0.18888064058946427 0.4443397351386241 0.07719718853490146
0.044500620482468854 0.40583519424020414 0.04481077409972157 0.053083653299350934
0.060203283183410394 0.4092369527036867 0.07581289342280209 0.005576944088014001
0.04897471378657199 0.4037521874309609 0.010912125090238691 0.12101922770943106
0.05704428310600519 0.3983620233861624 0.09362168246615123 0.03537067181995151
0.03745350999095562 0.40664906104036963 0.026526680363527726 0.1128539888443921
0.030310484950161844 0.4020717562459215 0.046965953834141684 0.023176259163815768
0.053619369870401244 0.39766679331278515 0.100089912037745 0.020780341581045556
0.07859741339744661 0.3667358387719705 0.21474842064696617 0.07354300514666183
0.08166664597332739 0.3735148862053022 0.3208999389492662 0.047621031345508366
0.07714707099624936 0.37078767959753156 0.29982779710269025 0.045737566959342814
0.0834679686718658 0.36964890920603727 0.2541776913152209 0.06200746724166926
0.05888679000425402 0.3762428214907509 0.17711469237806038 0.0444512203897698
0.07418498661810158 0.3724621647679026 0.20931854967877633 0.06820650803561426
0.0736729415936941 0.37324849937507565 0.25762947373569717 0.0756070916047549
0.08511486470904477 0.36883045202150805 0.23729653876863097 0.061593696812156935
0.08955716463096498 0.3688774712423791 0.3421789864816872 0.01898655399564588
0.06990173867129658 0.3882055170357867 0.13307657103852302 0.02958812135024334
0.06576474424901817 0.3774866331475777 0.2895184802165505 0.01906884551224556
0.07847853939508469 0.36820359699983646 0.3324084378618026 0.03437666619872418
0.05876383505051922 0.37298760380679485 0.20786191620776548 0.06461358940514617
0.07233411747576415 0.3783801587018334 0.2508720880049541 0.048663733971797705
0.07768179786639384 0.36759021065113784 0.3728343197459392 0.05459138486996461
0.06577328101862974 0.37369889944834767 0.25124486979541244 0.050889929150462816
0.07211133566416654 0.3722736016270085 0.30510683517630516 0.04544726810972634
0.054644732346304174 0.3795901188900855 0.187169111633393 0.06313929880020071
0.11502597520611364 0.3853101664098812 0.4370763481926494 
0.1795338170838912 0.4059500311698874 0.4421275552422154 0.007971440036951877
0.19990282147983593 0.4053766040492506 0.4452910583972765 0.009095685137859712
0.3958259375334301 0.41137926583798823 0.06485616388881336 0.09855143226185882
0.40915123177087925 0.406017634745773 0.0558127172569116 0.016382007903486158
0.41311169000622344 0.40370432690276475 0.08792046069347957 0.09274722029439234
0.42245594873646414 0.4117253409468735 0.012370497293899399 0.0538567203290854
0.4134063217884385 0.4012399933868501 0.060024218695207444 0.019235506510006772
0.4183369694485526 0.40311798321902653 0.023304421391484996 0.030771042661273038
0.3910836162581582 0.3827800804708463 0.09207062115859437 0.04929991715893347
0.39794117872355145 0.3873612306847668 0.1216509674388294 0.07349253485771813
0.40329588526910615 0.40160639943144616 0.09300430872880766 0.07179063770428437
0.39028645489546293 0.3784072937991594 0.1793572488002452 0.046620675655619045
0.3738242299771676 0.365489258652556 0.348256237262548 0.03063806902114018
0.3832405557196818 0.3786725635901424 0.15754129096023414 0.058644038890050196
0.38448848369329247 0.37978902674166615 0.14700267960057134 0.05528826324930264
0.3823323972099321 0.38109550674217635 0.1281612356954086 0.05217509917090184
0.36956896575017384 0.3604865648410268 0.36654866177057965 0.05513554998064644
0.3734270114060019 0.36773759046102955 0.235369843100985 0.02459827226755609
0.3630178184117663 0.3599640680060106 0.37835034887110586 0.06854991248454562
0.3746754468912727 0.37421948533551325 0.189840388741367 0.026950065548379948
0.368085214412728 0.37306853345618374 0.27643670227043043 0.06898433518824595
0.38452249965405916 0.3749236262575473 0.21153539419383657 0.045127839850729816
0.38497379714869073 0.37588708571411433 0.24823422238701792 0.04336732389924367
0.3803076954978004 0.36477854437280816 0.36290627144610405 0.04022286888853401
0.3849156713932966 0.373207822433557 0.3067251065386911 0.0518132435145041
0.3755185544619744 0.3699248216779844 0.3215796780417543 0.054177262122349995
0.3897556688975214 0.37276106383501156 0.244577652715413 0.04132717680038592
0.38028327159885594 0.3772586079705876 0.2639248633863606 0.08562332723236633
0.3905620460780003 0.3835901835815583 0.15160923620751923 0.04340314907946956
0.388412166559393 0.38335533503789626 0.13583004363657894 0.0769430284856842
0.38756661685019944 0.36795191166682184 0.22606024136084274 0.04024131242099558
0.39645982667033686 0.38026071604827977 0.1586715408860733 0.05645129489773991
0.3747162632322045 0.37232350775565165 0.33191694980486136 0.03166258261502384
0.3751244409056039 0.37167405026711064 0.29670432328422186 0.05587095993891556
0.3944561675620808 0.3826762283031919 0.1758895135326178 0.03868648138148445
0.36906387608377256 0.36321414623659104 0.3264312588280891 0.02162307558692151
0.36555057053674356 0.36382192911090483 0.39658323317951905 0.09005734836655652
0.33677587937413866 0.37899521942615433 0.4334193857950542 
0.29585625000350163 0.401608784951847 0.4358961920588196 9.701601435951783e-05
0.27295055677404667 0.4136266180177768 0.4494745183077896 0.03596288449857929
0.2244858909294494 0.4077797195458756 0.43891156865768466 0.013933490481607677
0.2404939543393013 0.4125843393129111 0.4479195085207966 0.012654529181647587
0.021541034912111026 0.030339174663423917 0.003124212299390928 0.000261750844108851
0.02449239421567402 0.0317090277651802 0.031543698459072594 0.07941363798137367
0.022310263424307756 0.02893597282276598 0.06534914538336507 -1.7795343256630202e-16
0.03302358800444577 0.0358366734856624 0.09575913839973572 0.021587831519208407
0.0594310006194472 0.05417562262691651 0.14324022459349056 0.012552947909268057
0.05942504055804468 0.06763974936723577 0.2967769057917099 0.006156491559476723
0.0712365698293351 0.06407874613960762 0.2307205743783755 0.005506140132701311
0.059992295571106295 0.06631162424945938 0.21730949675875222 0.028894863036825612
0.06964579193395176 0.07303728902051604 0.3328124407133353 0.034792424743727304
0.06847023819897526 0.067710445182472 0.3433010043293815 0.048717969324754765
0.06060952163586985 0.055758098699449574 0.2150302885094008 0.03055575154196866
0.05351172426684076 0.049416415144077866 0.13097513961091453 0.09178127240858915
0.05281458682606988 0.03920468199951775 0.14053209435131764 0.07068101602933742
0.06692374708656931 0.0726051520085713 0.3817162323719705 0.009829313624347703
0.06130116810512165 0.04272604190753432 0.1890022351053197 0.012381099179900877
0.058878109815978394 0.05611172592886266 0.26707902603575173 0.029900767506329296
0.04769880250410971 0.05328980780381708 0.16860330688786834 0.01106919103028737
0.05612623629136414 0.05585115147236412 0.2522297544862182 0.02238012826611095
0.06432911656321005 0.04668230598064678 0.2817043665318649 0.002493039855045948
0.06239660827021017 0.04933385584434917 0.3242297051705888 0.02338306715086118
0.057150587759908396 0.049057634897124815 0.11938470078371703 0.021215343699656483
0.059027744118075265 0.05036213873493456 0.22730999566712884 0.029276905293733
0.06869963867951216 0.07067467370307105 0.4132873368835628 -7.439327767565645e-15
0.05887920722624813 0.08844850518285077 0.4172961986102022 0.01942423040867251
0.05227604890968742 0.10485556440502693 0.4427576114006262 0.10292320026944442
0.03396408666665213 0.14089695458910817 0.4443987485015474 0.04706024023313447
0.019160503677318978 0.16064759754132854 0.45688710219183953 0.01640782878017004
0.02536491515919117 0.16789671118201457 0.43947524603596116 0.04011826872092581
0.020090552580135874 0.18759858215100578 0.4457082435872228 0.011297814690356579
0.021957807338105553 0.19420633713440535 0.44550339559737073 0.010849407098304993
0.02614153799049565 0.38688765458353935 0.04506545348643725 0.02714849231032945
0.025279777270359252 0.3912750936917771 0.011569832117995804 0.13567592042302906
0.038238737314639594 0.39613312260551553 0.07122938487225017 0.024447049422386048
0.03066519281531401 0.38811080720109004 0.09508893195990555 0.031878617447483756
0.0316009973400288 0.4043841031216315 0.052213157647206944 0.017591251441667916
0.043052552450227446 0.37724466321978406 0.10334202498423165 0.01915631783578196
0.043715192171287935 0.3805994755977288 0.1127123020592373 0.03570715080342731
0.044128433135624645 0.3885324313638668 0.11332919027786881 0.03149623969690561
0.07065096322103646 0.36863222223547737 0.17990169696242275 0.03920157427497624
0.062467271337022304 0.3646952913977561 0.2386468676677771 0.053022714054095664
0.07497405622092278 0.3681315734617378 0.2827507510741137 0.04255215128639617
0.0612841443318572 0.3578116258206524 0.19334645145987872 0.05514997890125299
0.06035114459778868 0.3625030263085017 0.22576482247875357 0.07122809679598059
0.06405134621452616 0.3552728628672119 0.27113920964156474 0.04468563876493677
0.0594942248236863 0.36883517588675013 0.14417397460052384 0.014950591876769252
0.07095400190285515 0.3564976338348014 0.362589286402585 0.029450719647793767
0.06189560195064003 0.3681351110573956 0.2593104050333442 0.05806051480934059
0.06274783920017922 0.355112237522726 0.3301776051047329 0.02936732214792354
0.05843738641086197 0.36760842906238556 0.1993903639080063 0.06126706231617593
0.062105310480847116 0.35871753624376385 0.29622212986643504 0.04276683693999091
0.06483208427040121 0.36335061999778145 0.31149029726114236 0.04589256024368167
0.07105614630930412 0.35424233046214365 0.30225613519870737 0.03592695386588586
0.051257559604630784 0.37068241979943023 0.175931968139758 0.0309684380240493
0.05108207520436557 0.3840136942870328 0.2048254950712342 0.08164605012006668
0.05122857263065762 0.3684510751492795 0.16013505433636485 0.06448229015974238
0.05054562770624957 0.3785584480272589 0.14681145758056638 0.028945175668107115
0.0679227475505949 0.3650833390408948 0.3518373948307691 0.023548802139476892
0.06244149015771016 0.3562589805398994 0.24234097861085613 0.05587825510899268
0.06677782295280373 0.3667819103540383 0.364974370491837 0.02404676826586746
0.07017606723876303 0.33923160908951294 0.42609729723758766 0.00302964511014653
0.05677787950906721 0.3160854810991813 0.43951855069387 0.08144775132518507
0.05262954869061199 0.3100763341554594 0.43254605035505095 0.05997682244987348
0.0452977422358559 0.2808116310205711 0.4411105818965469 0.03598808066538676
0.03649287660160937 0.26915527611106776 0.437320659733697 0.05922362335308621
0.03278056965423876 0.2584288928753762 0.45199458451946256 0.02546416449213159
0.02541853043743591 0.23038067072882976 0.4447369669643473 0.0664560964052197
0.027898426188216124 0.22266107257272572 0.451351216988834 0.04722804638233296
0.42755430186358495 -0.0004572134120704894 0.0038630355578318162 4.659398632665298e-15
0.43123086503896507 0.01553344234861529 0.0008852529462812187 0.03567974487238666
0.4137493004703801 0.031580777401140424 -0.007551270551651847 
0.41905382962838356 0.38757667555400077 -0.005653915916931585 0.05317218632707608
0.4281031213456813 0.38751307462682716 -0.009138763148893636 0.0867481443403546
0.4294480936381901 0.39311122699371004 0.003980446283073999 0.07351372600123258
0.4071652611417549 0.4182100513197963 0.004431934633940959 0.08278358405671017
0.40095846367313487 0.41961495875936883 0.006862595917423222 0.09097347242272964
0.42032264035360156 0.41220402443262893 -0.0023448877925495893 0.061237722496569696
0.04809471922778489 0.4066662433297666 0.004052457349846216 0.11265076457654179
0.03412556826837835 0.41866371040411265 0.010975081500653067 0.117299978769947
0.020929261650412336 0.41259988550958504 -0.004940971339481613 0.16490221639423
0.01607447859332297 0.40484485846243107 0.00429481983002737 0.17207237381970014
0.026174895511677895 0.3848009736732926 0.009364956026436246 0.09691568547217808
0.01471297995106698 0.0047366152107376274 0.00378086227536986 0.0932532243112995
0.014266392121798172 0.03023600467628663 0.013556579666885267 0.014730490174208175
0.06072443189646446 0.06135829554822527 0.397978532635444 4.522758507491147e-15
0.3674499113166734 0.049542999810461334 0.3961066184313628 0.041640967804432036
0.37965141879931863 0.05466822961090821 0.40147424420645444 0.06161712504544378
0.3772062462913294 0.07576815308288974 0.3979427668515761 0.02636294158769674
0.06913056361312822 0.3681948672903948 0.39021714677006963 0.028898521727697704
0.06775266288263909 0.3479938048824506 0.39077996373788665 0.03506474954571987
0.08371896747834177 0.37097906516883766 0.3922455160485352 0.041568007341875254
0.0650726340593431 0.35325572344485157 0.39928637855573257 0.029910216845209538
0.38459569192727944 0.3578856270508358 0.3993950687719378 0.07424466889576935
0.37356970777050974 0.36419494672694114 0.3897876513469742 0.0666082206753313
0.3572836315134391 0.3618309311928348 0.3979486395660271 0.06134212330853423
0.077692125206385 0.06873748474794658 0.4651181208178453 0.032013351539780646
0.10266891906308714 0.05319951156731506 0.4706366696205152 0.010198830458147057
0.06837743730318596 0.09112568596652786 0.4711918299080956 0.05868489423735326
0.07393591232764019 0.06965241851292833 0.45434244263918544 0.006217091961374342
0.12738239780867067 0.0324479664314245 0.47059951184745646 0.10810478843199073
0.1301762792286507 0.02856199928083245 0.4693266039252094 0.10640979696111702
0.14469651347621018 0.02051800317763475 0.4624126071366075 0.0058581694324047065
0.17831016953437182 0.014168679906762675 0.47099676555898656 0.004712041524088538
0.16923999094042527 0.008578106220514746 0.45911377685033883 0.021906671979192636
0.2260952854786681 0.015498714750626006 0.4684610852566714 0.00446586970155517
0.19524107636453963 -0.0008716425700047974 0.45569029647715525 0.01695634891279697
0.28929158942372574 0.00897806256876545 0.4575304818647615 0.010459372532636282
0.2622623360429121 0.012459970742262585 0.46782872113697804 0.017594091038213334
0.2613893386647865 0.0007467197792805358 0.469234084307799 -5.205880196596792e-16
0.31332177212134993 0.02976526151858272 0.4713058100660402 0.003771543633610324
0.32393713738998875 0.022665097112379802 0.4551828411526823 0.00016598761362455168
0.34841507259237137 0.05821991439392152 0.4711021766553029 0.006410260887615443
0.35385762120794767 0.07136592103338392 0.46730574294939187 0.012782709661791304
0.3463773901106912 0.04257437201592325 0.46606162720451205 0.019334262736275917
0.34334527947763605 0.035405864816641604 0.4597602955681871 0.021236301209695285
0.3913301068449118 0.09410248902676302 0.46533576073114824 0.02513773386251391
0.39023732712451303 0.08233432158888117 0.4607783283353459 0.07614858534436882
0.3919197587573562 0.08449804686398968 0.4647013423249008 0.01952165974234672
0.3812280064431805 0.06848278191639584 0.45302323597097466 0.02291682281735445
0.4076313525426302 0.11871764791128958 0.45408674740738575 0.026161826936000963
0.41543341064342787 0.1268194568718508 0.46367792968672433 0.018633793632781816
0.4089161771590082 0.1455212750295879 0.47397800770723314 0.030280858328171165
0.39065947192714245 0.1098529718791098 0.4692908852380642 0.007544172889889787
0.4016547021024652 0.15311532587092533 0.4719436074066997 0.021564852429951393
0.42423877677147326 0.19661246482589761 0.4685381065979991 0.06679553774577415
0.41309515740302666 0.16112633784129665 0.4669440317851661 0.038699168087123585
0.4200175006668556 0.1512159920087411 0.45108039679744427 0.036031104753942104
0.42795385823192855 0.1686317022334523 0.4575861090680967 0.021756720115151652
0.4253125428550079 0.24426667570965055 0.4702604623533386 0.048581607806495314
0.4115814046986739 0.2278251261505625 0.4692743171414382 0.09444948555389773
0.42858913902574264 0.2078580683954742 0.45666060748881 0.0745091453682777
0.426427896899003 0.22363589441961895 0.4612898114916402 0.090339082929839
0.41395168701541823 0.2561227268999789 0.4715772832021573 0.043973713393027795
0.4063814855099843 0.2839703221319229 0.4637462500089219 0.0533098634111118
0.41702407444789297 0.26690023005278085 0.4459018247469916 0.0693831979382917
0.42431880072953126 0.25958296855915025 0.4501563200838431 0.04445964893298244
0.41230211112421156 0.2880861554080767 0.4531463220346131 0.030361849775389672
0.3839843311832813 0.3318057505472778 0.4635690844255062 0.05926865791887721
0.3933972236708425 0.3091562803682923 0.4634867994946515 0.033739246951145066
0.40716493195484965 0.28975668781389147 0.46470462087350134 0.049883673292960666
0.39568434030412014 0.3136391027835938 0.4580514029813245 0.036488774985085216
0.4011923309399617 0.30453425638946974 0.4526911933462726 0.026214122848201127
0.4125945999584972 0.29201425368895556 0.4595439617699393 0.022890243251418616
0.39112015005523726 0.32705337972130305 0.4497377433467561 0.04929270486179418
0.38260212503991986 0.3316689306054309 0.467057036287742 0.03555499068097271
0.3816130704888094 0.34484770154126776 0.4524677627137325 0.058539681487233076
0.28343428156235684 0.40898254217798213 0.4638168253250667 0.038001799771912176
0.26412436432448255 0.4079571354765204 0.4576771057890247 0.030240755741711225
0.24498396900814406 0.4119201667987698 0.4738699393904617 0.015445006051493302
0.20919582239669376 0.41463942012253324 0.4648692178942027 0.002762213389115569
0.26463455761703647 0.4050351493340931 0.468921624839858 0.02668825320048978
0.22247722364802733 0.4091907716476188 0.4558189411966018 0.010784658771055753
0.23252897621092763 0.4087900786076051 0.4547150116639574 0.01220383542342489
0.250352537954143 0.4099793165452642 0.4621094046645574 0.020338938814701633
0.21569667376041318 0.4093454363696809 0.45451562040036275 0.006806973692307715
0.17671424640583333 0.40242440871591983 0.4530026679356278 0.013007362205449288
0.0495377833707032 0.32271397182490463 0.46381282207658914 0.052657972636687395
0.07243217040374289 0.34378739097248473 0.46708224649344143 0.05959991081549229
0.04536261495425392 0.304408393176626 0.457249660990449 0.1538937445877286
0.03920665468115111 0.27833282287444344 0.4762689431692125 0.0680908592500895
0.04136589719323955 0.2848498146454413 0.46523109037897414 0.11785266532762215
0.04559525895560357 0.30857649035875906 0.4600838402815543 0.1457408292606583
0.037088094152990504 0.27992048172098016 0.46074915667827926 0.05841490946242834
0.030714701831259864 0.22805388851885167 0.467713669905375 0.10018469078167373
0.023107167839754243 0.25656304820124975 0.46910291650410674 0.005218647322753679
0.03021900143783841 0.21733563220847466 0.46030541878531117 0.08590829107875571
0.030369973620379014 0.18529675030567988 0.4629236829683986 0.03623323256758544
0.030186288419807587 0.19859547553584012 0.47857606670333513 0.04008875154306832
0.02839347320617454 0.21113556905382422 0.45057964098800257 0.04038605356755703
0.028701855090861088 0.20690534448830927 0.46948135081489734 0.03664135381164126
0.0317417609042234 0.14857203490837725 0.46352194627532434 0.033424889288351384
0.04559279215130028 0.14395057146161053 0.46645871521502585 0.029850647273497233
0.02902713792959946 0.1753718582702172 0.4683153179945591 0.03383415594745971
0.052460390903191656 0.11763833730825121 0.4620408046776345 0.06677762669974797
0.042453872956210364 0.10356524421256205 0.4633731379299343 0.030621084934315538
0.12487136037236927 0.412009239386471 0.5144391139440573 0.05455594964125236
0.13856058462795007 0.3974471217326802 0.5149742352537782 0.0024688448337018376
0.12796281385577252 0.4046756221842987 0.5357270062111487 0.0703947271137575
0.11183563938938625 0.40736102343112207 0.5454319815308698 2.793459479596234e-13
0.10667137396102228 0.4019159442970614 0.5129977153802797 0.035474659843990744
0.1186243116225441 0.4194411560251144 0.4988221726716037 0.0524435810441903
0.11705026385424323 0.40592133864556634 0.4771743471128843 0.03409956991152279
0.13804553332116432 0.4192167509009968 0.46969023978504926 
0.1805973781873918 0.40521635638608966 0.47730171182583486 0.014730272029652646
0.19664834799938147 0.40874165450542566 0.47438483275156396 0.007776189934429743
0.21144523899566325 0.4087943588695062 0.5090391625837098 0.026867012936352738
0.21379407886513416 0.41429462776709597 0.5413527423749613 0.026985216075480125
0.20674369018658148 0.41676743394434823 0.5479673105509784 0.0034394099929961194
0.20614755030421303 0.414820919796229 0.5695450543717099 0.0017565429723671183
0.19171001085597303 0.41669005088953226 0.5779657301014393 0.008094690306284003
0.1752376820351199 0.41067481879875095 0.5873508701427764 0.0041031869674347035
0.18431891698495703 0.41311484195171705 0.5814946247387739 0.006708621246417791
0.1694943223323536 0.4039635737295797 0.5801919728380472 0.0037286648312331284
0.1540790812214875 0.4093036565313685 0.615361529774195 0.021258347849927913
0.14088022239017622 0.4318027827140194 0.6219476369845642 -2.4838403424939814e-14
0.17543784472306512 0.4147033677427611 0.6006965533669756 8.183283051471829e-05
0.12461509540117853 0.41815826401630096 0.6406553091048431 0.05249132127820889
0.1347905663552014 0.42681160905500215 0.6421317190514548 0.04380623380653278
0.1097503211787304 0.4132402607560642 0.6463957021537218 0.0007899155184010875
0.09614271538432027 0.4204562027437461 0.6753124497850043 0.01966483146944225
0.12100008333278564 0.42400567649353454 0.6562183725149451 0.000377839248822872
0.08395525906759932 0.4356160768770398 0.695377866144844 0.0033422738557956026
0.06605212208644053 0.4444125918501702 0.7054733193222058 0.010892838720153387
0.07797483882765284 0.4378183189779168 0.6772731723660661 2.6174585188175772e-14
0.05006988406648063 0.4520765649232958 0.7293780613700722 0.007791252648037309
0.05813468285794182 0.44042100170770787 0.7214935750200981 0.0002175194009712847
0.04395265362094694 0.45118166016499084 0.754083143111772 0.02131567773502416
0.04392829088274829 0.46647727456903454 0.7781614981041758 0.02787196344500599
0.054850638345346675 0.4548600942068974 0.7621553393452315 0.011151808121540235
0.060137833748885254 0.47143385315427333 0.7944051124386359 0.01971149419286065
0.07607258803041361 0.48141920316491615 0.8230497798540617 0.027226650126869836
0.1120279109311916 0.4853864558669873 0.8287276134612942 0.1144017822036065
0.14127371828936602 0.4888648379537919 0.8461056227590994 0.047799701596431744
0.1413945564689873 0.4824519497218683 0.8367193718625179 0.07899708501536719
0.17915731776056107 0.49087797327481447 0.8321182836112486 0.001435164142878572
0.22002108106278673 0.4792124685367722 0.8066845504402882 -1.5111789141268394e-13
0.22754369821204642 0.46329211158810657 0.7802909538519687 0.04915194405815627
0.21736244957103248 0.45759252297006087 0.772842082415507 0.05260014916880734
0.20358091423050914 0.4426468447536841 0.7196203058204171 0.00672557841101288
0.19102712202118155 0.43967500778456686 0.7265829925154562 0.04978116549043551
0.1793066015626437 0.4457228338434151 0.724204312547059 0.03510682127626113
0.1837819936892078 0.4295530381120105 0.7269204762069968 0.0008918419072067914
0.16383528616058832 0.4482780043789023 0.729849382658222 0.03557056281385006
0.14159982805986945 0.4448170621985026 0.7255571094390958 0.007068365292415651
0.13913303998847765 0.443407075670586 0.7341988428769409 0.00663228159782
0.14541915289583549 0.4424434371459141 0.7488904556765613 0.004349352641645258
0.15793848456809323 0.44356323545773785 0.7371402175101366 0.04472447913874091
0.22058672659665618 0.4533378253168178 0.749039555682144 0.05291348367835769
0.33525447712605994 0.40636970717752313 0.47537757625265653 0.018821982055469415
0.31920665351489197 0.41207009268277034 0.519174348682682 0.04569484691545025
0.330814282989627 0.40495553021764774 0.5124187935540679 0.02824541201537736
0.3123434610593475 0.40217840670576943 0.5287613693110113 0.009778635995153596
0.32242243334076937 0.41231395207502153 0.5372825771330674 0.022088996213564048
0.34294062828181837 0.3964052149441022 0.526892680089196 0.03323059972075535
0.3477839060334183 0.39780924513760263 0.5204243258246414 0.030625085449347906
0.33952079233267646 0.4060518765548425 0.4989077402139795 0.00352557659760446
0.342388734878222 0.4025259421005475 0.5041747625712664 0.024332995423326866
0.3068178388264877 0.4112736356667249 0.46683184244471027 0.029332607917047372
0.30353669906560127 0.39865149243029224 0.48099834655608814 0.0005030872195635061
0.2695818272382786 0.3960910076364283 0.48011025141464936 0.0071502986188535286
0.23515207466409407 0.40778808190780846 0.49036199445070006 0.01769908861787072
0.22152823663536828 0.42108595888042977 0.5177348228470549 0.006597440496568039
0.23484537461878977 0.4054874827122193 0.5252726370183397 0.019414772443654384
0.2482473287103686 0.40852892238647814 0.5540018987140714 0.00803992847453861
0.22675071953062284 0.4097061424317904 0.5337604431515891 0.027134150916044295
0.25220994233892535 0.410030726571456 0.5568993407531657 0.00931677110417087
0.260298500334507 0.4207426270031486 0.5926338914783753 8.449364649889193e-05
0.26373634290734965 0.4153884669879469 0.5721935773348167 0.0020598007170158283
0.24655658357805058 0.41007866900061873 0.5762642746392529 2.6620380853852855e-05
0.3001530904589919 0.42668454687038193 0.6195798992748527 0.017193073340606678
0.2977396506478241 0.42351169504164626 0.611737406764867 0.021843991483004737
0.3014391273265036 0.4274776548130257 0.6251665062211921 0.011034324646506777
0.28651516285833184 0.42549454943990256 0.5856360860615196 0.00025198298082158166
0.3099993797810746 0.4180690371675374 0.6333159315625942 0.0009214969336528183
0.3379113726119209 0.4342431467601014 0.6549215856925802 -1.8393192495224105e-13
0.3237129802141233 0.4285800598032664 0.6393334187385593 0.006977876641494968
0.33960107225439096 0.4278732440437508 0.6606506038418153 7.967961651159745e-14
0.38349498683450056 0.44331765363719167 0.70570981623484 0.0025044555362297885
0.3623916551706264 0.4406607858818804 0.6889920059196311 7.779156218421654e-14
0.38627641072025465 0.4328986939944511 0.6939149037832146 1.4832838861240445e-05
0.38714919545435933 0.4389368305360428 0.728143186058645 0.004104210192978471
0.38684083807199354 0.44067075292018454 0.7215206434270907 0.010387834847460758
0.3985145713913337 0.4490434559823163 0.7524194123964655 0.0035876036738013606
0.41410448418456836 0.45745344667373244 0.76100284502746 0.004372519075641722
0.3960275338674718 0.44597970577336166 0.7480011208967249 0.002470554108554107
0.39447794434278755 0.45929939843677176 0.7843327286684831 0.021351263099188507
0.4072187855623284 0.4604327890767277 0.7967075557995627 0.016183310186765963
0.3764569125682499 0.4756262172681465 0.8115452906903216 0.0350675335595116
0.3798025174793263 0.47914771614025625 0.8196988506072267 0.020203595596315762
0.311550479643508 0.49112492389665624 0.8468426502284351 0.0681006293496624
0.3123433174286893 0.4648046868785455 0.8500069789355413 0.008092664566474804
0.2948322112726067 0.4840766745146856 0.8395855374180096 0.04720116996218994
0.2655388586361094 0.4861214971173919 0.8275693426115422 
0.2710071465906722 0.47858601065997136 0.816549300676787 
0.22415561572039092 0.4705436228793677 0.7926453880447947 0.05322929872676573
0.23562105092768248 0.46086443778575054 0.7637090701094658 0.0858443905725177
0.22750765899470196 0.454990799175706 0.7501778132185529 0.07032372637774403
0.24829015237766494 0.4412663609325033 0.7353200913399265 0.051939503636416404
0.26622964464907084 0.44742359244127244 0.7193716368490726 0.00011307162997002756
0.2510515590697471 0.42936150592319033 0.7324073944505954 0.01416172748132312
0.2670852666378739 0.44033114556191166 0.7297706011525293 0.03111939392796208
0.3008792328471926 0.4554640676853576 0.7246194361603383 0.024740172824638373
0.3132331268361435 0.44698223305404616 0.7320027941661242 0.018997158142072916
0.3086415082051031 0.445563421929547 0.7416780384702093 0.054091491446315
0.3070719620436721 0.4349067886564193 0.7481615598309348 0.0030522019319847247
0.304998236034909 0.4479700976449465 0.7474752035004414 0.02160824392482875
0.24043533675267711 0.40404428745740756 0.5191377206612839 0.03117878053330772
0.21531444657832294 0.44432849370439 0.7879912852814409 0.05568021657041122
0.2252667395361156 0.4420588032769346 0.7812380921428098 0.04234123093136415
0.08270073097238585 0.4748341789958053 0.8493845172542888 0.12468274524347743
0.09814513320654483 0.46503445779649444 0.8524008103905019 0.14983610149322357
0.10812588442664894 0.4642475766128096 0.8426122204685452 0.14411824291186845
0.36543741468092183 0.4793103939463262 0.850988407564772 0.010844714743855101
0.3737084527301556 0.4667388059732834 0.8431784918606987 0.009712443724319399
0.2407695453957301 0.5100502354394089 0.868115187826644 0.00960932515618786
0.2644093264408497 0.49886490347848483 0.8668153308063903 0.03338878831158349
0.24093276067220679 0.49559646796866247 0.8719474712249253 0.008690419470529448
0.24589179652739535 0.5048928124261101 0.8575787520562825 0.01892395933696421
0.3183928232357548 0.49558992763146387 0.8598657890827063 0.07537278110072883
0.29509896127151636 0.4952723116474535 0.8617589599041479 0.06264483102640188
0.27940372286500925 0.5000780077562462 0.8732121986616506 0.002292161948890881
0.3059568010124858 0.4983855324373981 0.8618336124829755 0.08270752496925651
0.3379457371081876 0.49780691985375136 0.8481368924897921 0.005685771052267208
0.3295228828997442 0.49218371507886494 0.8572134531204099 0.04980562564284603
0.3491391964934261 0.48700445932644626 0.8480773807622841 0.03629622581679276
0.3704595142083679 0.47237418879917265 0.8535173673862505 0.02457739962641355
0.38786656602800224 0.47284141807934055 0.8339522516006024 0.02179263184232319
0.3625746846917572 0.4831368225486929 0.8379182592810525 0.018719741658582124
0.4134082521690042 0.4565778279680293 0.8172026089499423 0.012871576636988418
0.403954254098049 0.4691955244363626 0.8244788018021372 0.03492892567942119
0.43152721713487324 0.4487894711850126 0.7911555146490027 0.02560790197602636
0.41996478773830626 0.45323576057856657 0.8015413661635544 0.017206300825033553
0.41307559373188296 0.46656573187686856 0.8065285733228615 0.007366941260751985
0.4355175120450391 0.4409580596325945 0.7792964680525 0.013980660288006996
0.44695266520816046 0.4274906976827514 0.7506786386177567 0.004012844927317792
0.43872700633264305 0.4437232330709749 0.7712347253222632 0.007375205231081778
0.44691163848541615 0.4272228556670083 0.7097495158482442 0.0026425095449911142
0.4525170113524148 0.4285909109556592 0.7267261052920952 0.005537811563832334
0.43774883338646736 0.4275575214964592 0.7429684120463913 0.012887389985066064
0.45174872800728677 0.4286480435439905 0.731578462781313 0.007795600620944783
0.4455636617890939 0.4100904794885113 0.6686989677551273 0.06535880598748127
0.43692565408336986 0.41930574997388886 0.694462156698092 0.006004568988072075
0.44410969303575865 0.42348726382616064 0.7179366559803568 0.004564439782654959
0.43262575874740317 0.4196140992609181 0.6732870265451413 0.02729420477066878
0.44714121357274894 0.40672997003423317 0.6563512145338097 0.05833880628914067
0.43495097136694183 0.3974855104326728 0.6262392301702876 0.029425252596064128
0.42925283787587437 0.39440997932105737 0.6485983255951375 0.043529497671976766
0.4323413843712856 0.4163953206814917 0.664219773582693 0.03901490876485723
0.4267398369207904 0.4126180671992256 0.6195146451560009 0.003353720049501742
0.4113993648613398 0.37444148293796353 0.5677634649599377 0.011752026259403027
0.40708251554563935 0.3895387716837168 0.5658327385844494 0.014874776603789297
0.4242616571739587 0.3896375833013112 0.6228992788731094 0.022238125513154346
0.41137769333069374 0.39545702283139245 0.5833332906898824 0.003148265034716589
0.4231017608019415 0.3947136411818464 0.5907798775136862 0.00957192672649831
0.3860797550639225 0.37328568987354366 0.5185817103430633 0.004482311116000057
0.39065281176501393 0.3858958130081591 0.5414758755384278 0.0038187259527294186
0.4028296888022246 0.39511382823149077 0.5535529305414724 0.010896596556014994
0.3707303476307328 0.381040559995438 0.5027204591258596 0.016530809602580954
0.37101732134555504 0.37528677326375665 0.48525086686363106 0.0014675113794805428
0.39202966555200125 0.3835931297717892 0.5229599670047856 0.01958229327483691
0.3845563369315576 0.3737952470431664 0.500094175448496 0.0231909447879718
0.37047143783131825 0.3648471240736313 0.44449421779238846 0.05729557096952
0.37474036037886765 0.3732963403757595 0.4695587294074846 0.008881804812298224
0.3658164504396975 0.37029705990475253 0.444207187460023 0.016698968951514553
0.3960703991016357 0.4723194060350826 0.827529413302888 0.021481172809283217
0.18610043485713237 0.5023488471710343 0.8685525245540229 0.005599211548377781
0.21832212776529772 0.5056816480638845 0.8593500892845205 0.020529318671713096
0.19624112614225098 0.5053449947950868 0.866116280870824 0.009800199536851217
0.20696349979071899 0.5095245013446433 0.8674206981075026 0.011958936351609805
0.1736118256161253 0.5041375049676273 0.8610870319061104 0.01805000510049023
0.1460133346889766 0.4917493815763374 0.8683177485458744 0.015126542889193743
0.14514452106833992 0.498220160766839 0.8594403767022761 0.06291724634031141
0.1675538100995422 0.5050747397929386 0.8535093932372206 0.01242960950069662
0.10965278953331639 0.5007808928025481 0.848946837998176 0.08694561345252216
0.12032103782076248 0.4906786196566376 0.8602243251396583 0.13602268468909315
0.09284208358060267 0.4868095927201333 0.8471470077888363 0.10259747456394593
0.12208328026027943 0.4958001659832448 0.8534275597199893 0.13701342823577614
0.07555736835354956 0.48425777446895796 0.8315358202045594 0.08806877569835143
0.06152765252517557 0.48068393667915904 0.8319768696052864 0.014101338625421747
0.041960545010901275 0.4622804734466899 0.8213504740026774 0.016878209764357513
0.028931604726978293 0.45807081359216345 0.8145207920710122 0.029878156582412992
0.030181982199989667 0.4452290296266688 0.792476127161822 0.012505921433089241
0.016781059489452202 0.4475043178106274 0.782400123255951 0.029204732437004933
0.007716215073236443 0.4385463225121784 0.7486165946669079 0.013468738000521268
0.01291633618806185 0.43468410451480577 0.7602306569335848 0.024838471274218503
0.014301434344327606 0.4387024843369909 0.7723884038038327 0.02548768519126544
0.002876356065464371 0.43915607417005764 0.7657974600589338 0.015466929742652687
-0.009808969253927654 0.43238196734056317 0.7127748862822265 0.010925883173920415
0.011135411806153387 0.4337041421716361 0.7394002285373221 0.030070076264742528
0.012779180506827827 0.4211817917297904 0.7082082663896382 0.02326472464024267
0.003317226632593655 0.4168410781886037 0.6868070026594012 0.023185012611615874
0.011993597516057568 0.4245606521884537 0.7046414084873825 0.015218446538354233
0.017464381075340766 0.402487154778401 0.6642064873295679 0.0029935505361967383
0.02656351342048516 0.4107553762475325 0.6465400738537629 0.023117196297868636
0.015532834053903714 0.41697152444271013 0.6659603499077995 0.027910424717174486
0.018423622294263687 0.4082146009782297 0.6270579790592705 0.013821234245129498
0.02186546844929234 0.39518380760394267 0.6026337709065767 0.03320851087369722
0.02928546608319714 0.409712965482852 0.5893999325204997 0.027181311036636173
0.03600321893532193 0.3804077154275121 0.5799832376927384 0.0039049443182856175
0.031588942909349195 0.405744302258706 0.6201490923821008 0.021086866213291006
0.04445693583957022 0.3900418522602962 0.5601168622567669 0.0044159344707180165
0.02710589639382067 0.3978753274106013 0.5905115437354478 0.02512491879919055
0.029447105385015805 0.40662490240250815 0.6188098802629287 0.02785118691546557
0.05808099358346582 0.37801433391908745 0.5176326810740539 0.029009079391653755
0.05439885110930756 0.3891222387707021 0.5372678886233242 0.026664823956563218
0.0680944504428021 0.37951109977252867 0.49006268125610264 0.018894899863957825
0.07555202761156671 0.3718256447980346 0.5244754978763031 0.008095098103268472
0.07958414932880455 0.3811168929191671 0.48990635453355624 0.012018122507305226
0.0449593515235338 0.40589427344426265 0.5399643341582152 0.006614611575782747
0.06462358646022238 0.3740386052519811 0.48843418588950777 0.04957933483140388
0.04020069534670743 0.40346297658676955 0.5595716048132138 0.004880471762862
0.07718969755325933 0.37137169514977514 0.4580357998250471 0.03328896509370806
0.0812147927200696 0.3771885180576777 0.47054357080050496 0.050900361628568196
0.00682480393902834 0.4250348200696888 0.7356201883483818 0.0041347716017804
0.02318006668256195 0.4545757688211029 0.788552259243532 0.021303355111720147
0.08156971595366577 0.331210722224229 0.4686175173893273 0.0015071790865640734
0.06229030724617459 0.30630042961650095 0.46858000352894363 0.09939920616516264
0.07934611949527524 0.2948915242484861 0.46959208767927796 0.01278824933149741
0.041320956329838954 0.26490543145555223 0.4705670654027341 0.1863085684762214
0.15284797652018675 0.31865185480677494 0.4821342950195171 
0.11965106054823699 0.28374368516050547 0.4689481819559478 
0.11567350470450483 0.26357123887564937 0.4668714710330387 0.0008936943764860193
0.07915927502847225 0.2572664528713883 0.46848587449839235 0.0022628748102071616
0.06638584353199543 0.2296678398386142 0.4713731120871692 0.01036899382709687
0.04927629670521733 0.21907447106118969 0.47099760315244393 0.07055206202630056
0.07328280324258542 0.22348428759774755 0.4756210737886463 1.392741396100646e-05
0.16707143638997032 0.27850017604684735 0.4683999433278487 3.315985423052579e-14
0.1718415623860221 0.2904181347340375 0.4714039169767873 0.0016961053057131005
0.10166982549925327 0.2209075285249395 0.4757913131623434 0.0024226288003116425
0.1325108833586087 0.23069027133203482 0.4782943395134648 
0.03666553046621365 0.1568296795301808 0.4651658286357442 0.09401979124923414
0.18431865218102864 0.2693475615512768 0.46836042152828955 0.0030371232629792504
0.12566430390302707 0.19102883375609864 0.4695856359740593 1.3552668713533086e-14
0.21339563007093143 0.2769470998768479 0.4683419982244312 1.4067491057637902e-13
0.1868130558779099 0.25954005771931044 0.4683720289938074 0.0026440999096083787
0.19642695602931506 0.2400923521252087 0.47173565128127054 0.0014800497640600953
0.09888239118991546 0.14486177059114513 0.48032504085170974 0.0012203765567597108
0.0817012372445061 0.13610376772941504 0.47039826816259483 0.002449287323876784
0.06328805359080779 0.12074792071373966 0.4668917811656791 0.04830087365823503
0.08787691427633458 0.11000712046475117 0.47048818137119713 0.008352677863977238
0.17845618754588113 0.21179224621563436 0.4739266312900213 -6.7334972947391876e-15
0.16248235451392104 0.18082874018076392 0.4718613408289511 0.00037715791341212375
0.2758534720905153 0.281871660998282 0.47052073842266423 -4.9139784096029963e-14
0.2654524543771886 0.24439342206996442 0.47488872689663064 0.00024249654192855556
0.25393778717939364 0.251385716992051 0.47255978498655526 9.736122287270119e-05
0.1560782957552572 0.16351311769363294 0.4732077583844688 -6.66583294056473e-14
0.14764035662352087 0.13700522907979412 0.47200463250637653 
0.10870398888002823 0.1089720007332103 0.47439914565917773 0.00570578248377735
0.2345570360353748 0.22695531421190104 0.4764707915230898 3.6324431939851966e-16
0.1931929440052112 0.17181792742932706 0.47419950129483446 0.0007407097439106581
0.36426799410349386 0.32206494453672635 0.47049280063074994 0.018376821836221167
0.3624073518369819 0.28099667397334627 0.470947393584705 0.004468211593331554
0.30896546335226555 0.2716744836219282 0.4690294323650332 0.0017334511869387345
0.22722685837792284 0.16642548799592977 0.4721019019797734 3.9590021847135065e-14
0.193858665792504 0.1414006625181923 0.46948610723142736 0.001336628131224402
0.13523495344657752 0.09555168821023713 0.4718436520916099 -1.7333192919977382e-14
0.11729732823114855 0.07224439508664178 0.4688870119848071 0.0030475588662398257
0.2965399572637858 0.23815323441893568 0.4711165718829746 0.00013535515296499525
0.23426619713889937 0.18298771357893098 0.46998266220219115 
0.38569564274563023 0.3017287636142277 0.4693453384669432 0.0784681806836213
0.3377667734543562 0.2795082519923734 0.4717010094594756 -8.753703883181286e-14
0.3384259145741613 0.26151022673455315 0.4682104797511537 0.0004267333945011485
0.3196690397679477 0.24262437267762052 0.46843901565415524 0.00034855710030970785
0.30165077305009813 0.22101977153568766 0.4724471564053503 3.0170743279579955e-07
0.20677299318856834 0.13497583057799212 0.4699179391130549 0.0027185260730857035
0.21307727216184474 0.12721719652175578 0.47158310147335114 0.00024978147260566296
0.18797153428085037 0.11709296030140474 0.4707970220022385 0.00028207925032204735
0.15094626494788999 0.0625896217972919 0.4716905653248504 0.0017803806614271015
0.38916910419284456 0.2924680119391292 0.4749542595738054 0.08131324088756928
0.34357055442017576 0.2299485993890077 0.46999383522446186 0.0001124025880491882
0.3298244306072895 0.19224054604511814 0.471568472180917 -5.991498944380478e-14
0.32061792600926786 0.2207468259232637 0.47007008232992786 0.0006683837475372133
0.295686325621827 0.17038983169361074 0.47217578872305105 
0.2786279215107689 0.14110352516736743 0.4678425226829329 3.751770339712966e-14
0.20585766706434042 0.10200501958201699 0.4732721015670471 3.54734380775796e-05
0.1823150203078343 0.06967979721508187 0.4715632342971985 8.996531600509359e-05
0.4033928727909609 0.2762448649835614 0.47258379523111743 0.049129914831311725
0.35946100619939625 0.22797252650793473 0.46963562509606077 0.00038977541588109104
0.21634220272574242 0.08423029492332892 0.476312047872509 -6.525182269381938e-14
0.3923959696463273 0.2551869434668067 0.4707259515958175 0.057417781112424515
0.25962630069472165 0.12461841848469354 0.46885533455970757 -2.262287001482672e-14
0.22909486609957214 0.0694113297693888 0.474826682362585 
0.18866402610170743 0.03515428749489811 0.4693463794588658 0.022467912698345714
0.3899834896772057 0.23477585148976493 0.471928054709279 0.008487000141871674
0.2625178833241755 0.09859206904398393 0.4724451528481322 -4.02704881523075e-14
0.20760668900183396 0.03361075950272439 0.4685451020580654 0.02765058672383444
0.3388763301351303 0.16521440373550586 0.4785550119717164 
0.2885543468745291 0.11781743645849277 0.46839765711757353 0.0006831938148664239
0.3954899024538981 0.20569954913942023 0.46932952591395016 0.1338535649008245
0.33164901246037154 0.151616342909647 0.4800429091301325 
0.2870000509714755 0.09119310617952874 0.47534553488386777 4.08477349270807e-14
0.26151266327396194 0.043130965352374595 0.47402302767663457 
0.31957471074300786 0.09868846224965312 0.47259289974418506 0.006361801587724406
0.34585075915333635 0.08460473742922789 0.46944449119963966 0.003800295914758493
0.3221026320545791 0.0670758475291303 0.47452811123160454 0.0025303307060994744
0.05906100144696225 0.29319513700072747 0.4702121349150564 0.13471198731735726
0.06873523330360756 0.10241308651097837 0.4682517331289325 0.05731600759991418
0.41018534300554765 0.2336390120975001 0.47137022576594534 0.0938097435996568
0.41532382725344236 0.17949934797064696 0.47472949572358564 0.06786396807837251
0.20525820000689163 -0.0013815120026237273 0.4625388730516926 0.025299772294239204
