x y z curv
0.45682734932427016 0.08763294549789621 0.43474963273825334 0.031203652010432608
0.41947813257813826 0.08442718738004709 0.44304310330148156 0.00708994371081604
0.47064043795079835 0.07005395684909724 0.42038792195500907 0.08335410193896106
0.3826034963741205 0.1312044592542956 0.45695857967676495 0.003189357798021298
0.4397573178460838 0.11487317306766531 0.4551094332396159 0.018071570906283564
0.4522499583486665 0.10149750687873671 0.4468788689966149 0.011418294251433841
0.39990012991809143 0.14017009322244756 0.45726779024452924 0.0038756168035556557
0.41568429775431576 0.1434829710578587 0.4580791074114081 0.003951831335432024
0.42859842420177646 0.1440298521600603 0.46177110283742884 0.0004193661427515727
0.37174212460795336 0.1416613574639829 0.45849386145985455 0.005418525848891771
0.3694489610115914 0.17308745104359766 0.46118709179204237 0.006027410587714336
0.40214695523738553 0.19555750730084923 0.46550892819047957 0.006911489172266129
0.39251883609722715 0.16882930175973057 0.46782005644549285 0.0002975018702322895
0.42696452887898545 0.1685122075376314 0.4620538666667673 0.005869633510916389
0.4544778096644201 0.17009849211921524 0.4634343379279902 0.002207330523654797
0.5035796989582564 0.14719688597784625 0.46577410731013263 0.012189553738964173
0.48319134387747353 0.15042434167816818 0.46907037888381126 0.002835326651107024
0.5126689933741353 0.1696574765345966 0.466175826165964 0.011371950486152527
0.42455988591168203 0.19565965841890645 0.4621653257684877 0.0018090423085915597
0.4930499034417457 0.14165687801352567 0.46071451611050684 0.0018011647751867202
0.4684289354665156 0.06884996703304111 0.42406756020868164 0.08127152734972672
0.4665735246434242 0.07351357234215382 0.42823326466422273 0.03844470614214108
0.4967280387549228 0.06819169415837724 0.419761671797067 0.03880888795688529
0.5129937565156578 0.0904518177584952 0.4546471582461147 0.0065319121480984475
0.48255205590692574 0.09162761024166342 0.43988724813313235 0.01018288053382049
0.5400288967018193 0.09386956224771824 0.4417713967277974 0.02720962522745615
0.5519211681561111 0.09018780399240015 0.4458802146655993 0.035691283998072636
0.555490024191025 0.0766888524504011 0.4392205690565289 0.08918006894444144
0.5438670549059986 0.11265993578139456 0.45292097034346385 0.019378408830698746
0.490640649570212 0.06339123606487462 0.4157242209628643 0.03594809619363529
0.49725821157672717 0.07458661981040697 0.4268573681990864 0.03558199474852421
0.5062215773421704 0.07522932826581537 0.4318511346541417 0.03294595070255753
0.5350213392276607 0.0724767124703412 0.43238934978539023 0.05906433259409448
0.5301623032379968 0.0655103094490955 0.43069727821981707 0.029765460822822717
0.5085856876990926 0.11051302712688421 0.4563894301860951 0.013889157917615597
0.5591547996711648 0.11288710481957426 0.45817163399744265 0.006474398346010941
0.535986612859067 0.12115074665327427 0.4562222897663345 0.02257135475976218
0.5222663145534451 0.13975005545880825 0.4574902624838837 0.005646835920063229
0.46206949141856485 0.18398452831223658 0.46235392058498875 0.0013140975794371996
0.5041940924585566 0.19704307525781506 0.47028052021873173 1.9556580151034588e-05
0.5389283100782808 0.16614601877138027 0.4717858103925417 0.0032701529417660307
0.5436752910278994 0.18257099373158034 0.47317496707258927 0.001867054827222829
0.5413788769061852 0.14331626507276712 0.4650323389865367 0.0059344409902745985
0.5556875253905158 0.1712236873751268 0.4772571556813546 0.006768994540155922
0.5573210986012458 0.15342604337765767 0.4720141006993884 0.010427226598784568
0.4671734243177121 0.22056585768740722 0.46325151398479797 0.001853952228042694
0.44938302837154215 0.2091607104763882 0.4653709342087817 0.0007826637587380486
0.4189705971069569 0.20632661700613522 0.46273248586868126 0.0012956595862687076
0.3590269512616673 0.21431063855666485 0.4618662237182326 -2.4648261818183564e-14
0.4414988895730811 0.2398546221112769 0.4663249719303338 0.0003737029977759317
0.37576407334262435 0.23287211939436325 0.46106165847004865 0.0003864798802020233
0.4081931456994464 0.2404265270154755 0.4695861391303047 8.15218438244261e-15
0.3856356735677507 0.2887041783549547 0.4607163018698657 
0.3740253787162872 0.2832110162355449 0.4575196748262388 
0.48936964282101447 0.24696152749458772 0.4681905336864375 4.4997284950399413e-05
0.5146863291104321 0.24355269977573887 0.4690795305867944 0.0015854590209477173
0.531725456394776 0.25317048306830325 0.4760378107983686 0.0008294068257080303
0.4760208269387626 0.22494363663603548 0.4642118760190698 0.0029423392472472847
0.535518332710882 0.20708251439582637 0.47346462967560293 0.0010507966276531344
0.5142007884405593 0.20714094865601107 0.46932454345634017 0.0018718126776148555
0.5220359861637289 0.2763891011236402 0.4722610192800593 0.0030283199837318735
0.5041053971872478 0.2775726172684973 0.4671110502480609 0.0014328641683578971
0.540360883714447 0.28311639766309477 0.47425972502797065 0.0030784644456316214
0.5521002400341996 0.2969871256671353 0.4741579416959591 0.0009530761653244014
0.5031808475227733 0.2180505730141354 0.4681659562237466 0.001240569766652708
0.5324325731872018 0.22454680237178468 0.4738564357253334 0.002163601004942835
0.48405468379649724 0.22587321667886182 0.4648994537442219 0.002144104208334819
0.3828813373196232 0.3446233308180285 0.4599018687530867 
0.36430441349125114 0.3308733561583238 0.4581916809101677 4.0673674721299935e-14
0.46108942843216444 0.3496468286311956 0.4656256163610585 
0.41918991023012336 0.3342748186290884 0.4677649816002158 
0.3684670377082576 0.40646392487509636 0.45031526441459657 
0.4199933121757339 0.40681971221021335 0.4584177141620135 
0.4506769558979253 0.4231374074375917 0.45934558756086297 
0.5194486038560469 0.3740327930938312 0.4671593150459991 
0.4932328362277403 0.3027071771467398 0.46796947992022336 0.0005987998168690362
0.4705249553742353 0.2988600559404598 0.464876588994728 4.953911552850466e-16
0.4711051433024434 0.32352463437113427 0.4662141130127311 0.0014739670907559469
0.490378105715299 0.3430186003992931 0.46507542282984515 
0.5397468880703918 0.2329549753186199 0.4755010419430865 0.001956105735290444
0.5238869407547531 0.2976583860384181 0.4738473526992425 0.0019006182938551086
0.5508071990749405 0.430266947619128 0.4695116453128522 
0.5311379011959979 0.40623378784258857 0.4648220809075627 
0.5217576781911446 0.45417885850176926 0.4615157846341347 
0.48136002744875983 0.43258020628793237 0.45686890901251637 
0.3833233864411876 0.6246889569820065 0.7614019939803152 0.015362477865180073
0.40146651243291365 0.6226057212494124 0.7696697676452795 0.005135312126738177
0.37635723029485113 0.626306665236238 0.7721240361082826 0.017431538418672704
0.3998667501484193 0.6286362007659672 0.809704213442605 0.02186347559439055
0.3818745601820984 0.6222543134129318 0.822357312554708 0.014995828236185138
0.39841301617308056 0.6273628840227391 0.8008687773139749 0.015411870519262197
0.4233596156720243 0.6236595646479804 0.8058763416956799 0.005489402190915655
0.38866133367518635 0.6302969913233124 0.7949100275154454 0.014198919621722584
0.3745105361067706 0.6298580829231664 0.7944963733715344 0.015019235434385237
0.4579528878605051 0.6304548499376935 0.7473895733240092 0.0032839728894565544
0.38130592856638235 0.631059437106396 0.8792434547303821 0.013425760842098615
0.3912104516431651 0.6362040027360151 0.8967401356376545 0.013304728230272882
0.41356524321127036 0.6261554622817063 0.8877293739402652 0.010745631488502258
0.4084139369538748 0.6237100472783629 0.8847272943168827 0.009788824016151085
0.43851063619527353 0.6300724508002816 0.8671775551360447 0.0040845223743999895
0.4296305532028758 0.6316316387508961 0.8818923468914922 0.010582609255066591
0.3791009043200475 0.6303569865176746 0.8964924127204892 0.011293999610273334
0.42624451871963576 0.6385070024981421 0.9206349645992483 0.008781784557846981
0.3870452190681703 0.6425044155746432 0.9105933680552298 0.016355388327327948
0.409445080169264 0.6409102505650146 0.9162445436901463 0.013829453964241432
0.3609567097944646 0.6357434341013521 0.9058422429225642 0.012577514291064726
0.4434738306961378 0.6212321132286154 0.8235617810623579 0.0027348204410156548
0.4331597265500875 0.6256026494317773 0.8423309514952675 0.005368519646394889
0.4077086525314111 0.6251703527964655 0.8221359849136478 0.01154601872123701
0.3778663213638354 0.6279227429838459 0.855651716082046 0.008299233345871836
0.40628692487137763 0.6251393621187035 0.8593283882645649 0.0057963335414822886
0.37960311182775436 0.6180205497434906 0.828198134688813 0.01149450385494662
0.4262466357484396 0.6256840386646793 0.8532829122679656 0.007692412674364716
0.39574570761582956 0.6281447610584424 0.8480040212513431 0.010168639116384888
0.4193519542019086 0.646339586441977 0.9515367491190344 0.011508754553432074
0.43145080016582066 0.6405358040887955 0.9336698011617423 0.013821381411414055
0.42301640909845006 0.6466587089769649 0.9512042257309584 0.007734847515188761
0.3803817455675771 0.6370568129234125 0.9392949295631186 0.016798062763984954
0.41016003414558355 0.6465553581746755 0.9395343884142388 0.018058904454514305
0.3758745956822513 0.6366448909203959 0.936123179967855 0.01920495246731146
0.3880526213815985 0.6433872909511711 0.9301026302315303 0.01576579490046575
0.4480489889795425 0.6292668065200058 0.894938322875451 0.018261947498829718
0.4657201681849109 0.6288260496278041 0.8903423049248956 0.01453808791355082
0.4815574834855052 0.6224587307064519 0.8722494138420127 0.010901098196952494
0.496342385712001 0.633396968144552 0.8948941216420957 0.009458778958938832
0.4517715567918802 0.6222024064499566 0.8026838073092847 0.00570760930882299
0.4452433424118867 0.6254068161816944 0.7987783606343618 0.005579277190625264
0.4737938228051845 0.6273058170581619 0.8260518896707918 0.010808770874533722
0.5146575505984664 0.6213548344807278 0.8202097336270284 0.013718134795571404
0.47562467600980435 0.6278817311896799 0.8178008567837415 0.00899934417598061
0.49839923820948495 0.62098093690404 0.8131072696677792 0.010044726920027322
0.5118900804848078 0.6233316020819507 0.8050397868328102 0.011127025694314265
0.47851007516237093 0.6248502004659152 0.8035080484872177 0.007346407918803446
0.48505378484391404 0.6237144295860111 0.759858678929796 0.016175115412312736
0.5120898923443165 0.6145002599691636 0.7651028119412108 0.0091412863669701
0.4901075123366528 0.6266102997472667 0.7708875626964518 0.08446077478426825
0.4824940561257303 0.6263447332346347 0.7849615770042571 0.010292546352728704
0.45908728699539775 0.6233376453532578 0.7946891905068173 0.005887307777761183
0.5009762034873606 0.6260370239885161 0.7775176302048945 0.08221616470267662
0.46692087680062405 0.6210922845343905 0.7739656059677817 0.009488909576329809
0.5129792479168029 0.6186669952022548 0.7844068450916929 0.00756883990315255
0.45815233200315436 0.6245166168189368 0.7728622552532151 0.013143132568928566
0.4644542841098019 0.629536460759961 0.8405863129273419 0.010503197092409357
0.4423506140940857 0.6241380931369835 0.833679338043944 0.004127506073007836
0.5017399456435907 0.6172214430759813 0.8358030201930525 0.0070338703953445585
0.49207080761567923 0.6196463657816355 0.853417010363033 0.01589583851730523
0.4778557390272475 0.6260272745103447 0.8505230613132287 0.018564449209882584
0.5139323911325712 0.6272114290802308 0.8533693470660247 0.00919719912780212
0.4317392772215754 0.6363748427970396 0.9108447519066526 0.014268758033726837
0.47581248739438314 0.6371329432485994 0.9272502230824358 0.02033873947673532
0.5099940945609247 0.6364468225336564 0.9268152118040203 0.009551372611184366
0.4891935592962496 0.6435381668542915 0.9290269353887516 0.023046418117049484
0.44034010694525066 0.6492021330591368 0.9491008346247853 0.006939208524611253
0.47270010422011405 0.6482628074595368 0.9449275496205063 0.034475440489913856
0.48301080097057236 0.643696115550288 0.9434567125507797 0.024417717329360315
0.4872505011413355 0.6440318843998356 0.9546591638694791 0.013654904057110095
0.4897130662889186 0.6339826726814176 0.9005538399556119 0.018565319072158897
0.4975760850498841 0.6400063407526383 0.913136847039912 0.019104872178896885
0.5067400095307564 0.6292625203826239 0.8936487196040899 0.011710044951794054
0.4929102236622113 0.6382785113337851 0.9081573755226947 0.01636547839090916
0.4619409487649574 0.6268475813968472 0.9162634337148899 0.0035311012849279784
0.4607514663287639 0.6484948825206309 0.9480070645662481 0.027775994765796706
0.47303394924362224 0.6256425314958851 0.861813269281535 0.004800132416709744
0.5156509096649532 0.6255533663742159 0.8711197829811334 0.00616824452710963
0.423062533619016 0.6578341335879407 0.9603862806350102 0.007492977783475462
0.384782962024797 0.6477130865238591 0.9695810190630249 0.0119677136106844
0.40601601706989565 0.6554129745405838 0.9637751668947174 0.012882487310698704
0.3711401042694532 0.6578740209298033 0.9622236051348438 0.018324371196794573
0.4352120997276106 0.6632287715108339 0.967785143815737 0.013189094982116657
0.3952910750167875 0.6588012413754494 0.9729714668345233 0.017525801956510278
0.4513396021983917 0.6573545912140734 0.9655999584062004 0.02702374461117716
0.43951715818302356 0.6654058025689664 0.9777854250867263 0.024891624878804954
0.47250745882785866 0.6449305223287166 0.9774781703629241 0.003039492097803522
0.4254499450348854 0.6664955940078865 0.9819194586292561 0.012086774537918874
0.4477338882829384 0.6614405859599118 0.9710256733283964 0.02910224110806069
0.37367245320529424 0.6697173232008243 0.9879307774891535 0.011217299780091443
0.4033284497472818 0.6748746997793442 1.0102277186934654 0.006770287721335221
0.4304110033456455 0.6780569641757129 1.0008978400277468 0.10396787606019224
0.45210599078057007 0.6635550308905385 0.9840596040648132 0.022414634388420406
0.42607390667234213 0.6887457161304369 1.0161955535536649 0.15291949284340922
0.3880852345057664 0.681568549265424 1.0145840401088575 0.09556175886525396
0.36753431650050655 0.6830462708912047 1.0085508117572783 0.04002286145715316
0.3657308763694535 0.6937737414129778 1.0191104044535346 0.11161199953694169
0.41031916194129514 0.7003976324649701 1.0272672033622328 0.240639141200616
0.409278817702488 0.6728529488080099 0.9972236198678464 0.004628807965266659
0.496967023365839 0.6654286110287512 1.009616503381701 0.013396119218073729
0.4659501803024178 0.6808456143700942 1.0114702194889327 0.12882758448733195
0.48792892354853556 0.6809421546415519 1.0197389254942755 0.145905347733413
0.4472838876364081 0.7050466194971068 1.0289583364651234 0.13386688929362592
0.42810304998745663 0.689756237086352 1.024434803074421 0.14353786265040944
0.4583522463493258 0.7019853864234613 1.0264773655786392 0.1702161126687478
0.47046678699466876 0.6765376575225641 1.0057589583970532 0.11141333456048885
0.4496300765501577 0.6649981994482527 0.9986940449125574 0.017996837642773305
0.5103760408702194 0.6474077513003167 0.9649260257438761 0.0073389731866659895
0.5735180697532178 0.5764536166290355 0.6732508594184746 0.010714833704745387
0.5537353451161912 0.5345342109205161 0.5176513573520118 0.011485129781541033
0.5646065438749356 0.5326022609752535 0.5043658884364726 0.01952346147036347
0.5479687829120372 0.5448106655902899 0.5550583914188456 0.0066099781849003865
0.548904592199797 0.540886217652853 0.5432551807943781 0.009671462435034863
0.6357277692070844 0.5498134355248202 0.5010994402642404 0.008225017445627156
0.5563565855045327 0.5623877023503908 0.6310454013650665 0.01496073741045484
0.5415486922475253 0.5671983087042243 0.6447501087089095 0.005705805081717317
0.5525086636181844 0.5723939028331709 0.6562845210164784 0.0056782553742968445
0.5405994512661452 0.6008451060032309 0.7227867756434595 0.008542359131798738
0.536420168316542 0.5911804615815067 0.6943028370364787 0.005586167903018305
0.5387299052721631 0.5959504784998163 0.7082745394075955 0.009194143190111049
0.5051313220877786 0.5976435852809672 0.7059460917489013 0.01628338855198809
0.5323091304344837 0.5910729975636801 0.7043919730888534 0.008130621919321412
0.5582364250663331 0.5812989658347538 0.6733312674670945 0.00909844166702219
0.5623823194075875 0.5907536600904775 0.7034885536987268 0.011281100002721022
0.5411592364645952 0.6074015036690043 0.7291162448917906 0.0867467040379777
0.5524288039623131 0.6117015914495747 0.7353840199695185 0.19259926455203202
0.5543029086840373 0.5999792689872905 0.7155321150521708 0.007245979347393961
0.5338845255726324 0.609304286479647 0.731958953275831 0.11760515783303306
0.5774424407632981 0.5956535759849155 0.7187531389880096 0.0802273307182683
0.5669641405589079 0.5946092708187746 0.7231405163590784 0.01914528236746343
0.5991266852086979 0.5735647379490604 0.6633393874552339 0.00019837777973415812
0.6007031558856096 0.5815857612915636 0.6893065671825376 0.15696099951532788
0.603126287255833 0.6047961713478228 0.7125982269417099 0.18148283061195813
0.4992592935531834 0.6975342651082085 1.0347667380838037 0.086783826849093
0.5394312198082885 0.678076137340696 1.0211266973270896 0.11456249327198147
0.5287951632274808 0.6785951318037514 1.028740544664467 0.09679746265330341
0.5099310260573141 0.6641965955118503 0.9957772593630879 0.013756290141570343
0.5115472697150332 0.6373175017936832 0.9310835556566587 0.009486012495343392
0.5467288167213189 0.6481348360048316 0.9472862056445304 0.07820011543552421
0.5537353493822692 0.6595462369846106 0.9790806855298774 0.2419197860250161
0.5470477449057009 0.6537981282466799 0.9698170819976426 0.09536166584093686
0.5687585368933941 0.6574245074466716 0.9615693865752866 0.23245616512948825
0.55300361746488 0.6509195660852953 0.9453662373030597 0.17032321331127062
0.5360700331337235 0.6456647313721969 0.9295276914666177 0.002922745498488712
0.5541950964798935 0.6409776447559346 0.914908474788488 0.008447843717698387
0.5388727461778098 0.6309654120662417 0.8975761946747326 0.0093161832182075
0.5432166040331023 0.6327359164318265 0.8812981217528181 0.010144829179690293
0.5632954742322308 0.6263053791107063 0.8823061133252953 0.023953821663938633
0.5478093239426881 0.6261383004005033 0.8661346647449775 0.004477395742938821
0.5595779018613725 0.6227585952257887 0.8579043022479014 0.011741531490665947
0.5512013162327853 0.6099421499749924 0.8256637573754159 0.007614988294024332
0.5485600637402018 0.6208736401681991 0.8347114374214978 0.09392956575646826
0.5633972396515828 0.6144847581617464 0.8280792734141874 0.031722069676003724
0.5615749631895105 0.6138269221947983 0.8218307814436218 0.028208497376358246
0.5262940235297515 0.6569718026162904 0.976244948783925 0.1784477776595001
0.5335981957546325 0.6544629129073878 0.9665259822222437 0.16430503292152046
0.5296083383704547 0.6444307836131087 0.9374809802624599 0.0034128685536445624
0.5303363209991923 0.6411771245253399 0.9160298275471765 0.00873584553565044
0.5688574291793976 0.6672216520403106 0.9911445414536317 0.22040522433043067
0.574961733877414 0.6651496879129507 0.9911371984035616 0.14368920959715734
0.5738911920868423 0.6618043111057399 0.9781592692720614 0.16687091053033978
0.5668061837437406 0.6536484627750733 0.953353718790529 0.14487511320133262
0.5746959446533972 0.6453628684096083 0.9028675140092844 0.11087158384200622
0.5942965928608276 0.6585617911942627 0.9194657929058412 0.11893076413770648
0.5647007285608147 0.648930505237601 0.9341480131577886 0.1770675197408542
0.5768277775612372 0.6479582018709646 0.9379618519785153 0.17251195841163103
0.5924085188278664 0.6555889199437046 0.9341307763055983 0.03991051352574748
0.5109047783481954 0.6300164303061059 0.907358969877819 0.009196696157963945
0.5249579734307436 0.6332644265231568 0.8978983961143459 0.010094808399735533
0.5350611044358095 0.6317437969694285 0.8898827071921566 0.011441460436598995
0.5339435351763013 0.6273927758374928 0.8526813926368582 0.01547711243934272
0.5362087782375176 0.6266478221381125 0.8459096556264512 0.014340068558164698
0.5191926274225556 0.6261232264576008 0.8352901316227852 0.025447484616732845
0.5997749297625853 0.6334969200146873 0.8420064630322583 0.15118333844047377
0.5959650589520565 0.6256774824662089 0.831207415322738 0.14790856718475265
0.5736026532845052 0.6206170398705739 0.8540733752300806 0.06608930575007488
0.5480495801002346 0.619472073972501 0.7994090744764963 0.008545126787038561
0.5380895448654152 0.6182518766630615 0.7980889598270949 0.008792242945569894
0.5244498732806966 0.6230781807869459 0.8090197916182074 0.017335070569757655
0.5324503530970476 0.6143589000492921 0.7829393763376544 0.007810582737905907
0.5423239412459443 0.616269838307464 0.7796871881972922 0.01375712803518346
0.544879359805702 0.6149239165839563 0.7472881729415575 0.16562656011584528
0.5566219064563807 0.6154178772493468 0.7449757810757186 0.2641473425095666
0.5431686972219778 0.6146870001023603 0.7590302769078783 0.16224270668140908
0.6035984205142148 0.6276244437371364 0.8134283160163903 0.07141632540922775
0.5903239841872571 0.6157761595501681 0.7975458174541087 0.06940885433187528
0.5895907688145284 0.6029668424927614 0.7371440226877113 0.23139764024957302
0.5834533460829661 0.6036971652533148 0.7446503188143414 0.2236847636710647
0.5782718082394612 0.6024572983525226 0.7666299090884857 0.1415735639564749
0.5745729430369994 0.6208061334364467 0.8374546772684164 0.1785158944150803
0.5953353351151046 0.6082470812581829 0.7536028904283439 0.24900376429982513
0.5988107647434895 0.6408861673120752 0.8959364492336352 0.038984400086598446
0.5938480485491718 0.08242525129810668 0.4496497947042436 0.033965263858811164
0.5961887853821897 0.10510452386276434 0.45515571998506266 0.022687159807614248
0.5799658901257503 0.12122034799057006 0.46855895659569874 0.00783798891404802
0.606373502417171 0.12221170439492161 0.4732865507361313 0.00570560258122131
0.6072399917221186 0.2123430706802418 0.4733987212787627 0.0022431083449433206
0.6009513056176 0.21719987911874805 0.47518320779696394 0.0035642934089020824
0.5949713522992354 0.23751220822509597 0.47944501079638513 0.007621133140968161
0.5918064722082902 0.3747566743215715 0.47544562452791533 
0.5727395195799715 0.06044858941293507 0.4371200086128939 0.02404725513445506
0.5744667717074228 0.09953668932519265 0.45545481880785876 0.009055465361110926
0.570985719181543 0.11539648098214722 0.4623305949498818 0.006420212033614472
0.5638253488499011 0.13838904379483713 0.46758540459074316 0.010131539444979298
0.597741173363054 0.08172145002679539 0.43885865916287564 0.03752350134615806
0.5710029215996768 0.14095103563559605 0.473090715341779 0.011000659123309208
0.5702428418501045 0.15299768786371223 0.4761751164918989 0.006594306897364785
0.5884937329665936 0.16460929151681172 0.4722587946335587 0.003908142370097406
0.5767028214959868 0.20186371876542733 0.477919347910955 0.004706772226603315
0.5860916381032814 0.18131503837185978 0.4768650467482435 0.0009056002845115205
0.5799508760249719 0.2079892732246531 0.4784318240663073 0.0036573067197582542
0.5850332503032677 0.24679046716290892 0.48370632613868697 0.003047178163642483
0.5738190038006641 0.26519305960917405 0.47913776297776306 0.003611204656796914
0.5576683179809016 0.2594018442769395 0.47670567654435647 0.0010628374103360992
0.5688016440841681 0.21803613102200342 0.4784432518411715 0.006086478474432186
0.6399899649844843 0.12316333127325212 0.45839494314289575 0.010184148931073719
0.6252087743127681 0.12270620921080116 0.46500073112613455 0.03854235486582702
0.6171542810460073 0.1994438730597338 0.47191354254886303 0.0008859341870115523
0.6357060320616947 0.22270231345185812 0.46739612518102647 1.8772237292654155e-13
0.632869827119101 0.17128314279989446 0.47167267116261047 0.0002004560314437706
0.6198836673848026 0.17636225111061413 0.47205871026840024 0.012483562951691188
0.6233799882351794 0.16259221882850292 0.470748365324938 0.021009295487555216
0.6208221755206967 0.10147840517059976 0.45311854394654016 0.04840198892890772
0.6202764711963822 0.08301957582034128 0.4496584953175788 0.0313234670004205
0.6049985457636065 0.091724891410181 0.4525802385431551 0.02809366702047454
0.6286453174247878 0.15610708850472296 0.4686948466360115 0.026355369459096008
0.6175595082349411 0.18729029884493803 0.47179286602307535 0.010410942352837703
0.6192994333472839 0.2728272077030308 0.472153711294196 
0.5493080427332615 0.3420066983740844 0.47751552361865274 
0.581805833057001 0.3071329373624458 0.47609639227087314 
0.28534361321933555 0.5252456541315305 0.3782358553650326 
0.24486567026877445 0.5471389948095688 0.40182762321977217 1.21828087495897e-05
0.2085384308353844 0.5562619399580268 0.4186129484313154 0.002153205280946828
0.2775561126371145 0.5484521446975962 0.396087014003701 -4.625201409914154e-14
0.2468902508263829 0.5665504103192905 0.4162233149767046 0.013521109440112873
0.23672034380381296 0.5623736742938964 0.4134255682744168 0.016396989279374524
0.2047689026440362 0.5791674266403758 0.45352652010516253 0.007674633295217247
0.2267947712914337 0.5736083789453277 0.43725356788039094 0.003504756093647841
0.24509535527209958 0.575849179681735 0.4363353965531589 0.0031505716137438734
0.23945779143949006 0.5711737979232931 0.42100448799771095 0.008752065965215316
0.2916498784512248 0.571141830489071 0.414304217386114 0.00448947765822239
0.2912371826575437 0.5852756707989751 0.43870333406556217 0.004276608192068456
0.26863800560847934 0.5774616405207637 0.4351379400197866 0.0025673895592573243
0.2382635896838881 0.5829503734624907 0.45197465114596097 0.0026904604579346503
0.2830795678388939 0.5818891795139796 0.43227873066181227 0.0030641802533373868
0.27321971493537817 0.5933781568445612 0.4555257007470077 0.0016406769331395378
0.2615061599662732 0.5905833210363866 0.4599044062933252 0.0017743974809858044
0.22299834919988296 0.5902909055676164 0.4706322842548186 0.008796233476467697
0.2912303282679314 0.5959864782105094 0.4542144606424503 0.003221648983003339
0.2096934777805711 0.5917305067433614 0.48524323037603606 0.010809212162235973
0.2511798124950995 0.5997785322701309 0.47673502251095773 0.009730315242542404
0.23166788773549044 0.59918694058762 0.49546885535024504 0.004231911577060457
0.29468829076689573 0.609529335471789 0.4956738118102812 0.013279043745389072
0.20751894766834028 0.5943197431213619 0.5069219031064413 0.007930545031875616
0.239183162244763 0.5990697789083084 0.4876625024840284 0.009206711182527832
0.24521058038975357 0.6119052432477072 0.5138400703118609 0.022734196764516962
0.23097584869767668 0.6044669048700264 0.5067306169199194 0.003938253615355281
0.20123895776673192 0.5999181628975153 0.5217926604791591 0.010591537790305423
0.26691948455558206 0.6202872791621994 0.49535750815060664 0.0033567066020744273
0.23128318104962353 0.6169578663390508 0.5274605233671497 0.012190048794833463
0.22139877041946127 0.6081064913645953 0.5241620276929673 0.017187910588828435
0.18548048103208206 0.6002634444462 0.5207862100658869 0.03779617394100463
0.24717695702029346 0.6146299711415075 0.5215736856050389 0.026455738284430222
0.2194517498348721 0.6202931128238575 0.5482276889063082 0.01607795819425911
0.2738294206641353 0.615945370768593 0.5206424261040944 0.018640632973201635
0.2966269506575826 0.6216509959132513 0.5136029033212572 0.016246493363850503
0.19691550115193876 0.6187564207392068 0.5619742755647766 0.02122303004765675
0.20889704348070007 0.620353162618546 0.5637905474298264 0.010802524389493686
0.24510361777936426 0.6144578425060021 0.5494858949802541 0.0072180846023899466
0.23005343503821413 0.6224833633616773 0.5650009242015314 0.012471982589221539
0.2944149572496329 0.6368929003232797 0.5553195822672374 0.012622917673343318
0.26902400397738696 0.6329026536137295 0.5598167852977249 0.007017941199050216
0.30671118294387384 0.6348086524648905 0.5624132581925934 0.006266301650086112
0.24713747402844136 0.6270081640251509 0.5840804246599091 0.013993916007703595
0.21783555594422563 0.6214211462528388 0.5900018774180739 0.011478482234753833
0.2535952765872246 0.6277853132553338 0.5924133941367475 0.007118200703065887
0.2795683782571645 0.6377558639398776 0.5826073898053902 0.009238164966354899
0.26088312135469244 0.6275005455035599 0.5705569151858648 0.01222873046103685
0.31141374297498003 0.6340372187224669 0.5830453707172836 0.008593346295596924
0.20670223457449807 0.6177682784859092 0.5960455579217688 0.011299605988621907
0.2326748219132702 0.6335493160410735 0.6019655600072459 0.008820920524366836
0.2178059634845212 0.6346498929830945 0.6316385283576836 0.014749443394531742
0.2345056025120993 0.6260954513089109 0.6181925912830821 0.008661358945663762
0.21964722390780714 0.6410221663752116 0.6483213034948703 0.00428465766055641
0.2520445139638281 0.6439447302888766 0.6629910706762007 0.008667635447961508
0.21751700436470983 0.6403966928816351 0.6569509858020364 0.009755687138080671
0.25074252386328894 0.6350925448561323 0.629684740522504 0.01418174557598868
0.23749154293545335 0.6373794747743877 0.6505586183663782 0.006100700110145149
0.2798176053750821 0.634383588971404 0.6298835322764454 0.005036767152805846
0.2636824793340535 0.6402608441735137 0.6323968651278267 0.013123827458356996
0.2605353028063747 0.6446998141245869 0.6512192390408222 0.010569348909395941
0.25695251924701695 0.6360176747597686 0.6192272735982726 0.015274241960139635
0.26716620061834023 0.6409993012621423 0.616154105757514 0.01793016322401885
0.29091388180067546 0.6399931137492209 0.6144105979926381 0.007620636073291743
0.29774312608459924 0.6473024252510402 0.6534380838107445 0.00824611709320894
0.28451935597637523 0.6457132287163695 0.6584990661206389 0.005408231174883329
0.27837806262638093 0.6465942412025517 0.666013068851067 0.006143142378054607
0.30756459016957033 0.6459880983885364 0.6440215635666019 0.008110933221467175
0.3040970038580148 0.6452279448904663 0.6407731262413856 0.007499323423511921
0.20709297925108913 0.6448429186433889 0.6778091950489914 0.024774658244095787
0.22594346318007222 0.6502039116536302 0.6748559244997216 0.006413547609998985
0.2557927468342482 0.6518318856506868 0.6850653735341109 0.008525075338705328
0.2268948065537416 0.6444271143730929 0.6934352576611102 0.009070805301940474
0.2682481078121424 0.648797279135323 0.6587871057740707 0.005755586438381778
0.2352227859019309 0.6509415303251999 0.7061831961491435 0.010178996275994686
0.22015046170513936 0.6456520539303257 0.7052193345377457 0.01884207770736541
0.1884660093916769 0.6558730682693583 0.7066068666940409 0.012503139505272976
0.24655005902932636 0.6594218456242912 0.7259491250258723 0.009727015816258492
0.2898512215991853 0.6703423089402393 0.6989660316930609 0.007929594081884523
0.30267717162678304 0.6725238122444063 0.721688198399072 0.008201246476452971
0.21636403073643531 0.6569967190859762 0.7273236315374826 0.020250774311051663
0.21168757890495357 0.6594581070826795 0.7523425449436848 0.01368376605798503
0.23319292872134775 0.6665271923304195 0.7435276672341953 0.004545540376648396
0.24315892578057305 0.6603924379698985 0.7400622598644919 0.11132566691688242
0.23033281525144597 0.6549540525122686 0.7245444315265016 0.11017409169323004
0.25471952776654794 0.6666939065894535 0.7585965733176129 0.009650311719250765
0.261762762484794 0.6627590746620504 0.7475805559426063 0.18345309050815337
0.2515530850324286 0.6646220174427782 0.7558966864132202 0.007456122495659677
0.23542070541816257 0.6722946643585789 0.7766201766422565 0.008390387841161058
0.21729601801409038 0.6710736039198566 0.7825443874913639 0.007080208150861952
0.29641025658009146 0.6702897002999435 0.721149435340374 0.007409642782412892
0.27825258584826423 0.673068526296638 0.7499173833957891 0.0064335418668721315
0.26798618197348184 0.6608916399390732 0.7170102820020059 0.0038323445188916216
0.28824803139076083 0.6716147844540977 0.7538840112997997 0.008436292996495282
0.29822787328211436 0.6705789089608725 0.7674095319784385 0.009815594170597923
0.2719780146053186 0.6754745962417158 0.7706880560221147 0.007970919209178844
0.3104624503545213 0.6734943848560113 0.7556358278354074 0.016587371995736976
0.2465125574703935 0.6737414164143697 0.787561848159933 0.009558105336984488
0.21193697370102713 0.6641029356799542 0.7989366047831661 0.011605695232974384
0.23500183845578848 0.6684185006184329 0.7979833345083626 0.011228598651154246
0.25764256661935037 0.6783430883734836 0.8136507293916392 0.006773330076583757
0.24105379629374188 0.6691541823936017 0.7978207765410757 0.01048711843681725
0.2919700261852855 0.6839687053924779 0.7924250279657029 0.014145973423692206
0.26288370483714424 0.6767327767324338 0.7965457678342033 0.005574036094191865
0.26248121930581364 0.6794666343169348 0.8127118237043894 0.007472542382542343
0.302900785816794 0.6796465570173144 0.7866620674394849 0.0183666725261778
0.2956362294738468 0.6828617877429083 0.822589955267451 0.005032306655622206
0.3028691303281806 0.6852111089337262 0.8007140894027112 0.022024221059304475
0.24621547403263253 0.6790578954713864 0.8332076829974874 0.006782990546298356
0.21697099280714485 0.6782873415636707 0.8279868053918923 0.011837586993929311
0.23551433537897054 0.6806246082805446 0.828104189880182 0.009945714456947512
0.2648861753484052 0.6844797852131762 0.8266266803076313 0.007156595778875976
0.2566504376211455 0.6916724664691555 0.85167322090809 0.012589517840940331
0.27861805776631443 0.6845157339504088 0.8369596915448717 0.010998835314177264
0.2715821992996103 0.6837633517069437 0.8313626438673217 0.009263613239394015
0.26931041064906774 0.6837119686438604 0.8401526457735725 0.009877766428055695
0.3050423924542438 0.6958877718606042 0.8426853570590153 0.0027981414168964883
0.12459258678059836 0.4562112862521564 0.4047018817173457 5.942792014541728e-14
0.13724094092132105 0.48055227056487493 0.4004500433239944 
0.18436431646399382 0.5557747053899851 0.431764508246893 0.0020595710956305188
0.15363364238985 0.5413568657719282 0.4201623844477562 
0.31832722650076634 0.5505797508042444 0.39541447943913743 3.946594243205808e-06
0.14762673159132486 0.5609591562665442 0.45640904632570806 0.004854137920471552
0.15416010868918734 0.5667506214761245 0.4647672251367128 0.0032625889609017244
0.17178851357209607 0.5674178811762125 0.4431723089943846 0.0011434224321831546
0.14294618501765866 0.5837533743653183 0.5036523638754958 0.0016768325260088186
0.14236500023886492 0.5777242987580006 0.48461620154758656 0.0005010771270673483
0.16798382829089756 0.6042042840203461 0.5162888409375092 0.012068727369338015
0.1550426233245209 0.6020099973514028 0.5539952374147028 0.02598627357596365
0.13975286751338709 0.5995331127558717 0.546393556263157 0.014792202440360048
0.17151956459313816 0.600423253187839 0.5612650489740528 0.013977323280444728
0.1676362015449662 0.5961488059087537 0.543354822375649 0.0043157420370837805
0.177496564739225 0.6035880333703825 0.527921564871666 0.008496785501422837
0.18596382649621832 0.624025430687336 0.5999696516967246 0.004166542790462014
0.16076164001415774 0.6156670606807286 0.6039185120288658 0.0016991893060551624
0.19069743753862622 0.5929170261770641 0.4769007013905076 0.00180411465263451
0.15196796333335413 0.6131958955315014 0.583248474661291 0.006524769259372715
0.15500456971368362 0.6208583379058755 0.616896176048206 0.0024771996753452257
0.16517890136180516 0.6336343329049127 0.6911996486345959 0.009997165148504378
0.20542433002043892 0.6448127815181423 0.7076271158312019 0.015816511514802546
0.1830774337121031 0.6476441074085004 0.7152070044567653 0.031266657519124545
0.16712873915879387 0.6408523362752396 0.7107340390477571 0.02658421348441452
0.16506517890541322 0.6383134659072061 0.7213174830539768 0.021873675062898862
0.17741985318847206 0.6450808295771482 0.7141351607962033 0.03308709096060232
0.18538560414540253 0.6329618081487317 0.6440054762094141 0.0009031789164500276
0.17096859224093353 0.6297592824282078 0.6581321880210561 0.0013049471787503126
0.1816300819680452 0.6351709157052937 0.6633636861163368 0.0025654133098139097
0.20918062568430434 0.6639481398509512 0.7843304249642826 0.011825440227984072
0.18628777400412597 0.6559454330066268 0.738180916031407 0.013981334550488793
0.19315193968439673 0.6502404224101025 0.7587626789824596 0.25779766233693074
0.2068849424540675 0.655399547478505 0.7429701839893198 0.16159726232446905
0.17932207767936365 0.6525691453831182 0.7649058127099285 0.10277460249553849
0.19314019066671953 0.6553404645284397 0.7816434533304069 0.16204751411171234
0.19015743214129893 0.6668340722423601 0.8143903327201194 0.0037321117919797415
0.17686965573700597 0.6699579497259771 0.8452097563814652 0.006265197994008498
0.19899314310940663 0.6706068756925525 0.8324784492718975 0.003564211815492223
0.1925896895485615 0.6719220599624245 0.8779146302552118 0.13865297641464205
0.1855544210100555 0.6707931838857231 0.8504237166654995 0.005750961320031262
0.18642201971110714 0.6745413614660187 0.8645644964928991 0.005367827120765832
0.21026108501809626 0.6769510388864236 0.8667177215191391 0.006401369589153865
0.17746071388239215 0.6584896843536266 0.8083730241952732 0.00493501047924676
0.20206270065244714 0.6607709438576211 0.7919124223198833 0.012918819586252087
0.17725393464949848 0.6599171322091056 0.7955717330249485 0.004156938425381099
0.16170258738805196 0.6555806899943858 0.7863552015881242 0.002867277360359226
0.20413851745027986 0.6791870104658695 0.8678311276816025 0.012524639083626764
0.21433598010219893 0.6808502241303087 0.8573174892420801 0.00924040914392582
0.190051757750151 0.6847580572681362 0.9058019728375639 0.011638974080269489
0.20999546996799046 0.6826722657319632 0.8923970743230791 0.010091030293772134
0.206589829445973 0.6974425514575249 0.9209171899098476 0.006414745576139116
0.20314671668584683 0.6865069093149893 0.9007089370746432 0.01098716955591756
0.1902829202125585 0.6833895297779783 0.9149864028257613 0.010606292226674944
0.21974611093747776 0.6968787407460678 0.9415134318043159 0.016073736735649862
0.19483251738092136 0.6924204498044599 0.9421295843971363 0.010270396615311355
0.2060895268098801 0.6996992412306243 0.9544265061186397 0.00832780304469878
0.31524324239991663 0.5807255673587612 0.42086989723387036 0.007935246484048546
0.3029935836238605 0.5792020909180148 0.4277696679359256 0.004630634672621132
0.3135499262423753 0.592207530516965 0.45167174340163574 0.0038389218518479857
0.3073935880712089 0.5942955383491222 0.45285299349066976 0.0038103739015587445
0.3253801857600743 0.5919179335924561 0.44799558287640967 0.003131492607560164
0.3393965490914038 0.595485177882008 0.4429080684100004 0.0013316474832392913
0.33816110322427523 0.6197773058735141 0.48605832981144353 0.00730807556633446
0.34074001804692267 0.6140820187494848 0.5030946007453643 0.02335640844806631
0.30945416569654094 0.6144876262648015 0.5080230014308843 0.01716856668034474
0.34027989826959854 0.6141427367728912 0.5078321724129419 0.02244009460576272
0.3661027517710828 0.615994592203169 0.4870171842299953 0.02034927287536057
0.3594300009971221 0.5780402507914401 0.406092515645192 0.0019045003847184127
0.3438348313909905 0.579685069059403 0.4193518410642379 0.008384792531664456
0.3445816714050189 0.5741637778030384 0.4109012397789207 0.014452353814470464
0.35711469871434687 0.5871433189661768 0.4301666911245122 0.007259439878247782
0.3329263843454826 0.6015226167275943 0.46296202858772467 0.002738462795443904
0.32476825637645224 0.6274563572262769 0.5643486119361115 0.005271316275802969
0.33145195028438235 0.627951044180266 0.5568701173746058 0.011781153748233523
0.3527933198599662 0.6305448351776903 0.5637307891785895 0.008759214401528104
0.326970829726603 0.6345913957772991 0.5888282455178941 0.011310939908036919
0.31409567714262115 0.6396207294079629 0.5950733020088068 0.009991518134881913
0.34773225604011126 0.6393783217112551 0.5981587431497106 0.007983062648467413
0.3433832021177304 0.6380189826094499 0.593851943882662 0.0038231848313152908
0.33097945607854257 0.6206372677213915 0.5255353791711802 0.019032892540636292
0.31282080681989693 0.6171894774290505 0.5245404668325219 0.005849304223916192
0.34429603339392895 0.6146034634825024 0.5151607004222927 0.016682191744056662
0.3524214673139655 0.6184122075325378 0.5368128853966934 0.010911299426698266
0.333761148102215 0.6258936411871491 0.5351876289158538 0.014675024621659356
0.3594835725798643 0.6452857309497436 0.6307670114250402 0.007512589166868593
0.3405247975698239 0.6557733685777153 0.6507397799074788 0.006835322853414622
0.31931588456617427 0.642097338988176 0.6259396112278393 0.00621816143198445
0.3536286701884276 0.6465071837665614 0.6345769241006086 0.00997013173510362
0.32470674728526655 0.6499480600063746 0.6405725874763816 0.010725465235077362
0.337450255256637 0.6484015388669192 0.6149365915798823 0.008767895981196209
0.32682495114447063 0.6501680270092006 0.6695352188747229 0.012628397960921934
0.3162726444818493 0.65848943233417 0.6793194121421609 0.01419668239047866
0.34774792991029546 0.659856148740186 0.6801970527227713 0.0073814390448758
0.3515890142076997 0.6655318252769222 0.6987522788628991 0.00685694305763021
0.35496442968157466 0.6544629863532935 0.6733156140515605 0.005494334885404885
0.34202835032978696 0.6624710499199488 0.6958534300016592 0.010161805586894236
0.3359237914846182 0.6652256359395408 0.7087736010797678 0.007200695591676038
0.3289124225610856 0.6566737588983186 0.6842374215232119 0.014921042614724296
0.30692008912325836 0.66951029606199 0.6968426066124926 0.006001078373812425
0.3338256504368456 0.6726664999679073 0.7204967430445665 0.006035682669191051
0.3444269558186837 0.6663504547243031 0.7079463295565986 0.009280246927416727
0.23352234095265528 0.6935299424792131 0.8517238607953702 0.011805034909954987
0.24279982802010525 0.6941294048518477 0.8702603206416782 0.02073122615961209
0.23814789194607827 0.6901981121623908 0.8938556269815715 0.028539307101136828
0.24848560522966642 0.6906252359295815 0.865330283846867 0.023156627925100096
0.22943860083016818 0.6975127095839462 0.9011836879285018 0.026043140490534643
0.2716162220419113 0.7010413346987209 0.8776519986527028 0.0077100356146594575
0.26486317505044343 0.6986067488358104 0.916882240988696 0.018495965893215817
0.2678986369210591 0.7036342111069767 0.9240678577395275 0.018270799666204283
0.25122131072477905 0.7047225214125376 0.9397276544801976 0.029643091852117866
0.2461074663138037 0.7133787297739945 0.9252949411928871 0.007628690437524288
0.25729926815365073 0.6951389489694271 0.9020753554974069 0.02096989388478692
0.2543113463795137 0.692592499212401 0.8796465906360796 0.011127953871327432
0.24807027721274222 0.7091798109611235 0.9627361753002261 0.02220990045649711
0.237918389105287 0.6999582774023607 0.9385505250119768 0.02330660214624431
0.24608751307193585 0.7054154372453229 0.9395597039566734 0.030897675593429687
0.2831746091076266 0.7012041342647757 0.8928740420162842 0.010709566746722422
0.2837265623475043 0.7002161821484764 0.9157945493110036 0.00919526307148947
0.28836268505017737 0.7032099708577506 0.8955916399988371 0.009723510166531224
0.2705491653874359 0.6931864481352207 0.8896746186313488 0.009443143086601656
0.3013175298231248 0.691605713956767 0.8595245845205917 0.008299204843826093
0.30220346591170194 0.7002298134810773 0.9100573131482665 0.012378190299307203
0.3101493390663529 0.7078323089364617 0.9272204577089583 0.012133712258794093
0.2985503424331629 0.6981423915098394 0.8916948991006164 0.017205127832657374
0.30859867291967696 0.6971882313949032 0.8852837068529644 0.013850295515261702
0.2856991242751258 0.70691486774128 0.9365613044891632 0.011374587639733143
0.30495064974201613 0.7082269832756204 0.9217082287722342 0.011876395037281079
0.30419834990269873 0.7033329861886112 0.9356162645708667 0.007687487701971277
0.28733181306123384 0.7104986641985257 0.9595718567122505 0.013825746529852542
0.2840471095879183 0.7095306684883488 0.9516095802214856 0.012259496546728818
0.3047722393398655 0.7078260308128407 0.9580310546576408 0.006669904730344169
0.3200119371410763 0.6498120574569032 0.664174096249476 0.0073394052285982985
0.35663185872993 0.6806115130916826 0.759645977629562 0.007356302056804066
0.33235847553106496 0.6738301012936895 0.7451516896724651 0.008215822757336766
0.31272371212770805 0.676354589436539 0.7594417124991956 0.014592155080726671
0.31937387489637625 0.6718640521660956 0.7406923120848521 0.01158930391594075
0.32517073056136997 0.6842334743212457 0.7676310535059672 0.013174015342991733
0.3293171435785504 0.6782809999354121 0.759651785737796 0.016361820069291377
0.32399118979129327 0.6911073300294441 0.7813547171369105 0.0103912235182907
0.318166075750884 0.6868338416354469 0.826021968150123 0.016577283109064443
0.35547418637452904 0.6927762878379338 0.8134618760533521 0.02254587973040646
0.33790952021264137 0.6957738578424782 0.8116104840836007 0.018195977401924072
0.3586994136908753 0.6845303203066311 0.801341728653751 0.013303268918186737
0.3364482256511184 0.6810566432580422 0.7861038341574524 0.011342511662007173
0.3503364637780334 0.6862896314042201 0.7659355549662521 0.011432192925925726
0.3489580872142915 0.6819454988557639 0.7728441044428229 0.013895773323652636
0.34007043966095357 0.6766171106843291 0.7336513330502982 0.006670536054857772
0.353315843594681 0.6764080224379319 0.7468527112117777 0.0076017348933602
0.34743091249798236 0.6974952417539585 0.821733943562069 0.01579894217492133
0.3586123746300649 0.6947632617211688 0.8230983301967608 0.02959278307060382
0.3240094656713996 0.6954883793079383 0.8504315251752711 0.013925095140933298
0.3297272110046188 0.6907870267751587 0.8197354189494934 0.021638034940085035
0.3649895804832374 0.7019930500604641 0.8651154538636494 0.02226255715846669
0.34606116041638707 0.689008348783297 0.8394508581876889 0.01447265896372641
0.3450553809273306 0.6952339848406116 0.8614153250035723 0.018679338162451768
0.35969252501650384 0.702935606212765 0.8659005207734177 0.016940215574284333
0.34615377062239727 0.7009251963332562 0.876584608493451 0.020381748247434314
0.3638865326378118 0.7023972049132079 0.8892053213962934 0.02765276335707883
0.33987765091503885 0.7033185659018106 0.9188152730759827 0.02141335621360271
0.3176883002420923 0.7028216381206848 0.8736071618093418 0.015661725256285893
0.331242812599689 0.7126703428265734 0.9014981605621101 0.017379631843532986
0.34758410824615293 0.7146599616592885 0.8936213072539405 0.010634406874506674
0.3185102230981423 0.7042159976001525 0.8954955506050734 0.02327054333785539
0.3298433465255907 0.7030033814049161 0.8818764450903263 0.017445744126437707
0.3383641884162362 0.711161256425476 0.9355007783513043 0.026515249568099697
0.3161721343425607 0.7017871700192847 0.9191901717115782 0.014329137569728544
0.3366083847905355 0.716101392971202 0.9557065146605948 0.009015474920586134
0.3552604520698676 0.7155587472558335 0.9404302215061844 0.012153569850834161
0.32725147242629643 0.7141347654817577 0.9429795576495343 0.014709706372806743
0.3612777931169934 0.7057469053808768 0.9293555182074745 0.026060395341872933
0.352734105552688 0.7116898675879332 0.9579464925154602 0.005601479046539334
0.5438890292945675 0.5134852157208585 0.3909137335236854 -3.705989184821876e-15
0.5341871690153297 0.5346851642846874 0.402504698251188 5.188759762666218e-14
0.5259443961650807 0.5343987634266325 0.40013980789536857 0.0014456226383016504
0.4893330206766662 0.5236116887071655 0.39010264876336015 
0.5424396929440098 0.5488794602036491 0.41797970548418023 0.00017290483799159792
0.45363495043038715 0.563411155174105 0.40981069404496745 0.007211776586494569
0.4700270051854073 0.5546198352305847 0.40768208824024765 0.0032936050307578284
0.46474728734311627 0.5674503131381947 0.41987430292555783 0.005538266280112601
0.49323665629840485 0.5680779130433281 0.42712228784334727 0.0012473713598422868
0.5270673577118614 0.5681839768291336 0.42698535305175944 0.0016605803262762185
0.5149880684275768 0.5772644930576953 0.4373036256238725 0.003467405730135733
0.47494110676449747 0.5654336649119758 0.4214132033781119 0.005953747158160172
0.45341827960254766 0.5688160308408877 0.4155560962227636 0.009623713123567678
