x y z curv
0.13194949937821407 0.4856214513482823 0.6835098910906248 0.009582634011077605
0.11048401585334816 0.48882262604417154 0.6945708676003802 0.008515907345236605
0.1326820823588324 0.49953245593775636 0.7132132319152124 0.01665665075727249
0.12928488631272525 0.46922382601445545 0.6231053073771698 0.003687652075992233
0.074482098339647 0.5137113029999562 0.7514819741982708 0.1284068385966369
0.0622901558330825 0.5302009948863129 0.8011946252906014 0.10990894234808876
0.07122269008441749 0.5000650760951428 0.7277872232340806 0.08449721325424402
0.07148623958679878 0.4994220426437724 0.6890671024536799 0.10514292960351918
0.07172790806525875 0.5037680415380078 0.7124889676892378 0.12743459409848903
0.0666027212644834 0.5162436744925449 0.7386464426668307 0.07330874728768307
0.07621284190449946 0.5245830543035601 0.7724144648606295 0.1918576757326211
0.07698004016810492 0.5135204495526748 0.7533232746309203 0.10873679037202515
0.11495237524178956 0.522704721987064 0.7771725100163317 0.14962578657246375
0.0709874071647649 0.4466925681759685 0.5301189999934893 
0.06598927851964496 0.5025259868448696 0.6760056315543924 0.059741644037193904
0.1621465796751233 0.444270622325503 0.5275049836551177 0.0007250438470398109
0.2503807303495476 0.4585481214500784 0.5136747389075348 
0.2879991624778993 0.4655275785250823 0.5240626773749248 0.010237051315934532
0.18140627996985698 0.4487207144267784 0.5265269131866926 0.009116649313091
0.41765360870232493 0.5240337952062839 0.7762915052093221 0.01590578457059768
0.4256179485943027 0.5186060083260331 0.7706212091351862 0.01592938343746722
0.4216743649655396 0.4600826428674915 0.5952552444359552 1.1747319973159738e-05
0.4213922510988434 0.5161313076905107 0.7643886607350848 0.013653758072352662
0.4220959690110702 0.5037086053333892 0.7287190759401546 0.006598141000848017
0.41641329731409593 0.5049160336659233 0.6927961513930837 0.0029590936668282895
0.4085508678005428 0.4736093619205579 0.6366383716195154 0.009683627362647535
0.41479319219904015 0.4777140745359564 0.6417408042505389 0.008009387541900687
0.41918229902208304 0.4528974236064356 0.5724516449023082 -9.330856674862027e-14
0.4110664732661209 0.4536853809000851 0.5475766042611374 0.011501130057358673
0.4124099476847158 0.5294879471197411 0.8027332920531476 0.010288784080663206
0.13921940380381861 0.4894972853572874 0.6918106641202569 0.008113328503467795
0.15705050000379267 0.45975822072412775 0.5874682671989793 0.0048704482061508615
0.14324526161369172 0.4546757920265646 0.5762325475248337 0.00467886294899515
0.1544531751413267 0.4535354393058864 0.5585403912751029 0.006237083288455083
0.14617691327546803 0.45448236550419585 0.5715826580748264 0.007669632781261076
0.15698649822291966 0.5311289059846738 0.8027518987947599 0.005161030018737469
0.13742434508805995 0.50564956912773 0.743000477747752 0.011279827582766121
0.13141272226709028 0.44938314796890416 0.5477235535325671 0.0028204856937558962
0.15630241635511685 0.5123787530635311 0.751984589386857 0.004346978654652023
0.15159490143380633 0.5228474265184585 0.785577229672035 0.00443322905901824
0.49087174445407633 0.4461158314192071 0.5094328217987941 0.0012969317293491833
0.4978200530204823 0.44756468354689694 0.537521977880867 
0.07816550361168488 0.5396622279127011 0.827763543750744 0.11072910324326733
0.25300609401094293 0.497977386141547 0.6719338037561305 0.013063455094772308
0.23274706410147922 0.4842377901499963 0.6260775128973252 0.0055746274570715165
0.2491270317467704 0.48833379557000384 0.625991526756127 0.004563533662921073
0.26554033466595406 0.4946173134046625 0.6443782014995794 0.011138383309424672
0.2554288881711023 0.5137910454310184 0.7181005886934004 0.01338449339100297
0.23976117967255986 0.4870655701203418 0.6078642609862247 0.009251317378783312
0.2503210237922959 0.46953823832111885 0.5815801194193205 0.01419611499480687
0.23678343700513285 0.4807467276938266 0.5921324279104272 0.013732947890027327
0.2512793885026716 0.5139893066807086 0.7342828510914288 0.013503646166439778
0.25634620068670466 0.49593198442494013 0.6391795563787008 0.009194565827342181
0.23684594736800832 0.5010254467673624 0.6564892503177429 0.006753017138079501
0.21323258326724556 0.46582346459530716 0.582425000323268 0.005308264521080257
0.23743170972075756 0.4668158111934276 0.5641454190322172 0.01110189759298524
0.2047539072940192 0.4589715243994 0.5615513938065405 0.005951381837342817
0.24787794683122502 0.5237284188027066 0.7507152832930202 0.013093211049989105
0.24774355088112054 0.5069634016701681 0.7076769552285307 0.006455343902136415
0.3276719724581351 0.5130320392843499 0.7261046184660586 0.015634745552234194
0.33856399725503566 0.49929060188731356 0.6870271277529556 0.016046896692132117
0.35729176017015274 0.5376896551082707 0.8224963613073772 0.033805312057887775
0.344819937459563 0.5375116209529238 0.8081947624926797 0.013548930208268197
0.3573345218343195 0.4902109287654209 0.628096288806291 0.01988820888321001
0.32715642269933265 0.5211619659727059 0.7549434773148921 0.005668828823685722
0.3276268148676496 0.5434553126522084 0.8093993676777868 0.005088374970517515
0.3584535759296562 0.46045838045510995 0.5442995107821849 0.010093785100865086
0.3572002662563931 0.4833219371028674 0.6072076034540012 0.011594074223839543
0.3666617178452221 0.4886296852325222 0.6497195988938659 0.0070848168474736475
0.3402596188199828 0.5394257926573398 0.8030085470593498 0.012363049137556202
0.3576405956542132 0.5136989261581326 0.7075861730950536 0.012659927693133533
0.34147385404263625 0.5147610759813317 0.7147948531456731 0.014008039626113158
0.3531518234649502 0.5278054313866765 0.7593230437322117 0.008085950555378632
0.35027635413813313 0.5258527864641168 0.773418299323626 0.008243316358359008
0.32488930039213915 0.5320398848261287 0.7756075930185206 0.005290776432265781
0.35253061306178973 0.5178855130854568 0.7299408136417698 0.012019854197225729
0.33353896491780805 0.51890825313658 0.745675832927656 0.009388277110045012
0.3370616823498103 0.5154176889029016 0.7259429011617468 0.012829587246219869
0.3496078001158463 0.4981342284424336 0.6468262627248544 0.010302657897574086
0.3367703147804651 0.5092291061752909 0.7060394199595439 0.011989928347281752
0.2931928629796718 0.46962514265449984 0.5621787682354888 0.012249297996091653
0.27251409243030206 0.47627821192601844 0.5932879227211308 0.0045441532908508395
0.28439620527397036 0.46080886263581017 0.5355882894545907 0.03001256776070117
0.286925939523408 0.48490338915457415 0.6041333687810532 0.004721739536232983
0.29589566543677526 0.4903529073513121 0.6169432847943808 0.007992540794343363
0.28618203240623336 0.4966755463894701 0.6317939770122823 0.008288994583967183
0.27597714214523356 0.5235863357192306 0.7276952701643901 0.014911747750525912
0.3135880752083464 0.46001768862399744 0.511629217342386 0.006719599561215946
0.298966198971403 0.4992830899825329 0.6496251978525479 0.007071582947061272
0.2749306499890576 0.5154189657021406 0.6993057683571294 0.009858294699751639
0.2667156477711934 0.5338898151184636 0.7481157655330346 0.00924688045185609
0.3051888447822078 0.46316142858331055 0.5404939349542118 0.020579835533628583
0.2653611384861263 0.5066889902350606 0.6879854328517444 0.01577061297941825
0.2745253986980807 0.4918198964438807 0.6152974652490706 0.005498633365392954
0.2307747141654177 0.5531172939219413 0.8181879971348065 0.017286741308781845
0.21743051079171083 0.5582418547323045 0.8192585335306916 0.011203262184458268
0.2393838427300231 0.5249843635244764 0.7636139380547255 0.017244403079688417
0.22282385652007036 0.49768746584415563 0.6543348175421998 0.009438171020900454
0.20835053839920623 0.49929325940929037 0.6774937010251249 0.003914798877983462
0.22595574655760778 0.4855598755754318 0.6080272147368799 0.013175287366808985
0.30476164575665216 0.5531292050663856 0.8284067404841908 0.008267685080154819
0.1615542411006761 0.4542633915156077 0.5550882682654678 0.005092201875542894
0.14913455999894523 0.4773160005463239 0.615701384492514 0.003184538394272132
0.15729673386522883 0.49183465549423167 0.6783950792470791 0.008065604742704251
0.15111620198959255 0.5030767530702965 0.7064821203222336 0.009374166350851348
0.4264057301467694 0.49350037665217 0.681572039373729 0.014459080941872244
0.1592660919963256 0.47760148408125197 0.6274833467117147 0.008083864861555002
0.07146494362616668 0.5382779289518945 0.8237042177883372 0.11581301179478988
0.5194797793170861 0.0037817259341140046 0.0006762317223529021 0.13494558579883917
0.5233162919705074 0.024996281979950134 -0.0007274428414428633 0.15876704399521763
0.49908381282667397 0.17229656965151632 0.37637614771792866 0.008262097469496951
0.4983914555776801 0.2530235893547389 0.3718961529022812 0.003215926407901287
0.4971769055512288 0.09662692672892433 0.38513904602525045 0.021948743688959837
0.5032171629435446 0.2037675777406867 0.3807688682292255 0.011922897773971023
0.5033451268795363 0.19179565205610313 0.37393656941237047 0.009291813300979154
0.5029998900454133 0.2559803630269408 0.4108718666581577 0.008275050600755948
0.5025762646367429 0.20116691392096148 0.40017572351698794 0.02002134534855105
0.5003257228500377 0.25230629594001597 0.4030477126413054 0.012618746113198819
0.4964193641195255 0.24146418461028762 0.39463364197484174 0.0198277093779397
0.49775358080171783 0.2787874997645632 0.4108986399582176 0.015840567264192914
0.5003834747455833 0.1869722739413964 0.38767130262035293 0.008391137017243293
0.49970314480049816 0.21993334505571752 0.4023211753527846 0.0121755692981912
0.50684049269 0.2984891605627264 0.4067392686837849 0.018894059224523068
0.5028530047128005 0.1320283756692888 0.42457494320973865 0.0393073199844406
0.4939529898250836 0.09445156734849477 0.40389443397532254 0.018667997157664665
0.5007205057559374 0.14291511006613247 0.42227881709508863 0.04475460028339226
0.4894940733755375 0.26682963316156266 0.4304342298373291 0.03850215562133071
0.4974941143913067 0.10175445268088962 0.43041314033052486 0.050342537106232634
0.4952358465411272 0.104392303114633 0.4368470302192418 0.046907767329084755
0.5006926726037032 0.19279789156807658 0.4058773878533358 0.032464722542199
0.5029925574861474 0.3022498594399002 0.43009769043526824 0.011093232475275857
0.49645140787355124 0.24917590900754186 0.4144403725900621 0.01214550431402769
0.5089818691024783 0.15701667318174484 0.40797098357019446 0.02349431803192086
0.4921535228065881 0.2347125298071068 0.40846046601776437 0.014793764038672821
0.5028691916402156 0.11811671342960292 0.4197326599124066 0.04234681445357296
0.4934510657410059 0.21531303420070702 0.41772885263918186 0.036274504000804376
0.49894641873551454 0.13038205586785157 0.3931760800819532 0.005696957728825063
0.49757086330465117 0.06935685630174794 0.4306307543114652 0.07373973896699534
0.5018213238251588 0.07759974226288371 0.41156430267292726 0.0209350438666903
0.49854781038348545 0.08211410866682951 0.42416715237664837 0.038560592575423686
0.5094668515298718 0.06311063375648358 0.4212732832173638 0.011645170934116687
0.5124979883458493 0.07065839809460363 0.3903654769836188 0.006192996273529143
0.5115563565893102 0.061265439450302696 0.39815653513990473 0.016598420918711755
0.500985351683349 0.07184185468124389 0.3731149176333357 0.0019952151225478784
0.4965814551671922 0.12439491713527487 0.43483211085016016 0.02250819765172358
0.5044448188685989 0.30978003362275264 0.42898172469895546 0.02769493937263491
0.4934069277517062 0.249425946661383 0.4278084209181897 0.029421312500750915
0.4907405249355143 0.17244595954751038 0.4319609420493773 0.03288459590091022
0.49051739367972025 0.23794451848710743 0.42318871943920905 0.024262203512888072
0.5046439039597125 0.18788189400127794 0.4316783778182435 0.006598506658897603
0.48871877459133745 0.15604962541511438 0.43488672280246216 0.021806670902053762
0.5003028404684786 0.11529839742215509 0.4371888247206273 0.03897231242788792
0.493311466981102 0.24478764348425702 0.4267552513977234 0.029543560827885326
0.49307496528143746 0.2829115458239412 0.4186846615680321 0.015906365948529826
0.4903496954476282 0.2628820904024443 0.42468450374332484 0.04536548699061681
0.08078487981407935 0.30625066048349453 0.36660024617950343 0.0009983038330295241
0.0729199303832899 0.2522542470794884 0.3759883079417148 0.002432468956855494
0.07178074584241154 0.27500474049967294 0.3796806001046412 0.00844271500372227
0.08247717243600061 0.16077783240790122 0.37068399920288664 0.02405766651252059
0.07461194489456419 0.30791303154616373 0.37574204722403565 0.00323531785626895
0.08106891917225749 0.1857925803651801 0.37117188211115665 0.018716709093850398
0.07505966062003482 0.11838101883770775 0.3732175488388396 0.01247902877122359
0.1901200166010075 0.014677113304426328 0.377799527954159 0.011702954267932743
0.14562863155116543 0.018085003494571542 0.3765932818718858 0.038539764998639384
0.3170150329586929 0.026037366590878602 0.3748348592436535 0.012811797065711901
0.21010842471056002 0.018888187581606312 0.3779012300649459 0.019747316167392014
0.3225875800269762 0.019005689044411106 0.38436853030845886 0.01648894588437594
0.24081440355544861 0.024331388282967367 0.3762621554801223 0.01738298236919167
0.3088112377842349 0.035799198824423735 0.36665470844480974 0.008914702658167408
0.15471103623565777 0.020621735592105245 0.3741048286125796 0.006568076063447556
0.08305117651484129 0.01479045212652346 0.43896130372949455 0.0549489943729232
0.06753848972834163 0.09403822387495091 0.4348447625130258 0.026887552352351452
0.07254969182244411 0.10921257602617099 0.43070099522922806 0.058401959366195
0.08325101841025559 0.19475011863091196 0.4291749066279553 0.037125441519472065
0.07142412345601605 0.21836680445084697 0.42868877600051153 0.029501418841038518
0.07321009108253222 0.28432358064389074 0.43642033789936496 0.04180780562442633
0.13137925442135917 0.019887999109435905 0.43720904811255606 0.06530302350842612
0.18451299145051586 0.010856700017262943 0.44248074708355706 0.048589785639094524
0.2160283635484376 0.019129032953688743 0.44092068298893156 0.030903001914235978
0.2751686133021393 0.033579244018393434 0.4368532370469541 0.060531374363823755
0.333529517126317 0.02642751720440808 0.44090272013018633 0.00766256729948865
0.34476523460743314 0.022472037777883265 0.4378010633263562 0.010784414991524664
0.35298204919800186 0.019987105021533072 0.4409210185307977 0.011336578084443615
0.12409199633651731 0.02043122069532471 0.4361770115325795 0.046936300985086325
0.3759281048492342 0.02001971571206852 0.43906404809304256 0.01620095877648955
0.4124215787562171 0.012528502616455979 0.42128700203163705 0.028144642024194495
0.3654543988314473 0.028477972933979977 0.4430643468137733 0.037025683068118695
0.0593091531546593 0.054209848389940536 0.44245641734863445 0.0735006272625041
0.4381475783573655 0.01702573319151852 0.38147024182431283 0.003787980873750772
0.15507934720262964 0.018653247471173365 0.3979770743912697 0.02335878662240397
0.3117959458160136 0.015913448380174187 0.3930263170695458 0.03234150433189793
0.47337016605873217 0.016041715473701104 0.3868912186699378 0.013263165836656468
0.09526830976112964 0.011568470243153151 0.4353054078054745 0.05500161393298817
0.09218614310321258 0.008834382530710852 0.4131279637564974 0.053014439245658455
0.15428789579597438 0.014368213322622909 0.4324382705930109 0.033011452476004
0.25558574599928635 0.018799072786531645 0.43793698173015566 0.03480213193400044
0.1474688112820795 0.0190171773360089 0.41629447486373816 0.02222594538307182
0.17222834749776023 0.019823914590488614 0.42600338510951635 0.05521713986238845
0.1327143345021634 0.014553745427769941 0.4191243220125212 0.040870867357242664
0.2482664828045272 0.01847883001763383 0.4299137009942978 0.025872792904372523
0.23139215669260751 0.011920637723310479 0.41664751938370537 0.019775517904187277
0.10852927551391178 0.020172502318307035 0.4236473165665727 0.03863411787975005
0.20027534260359253 0.015520961574430675 0.43412114601304164 0.05387979887819563
0.18266931971114925 0.01728780546282506 0.4247842113850985 0.05261864839352687
0.2192118495870895 0.014978661802433658 0.43040196019421434 0.030665246761078915
0.3198598525442734 0.01671384052058847 0.4291532316939806 0.023523327124394287
0.4116694944531606 0.018949856624261727 0.3878514093002814 0.005910130825534588
0.3569476493497166 0.01730044578863332 0.3947499548316704 0.019653334632213734
0.44908564319782723 0.013948635021056593 0.39893493451300577 0.0028025902742051588
0.25503529021550875 0.01794586071141199 0.3977469569444806 0.02012264744938323
0.18600345032060447 0.0176885958955151 0.41025630533795343 0.008403111617307932
0.47239742370021537 0.020205439210015958 0.4068813433965045 0.00874632525173039
0.33397825319590935 0.005357924894675303 0.41325907749999324 0.009314417196489148
0.17223457154514998 0.022443326228889497 0.40969122217528303 0.015568152162240098
0.3635639682585726 0.01869203595219447 0.43181687850917194 0.0437316991599144
0.21913867652507188 0.010985742486467612 0.39348090728146573 0.012955911845677015
0.20061213361006364 0.014665142386223441 0.4110299664445664 0.019959120628775792
0.4277204455919519 0.018765182990607684 0.42323190906870906 0.025155012914651623
0.37542695394901054 0.010216194157835914 0.424370839613993 0.019573128856334766
0.2965757480140616 0.01611476159447058 0.4101224624775514 0.020186608048752906
0.45574790361610434 0.01887590097294107 0.4099027734576096 0.00951644052753485
0.13843122433995755 0.0176897173873553 0.4115935475810128 0.023910902730654677
0.4042210146339885 0.01678544755322774 0.41063752973456613 0.03216146997591251
0.3103420912773566 0.016118279797792155 0.42473205325018837 0.025186428063919897
0.25100192166055435 0.021578697069820837 0.4137211018826318 0.03034125790366496
0.43402654810092295 0.018580827594696786 0.3996435043533477 0.006222266763991972
0.2807431085468036 0.022330394004050055 0.41385960128155025 0.018496673649870645
0.4454648855927489 0.019031628801467027 0.4217372811094056 0.02236283658234673
0.10510598345677544 0.01668061042753413 0.4114042410797833 0.03289522276583458
0.29338876813129705 0.015058025065134845 0.4279333168460924 0.0348992466450352
0.3576247426781931 0.013288395011110923 0.41458459073450327 0.03805760158814161
0.4921567409561217 0.014369041032239058 0.40950835320178186 0.01534923559160289
0.47342007883519793 0.023089140411010838 0.4171131611099858 0.007646896314205439
0.48830061935112584 0.015510381016648934 0.44427363406425513 0.04754769519737814
0.4535887122004192 0.020914561742997127 0.4315842628351042 0.034404940038352524
0.08487276940267097 0.009377325461557123 0.3930858349281361 0.02276274861151446
0.21531194126500006 0.0104521014901695 0.39370129142252064 0.013683495394681664
0.37793474091288715 0.014003993540089368 0.38218179221310405 0.0013140443156687764
0.3355996760761007 0.01782263768427345 0.37805950148420797 0.01179127086708183
0.12324329167330923 0.0017053444964511139 0.39318957749136224 0.008036664767104683
0.1777110519282201 0.013641778214058911 0.38365727129394783 0.008589803787969268
0.257031586973072 0.015928065960543303 0.3832613467995063 0.021984613015987066
0.27705502548666594 0.0168600447519931 0.3835122878192732 0.008883997485333844
0.35980802644804144 0.018908716180962282 0.37247716773179956 9.70621907873699e-05
0.2817558454675 0.01676360529127727 0.3852076186019242 0.034972882548128824
0.4122146116256986 0.017097239045758845 0.3803080649871025 0.0020868753568400312
0.25839188133065233 0.02323259543555458 0.40551196731289485 0.027573203767507666
0.28498967607801057 0.017472283928701846 0.38412618397578946 0.032243516533169696
0.17173977852284883 0.019808298705845308 0.3916045060702738 0.005878396321702936
0.055267892515079006 0.06719036972198054 0.4032605396430356 0.008173355864805429
0.06575380845395763 0.07254960846517493 0.423325414633293 0.02365710549501856
0.067705961868367 0.1713560395172324 0.3860591482619513 0.00483227479427301
0.07724442449036537 0.2206841320763611 0.3806363970918848 0.00855941122615556
0.07687750233345914 0.20216245665177904 0.37291412382233535 0.03439599165596775
0.07010951995331353 0.2944578713458799 0.39249829011650345 0.037998921653957136
0.07283692067962666 0.193647835365781 0.38260416850402396 0.018413827232525954
0.06931651039218267 0.21380275012029967 0.4143341458583797 0.017126557466400277
0.06811056964841655 0.2806303548959404 0.39337892718382017 0.011271796708157688
0.07195582964391849 0.20750364484447664 0.3925035892162179 0.00960903585574464
0.07550911126563196 0.2425568658640377 0.40654795164185564 0.048626713914331224
0.07563158525770493 0.18205182692266111 0.4028401874123448 0.02994387037227389
0.07497386829894441 0.24316441470929104 0.3950724914557871 0.009723525864682657
0.07219066668363261 0.17666125628004306 0.42929475697818903 0.0259710845311843
0.07205148846639965 0.14198326101439462 0.4306534620632535 0.051561126322210174
0.07683503291203937 0.14614482241264973 0.3921422571762454 0.01682373825762941
0.06722435089324058 0.1656063913835987 0.420522132858887 0.03502187925979696
0.07219075690528448 0.11588995243891412 0.40367294981462387 0.004689648044919241
0.07106399204295799 0.12232360225629396 0.42838797003377577 0.06481213705116427
0.0748147394593283 0.1417899911947136 0.4096280502844225 0.029358980646135575
0.07633164026103573 0.12908241404038714 0.398867086841097 0.0054899426272565725
0.07856183386655013 0.1355146286273755 0.38026330384510465 0.026627573226511388
0.07653539425766627 0.14946691181629462 0.3793095004928784 0.023168065258390276
0.0665190440027384 0.0851388821300698 0.3940367114567999 0.0040902436888807835
0.06955171614236323 0.11024630005813583 0.37615120447215256 0.00602185690080137
0.07678643260632835 0.12096106548630639 0.38978973222878316 0.0039021226290222063
0.07300684863235406 0.3236702810046245 0.3783148227364642 0.0007851448832868949
0.06235753212055704 0.3373207304245504 0.39724561652120916 0.01478130916619323
0.4105646038418438 0.02667389967012552 0.4324721070515973 0.021673338713706573
0.4229909871042165 0.034376872738455085 0.440843082204928 0.02322882257048607
0.3979913485181592 0.020807129884000387 0.4330410938498581 0.01072635731575629
0.43941908276957803 0.028038971631503373 0.44203258228437686 0.034918999419557
0.4999847622432842 0.1342823143341037 0.37221373697149995 0.0006215042814089
0.4998678637597177 0.2837989193418263 0.3902233745832626 0.024301062164151534
0.4973941386045806 0.22364241511749391 0.3831071066684355 0.007889926914866128
0.5117479043352654 0.2907561849100803 0.37616908649147895 0.016005361261823354
0.504045894847802 0.31143330571251626 0.39581720359738454 0.00607386933238892
0.4995452838311769 0.11550280847511046 0.38496017361918883 0.005823180897627879
0.06988407994070225 0.25778876939901246 0.4129735054575171 0.0374306475726605
0.07487403035871787 0.2980552454915575 0.42928555182321587 0.06639718948274793
0.06194473734309124 0.2622794636923687 0.4308307299548826 0.016386599104082508
0.07748907887518476 0.23632342400309764 0.43196779496610405 0.06792291534628746
0.060563346748519174 0.30069343347730804 0.40837211090994247 0.016589951714160923
-0.0034947603052439776 0.5182857540726593 0.6381272803057073 0.03548031802270483
0.07627790237143378 0.3478250198480486 0.6033416104007377 
0.07172245715669018 0.33045190055843543 0.6490629762919841 0.010451390360809972
0.06660069552878793 0.318262972999987 0.6398408882221737 -7.363932918437573e-15
0.036348910730096905 0.4605588044999391 0.031540379315113276 0.03381771096768345
0.03931063878314396 0.46114648992536833 0.07390052837682463 0.0008432774153046836
0.03705130753023124 0.43088778103715963 0.16301136892725737 0.008096638305796947
0.03553172462152738 0.4441418922998439 0.034728753917446994 0.03575443890832542
0.03837018111273591 0.44853890043429856 0.10892530009167554 0.015682091970226707
0.03569135290456566 0.4349686168650875 0.13626229151363325 0.03375959677969317
0.0393055347815941 0.42391206215738025 0.1554004172479349 0.009667064652901914
0.036875844619914416 0.33986331159976624 0.555753613318226 0.017930876926326143
0.037357517529371435 0.4108533121638214 0.24638879795316904 0.049081486819251195
0.03161669908560634 0.38895881873989085 0.30795993173605607 0.033531097522353705
0.037377060073324024 0.43115118729887125 0.10306704675826014 0.026206467655047708
0.033642896633624554 0.42263916883409886 0.22966995708732466 0.023238584245022585
0.034280247214052664 0.39623864885351934 0.31076138420345517 0.03246747260525695
0.032868708721275064 0.38378307873115697 0.36373270824648085 0.01639051469760098
0.03670536367062799 0.420644283338914 0.20713127658754632 0.017634976217899393
0.03610605788845627 0.3818342269046572 0.4124652209048349 0.026514621370575912
0.03511094631257336 0.4026347675539212 0.2857540511239421 0.026986575870994966
0.028925447793180792 0.36466412830438794 0.4409567844124324 0.025441180943755273
0.033919421775671074 0.40090516516366 0.24736507721463907 0.02168808578702133
0.04028120031809147 0.4459092566741146 0.050230248683865615 0.015103751633704877
0.03332453091006267 0.3796011238096281 0.39823754220234214 0.024718102221215326
0.037323070786483135 0.43183576176679167 0.12371169271000355 0.028666029008707586
0.0372071131899399 0.4251551991351492 0.08504621440186654 0.00594758034601059
0.03597049028133122 0.36529025938944687 0.454071928484614 0.04216539047181493
0.035831726581806764 0.3877832576404704 0.35927586559777624 0.018438247353655384
0.03203712056417121 0.35213520527713865 0.5026822787362631 0.02116440496343576
0.03913078738394398 0.38223111939212184 0.3127426657303805 0.030560545503513656
0.03824205969187714 0.4314190554381225 0.18234309321963194 0.012854113000399509
0.034118187167749385 0.35640099905862527 0.5419298109648459 0.014097620542398343
0.03230721572774775 0.37238571233557827 0.37607345151569427 0.009388437374192532
0.03817510419094175 0.4274676535872949 0.15702639667916612 0.00931156774377821
0.029532839634314294 0.39966222119582284 0.2707166080870197 0.011874191566546437
0.037800310484864943 0.3778147122355904 0.45175993419204585 0.02168805704829062
0.03662537688350799 0.37656026123677605 0.4697866727511264 0.041200943146056546
0.03489307606158173 0.3663941707293392 0.47331915928071727 0.04020657331724367
0.03555649024116575 0.379052888964423 0.4253450300863224 0.01954596488866637
0.03366111815007723 0.35621998394673277 0.5199715385068082 0.03232064009991169
0.03629954662297372 0.38046198044398355 0.4805113549654294 0.01945731175886743
0.0381620922991877 0.36718657897862356 0.5476392741670713 0.02714321437604976
0.03812136841932923 0.3623278694949773 0.5415692917388177 0.019679626891797038
0.05861407692022129 0.3114264923261409 0.651045436660715 0.01523687966529475
0.06029503016528807 0.3609472432278384 0.642445449891294 0.0006489949111623414
0.052600020302620606 0.444328798521229 0.25185456052826327 0.003139498798636106
0.05059648289480252 0.46375753340030756 0.1263014861405189 0.0034577764035790288
0.04912354835300687 0.3954114502736688 0.47459890370714886 0.007826972745149029
0.044024505463628086 0.3952883551141688 0.5297469601719257 -1.014284017747144e-15
0.05353774378960813 0.3554749647559606 0.648779877740003 0.006659994295667736
0.0413799372717377 0.38249612918590953 0.46091773843570133 0.027823329159360755
0.048600347456266214 0.39583241347206893 0.4727666759363501 0.008904691167198353
0.03501192571760718 0.35460099128601447 0.5631980543313331 0.021125953443587864
0.03970798623727554 0.3840671535689151 0.5091087143630045 0.006248862744933931
0.037389164800165346 0.3945705173796581 0.38805559553053154 0.029449220010464267
0.04402299435362161 0.41700680697088366 0.36126952512881705 0.024533067748398148
0.039275827434687424 0.406599880748155 0.33549478665521965 0.012129801632057603
0.03414533222296294 0.410648974546532 0.36066125153466366 0.010474588778999755
0.040277385328135865 0.47004984755170576 0.11048812978150782 0.016666587196732863
0.03895200788781437 0.4442178226560129 0.2046288342813675 0.007376644406015264
0.0506790081231221 0.49033887030713197 0.03488176153473494 
0.038771527577318075 0.46950569685665844 0.07216476283669944 0.00010384351953189378
0.05010924306058978 0.4525062289006997 0.17827721982752287 0.0015183757836677511
0.044334030501725435 0.3984602353607481 0.4190420065491187 0.02095320864880691
0.05449571108150591 0.41018986398922286 0.3928267805768921 0.02883696891455321
0.03923257716127778 0.417446901509686 0.32914272370882824 0.014917036903741469
0.04069429001648562 0.43220144843483155 0.31502771034433247 0.00938088343994794
0.03370103716566858 0.4399582403890653 0.23488477577484138 0.02250072464398596
0.040394475309940676 0.4483332790226213 0.15157762163249242 0.015776247575828607
0.03200671162668652 0.42125300064514987 0.28008717665966365 0.010734578590763651
0.04292296972624875 0.4226834860065298 0.3079538042843191 0.004814079392607056
0.03687731135382237 0.4519757547823475 0.12737802369320408 0.010898646989692643
0.0430366822915836 0.39871890607228844 0.4367826799516795 0.002136419992032691
0.03406768031308444 0.359585590250323 0.5689342369461573 0.018150022726132847
0.034005497232536736 0.43568378204866454 0.2178944364011101 0.025532609078172615
0.02357674316582515 0.46994884777355866 0.008733496423681215 0.00566462456614921
0.03938783863294362 0.4551959478043982 0.06869454456661082 0.002992165662433208
0.03826981217959271 0.48075664685093394 0.033584931082934436 0.004974362370783165
0.038983354901719655 0.42909775838909064 0.25731135568115787 0.03678361740578712
0.04068933026545521 0.4438055812939431 0.15550240592727568 0.01645559174927527
0.05004132549325015 0.3878974586461897 0.18627878775682238 0.0018806514934742763
0.04608159493897145 0.39001244835955756 0.20930340332634984 0.022919730777003097
0.052837186789717 0.367988949998078 0.3133986197996828 0.007255610255154754
0.0669549757656951 0.31713397798954346 0.6115540727028529 -2.9468819669211776e-14
0.034208114838487534 0.36218371362409435 0.3977306691349578 0.03893937609567632
0.04024481859486258 0.363448391256869 0.36868505929744555 0.01714378855818106
0.03780730872818737 0.3886502672229535 0.23462152815354398 0.011264420328106954
0.030737598729451497 0.4267649470098384 0.03543082981245254 0.02307338477103403
0.03456603269882439 0.40934887635957956 0.18528257070718998 0.01134695298625061
0.039816938293010924 0.3846386310603128 0.28405265250945255 0.028527874442213948
0.03704182783287578 0.36153367239958767 0.41737031703778543 0.05282996995077109
0.036354556678744564 0.42145509866524494 0.10634801606675356 0.021738182064877442
0.033847283189956175 0.41091552837421674 0.1931790775741503 0.013987402346487345
0.0347775726442696 0.3860332660838438 0.29897740659559446 0.050143050568392536
0.040312781263853334 0.3459584957931365 0.4624012910474205 0.03870358021143512
0.03618905999204775 0.4106082476190251 0.14274220363007997 0.025107598436445118
0.04424114665081255 0.3327159810421933 0.5454053785086185 0.021457527198131942
0.04578727579815847 0.3640272888942336 0.34393761470152084 0.012599194146094004
0.03351822731943842 0.3459335906434134 0.53091112406103 0.01955841255270037
0.03997306787118251 0.33140231588051966 0.5633969885265864 0.021562196172193925
0.0364085458742047 0.3195223211942419 0.5882036265724517 0.0005272564183016135
0.0367678391014795 0.35820938518976836 0.4119397190758236 0.031639159429666025
0.03867558709599341 0.3998487349110585 0.1971580046342525 0.023585467020104188
0.03875498416557848 0.3714780685648125 0.3435902088031608 0.018134478105144604
0.05226538590807313 0.3426422033246831 0.43889584613948995 0.007235899885315906
0.037879598557763704 0.3759665518399564 0.32992281842054794 0.030865296636961824
0.04539504150717931 0.41675263477225866 0.08433505438059893 -7.560024412146724e-15
0.051559065840296514 0.4039406221156224 0.1226310858724429 0.000844676484302922
0.034303009003556886 0.434289858655817 0.01504667188018676 0.04179867610494418
0.04146337638347762 0.3540628677514439 0.4213662454000072 0.03636747593699019
0.04946707923218803 0.42103354127626746 0.015846306621360003 0.04783580064757879
0.04558905346204907 0.42018155928634743 0.044234766327877977 0.10938358480337969
0.05192468932697582 0.32929852404723375 0.5108033700231628 0.004203330045633332
0.04705626345866842 0.3199236090981307 0.5717151094928136 0.004007202716963962
0.04444492164375791 0.3372324384298401 0.4758279627488303 0.008645444865362825
0.044971143556280964 0.3773506090872173 0.26427112698831057 0.012723338289206524
0.042204415618714276 0.3408968787602679 0.4939741056704859 0.010564638855232442
0.5297563920839329 0.47834585027147547 0.004356335079261944 0.03610503821156622
0.5360578910616693 0.2652815003002651 0.6495389494658457 0.01780130559434478
0.5414349007273687 0.21740843373477495 0.659240960913951 0.11941488406940017
0.5406289470366793 0.42287606074674977 0.6526291017697498 0.02600096297110257
0.5506539098113294 0.5267816728497607 0.6532179615207766 0.11413213698851839
0.5484157422497661 0.4588525445218514 0.6557723018979399 0.05358877162295782
0.5493251123138642 0.16909807308358385 0.6662496399349023 0.023907269675148324
0.5506038925446896 0.4091399211834237 0.6510959846212904 0.07489675793190997
0.550778387237933 0.23878636845967258 0.6606338341682185 0.07655818157443306
0.5402184946420615 0.2811959486446143 0.6481498843198059 0.11311787193200412
0.5577762163582691 0.43829948788325074 0.6584032154947683 0.02964081284162111
0.5539822431303446 0.16634156481942264 0.6616275086130069 0.12141026854234273
0.5481586808950026 0.31614232089805044 0.6557720347245982 0.06006134216956593
0.5449086605567531 0.13664349400637452 0.660014713597854 0.13768836789929376
0.5688166744135681 0.4143972250206696 0.6367535014676915 0.09984992080962247
0.5681517396774595 0.3588388071545824 0.649914724100591 0.26681849740976593
0.5620727379341562 0.5307493800892251 0.6519761231357761 0.08378057952895458
0.5742503787790681 0.2539799760979598 0.6436939976365708 0.09011198406684387
0.5699464685220365 0.4741061549217548 0.6557857762947571 0.07040186169125369
0.5600402233237416 0.37487863599124405 0.6557168169259172 0.12923997760539163
0.5720908662146581 0.24746063106297608 0.6547324178829336 0.08737201994840782
0.580957962381453 0.38206588979298645 0.6534963096743147 0.015876112408479186
0.5869737706518617 0.1782211845236794 0.6544927721782481 0.08741627713664471
0.5771135750682379 0.49913555097037127 0.650283934326997 0.06759130327861479
0.5737243324564355 0.43920811274698596 0.6456641677895104 0.058069212041082494
0.5634982080991906 0.5336278442664256 0.6423347346722504 0.030073265364789027
0.5625335689034208 0.12985015055610707 0.625245013047294 0.19067303999491336
0.540278724642235 0.11447539098115707 0.6322043208824415 0.17983733683880407
0.5261127827646261 0.2483512797167056 0.63136769010982 0.017715525414818845
0.5688053876656588 0.3141851177460104 0.6227258456889148 0.1274313571892223
0.5687860763330044 0.34893443883433173 0.621784389315555 0.031879282294162196
0.5724265841950862 0.13154051667417846 0.6333624062791888 0.20386665434530551
0.5674088318409286 0.17427211880261018 0.6296137672456055 0.17474796911597246
0.5842257240034624 0.24625976152743106 0.624817941515778 0.002015077423080661
0.5739130043641752 0.3833279121019907 0.6230707682697735 0.05244764870989504
0.5699963704753096 0.5268865120614925 0.624408214058367 0.06478175368306555
0.5560488255327055 0.540172443692006 0.6367620446742572 0.054289512728292286
0.533416097711543 0.19466523146536127 0.6484598001024575 0.04041886991327525
0.5329477485670403 0.24294465705235221 0.6462328863727694 0.015712322096291635
0.5384121837342444 0.20882227367382805 0.6592205506278737 0.11570167573552811
0.5272169248062263 0.17459182969305126 0.6529101690664687 0.0089843730599144
0.5306799842816349 0.12913770476593386 0.664244440446062 0.04731393659885521
0.526640119019293 0.13939013064262282 0.6449075098196718 0.044824223666142554
0.5335596017914599 0.38457885762026356 0.6477683923807761 0.0022598664155856225
0.5337232806186337 0.215510098495554 0.6316193122049932 0.08483316190898793
0.5354195718367465 0.2321005361978125 0.6486544062120235 0.13325361095102486
0.5390610269374286 0.4990849370206382 0.6548753948863917 0.03413400934145803
0.531235558757086 0.11745663228856384 0.6307453518399008 0.16317763362284293
0.5534589171794447 0.10087141845616351 0.6512967785666456 0.04134549495193
0.5624430687534313 0.12048039844542253 0.6510625904867191 0.187158356961924
0.5704293378981705 0.11700297257176566 0.6367171399280052 0.2081403004661004
0.5586001618833293 0.1041964528682852 0.6306477398920736 0.04297631808732496
0.5695027354830229 0.42305044160305705 0.6517427018798972 0.054024549423819505
0.5753547789828877 0.29462785244124307 0.6500181101762991 0.1707083188710112
0.5703729546932729 0.13400175602599176 0.6607348706587749 0.05915463715904116
0.5761861327030182 0.2798075056501242 0.6546093858882213 0.06864206898815378
0.5728026375535792 0.5202735310241011 0.6431331608099313 0.05127766024581984
0.5834715309819604 0.3378883002774153 0.6536449320865223 0.008800124631500374
0.5690369319033337 0.4776848769593374 0.6409488208986074 0.09859600136471353
0.5768578474820252 0.320027891387189 0.6359353428488939 0.135907141815755
0.5812168799523989 0.21864491416472254 0.6600077331141962 0.022460783846627943
0.5711072872545973 0.314333147634448 0.6462628059948259 0.16890340812749494
0.5791630295336612 0.4324972707855436 0.637357395007991 0.04039429081618287
0.5695067676911887 0.13879231954427657 0.6511575340231405 0.07599172860122384
0.5718918049308831 0.23304040649334093 0.6535622929107745 0.14704249603218822
0.5758061245189657 0.4581350785087896 0.6376541395220705 0.04321711116201803
0.5730538448591183 0.39584884292487404 0.6304464723245949 0.07911624521300684
0.5656681285936681 0.36248890035155223 0.6281710851494533 0.0842114043514237
0.5770963407535784 0.17003637129107937 0.6442004083172485 0.14914001076664957
0.5717063749313755 0.2726855542822621 0.631692846649452 0.1670650945117297
0.5747622071548186 0.12539465008969583 0.6334941967650579 0.10039333761042657
0.5662388247130143 0.1535670854744087 0.6298771057649856 0.05966107890911483
0.5734223263407447 0.19566942054599382 0.6328796381025847 0.002811338144687125
0.5641041677353114 0.29298944741057337 0.6187482170771799 0.13707702801169577
0.5729418001414546 0.49307224245123465 0.620718458563816 0.007577584278137834
0.5755419343977709 0.44528472307795425 0.621369726260893 0.02143728382809735
0.5695938232259069 0.21441527200528857 0.6379304728550441 0.1812912025189055
0.5693792942468449 0.5296741358939034 0.6249938009565195 0.06787781339221592
0.5738560209112699 0.4246075181342037 0.6239317698427004 0.05619086370396002
0.572386112276633 0.45739716667928565 0.623350028707154 0.007222576329261553
0.035662733278945716 0.4059206983442509 0.6475476337743652 0.0031622996673930552
0.025096674625551225 0.3221379684188071 0.660610689212343 0.056311052985920984
0.03726754716086641 0.15790667834455424 0.6569076277664058 0.14457089123306374
0.03503836188178122 0.2840057213288972 0.6558433131051046 0.016562202008371284
0.03912659832476094 0.20285553732622197 0.6494118438642973 0.1475087685978072
0.022810822175840656 0.2734653828213413 0.6540108497290938 0.1035683825741792
0.02402821580815935 0.44580642492475686 0.6505861446321987 0.03184871673126629
0.020205941046506977 0.1608714984816281 0.6585864606957382 0.0966528504920796
0.03508015656890061 0.483237174878129 0.6513126783136701 -4.237260814721136e-14
0.02248326610588303 0.4658506388986391 0.6505626683940496 0.07378512728837779
0.012987839537643452 0.22792092649823217 0.6582712186815356 0.08209499409394641
0.02142411832198397 0.12572749676419423 0.6594574992240537 0.17485306684284047
0.02495254075107537 0.17282398156631912 0.6568158482463827 0.11798912931093841
0.008859507206413722 0.2819763645127759 0.6547139771330206 0.09712905035750675
0.021048111046655094 0.1969202379459418 0.660244159003741 0.08132188621782348
0.006198269814285949 0.3315255820609227 0.6554198929552484 0.10781410387301442
0.009429684255445134 0.39021226785251156 0.656017538986708 0.031459296183680575
0.022525662981730456 0.1132721661532942 0.6596401237156577 0.12912723901847775
0.018201421404374068 0.24085069150407376 0.6537349505555675 0.09839249348119365
0.013838747753553034 0.32139337337276136 0.6597995366930111 0.09627114217519711
0.01135949027942646 0.40366003921903687 0.6532945892637966 0.04564814087107231
0.02020382310985441 0.15365075719847388 0.6610643862018392 0.07770705093396277
0.009981414126104147 0.2522700819529537 0.6484148086726824 0.11382600228406162
0.001956546948313844 0.5176283668887661 0.6491562887851557 0.03658051243847291
0.0026008875461923722 0.5026616718936874 0.6496453876818633 0.11735303688344804
0.0022421970203008188 0.3533480419787644 0.649298698120228 0.12346315179808441
-0.004395503540282042 0.17114504995162377 0.6520590237804952 0.08804158790049552
0.0018872219997325222 0.20653237512321657 0.653045459568019 0.07357044792404537
0.0010085522884332237 0.5288215136087492 0.6419109134660329 0.04565871711309645
-0.0015272017553811775 0.33781135801247225 0.6468967178103627 0.09053768527253336
0.0008902904069356785 0.38151581812881286 0.6463618051121592 0.02988059307869652
-0.0042686843516491525 0.3983507294147429 0.6415043074256002 0.008900127807637498
0.00010232286241494595 0.42287605374800025 0.6467774185954738 0.0623586320655974
0.001027860272623686 0.5332977692311771 0.6318115274800918 0.055370899446602846
0.005935663637212281 0.33781675790648696 0.6284773409291003 0.06365375751859356
0.011894545725643283 0.1160411718060732 0.6387070714602878 0.13884928741456062
0.02376569101374195 0.12660803311609156 0.630299808160733 0.13837506033052055
0.02391455142036953 0.11449052881466283 0.640001752592737 0.14364107194973932
0.0444414027233994 0.13448132638311408 0.6330059525800449 0.08812889975466721
0.008161332931234942 0.1607966025688158 0.6330932495112868 0.11671299285284202
0.006724384084680308 0.3508467603421235 0.6104733583705545 0.05197862639539539
0.009031258449743111 0.19233968973353682 0.6297051166151284 0.08754964287414677
-0.0023890297375077 0.24419317068096016 0.628649655162511 0.10843497625874218
-0.0012773304073875119 0.2122726863047014 0.6357685625935353 0.06499941062344701
-0.0015084299284069238 0.46174165614791146 0.6184174541211412 0.0039141772375469045
0.0008638298869846255 0.13454980412159132 0.6382749073313383 0.12363301463078757
0.003191451986702389 0.27454808029414923 0.6292115572249161 0.0931623777295184
-0.009400793534881755 0.4896868687333853 0.6170068273580832 0.009400317541868482
0.004150441363770779 0.5254008385558532 0.6198848634067868 0.04356949290341712
0.02090833622430004 0.5437097966834747 0.6438763418122605 0.041162163901192365
0.03624622204512247 0.24345801373902395 0.6382439919644193 0.11011177500301714
0.03687950384782937 0.3493966464734992 0.6524495831849075 0.011059958590864184
0.04021540642712218 0.21072372815553328 0.6564612433187443 0.04209986764240279
0.031022368033237668 0.23124748336437537 0.6546027999146447 0.060949033131165294
0.03182773971153016 0.255139590447909 0.6411316493905169 0.1263779371072582
0.032921954710024307 0.3814746647016943 0.651807313862359 0.012964427008031399
0.0374343256162742 0.19133364824971835 0.640134178235952 0.09136384111655016
0.03297150936269125 0.17991383354173715 0.64532711697735 0.10174418072218137
0.03896326526822438 0.2740464821907304 0.6433755731495614 0.06891319675939792
0.03647726180904598 0.23533798899717404 0.6352871852227555 0.09479548883623352
0.03802770215694518 0.11284400186593843 0.6609450303671733 0.14047133495431888
0.035940816639732906 0.11218708971986543 0.643173267761883 0.07884926801607818
0.016820895770681778 0.104990970468262 0.6511291329380702 0.08971320576907095
-0.007522394063288822 0.12489607151484335 0.6456956640761408 0.1765479014879345
0.0003631358117536668 0.1143616978683626 0.6376427575538257 0.12843595703448557
0.0024268795759212767 0.1827925251015198 0.6520577485123696 0.10537077487245447
0.0008820691851123247 0.27204448563192174 0.6431741968651494 0.09109150284552921
-0.0021686725037975314 0.12386295808174204 0.6546804302775174 0.1729310816116606
0.0002572544020866338 0.22166143869150828 0.6464731773944882 0.0672320779650297
-0.00600350689461836 0.4788408462235242 0.6458432005897331 0.042617851309339747
0.0022535534763108806 0.2620664519192613 0.6436849683894366 0.10121766694801276
0.0015667899120029734 0.32067613056622546 0.6406212117275891 0.08270491519846603
0.0027979111186440028 0.1460997828097967 0.6464797480277951 0.10413493773800808
-0.0017518741240808312 0.4478283597169551 0.6474493272162694 0.06560945183615655
-0.0045346997902797085 0.2362012051216126 0.6480819454826294 0.04295093523781057
-0.0052170848235857685 0.3476834993344449 0.644250845466652 0.040390624947981714
-0.004594931094041823 0.2896879687069302 0.6471076908843444 0.05439100325698746
0.0026372833331300394 0.37184490224561806 0.6546373519911077 0.021798294153640596
-0.004467167788902167 0.40738875660121737 0.636794558913428 0.011565334875902106
-0.004296213980746081 0.3032987863878806 0.6515753560755354 0.03932145241495719
-0.0007048835515324726 0.501735315518067 0.6433088203000383 0.01597515348906214
-0.01165924432466807 0.3791057302584067 0.6352272140120945 0.0036391231759103403
-0.002380763113767541 0.33165224829285705 0.6426589992269404 0.09541102646921903
-0.0020893420667998596 0.22379035978674267 0.6389006419104762 0.07620608345844238
-0.004025925935587673 0.4176195704533007 0.6392297794979642 0.017123387632670347
0.0013044698509831843 0.30618790889395947 0.6340429386100838 0.05869600274907998
-0.007972817902547499 0.42354234798862767 0.6284680375928509 0.03304206631280578
0.0003689662638818985 0.22806384999811008 0.6288799527951332 0.12560638430540544
0.0032327217501768642 0.29691533045712115 0.6320420603088613 0.049102445324624495
0.006979599737735937 0.13407420138016812 0.6237062509748609 0.1275575490191215
-0.0014300652668269016 0.43524872161193906 0.629411381474158 0.035121177993843865
-0.0018322730445334652 0.4665357859117461 0.6281747790243943 0.0719136152004224
-0.0005972029448605043 0.19902076177883019 0.6398469338206567 0.11053561036200561
-0.001605726081200055 0.17134927431819014 0.6438592989938405 0.10325373757417261
0.44495942039444053 0.5590159208907911 0.783755894393121 
0.4866643278472778 0.5209581948009576 0.6987196282989038 0.02548979164666036
0.47528041582923564 0.45700048786565484 0.4422020720717657 9.16920717691122e-14
0.4926268945693353 0.45123581473800395 0.46977482454699493 0.00286426424295672
0.4942283250132405 0.43557824916334625 0.4008545027517922 
0.4755501938357105 0.5532926285357439 0.7982410533982015 0.0629478881978203
0.4812749296417571 0.5343417390792606 0.738184717308152 0.06537583361096098
0.4782536114913583 0.5490501260678375 0.8283543527589615 0.13396809390416275
0.4868505645152588 0.43867047829826633 0.4787060141817159 0.00011034516098444817
0.4416829397246973 0.42959255700217347 0.47403184167529655 
0.432866772152037 0.43744798171772414 0.4887717862622869 
0.4887850898556366 0.5469496212517151 0.8219156111323987 0.12394469816612406
0.470786426984455 0.5283043987733091 0.7890169952329484 0.08323687654806916
0.4669702637606474 0.5038636592885809 0.7479213011394497 0.09267417342816393
0.4735977698003961 0.4941527249162987 0.7091522206464682 0.05926555025608563
0.48742581421632175 0.4379075852396831 0.4155383597375307 1.0172509070626948e-13
0.48855725138415945 0.42823362240496543 0.4332566786812998 0.0012919075794496507
0.4896863819267567 0.46127182454965543 0.4969239224692314 0.009284653908920576
0.4906322272244385 0.46211001439944377 0.4875883903747058 0.010790089330881708
0.43397275213440456 0.43814528704396966 0.5026101372593446 1.0492089703868552e-14
0.4611602417650231 0.48717143292048554 0.6749103147103146 0.011514246902424757
0.3997294428578148 0.3156239105270643 0.44572467928134824 
0.38098506655709313 0.33071823286587093 0.44789253648391825 -1.872608123185577e-14
0.3555461181952508 0.347014760331958 0.44475570558875727 -2.1359574280101647e-14
