x y z curv
0.1147162998065225 0.4623894153705614 0.6991785282092733 0.05770185812230952
0.12102911210420149 0.4805409707878941 0.7583642249340892 0.07558487001819215
0.13758402056042185 0.4900436941943444 0.7261827722103233 0.049306567800642846
0.15559019215335523 0.4728909980568304 0.6944389137321767 0.05200926509247577
0.16669630720228884 0.47711541091353443 0.6942254300426398 0.0487173331733345
0.15846825058170871 0.4777242022353388 0.7137917663459866 0.05172550060788425
0.18512802033667194 0.5039226411801627 0.757255779613134 0.05605362093855196
0.16318143619720116 0.49855293882768525 0.7657150916721973 0.0558636361699874
0.18264397169123114 0.4991885036905042 0.7328116258433528 0.0485431806775414
0.1910633027813687 0.49525096949429964 0.6984621520401733 0.02899172344228436
0.14827744209483415 0.49553839053368715 0.754266852065998 0.057200384348375245
0.17677506177958163 0.4900642497982816 0.7201705052702976 0.04345065201511616
0.16065140203296321 0.48145219217537427 0.7530646818000176 0.05256326513844965
0.15390070965921263 0.4887178101801923 0.7278154037374998 0.05169576595017672
0.10943156852288653 0.4416851752862624 0.6689367235478455 0.055636174612216406
0.08952288580880315 0.45089827472873484 0.6986868622548954 0.04366704142090787
0.0742975431309271 0.4370730506966392 0.6858743780790796 0.047132360449362545
0.05895522336549594 0.4311645581274099 0.6926689936145085 0.02762445586081502
0.07817309828037688 0.45054180551939577 0.716737543563754 0.04678753894336157
0.04494089169664819 0.4106541427279233 0.7190598609407238 0.037816291202962406
0.053823076716350934 0.4282047261041347 0.7156195944381311 0.05835151894013843
0.0556433429291112 0.43347089405493494 0.7393441022269508 0.03387729277650563
0.07406175259656299 0.42172522983150884 0.636416229385622 0.06826506961625313
0.06525608688971624 0.40207393959546783 0.6411660350295617 0.041888435014045704
0.06714912753505123 0.40730785237733974 0.627245623952397 0.08368930452796483
0.07129702859723724 0.42450536825679114 0.6534825103958852 0.050556754781951076
0.09058202824344164 0.4207139598863959 0.5773231261049371 0.10271704715619653
0.07311782870024428 0.4222937829373862 0.6386156534876167 0.047493443668727604
0.07469657117356172 0.41531622851896105 0.6185416736482583 0.07221773645684462
0.06076398140414186 0.38949742719947544 0.6230304633295802 0.04852542805209527
0.06294250702378314 0.4058480864968089 0.607246835215471 0.016180410576561926
0.0534636715943332 0.39756839315632264 0.6156645692650654 0.03368449342633387
0.10373089075760324 0.4234105518328683 0.5687822954173964 0.05723172488115306
0.09521904627700885 0.43952997624940815 0.6488240573220767 0.05023981399581669
0.10673156091311432 0.4165436327352318 0.5849616505441104 0.047038571434406734
0.060688604922053 0.3896225329025236 0.5647580454848612 0.13930423667549321
0.06326594264208218 0.3836099602321158 0.5453247910280401 0.10022544313380431
0.07395149308962416 0.41076809682511434 0.5819187969347845 0.07044371963895922
0.0503862615666828 0.3726341485770677 0.5599670975904328 0.08331581376941966
0.037791535286940396 0.3566384262457595 0.565741474002346 0.08602750426688632
0.06630959618114854 0.38284277963090446 0.5312885181442675 0.06087664459798874
0.061051867327609116 0.37900434437636027 0.5375477122052206 0.09895669525478108
0.05452278665340399 0.35532266344566554 0.5226575907371684 0.06587277423434844
0.042121574315058294 0.34182011141667334 0.5121948735804913 0.05689702535332937
0.037679280366143486 0.34340068889853126 0.5444780004725785 0.07381151967809332
0.05862465822184119 0.36377703510910403 0.5294350431010898 0.07208661549563863
0.02163934766892992 0.31321822585513587 0.5418421109667211 0.1095840273433807
0.001458678396889096 0.2864221495826738 0.5562134174068777 0.06716897039549427
0.015189708220606116 0.2916839576171466 0.528230796437917 0.10980154916907427
0.13874481597473115 0.416333580552209 0.5145576499546946 0.06840852171661359
0.11446904527011413 0.4237544679433713 0.5554557002598521 0.04907091727555406
0.11905998568345186 0.4194132657366377 0.5498795835485745 0.061783649190855196
0.14008452047280853 0.4477528918971295 0.5349290668835088 0.058791911384943704
0.13541483136450425 0.4371363342337234 0.5568737244533613 0.057991052343177016
0.10597164828387971 0.4219829605319321 0.5493251037618584 0.06736746280028152
0.11627756870013223 0.4121781145059617 0.5235241019634806 0.048441369973070886
0.1144325033610628 0.4241222297486431 0.5330910101926875 0.061381265124218286
0.11430378110284618 0.4201688578215882 0.49727497955896405 0.044308917194369135
0.18000737359561614 0.45130968061519283 0.5407370035517254 0.05548496160117282
0.1844344069998985 0.4640560214374452 0.5783075204634246 0.06250934282222066
0.1687860852943598 0.4390614849947356 0.5688420522433167 0.05837139058543395
0.18733582152960843 0.47684643532214954 0.632142922193305 0.05661731713943012
0.15859333031475403 0.4574906217108631 0.5591738527183241 0.08083674178630916
0.19920022089550263 0.4503788699463049 0.5620191418395174 0.03295789900336649
0.19543952580883786 0.44537489605035424 0.4974566866620629 0.01946530901055868
0.18583690085730326 0.447574831789669 0.5612051645166658 0.04802000412676153
0.19009851611995063 0.4794608172166959 0.6432246522349203 0.06492871392431514
0.18653355109756845 0.44759197587467403 0.5059628967711058 0.024970382838034315
0.19472730921130707 0.45169821202932814 0.5214173524421652 0.03292950696755878
0.17311954618271494 0.45946440998638427 0.5772026974828744 0.04476434048680979
0.20023477576890752 0.4496479601153965 0.5340606229181007 0.037023063943865446
0.040231325187194876 0.3136167648842053 0.45860664183962313 0.0022715125273153032
0.03136160298860535 0.29088441558038736 0.4619067986683535 0.0030038191754498383
0.019146042300845927 0.25320945495490527 0.462800800212671 0.018697156988120252
0.01451074916422164 0.2730544117066877 0.47882519543947505 0.008056484971323226
0.008498014876099462 0.23278493221284818 0.4995730432906551 0.03291763987185031
0.013496801817561155 0.2659049890767341 0.5051477050951434 0.010546827339539242
0.012284188436941162 0.2568459967552119 0.47797876974122244 0.018643517299402796
0.07364815357850406 0.36356713078435965 0.4722947486272956 0.0024371651098626665
0.055467136135417545 0.35396924449365796 0.505985933884874 0.03904690906947231
0.04047180607561046 0.32735607187162613 0.4859538375204357 0.0009317651296800606
0.05971876790219253 0.34196398558283747 0.4553161451196781 0.0021152456511899158
0.08071157072844068 0.37419708037227806 0.4519971373074484 0.000994150325732582
0.08361166252742035 0.3784118325546909 0.47606855614068117 0.0036945152046787325
0.08122647885318254 0.3757880951834092 0.47208407830649357 0.002081529702866937
0.09288725111149532 0.39381173914101636 0.46621742276214 0.0007121608797293453
0.09668382830931656 0.3962944134430212 0.47509876717329047 0.0010994788332749604
0.12882420686688612 0.42585868141429484 0.5029499510328967 0.03569029760562548
0.10843657896653547 0.41781157758118237 0.47933352550769837 0.005575273139323708
0.13471510876806791 0.4249000122865623 0.47024601508882413 0.006627628994011779
0.1837136268406115 0.43866665767992513 0.4728842564508062 0.004527014173970001
0.1645643844301647 0.43997940507216216 0.49175349133619767 0.027405001337934422
0.19100642833657774 0.4399281282790954 0.4644984938077834 0.0046085276627129065
0.150293799568368 0.4327998106311144 0.47252487813729094 0.01248430770609428
0.14490992241707995 0.4364466947657275 0.48352776746210113 0.038177707430258646
0.04735169963085914 0.39733482249573027 0.689110790554249 0.0675180820885162
0.07429929872986804 0.4517442908366235 0.7212138402143174 0.033189882868719024
0.05954395609394108 0.4349690448055887 0.7328934437440093 0.03642273051095519
0.03242388213620581 0.34951269704607624 0.6271561610561928 0.07820911934868742
0.02136848630861661 0.357189055936618 0.6130228882648616 0.07553924905034623
0.011863046439574868 0.3364150790971722 0.5827371639205329 0.07299339511414293
0.007595211557110152 0.3173196092910292 0.5799429581255255 0.02126240387304363
0.033420351191048636 0.38459376437721443 0.6832764231392132 0.06701851974068085
0.03922349103595531 0.38706712050077074 0.6573044369528994 0.04803490623347718
0.047556674688110874 0.3648046129315303 0.6202239884746851 0.07435845058220707
0.03029443822620151 0.37577677225018097 0.6311360848297476 0.04576468532165353
0.1367640086334038 0.49721456710606676 0.8008659260633466 0.05272572631076124
0.19144562298578774 0.5104796829907082 0.785686921849487 0.045307538889138264
0.18296693400481806 0.5068512517709811 0.7857550668068897 0.059720348706733054
0.1774524034430374 0.50594922342277 0.7985085478630247 0.06341664338691902
0.1695303749034029 0.5079400428016111 0.8102073544219683 0.07119427762102319
0.21577641043393003 0.5219276447702605 0.811260908807126 0.08479089858512151
0.20242057256935203 0.5159489511661007 0.810628467464956 0.0836223462345567
0.2511919556375126 0.5262254749609615 0.8156664500680963 0.07986586703668772
0.12041048940339866 0.4803957056015522 0.7731947502121088 0.059555807979107284
0.14027651163996996 0.4907802688015177 0.7806231099960426 0.04362541084800148
0.172612733942803 0.5042815261969937 0.7715009764929123 0.05262127951550833
0.15624457064264333 0.5013406096012243 0.7893897496683795 0.05538483341049235
0.19355040285140432 0.49490017256343183 0.7774376635722742 0.0587014311865347
0.23041354902587205 0.5238341223435791 0.7877645777173069 0.11074888865196027
0.20787356223292155 0.5092812105828165 0.7849378108263964 0.09737141681790773
0.24032458551624547 0.47413750889372547 0.6087322280377535 0.04977586021808234
0.19938430870735915 0.4596860335875228 0.566580451013078 0.03910818222039444
0.22822019347651618 0.4761323498511346 0.5696384004628151 0.03681858878020191
0.20699581220079974 0.4707762320908949 0.5903756939280467 0.050818733557795516
0.2009885293936137 0.47853710530884325 0.6317280880698662 0.06222468382610493
0.1921621864955695 0.4746959163849822 0.6056885681556762 0.04657470303606714
0.21472249061868495 0.4746173117866397 0.6141929823911659 0.05741700765204327
0.22522641044757538 0.47281651256321067 0.6004776961215205 0.04823141039489341
0.24122800201542222 0.48289052642802577 0.6263201566997262 0.06044956582102835
0.2155164605381149 0.4554090173497461 0.5161592377670615 0.040462230220378335
0.23410207350354603 0.4677058462384197 0.5552922838106709 0.04475073079956071
0.22614726603395652 0.4629959955695187 0.5424359850390227 0.04574352307392487
0.1966436201788048 0.4797145106339427 0.64861784505967 0.06258591010166273
0.21573105594832653 0.45876699612364535 0.5281638671502881 0.03001325022333066
0.20737158317742002 0.44454525073362056 0.4939267342860762 0.014164812240315378
0.23224651055930162 0.48375380475062596 0.6809539160502598 0.0679166497290268
0.24218767556861104 0.5022132155502017 0.6899034596922449 0.07262837598360077
0.22673815029839164 0.4879959189926981 0.66396448766562 0.037040468493586186
0.2232039207809473 0.5000193625335149 0.7000027763781639 0.04904052015012608
0.20793675520526345 0.4945250240498646 0.6851227635502641 0.04352464470944947
0.253572044166443 0.5240584223587699 0.7801906317778351 0.05197251574242745
0.2566310029991464 0.48305001923592894 0.628513736382635 0.05402767343647365
0.1970973733240853 0.48360640123076076 0.6631298239896553 0.058925958020882734
0.260599752558081 0.48449384000063833 0.6624704586085144 0.072068122266641
0.23430998227877825 0.5060417072133847 0.7462910646906905 0.06753465467195933
0.22605000725812754 0.4928859663360283 0.6838447897125013 0.06804606177514495
0.24511324534936343 0.5051794532313354 0.720342034273205 0.06251816762044393
0.2375395119412271 0.5015283999410173 0.7287134675475088 0.06008143657437156
0.20630887677141535 0.4810249791710882 0.6793158556127331 0.04652434360773447
0.23704581724650345 0.48413302662051716 0.6377096419707788 0.05048379645213084
9.800227180304169e-05 0.22678120196533144 0.4655104992199244 0.009866845012604536
0.0061945784176270354 0.2136788392661983 0.5098744364318084 0.013150083690588801
0.014978803768489873 0.20338917214301955 0.4859297070823035 0.029183984058016373
0.008143890167881824 0.2505258925073142 0.5195945111072903 0.019992687401006373
0.008444479520418888 0.22880877834254548 0.5186379235537915 0.027384205356262504
0.013956280140860831 0.1963595065007442 0.4994141662461549 0.020915046535938335
0.011266200190080424 0.18227749679842528 0.46885738619166323 0.04104196768762851
0.007758380354116532 0.2760634376315462 0.5491787387310066 0.1355352851434911
0.007181928512557826 0.28862399647791337 0.5606515433127625 0.09167920256777472
0.008428208840858525 0.31495311535716747 0.5624568822148843 0.11366148539946828
0.011642701098551032 0.2577975752216689 0.5347138699959325 0.07232851153795805
0.015615078958381871 0.2844482669207615 0.5045137738221611 0.039614424673346506
0.012377140043614943 0.2761328100038333 0.5224864638326158 0.09150610889048123
0.01899502059402872 0.18235209039411174 0.4166267059131134 0.005042626074358863
0.019693061667242953 0.17908085935991414 0.4114994050974327 0.006059811748780375
0.01734897464523391 0.21407205053828138 0.42859588694689715 0.0011757274447089354
0.0093706645253633 0.18974668418604052 0.46326023960895135 0.038088805243542675
0.02748996907358365 0.2554533072945503 0.44144528183516074 0.013368988344711653
0.02704873177539655 0.25908112725929294 0.4462359927290002 0.015605939056348613
0.02267738271130771 0.25776131600715324 0.4111426007673949 0.014533976819382751
0.031077467869319655 0.27294822611843084 0.44148843211777317 0.009849615449078017
0.024384935537645876 0.24321775834242954 0.41193714818215127 0.02314824721011718
0.029622930885231574 0.21916620716217672 0.4055035625372095 0.002957957606343677
0.021195737799670173 0.23173257444710882 0.41482735476406274 0.024120810465954396
0.011199150721155725 0.19320392030716085 0.48825243097850973 0.02997310030437832
0.04222155884361663 0.3145484222250136 0.45200305036740046 0.0026184252679928213
0.03740169628589914 0.29310224931206486 0.4214402354734907 0.011067768681888092
0.04962502299229714 0.30590030015305264 0.42292197585433233 0.005664910274545547
0.0557920916460366 0.3147472642057615 0.40778619291040186 0.006292700907678443
0.10529104226931484 0.3863353564196184 0.41007613950739413 0.00028229876902063813
0.06993847669448718 0.3532162639396673 0.45447648682243286 0.002968627793164412
0.0633472365902659 0.34472403450187694 0.4468243859024562 0.0021069840880942976
0.060432560183094904 0.3327690766533134 0.42829294363046605 0.003187660234399495
0.12625408847930225 0.4086737925789669 0.4341502328328141 0.0025008602655892634
0.1484375725296361 0.42117540912893536 0.4341191465165949 0.007822753235686796
0.13313298036835844 0.4055289434239773 0.4136264410789172 0.002575726176710964
0.19479532916052703 0.43840798236840195 0.44850621243924477 0.00750228503473969
0.16761701511553248 0.43132560568626516 0.45704255185665016 0.006043117138670744
0.1679307310234409 0.43364594852674315 0.43484480989296026 0.0014514502688958229
0.19711290266050577 0.4399079970440456 0.43529844647961385 0.00779605045010532
0.17405016814970262 0.432903128562505 0.425789314868551 0.003908848770018655
0.24125280712591557 0.4688912679069843 0.5578677102580433 0.05662628266013115
0.23900694283391896 0.4552900444651597 0.49634006160358785 0.030574678237159186
0.24924058597245305 0.4521137490873055 0.46907297464260245 0.010819798865631785
0.25888129362698886 0.47508322527301966 0.5863808296743229 0.03962819246082114
0.2435806536195431 0.4660163943110612 0.551031048924701 0.05130146268314527
0.2330175366498417 0.4580768257128963 0.5097994857746951 0.033970403492540276
0.25705260513375455 0.46112598156855583 0.5336857053030448 0.0529351545114683
0.2478588277119173 0.46314799273373863 0.5284680108865716 0.03535306157154125
0.22194747008491425 0.4446638899614858 0.47533258419443186 0.004001817727598944
0.2223219714814866 0.44697980421279065 0.46560341669589606 0.003952754457523923
0.20705293297220168 0.44402015687181484 0.47125267225498285 0.004271407448350634
0.2528813470686829 0.4740113285941009 0.5966700569761113 0.05778973173636428
0.2605099457582991 0.45046247538801 0.5234987905631283 0.06289075090026894
0.22083489631183775 0.44792513157319575 0.45027141492625206 0.007445081367378146
0.23496402227377555 0.4473530681631992 0.43885931393270367 0.010589546749495346
0.08604886052387956 0.36939796032441374 0.418759383443297 0.0036604128633927232
0.08079168747274841 0.36222135511325537 0.4091064073046231 0.0012378775663861863
0.14462239348834205 0.4182319534147422 0.4122092632858441 0.00042901298613168737
0.21609731989300646 0.4336230984705104 0.4177725852176443 0.010956207982424568
0.19488766458607534 0.43845282212693126 0.4055778043730549 1.3412940200536852e-13
0.2472762214177021 0.002821870295540226 0.4329073397829189 0.016632835309320675
0.23779035894640088 0.006559744296174003 0.41140783477047776 0.006411791130488794
0.24047903513251434 0.000971768088724049 0.4408301787453742 0.025683046172901645
0.21511275077432013 -0.002689365504108223 0.44601256329874145 0.027361453366091606
0.18619152063850072 0.011559691684932037 0.44665212308242686 0.03854711890736496
0.16053989392734708 0.011909898652202877 0.4381419728198808 0.02884561953297489
0.16873124230517625 0.014589246936161456 0.4305423850553707 0.016314456883501395
0.19627629564178972 0.007078408533717442 0.4354666346038076 0.031684516831076245
0.20160386470714597 0.0037479866231989708 0.4170957845164831 0.005147100936404069
0.12975784223572945 0.02356312559773923 0.42393301162492464 0.004661966204513575
0.10553582405218599 0.036487762779709394 0.4302817565793993 0.01463821845900047
0.07395266761444827 0.04778481923849011 0.4212627639708946 0.007421711400420006
0.044378016934055936 0.07952240513598223 0.4562799741486976 0.06231849241980104
0.13858192671075528 0.020287123692946024 0.4544546784047493 0.031195531591381907
0.15652862553875016 0.012983530182411994 0.4403004568568856 0.029092324336433443
0.15242416194711894 0.01891621450555557 0.4547991203214901 0.02452758401512451
0.006102886861987242 0.15817889483833747 0.4693928025792225 0.03824938048229203
0.010881994443988107 0.12884687539769654 0.4644975121075297 0.03648497235364884
0.009007376347534433 0.15109489925501393 0.44342232529519404 0.025795040034774116
0.015540802858592426 0.1669044664326759 0.42204456500699505 0.005031571793604622
0.02417108825288235 0.10917687061193856 0.46663667496737493 0.015347834777229688
0.031407361002904824 0.09617930254332213 0.4586414137547359 0.01836625697004159
0.18538790344278452 0.012775172456344921 0.41280892841231065 0.009322474552679642
0.1675899414770588 0.019628799731719306 0.4134916100973357 0.006888002609497481
0.14399365764038083 0.027060909087193153 0.402072341602818 0.008400551039340448
0.22494928027588557 0.008737098386349831 0.4113845741759946 0.006177137022254381
0.13511252727857476 0.027982521158227962 0.4078921612635344 0.010619253068990362
0.011871405550932102 0.1383363355257815 0.41312811300558644 0.008326822478629856
0.014918200836477548 0.14562381401082616 0.4189868903454712 0.01098349970854374
0.05963081005308857 0.06421166010044238 0.3960555461123095 0.000816176830969389
0.04241041543352095 0.08019128553163156 0.4176464387224281 0.004937067031477164
0.03069812000542937 0.1018916411609943 0.4094417890528862 
0.3743639294662526 0.4542676254371959 0.6004545022959431 0.08411846488637506
0.3989683873591817 0.4404883328127259 0.6706605181032314 0.05352611284059611
0.40817620896797296 0.4289648041970535 0.6584065854696992 0.04747778730209236
0.37168900763070595 0.43759615602328933 0.6327969625452566 0.07553658926100178
0.39746017235420356 0.4352310612210206 0.6359241673582995 0.09462735298734484
0.3881764499413643 0.4339121064583777 0.6049225744327603 0.0820005044952759
0.38424714756358613 0.44896744578026093 0.6749833955566624 0.06756158339972185
0.38843446225888956 0.45846609755981216 0.6162694952889515 0.05962087650992458
0.3605313902144733 0.46269567534881445 0.6737793575466197 0.05298623972975367
0.35495059692878744 0.45734982779317257 0.6507725342211068 0.0795650006630772
0.34607768543357537 0.4539242277094028 0.6203203526795708 0.08191856267176374
0.3357591873540095 0.46636574747648896 0.6510151279525833 0.07880087666010568
0.362601049716813 0.4534115617152664 0.5757564312073897 0.04430411128920527
0.34146802153958583 0.45487665649269093 0.617557081708655 0.0882927362361339
0.41106540673734904 0.3934464872585864 0.5285005932674245 0.008812339059447111
0.4129227488645081 0.3911143429054437 0.543097903637467 0.07294410343414932
0.28408653499178793 0.47191763530825576 0.6734573121574299 0.051188451771442725
0.30981329849216316 0.4859332086534477 0.7457354495629214 0.060311835981986694
0.27326360840304353 0.4761339094218012 0.645255808079923 0.05265154071477159
0.3148962869659846 0.4826694334235417 0.7065335815712888 0.08286492940815432
0.2895697395585481 0.4798790988863782 0.6420434667300504 0.04349919459092618
0.29838009427757134 0.4798196005814077 0.645912128014886 0.05768327863442512
0.31696640864880127 0.48361908497787254 0.7228112625303171 0.06076233099953603
0.28569767826817705 0.47586874026906506 0.6580356420752654 0.06297534774372221
0.28902750587078213 0.47367788153667134 0.6335567828645929 0.045865087745061255
0.11124109712092933 0.4456971617945295 0.7079511401814881 0.054309419290020366
0.1233020950224668 0.448352892011625 0.6853667733331089 0.0503634390005811
0.12279472196789636 0.45407944981788523 0.7015866917858193 0.06039827259939919
0.09886389741472364 0.4332160828717692 0.6879152927601518 0.06133517538647649
0.10293339288990398 0.42794207686127467 0.6366247183120676 0.08257078641198243
0.11680130919638512 0.4347204139694982 0.6418487053091385 0.07233599341466897
0.1339937353596584 0.4508045448995738 0.654990132644212 0.062413048267192565
0.14662536503120752 0.45535920366682964 0.6431310447234775 0.05830809141290288
0.14332448387115118 0.4542476690729321 0.6337180138642933 0.06513253522009282
0.14107212285353143 0.43128840595490275 0.6019552231373293 0.0685084086019231
0.13166908411593597 0.4241121423079182 0.5726188666111639 0.03614038770885157
0.10440746816558327 0.41143323572023155 0.6148697616940197 0.05333711759496901
0.15761788246304473 0.4582419818739303 0.6361937857446512 0.059640863763186024
0.16225531526703318 0.45853608057941314 0.6167500201065571 0.07113978394252758
0.15192938420963475 0.4707088993449523 0.69648115086839 0.04928503767396567
0.14329388888342967 0.457849249243524 0.603441934997684 0.06118006245956842
0.1616442222130533 0.46023290088629076 0.640026225546916 0.08797749958646266
0.18800512078753995 0.46279429949595724 0.6551468751187897 0.06783774058581324
0.17066070364255356 0.4553220986258257 0.6677258011073594 0.03222932529053542
0.18063445673612566 0.4639233748279176 0.6412809130421644 0.07197016704640886
0.06020659997499807 0.3868156255781659 0.5866927468480031 0.09914031546417816
0.08981408010314279 0.3879887817939102 0.5510866097215777 0.04982434105973781
0.08543766788942096 0.38133552451241587 0.5747113926026879 0.0718452525300959
0.0654144141059888 0.35006942140258523 0.522711957764509 0.06002341398487898
0.05731042234212689 0.33239493833291023 0.527938310302873 0.04612837969299499
0.059017848258297284 0.3501820242505149 0.5403423238885348 0.06656655323253471
0.1525968120747023 0.4316149233300603 0.5591857328858941 0.05702248688992078
0.16635916219695626 0.43663300708617 0.5476923352839534 0.06193767231560959
0.15585216232195193 0.43336381829960763 0.5452453862534652 0.06096039152804237
0.1640775635486208 0.44107336551604864 0.5139602017413039 0.051618493267944654
0.2006031545111873 0.49653529186663387 0.7657045993163016 0.058095358121468224
0.20254631533536224 0.4904560519243084 0.7300839531634596 0.042513524351880556
0.22213905160936753 0.48487485303507766 0.6869416292376976 0.05602282673917122
0.2380856984745686 0.4878740916408937 0.7046318455309138 0.084635768469972
0.2580881901387553 0.4967710509286852 0.7385960014576203 0.05844140777909752
0.22593514585454688 0.4946916754123246 0.7516482275216125 0.04991062389826062
0.2390069868396179 0.49213545207129294 0.7822215298735422 0.08902539299183218
0.23006018601841213 0.4849773394564992 0.6947531144695357 0.0506374859238564
0.24713776161579198 0.4875332320071426 0.6898079189520543 0.07834629787560053
0.24806021639014916 0.4901952250456454 0.7260605385166244 0.05893879172743329
0.1987940132287026 0.003902541291889235 0.45671823637319886 0.03996052933900884
0.21202749677969546 0.0020861700935500974 0.4497807422150896 0.023880660766314735
0.12051412470076266 0.02850074543519054 0.4555618336569272 0.045389542231760144
0.07963932640831073 0.0433863969707913 0.4591815785874057 0.10645316528224624
0.039620447881523135 0.08706302393510892 0.4581771157865531 0.013084281303175826
0.057859639357583856 0.05623715075378699 0.4549019257956387 0.05756051700912879
0.021091358581356655 0.1511065104657295 0.48209145872866654 0.05057054495596041
0.015164466877010493 0.34012848560835224 0.6069743617109423 0.09787133934569112
0.026826062175365997 0.3184578490283755 0.5937192286281011 0.08208409658666811
0.2432492562715552 0.5187274228812102 0.8153560204629069 0.0988603803133862
0.37794709744866906 0.5066329886615027 0.807886486609787 0.06884960002027299
0.4561752194553823 0.4298697411779157 0.7516005092776447 0.08584388000296231
0.47899762554361913 0.3923952771460086 0.6783081158577371 0.07598012221316373
0.49999616276159436 0.30936356647890306 0.5888694528517916 0.02029468222300349
0.5059391550000897 0.24770610307961158 0.5230017382428909 0.0032529466354531316
0.5009788534136133 0.1952870735683861 0.5006565771430103 0.0036787114091714375
0.5036816735688102 0.16525993384744392 0.48606697775376406 0.008317963089981041
0.48562586939244895 0.11352029257374245 0.4657747178384692 0.012931620577204593
0.47637013286612834 0.08319045060418108 0.46185353576327187 0.035466248194492414
0.4472539289497748 0.0508136628196859 0.4535424952498017 0.0367113026914269
0.40713701667515534 0.028836235440890336 0.4498272960240001 0.01760445681403745
0.39035549432825056 0.022559875623625828 0.4566414762145671 0.030762628735934276
0.3136721176032678 -0.0007243738456683361 0.44820207973941134 0.02818666619434522
0.061935019395864974 0.3265990496248083 0.40685989267115547 0.003044617067327254
0.24968081725792163 0.4348489049710504 0.40143526839848215 0.008016280463697678
0.23470926821073557 0.4412586757493714 0.4115771846694253 0.007785235951277455
0.4016471328101217 0.45490394747361645 0.6929350869664056 0.06996531507439592
0.42353284868449215 0.4440101610711625 0.6789969523346221 0.03838897530148983
0.43866832602353956 0.4438253187612768 0.7165459946455439 0.05252992575639504
0.3754273167782809 0.46785089456623535 0.6504551380470172 0.07918986823117351
0.384074099978977 0.4706065369319555 0.676359197079465 0.07035466796528501
0.39825143304676025 0.4615522570253437 0.670019704248199 0.06541533428696139
0.3958001609346223 0.4541065028700982 0.6481102164168026 0.08314756413713272
0.3664156793786906 0.4472904069410255 0.6046164571939817 0.09591720955104317
0.42021253547857157 0.43352049752575905 0.6272624463680324 0.08232399044084454
0.4215692068049588 0.4309471708505932 0.5990418379719604 0.10448087004558264
0.41206479644056326 0.4367147132437459 0.6141269846374424 0.11467736327557228
0.41272756098832125 0.43299946550907975 0.5807885465287596 0.096746289579329
0.36809427578528037 0.4448429033445507 0.5330974543236743 0.06717920194559367
0.3690865935390526 0.45097419042423403 0.5841224036729951 0.05815746923731179
0.3637501785445706 0.4276772500380951 0.5427600192157509 0.08234734427312441
0.4021844887883409 0.43352343967529555 0.5464214428272997 0.11180777082274955
0.3675196775568189 0.445967263178999 0.5901470114870251 0.07417139841560062
0.38821394787721025 0.43696319939774364 0.5801082425890141 0.09047991702148596
0.36698041414888743 0.46331496407847905 0.6344328685355937 0.0678954601960825
0.35279535515475313 0.47962945008105734 0.6739167891531259 0.05007869336231451
0.3595952032659136 0.4570409309386107 0.6573449125160473 0.06584304867368611
0.4623800137203136 0.38697658229679033 0.603788307850946 0.0624307034419281
0.4408180882891038 0.3982387215513477 0.5751381875421787 0.05922125734040994
0.4566777848696822 0.3809449017149581 0.5432934208334226 0.003264910088337061
0.4489621022573889 0.3874570956782524 0.539905351228223 0.014240501295454715
0.36826282951825334 0.45695404878906626 0.6149984626872347 0.08226093241007591
0.33349322393098035 0.47578803638870737 0.6484731138984942 0.06955531931689557
0.3540865325297286 0.47100486888799126 0.6387684863295493 0.09189002990991914
0.35172252236247603 0.46714801897024255 0.5994340484431321 0.06750113718985985
0.4709317456564148 0.34414061711561933 0.5139384756544083 0.021152213889824047
0.4679211167551867 0.35349988364314944 0.5238315601723075 0.03404562808747166
0.4046411331827206 0.4259443811935453 0.5369582974389419 0.09710907789145591
0.38789226019311956 0.43664770005385095 0.5336435425040428 0.12210912755512532
0.3572242132515463 0.43184525465625373 0.46540491616211555 0.004069340615657082
0.32032992758233003 0.4425864009191979 0.44860436605979737 0.006471870397132158
0.33779655493703864 0.4431029357995199 0.49494011393241 0.03620567750963903
0.35896564665792086 0.43977576722288536 0.49672473841621484 0.04214067416959465
0.2584461417603778 0.4882269552836818 0.6409667515888806 0.03817593559838622
0.2820585748035585 0.49342393608650886 0.6806895370615279 0.08585231897133648
0.27479184545638097 0.5039266143941429 0.7655080838832383 0.05227527961846163
0.2785871947167406 0.4909047575937695 0.6715683740703791 0.06999174526864746
0.26550779692205206 0.48155264637869755 0.6225986831535221 0.0520412822257225
0.2575824706785965 0.5073010265359672 0.6821493889627112 0.0548837538563941
0.2645658336113688 0.5164061238407297 0.7320349078970918 0.041781148051023786
0.2608983516073619 0.5007550887100642 0.7550028462821301 0.0717233812520054
0.2821832987701986 0.4954874264133445 0.7048477618349479 0.09437008840578563
0.29416046288726044 0.4811069768214671 0.6984002991557651 0.1001793840815429
0.1075082705334745 0.4512402543406383 0.6613361038918013 0.05865994880587133
0.12749635713777463 0.45328846265497524 0.6090786441161539 0.09339876880907338
0.10810340651388792 0.4486945618530972 0.6198858679014584 0.0546498261041905
0.12476336871373378 0.4572378701302879 0.6563727884222192 0.030217851976436675
0.10017348200753473 0.445569627720954 0.6661273866553168 0.05171199968010973
0.11070764305000867 0.45499781003057443 0.6872987861919918 0.07514826945341752
0.17398785761841112 0.47747638932034075 0.6575675105777007 0.040973475067473085
0.15814183100532825 0.4663681387262147 0.598267123665969 0.06516824930835026
0.16672139029341715 0.4683083476952175 0.6150308939493334 0.046867016010844434
0.1760164129371278 0.4824143628598464 0.6727444410813678 0.046326841068927725
0.14587322619763293 0.46805434390405787 0.6674965540600025 0.04809215125234334
0.18302505197664026 0.47789381664956393 0.63488643380539 0.05603964616420798
0.15361663833984035 0.4692819208216429 0.6505662581347166 0.06142541799764969
0.13843196262355545 0.47468447024903637 0.6861852778690307 0.02296722704044933
0.15483149349972453 0.468601827141825 0.6319736369817925 0.04511972718557906
0.14347129956734955 0.46553477068317195 0.6443970730049069 0.07082314384517938
0.09049025102652451 0.4081141202458283 0.5178438077691799 0.04214657481238818
0.07294529503011261 0.38033253007136003 0.5136691580959455 0.01597804871388208
0.09140059653680421 0.4117620724247746 0.513639360549865 0.03753123390111713
0.10383676553386613 0.4045210625568362 0.5541921271495998 0.08649025222574595
0.1989719376059889 0.4974230109879397 0.734032706165859 0.04500213498826279
0.22477269212761222 0.5042438629789747 0.730109760425044 0.05831486449263651
0.20625890435150707 0.5062040207287356 0.74528763892737 0.044074293160051105
0.21644977578718685 0.5151986428307942 0.7533648137983794 0.03598033834717908
0.19060984747168444 0.4948261882923448 0.749670600051551 0.05176269766032617
0.2248613145774453 0.4971688891917322 0.7309384971678404 0.05163761645186462
0.014500261348082417 0.11126926360129172 0.4478149322120034 0.03197906049218168
0.012981100799072491 0.11779329687499916 0.4472133163480219 0.06012687086594853
0.06718404749569293 0.0492335723837915 0.4562322058342402 0.06501062335215933
0.07594509000436894 0.03942055006655851 0.44846819914124925 0.06948267438147585
0.08685867581884835 0.035050976307364104 0.4553417592222129 0.042909038662867806
0.04617853291371439 0.0683649337128729 0.44488414395747433 0.07088296184741112
0.42930506983074546 0.04391466816504026 0.448850876355243 0.04074933803668158
0.42011249880176227 0.0361006492354324 0.4534534532708985 0.024716346148210312
0.4752773578842199 0.07458138557981801 0.44625511298417747 0.05027209794906937
0.04424201518356771 0.4125161205535037 0.01854545211357709 0.12627607030303276
0.09455386624759303 0.3975853842245261 0.03395783179670383 0.08659325696020573
0.08251605013074437 0.40042615988712243 0.009606873642353669 0.0047373905982840015
0.09661489488799946 0.40095977175516173 0.0500186554938759 0.08405101729624188
0.10434527833677484 0.3884601632363642 0.21620111648129314 0.10942100136687628
0.09771442268622853 0.393641876250613 0.3002481038404627 0.06525514367475085
0.11781511613089052 0.3811163406720818 0.29878782942149384 0.0548479314122265
0.10093817950885223 0.3956902717132047 0.26320618607630425 0.03992194306020656
0.11776429259191987 0.38122109975301527 0.30430072757680077 0.07001564451830085
0.09310905958200255 0.4076638989079303 0.054710336198338504 0.07212125212654376
0.09957780389300433 0.3906121585105407 0.16275766536924316 0.12971924000906138
0.10847125614538651 0.3974941905858499 0.10965246586986592 
0.08374006137884604 0.403424841044443 0.1866135221643065 0.13825756516915835
0.08444102809699595 0.41738552907264803 0.08688460183353076 0.06435524567101741
0.08768711794466383 0.41627239646509956 0.13947615125777846 0.07617088694596436
0.0794278340163369 0.41743981665078966 0.02031569050275372 0.14167041023474491
0.08147700886600355 0.43229670992687835 0.03973133868842318 0.13468647600104358
0.08204231584283495 0.4286744151687434 0.05333402013812508 0.15779341383494613
0.06861284049240741 0.43337412124969876 0.018402657610034838 0.09640821057537281
0.07458927399686119 0.43764702317659127 0.035038848561670215 0.115131498038049
0.11051246090204792 0.3756260222835783 0.2213082698132905 0.11763873174124378
0.11466277205019887 0.3844444180870451 0.2627607718251183 0.014655481145947691
0.1050134428046906 0.3806259818258833 0.17433347675365934 0.14381263101860964
0.0893296818874968 0.4069306445796478 0.11217134114887459 0.08920099251597262
0.10765079878832463 0.38600940287768815 0.19602633311865186 0.18988890057468139
0.12036881434268434 0.39016054095329966 0.370729758543767 -6.667667660587647e-15
0.11563931647888842 0.3819282997739639 0.3316594260213453 0.0637523776865292
0.10807160072523475 0.38656032028992526 0.33449849910511154 0.04374805932738207
0.09109254277495994 0.3900367333790871 0.2509280179322232 0.12576244824576369
0.10242649322661779 0.37958984848522004 0.33245498781752664 0.04763273363143095
0.09673083233669377 0.3741679954737831 0.32075637780369276 0.07510448184437174
0.10404093353186936 0.37871749108856817 0.3660504408986252 0.012648264627487018
0.053708095374326636 0.4327325601470836 0.022487687851187474 0.06631133192394408
0.08170045418921364 0.39088731683174166 0.21431023094559423 0.16818920701319404
0.06249400027824521 0.4334945665429957 0.05206725012870406 0.056757346105990904
0.07728469096667988 0.3538904025414989 0.3427069082750643 0.0014105092088109881
0.07170774948107222 0.3729200807377403 0.25882265940968924 0.07063313232556623
0.08070103409226413 0.3618294591432087 0.28710188667261294 0.04125530275525324
0.09027085066738556 0.3921156455583573 0.29488887182535445 0.07797582599741767
0.09158913598033462 0.3569377287526061 0.362039667096871 0.00950570528615191
0.07108665597980812 0.41358424126177445 0.12922249242225572 0.06424245101727433
0.08478264442924319 0.36384242805060435 0.3196087053423703 0.034202293469639544
0.09703820469865404 0.3660382309307226 0.37750016504229783 0.01302239793581157
0.07133977360007927 0.3801630435862074 0.25929010369433414 0.06201944051888789
0.08274818937575115 0.38729860592270704 0.23114739718696403 0.11577574444738072
0.06835942268679213 0.41469672784670436 0.11269385060331459 0.04086635393877361
0.07161748993626943 0.4000115536565393 0.186345171491419 0.18534927194765405
0.09662020859417397 0.3701943904153532 0.3402932309490251 0.012858294364532254
0.052516305846691605 0.42137365014780587 0.04447742381549157 0.13642947553202214
0.07412093177203201 0.38543213562814094 0.23016874381200098 0.11611322203067631
0.06437729669700756 0.39458432020466744 0.17673898128813098 0.12955439771891886
0.04976306892548602 0.4153567851157715 0.04620330717688598 0.14159872955141045
0.10051026947647064 0.3951585235963051 0.23871969444311394 0.0555686186229501
0.07629384622000504 0.41645389592021503 0.07740486093716165 0.150568657678704
0.09467110904790356 0.39779564855367744 0.20201171429104886 0.16313729243925099
0.07825690611430336 0.40186812306319475 0.19965307781565775 0.07995979342555222
0.07974849467137976 0.4171816487250689 0.1520940516038564 0.06301398686749655
0.07189085144479627 0.41963848561394845 0.10341350854603451 0.04402248254732893
0.0882644204044138 0.40921596415146694 0.1724269619489145 0.1263091744604245
0.09104969169460071 0.407066904496103 0.16801343597901952 0.11698145967644451
0.05133317217723925 0.39157361456520534 0.09518319875630196 0.01829710799546232
0.058466677882188706 0.4036636581372212 0.07723264524806772 0.09565206859359356
0.05288721443682327 0.415146770191738 0.05217342820558843 0.09867495719168869
0.05592732718420973 0.39610776198426295 0.1069102313817679 0.06787421796515236
0.07822591491202331 0.37300454861351956 0.18724424259420527 0.18708394668710637
0.0783816214152791 0.3749433267590234 0.2994013121867326 0.10466661799344584
0.06485584930909265 0.3892500544159429 0.17365111622652527 0.14779626519670325
0.0878837588792338 0.35044665244987827 0.36967823846424286 0.013920672563381914
0.07085693788759238 0.37214320901768 0.25447072228206297 0.07198045867019888
0.06794986121103232 0.38481215772184285 0.2070654276753639 0.11606385031704664
0.06403868198787764 0.4026265864206054 0.1410398534949399 0.04225628010317368
0.05500732859869138 0.4019447408340482 0.12649340192788927 0.05085398862090361
0.06051757056935416 0.4130189735838743 0.10007123117848302 0.05558574134225363
0.07859444641881887 0.35238873434444756 0.31520239624332846 0.03981439860191197
0.08007116689846468 0.36231579668478486 0.19352396241581668 0.1260834144504101
0.08405878224488776 0.35807102102200383 0.2562895325874133 0.07821392449094373
0.05531164018664404 0.4012836314617363 0.007074611584374765 0.01376900088499259
0.07778986423041596 0.36004060445088204 0.22896697652734413 0.1447749500873051
0.07453552241126969 0.39195154123435666 0.05448574266413955 0.1405948008808782
0.06892780725782387 0.373365170669362 0.22221524894186223 0.0872883984603342
0.08209026760831228 0.3529141963369715 0.2766349083252848 0.015263836466330892
0.04926541262127574 0.37660202967725426 0.13823957463470965 0.016788070761602065
0.06457919565482453 0.36949410329811644 0.2385783455023179 0.0870815620465154
0.06322447258056295 0.39329986018705376 0.14758599242690862 0.08354552223590277
0.043036270248832054 0.39938818243925034 0.05853327451483923 0.07113897270095443
0.4546396514066703 0.4241722124535035 0.013783945253593468 0.07476425399696006
0.44390539008945473 0.43250277930120895 0.009379438525723077 0.040450205269229746
0.4226546934536345 0.40551933216648833 0.04605215488957631 0.0007076214943255721
0.4211727240919356 0.40226789381121814 0.05896535616503558 0.00020046155889615877
0.4139394830449177 0.38496648974066083 0.11335559498778118 0.008455448373264602
0.3883967813910988 0.3657151928709839 0.246785045897093 
0.39911789956540666 0.377193846757356 0.3639161947659703 0.0003374329639086417
0.3931725532214105 0.3820231553572465 0.2946159699486748 0.004867357131548303
0.40886509252771547 0.3927047106032703 0.27017565141657707 0.0115602192671004
0.39822073834569466 0.3908513017248795 0.3270317146111563 0.021077972016708708
0.4173727093541423 0.40256409095626533 0.21906589938831478 0.014183595254984891
0.42356009382534016 0.40437517680001256 0.07672554443537075 0.1327650969656651
0.4158415942599741 0.39349555176343043 0.11178074634193286 0.04769053531331965
0.4037412949126075 0.4094002335674625 0.18867499907557356 0.0023632121910309983
0.4295818423678481 0.4211654788878224 0.10947676410325037 0.06411565556241625
0.42903035643365417 0.41334392004661313 0.13019385545786918 0.16044319310247065
0.4223865288421843 0.41562268053215423 0.1576807921424615 0.013379487166811503
0.4291702371513275 0.41424572828151635 0.06310266387268854 0.1760107014646227
0.44379431211632425 0.4357916296703527 0.02662473497839859 0.1482436489610926
0.4377515494438439 0.43063384665456633 0.05851619582615291 0.11520380777968513
0.43218893632206407 0.42213030357846393 0.09660973419807303 0.04770452566101278
0.42292806840572633 0.41222472014159783 0.11894677901506116 0.15668502558266437
0.4191183011531298 0.4011607938025261 0.10617137529847817 0.1228064507376919
0.3955089770117097 0.3855773301113694 0.3375431743237784 0.0011232053891964623
0.44879296737072566 0.4304110036201783 0.08004708418174553 0.17904312380229878
0.44435098125625344 0.4141727548888966 0.12691570807381747 0.14568033022979499
0.4258206356165306 0.3832491264915344 0.2689859844567066 0.02163831408589176
0.43944317472959793 0.385888299324594 0.23672487541574783 0.012953713273320216
0.4115962033081221 0.3835850784636661 0.2864481161016373 0.039207817432457964
0.41432198208333093 0.3716891987709288 0.35068260136718166 0.013936346556687846
0.4395696385564601 0.40675660265172314 0.18016510626753246 0.01158472658624808
0.4259158032639922 0.3775235765177728 0.30814489358784936 0.04337627206018904
0.41260107604962504 0.3835035714350376 0.3226348760947507 0.036772628755390786
0.420991509907044 0.3953725889400326 0.2540017057388436 0.005056665168430887
0.40938735709311885 0.3863702129640586 0.31156582854096704 0.022668340686891372
0.43302434017629043 0.3502673885272708 0.3270141537985692 0.0015590807399620966
0.43816370351693257 0.3731277899759763 0.2550556556158247 0.01770889082443778
0.4508815315608222 0.40099438784678404 0.14408880387657105 0.017297480603600132
0.4424329016538569 0.3804921712292923 0.2301730025355408 0.018544727046243246
0.4550641820478462 0.394280321616494 0.1661726234851809 -2.2185143862607903e-13
0.4641161004538735 0.41478541599076624 0.04243695392466347 0.007233440950035932
0.43834582828042723 0.3908369657824626 0.20949686683171076 0.013214878989075146
0.45507694770117796 0.40932763634530356 0.11556977422283156 0.05527326878043555
0.41939713580196725 0.36896280148280025 0.3503088279648401 0.011752118616039784
0.45143669867339603 0.4323449096922332 0.030204507003388937 0.16471742336828024
0.4298752744736219 0.41671346066313397 0.12201057309447559 0.1562561618731712
0.42433438672656687 0.41009461620397836 0.19236168662309355 0.011767089243016298
0.40747733389509655 0.3987825979018223 0.2541918260212102 0.10012087076577789
0.4514768639629889 0.432541985900181 0.08426964720806247 0.06835502625336556
0.4167428245723392 0.40271544189540154 0.23551576061841986 0.004792522287908921
0.45862392801763474 0.42545889235674855 0.02359212639561085 0.06819379114270861
0.4634625706364716 0.4066166687019781 0.05686167119457315 0.11545203067015343
0.4340623129742275 0.35042932740432464 0.34971712545552575 1.0459930539380161e-13
0.43190424966971597 0.36514834108113964 0.28746908941124916 0.005820132736683562
0.44164070978617925 0.36207630258062556 0.24534998942325903 0.005978135442098396
0.4474102437008071 0.3759576158161149 0.21020546393251532 0.0045953723203062975
0.4616236961260849 0.3981938344764074 0.07469550831358043 0.05314954482826628
0.4278718833884797 0.40758745474137703 0.014971739490217541 0.10345272306814872
0.021361369114322213 0.05968004883533233 0.006920860119511127 0.07777505900678801
0.016886612202712238 0.05434461712790655 0.009833451336547394 0.24564974540383194
0.02588647732457375 0.03402916549701071 0.010056009873952578 0.08702676046868099
0.07395860795652986 0.07887019209461175 0.1881015954724474 0.10551294771952754
0.07433154299534453 0.0733628158511035 0.319240488712715 0.09212633998676319
0.07509685023480632 0.07488735713331822 0.3341830381438861 0.06728035942032122
0.07818351011708229 0.0635031641380599 0.2568815626777252 0.021978883588520102
0.08525178122386792 0.07488113360306353 0.2950066489170865 0.0048146893294826795
0.04928569773251249 0.05418015298857273 0.06917010406997541 0.10702112968330409
0.031458111099063324 0.02830217986883764 0.03461712064938061 0.1063183249059876
0.046812906159731146 0.040180934339590975 0.09667794399249467 0.17999795413068262
0.05191399670067634 0.04927360042802522 0.130747964876013 0.017045695869891454
0.06265374833120502 0.0533073641053074 0.16023219217404042 0.03205762063431869
0.04146760143101726 0.03665186137846083 0.04709854992013448 0.1954846481526504
0.028231546153804965 0.0368231496446801 0.04929402893590047 0.1768326891019811
0.04300582729263338 0.03857852004273613 0.09622561611280327 0.16500030308994987
0.021047217869655317 0.026519925854253813 0.033869936530740274 0.09091743836648124
0.07710915237156196 0.06675950156196743 0.21553963861137776 0.07680144582287653
0.07935576344980674 0.07437200728525058 0.22399436502796066 0.11268397912555612
0.06768307147346117 0.06094816344967915 0.18450965183424992 0.22706478019066664
0.05446443439981108 0.052454946591831884 0.19377483820324806 0.15543397388525487
0.03500077400477527 0.04256641781445365 0.017767337657803917 0.19130407375833688
0.05344739540582951 0.055037079584149544 0.11075809994843107 0.0825253684104226
0.08802846750527414 0.0691346352847533 0.37490435302379804 
0.07120578860784686 0.05535711389995891 0.2901120622447364 0.026287784451813328
0.051968853589143126 0.0610366958736844 0.2363583821092849 0.10975653184501702
0.03316208799059766 0.061905742853429264 0.19247291035634204 0.11630962786834033
0.012215627639988957 0.04098403965725745 0.014593352177444764 0.08534761693863653
0.03098835951660415 0.041558242525721906 0.10982173802937921 0.16425650001009423
0.010260129940540715 0.039813412794190386 0.025235665592601642 0.12185057801471397
0.037590531217720484 0.0405504503664735 0.11589095477844535 0.06552676316163639
0.025610909100432143 0.04061436808068659 0.07309736245461741 0.15996355261289688
0.049774142184075665 0.059557335359215396 0.2275998937036092 0.09810823576632914
0.03713122247607181 0.060817408714961455 0.22604102809212384 0.030316289692276926
0.052019444402340076 0.06317996018973816 0.2769046639928272 0.06960768469685456
0.052291926174116266 0.06513629605936824 0.26549998476235886 0.0682263379665996
0.059298003252767476 0.07588292183673626 0.3382708112376933 0.04636840193019157
0.03025318656533424 0.04544867862290472 0.1515526468017068 0.06983879503048009
0.06303271669986785 0.07194108002707034 0.3127186430332198 0.10901190950707106
0.056106420450182805 0.08483488727338578 0.3186210316209729 0.0688153465060053
0.043439612974564105 0.09938976766926516 0.34876401197675816 0.011179532962498663
0.03058716494675011 0.08338080992673873 0.22753482967481523 0.15251837491688697
0.017677686606399675 0.06422511339392352 0.14619627823181483 0.07159919588479331
0.03341429974371829 0.07326913306752449 0.2317826721132584 0.036465815789701386
0.009784337820898706 0.033501626074609894 0.046885292532953024 0.08763524772252387
0.02895653771391023 0.061871987139562365 0.18723569410255653 0.12562353581820113
0.011546356751518822 0.04674915685842711 0.0953665465603459 0.142504222219858
0.014538714787479775 0.04282115949416647 0.07188990202484453 0.17580914431639516
