x y z curv
0.07148302619102814 0.33668986430280046 0.7439483889736236 0.06114528581668158
0.0550547830047689 0.32424281902970536 0.7003701782266815 0.05972387508413194
0.050928106102073344 0.31462570865801653 0.6522093127184557 0.027347681528368754
0.05659415776161466 0.3234708749871254 0.6818328386342418 0.11063231235628132
0.06453934021707071 0.32582658464741937 0.6659061495220465 0.18797402031391752
0.07606761034483916 0.33181392453645125 0.6699372194658225 0.1875656084995754
0.06430424162472466 0.3355341512049199 0.7334438795642143 0.06546171658382653
0.0741262955690025 0.33893556182545903 0.7227676427114497 0.05428521080893961
0.08529281725513436 0.34148703741361275 0.695252053819436 0.08588101787840752
0.1487470754396099 0.3502916532252844 0.6424304439859571 0.08626047957494475
0.146298018177418 0.356442206384651 0.6811473531410994 0.12896411746934303
0.15076689639851276 0.34821130727705635 0.6281908887062583 0.11138381814536466
0.15627489359510316 0.3693520030387355 0.7302586737913089 0.0662898074733948
0.14452874850957156 0.3378426689526597 0.6138768681964942 0.09626625639101247
0.17514762158364816 0.37403671796186455 0.7151892981430924 0.08679504096326653
0.15616011900470508 0.353656471357334 0.6755502503984274 0.15094733746095992
0.18016482372306886 0.35664149566048997 0.6653787037491611 0.06793441229162528
0.17074105658824662 0.35256028408720347 0.68124693528166 0.09670450394846565
0.1733626204178715 0.35762757010872304 0.6351146058179854 0.1066856119267843
0.1406040406902918 0.35169300352006344 0.6642218148214011 0.12515694547153114
0.127788285180167 0.38151399466654506 0.7633128289481763 0.06467544203464068
0.12759520790324813 0.3645508227727898 0.7189838743925261 0.07980941299011246
0.12175076643801952 0.3395127996631022 0.6698509005771066 0.08332402108915869
0.12465991493190814 0.3654970679354724 0.7238887311841432 0.07451999368080493
0.11710861153999925 0.3417198064715815 0.6399271267222209 0.11392190992868259
0.09740224081652599 0.3578602483458706 0.7441389031760186 0.07017263961345062
0.0998579018711802 0.35702775343542603 0.7625112555586678 0.08587372663541314
0.08997248651796823 0.3391863651392731 0.6540895818018801 0.25299207921761085
0.1012121537657659 0.35727301746044293 0.7296458320883515 0.08628331083930747
0.10723694468652395 0.36060190827764826 0.7149924246747948 0.07362820965891256
0.1042672572206211 0.3298621884769779 0.635551970205997 0.16182178410504636
0.10189016815171516 0.3440892027529903 0.6867466208773009 0.13039369377041682
0.14413547865036344 0.37242696565741773 0.7472091016398992 0.08741873830972943
0.13907315238369977 0.3605172992319568 0.7123619178383779 0.061272644091068716
0.27771657061868055 0.36752481769932416 0.7196976734711498 0.10877647248880608
0.28843143679516936 0.3635186790449314 0.7349486423509882 0.08094238240474982
0.27349909488833735 0.3469854975978842 0.6234575219390462 0.08965510830845982
0.2669488512505025 0.3424313939104456 0.608656646482558 0.09461198321684182
0.2699804995412536 0.34933107527486 0.6443206148049656 0.09238487597044621
0.26295589782941364 0.3689757681183926 0.7379252629945685 0.06731130340230733
0.25367637565843454 0.34851126207844985 0.620443808090213 0.09391755030466489
0.2541159145238743 0.35573094804830296 0.6558322769905497 0.1278962947872528
0.2615009881920256 0.36858609892591365 0.7512012701719878 0.05094232023844058
0.2711276087121767 0.3483977902933545 0.6875309383015427 0.12928844215805935
0.2639369726943098 0.3700064297744192 0.7232890267999604 0.08865255611640792
0.25162127001250045 0.3662562124782431 0.7037029572192337 0.0972341660941519
0.24123463319349195 0.353793101393451 0.6444182220916532 0.11586307612053982
0.24150110944983272 0.361933282425612 0.6932393692814343 0.09800513856928098
0.23751864973939138 0.35666333339975004 0.6609236559407443 0.10110021246448707
0.21796756827255967 0.3611756151369835 0.6518413581867017 0.10474737410467459
0.22826479539857752 0.36296715862335255 0.6194537435718425 0.07511070312092508
0.22634474361219814 0.3622682975266081 0.6803124370503204 0.06038193539850883
0.21623773599677115 0.3849195755671573 0.7260543870526389 0.08355485486681317
0.22272770426740146 0.37825743368925135 0.7263271946481539 0.08624256201773954
0.2082423814467625 0.3775191533283101 0.7493824532140518 0.06775352622731165
0.22280746692585776 0.3672163568324989 0.693720068306106 0.08145443583122938
0.2305606284581177 0.3553046123327166 0.6400783491181194 0.09136636134194644
0.23199779729529646 0.3486475892493832 0.6139255402570726 0.09536196703475912
0.24110527686807193 0.38783305804267093 0.7568580062513294 0.059686868139796935
0.24518070443608886 0.37501506285216224 0.7439446154588357 0.06371447417393068
0.185287433978269 0.3520616623366486 0.622301616865487 0.09249084020141804
0.18948075045263846 0.3577784089859487 0.6838930676115599 0.07460380858181057
0.18505967076767424 0.37210945535743967 0.7130286977443063 0.07859214869446866
0.1942427529832487 0.3445653706454429 0.6140861713914565 0.06620289622487005
0.20059407097747187 0.3700826738061979 0.7210828314542639 0.09543362004698747
0.18785067507455414 0.3674453346287035 0.7026858601015279 0.12685508873073195
0.1990703074299869 0.35763889440179164 0.6493633724365144 0.10037969582353969
0.20020025026435 0.3701824012206507 0.7126855306270856 0.10121839674171952
0.20271835933364543 0.37662510047252545 0.7348249374091599 0.057601426249183955
0.20507377792306872 0.3559852843649379 0.6425195381333432 0.07164813754657744
0.27872401938614233 0.34230134087621844 0.6926843518407543 0.11692275636676387
0.282380456322774 0.34601786025087533 0.6247633885310804 0.10003924500890184
0.3481342563060688 0.32382384568634404 0.634661230760598 0.26074405005815576
0.3387862929707882 0.33641239323528865 0.669039542824197 0.163221721249383
0.33420130479766064 0.3295908902726621 0.6503076802245411 0.054007811814278314
0.3428559867810473 0.3545138253973601 0.7602804385751089 0.046750994335353895
0.33216868374015834 0.34618732287110765 0.6825789579230085 0.12619438827904028
0.32738990151712594 0.32871645271317823 0.6412275818652731 0.10752536213515262
0.30807855371177795 0.3477963315161056 0.6726015329767424 0.1402998293048854
0.31250323313925144 0.3575098423179753 0.7248601925764934 0.07801434525624715
0.3073076537990874 0.3526224855715647 0.692367791310802 0.13110045862610223
0.31654521956605347 0.3541909549281633 0.715614366232657 0.07640153505043379
0.3069746095493356 0.3589583915314746 0.73393160729696 0.08735104327469725
0.3150733562115016 0.353320445922396 0.7061351813927699 0.06556046750262466
0.29444002784220363 0.36181880532628613 0.7438426193777179 0.06925867556478382
0.2987582479538381 0.3621421940221502 0.7159624972925008 0.10229965274853063
0.29983520551390835 0.3547536300199543 0.6226377780708007 0.06515059618024993
0.309618516796782 0.33945626876770696 0.6618076116134975 0.1035668988048617
0.35930187173705175 0.33952045506719514 0.7226146131021463 0.10709014143692705
0.36872220855623694 0.31631057547058156 0.6283102782769703 0.04529507409614966
0.36497764058340515 0.3158713337301201 0.6550534901379781 0.11557057326998289
0.33973821573729196 0.34093735970580574 0.6839957325530169 0.11726980466623368
0.3724287556749077 0.3175774870129462 0.7044003075349723 0.015614373672607651
0.37660916217033275 0.3288676702443831 0.6534363955260819 0.07508339721446099
0.36971802955498806 0.32160549145898343 0.6401728700313369 0.14740396805428357
0.34882307398976165 0.3342358064601932 0.7593317741539386 0.041420042661133104
0.348143166167968 0.33833048117610676 0.6950080051894706 0.11228233885591586
0.3429226843677915 0.3384801470962823 0.7160068468465154 0.052696246989974556
0.29478485953717065 0.3718392496879401 0.6915624404370051 0.13828237604796784
0.2829898961353185 0.3707675057920217 0.6475279202816834 0.06569902508031904
0.2681354908437176 0.3758216380185638 0.676737528817286 0.10622744606234724
0.27463213829361494 0.3757689443249971 0.7178344122276823 0.07391418814096937
0.25824338311952777 0.37212936731562885 0.6442845405367149 0.1124712665112877
0.2696761509754633 0.38503286046640667 0.7448938504887321 0.08009566925425916
0.2539907910479444 0.3779497774434812 0.6539334359075165 0.12036134982453951
0.24727138707471985 0.37772571178320746 0.6467024380042913 0.1011390186543253
0.25638863124151784 0.36592531128074407 0.6128533568952075 0.07853025540110672
0.2550669555306072 0.3921734661399087 0.7488758722583889 0.05459203179298734
0.23913362613729466 0.37408857889092656 0.6562156054235899 0.09284459839550614
0.2517037126651389 0.3737527009523177 0.6798362501685915 0.09302069529469491
0.23376958662790706 0.3899242500590179 0.7137021789801575 0.07841122775786288
0.2598329410093796 0.3850128907586415 0.7532298581839972 0.0657348518095553
0.2853240333363376 0.3817370097257561 0.7407063483217755 0.07603036458072361
0.28190611727283305 0.3749066479603961 0.6988515592620769 0.12719543559494695
0.12903539835658587 0.375103696234359 0.6930493138739385 0.07175220082758652
0.12470842726140531 0.362026317324364 0.6309534093630195 0.12191782045645236
0.16360651916159002 0.37850693007786534 0.6993648903737891 0.08541049352797175
0.16994654109736576 0.39126348255531285 0.7457098699654471 0.06404456552953539
0.18011902304680025 0.3883840056080129 0.7001684123261264 0.12111092226077898
0.18001140293185244 0.3902504631153852 0.7386834332154577 0.07375098388403922
0.1705323489840571 0.39075559803714227 0.7355423086412467 0.05799592514457396
0.17259052093203767 0.36584538817023243 0.638316403692064 0.10706578823182815
0.17363674203804463 0.3640717727134695 0.62262155978409 0.11543223486045216
0.14926636831705178 0.38492965642802157 0.7479937414594963 0.08620852500956253
0.1614892915236313 0.37537651590287274 0.7485189677373788 0.07038919717934855
0.15926608145238558 0.3663319893746936 0.6385216315081021 0.06990356903688345
0.14817447071765416 0.3647972156428294 0.6122324813500952 0.1233828531710959
0.15286397447928143 0.38248397647131205 0.7243500603241297 0.06256766923816216
0.16303622539735543 0.37762705109993555 0.676938036288227 0.1215718486231421
0.1879174668381034 0.3844672366910765 0.7205057521724464 0.08989592462502582
0.19101377087139115 0.3723282600672875 0.7304031545612923 0.06789821023830593
0.20921868352104298 0.3960856061396409 0.7527815608549465 0.05742372710391479
0.20573414756246042 0.3645083215028935 0.6662617172671177 0.06741500158666505
0.19841517867199665 0.37394487146403926 0.6396835330540664 0.07713967579996378
0.2025407831142075 0.38620472159252933 0.7250253273701905 0.08711674507706872
0.19023679496971843 0.37295075282645024 0.6405787211068523 0.0829453349861435
0.1896188464735891 0.3668381443321679 0.6059703002033116 0.04832995518028476
0.18152602814724167 0.3737405133210704 0.6527832107272574 0.08030650346485801
0.2148487240705789 0.3755720490586297 0.6529284314304671 0.1033560874822143
0.21260851850531776 0.3967219252089015 0.6956302430972486 0.09884900568995215
0.23200850364276696 0.3900196774711647 0.7489968666569484 0.06565593213921841
0.22677761496972085 0.3786948946640883 0.7373018510362362 0.06729720587674451
0.22891215031880424 0.37014968974210266 0.6976215511031229 0.11654320753169808
0.22811072357280315 0.37258569616302434 0.6397255890226682 0.09286511344304571
0.1436889592066049 0.37333675690312024 0.65214569763936 0.09718281864597232
0.14029264503876876 0.3884194930933422 0.7566100965281215 0.08276037703448418
0.14512898872372496 0.37426151993609164 0.6789773077722286 0.13172891949362808
0.1387482280792049 0.3779775506651734 0.7324749972090044 0.07416447988339138
0.1420167240545329 0.37912923209453536 0.7084710305534461 0.06151032501313111
0.12979336324194968 0.36972862266233264 0.754387877143215 0.07061338673562176
0.07672288534089154 0.35768403131743676 0.715004694002355 0.07013126208790428
0.05492479006156501 0.34464586716750195 0.7059487484752736 0.09967816480996362
0.058142961146170055 0.3498854124287736 0.7484823535939774 0.11377047431373659
0.07873089659091874 0.37117860707202016 0.7584841357017332 0.10713603658637022
0.08819437352458709 0.37713334255422704 0.7528797284415031 0.07723052398324798
0.11976313709082746 0.3745548543395062 0.711347250357529 0.06426930923181182
0.12226715436761343 0.3820575937822954 0.7361655990672396 0.05939727123618547
0.12841373413881577 0.3729515086791767 0.764950068049295 0.06848952938593693
0.10644808355815301 0.35941138917736853 0.7258347976891409 0.09228084175368127
0.119245655756829 0.3826499258292866 0.750972954573883 0.08131515213037577
0.10530866830843684 0.37388505087074175 0.7366131793466926 0.07041227204904844
0.11285676651864886 0.3636230514125508 0.6782089963446132 0.1104330631349942
0.09288671046827736 0.3653343812578217 0.694357622038477 0.07055745861878385
0.11018561058406326 0.3568137693801317 0.6232782001510059 0.18128006359791274
0.11639588388978768 0.3358483472669703 0.6115209783462976 0.17552194565256207
0.12090213804197138 0.3675084130986094 0.6557682040851386 0.1268765124693938
0.09702214625965282 0.3628372585391201 0.6692151914172569 0.21237148600675415
0.32845592402675194 0.3639155515835514 0.7355768203164058 0.05980305693524681
0.3250281682040514 0.36862650424626336 0.7534785915427885 0.09296072609430348
0.3179346351143569 0.36846529192601674 0.72460421053832 0.0745419051769608
0.31629887088336545 0.3655160391788008 0.6974364112874257 0.06463255738391398
0.3165634403078355 0.3760057166811503 0.7465295610580273 0.0808266726187466
0.29589388677145 0.37425584057223366 0.673239185543129 0.12868952275042406
0.3117846939299095 0.36892650377211994 0.7074625345012271 0.05928676972568785
0.31981006689602787 0.36294441589716536 0.6684527666411322 0.14290695692522873
0.3066975859607537 0.35445318335554526 0.6346676450522067 0.10620312928098576
0.32432368160754294 0.35774048430514865 0.6775223145470917 0.12943208736118098
0.2967534856372803 0.38362568433798433 0.7269079263594144 0.06335715023968314
0.3510106022341005 0.3515739878628675 0.7537049515561594 0.06377040620218437
0.3433974803777098 0.3547179964078858 0.7123050710686951 0.064857052720049
0.3594446178847255 0.3451579701601616 0.7482815617983481 0.12913494703064435
0.37103517314299767 0.35323211204333826 0.7349285018086482 0.08972886623812835
0.3728786822480502 0.33336898502566253 0.6888695474376252 0.13834700426065266
0.3705656518185253 0.32064603058414015 0.6487430776491884 0.17985907939223272
0.3808957595143313 0.3395486015075362 0.7077456326846612 0.15873793742468018
0.36957048927515246 0.35260636401372397 0.7257440930790747 0.07037843512072853
0.32021378140710155 0.0039058489975899863 0.21495188944301935 0.05236218974968464
0.2805428335333901 0.0016082249482005364 0.22599572606406704 0.04089961355244585
0.2566991708249544 -0.0030506425565987403 0.2259199060571075 0.052352022582341555
0.25016062352495433 -0.0044411583202372245 0.23356486499570178 0.041201613138875416
0.2413127191156408 0.002899677669643462 0.2153290289228615 0.03946814116440051
0.20419537546236638 0.0055799210869500815 0.22715015827759102 0.06538041616118119
0.16972763375697258 0.00033189888251413746 0.2189126316612187 0.009583774427796909
0.12452492121566563 0.0014910066263980185 0.22484852001917646 0.06476141643359266
0.08773314186065863 0.008598363932697946 0.2257771130468591 0.01015730943329548
0.2196994113461375 -0.0026934080228228478 0.23928318937716234 0.03400613592437839
0.2835507332258899 0.00491602873556018 0.21540873458807874 0.023580873902190352
0.3067260772157976 0.004081122359697624 0.229405307398214 0.04873069078501216
0.32846359431475036 0.00014420097262517455 0.221309055109002 0.028363143045322437
0.3630801872548564 0.002116288642469707 0.21719897885864783 9.609668737228505e-15
0.10792798610835595 0.0008120157796600675 0.2227752834497843 0.003064792161836374
0.1388638831255098 -0.00013789301746208217 0.22699136055488695 0.04600414427098541
0.07258905831310664 0.0074835198856202535 0.23637223218684372 0.0011031818396167068
0.06802087697090115 0.011117385801293459 0.2252360331064658 0.03398708201436738
0.05747017130533481 0.018949697201709918 0.2313071065305517 0.02382998472933566
0.16473610766384905 -0.0012565644289583879 0.2194508459105884 0.010850022673992047
0.36495680043255363 0.0851331040303431 0.5302766043189069 0.04065734779339952
0.369645990417641 0.060490218265947304 0.5232114680952983 0.09578264958977532
0.36000400865262466 0.19414669563521328 0.5264475227546601 0.08400647864558441
0.3657153889879952 0.1450176657333306 0.5271340676284617 0.03461212562871805
0.3548468739313403 0.16930888095879465 0.5093294911786438 0.007597810248378771
0.35548782326906425 0.25972241617459146 0.5153390321366119 0.09465411866853637
0.35616427401177586 0.21980586865956286 0.5256151644818641 0.10663646644217648
0.3601764770957214 0.1368617793640057 0.5312184935822566 0.05669334089547439
0.3559682971554513 0.20947186539031526 0.5133758041046455 0.047272117964097096
0.3628067429405297 0.27125781971883667 0.5246613524447764 0.02652248324202401
0.2618635941055485 0.3307106026385043 0.5196655276939715 0.0040903495991638445
0.28657111706090943 0.3227158101417996 0.5137653723199251 0.0025509160354921755
0.24035956095235395 0.33405754741175386 0.5136560300865978 0.01657376175907341
0.20034180323969283 0.3341243448684997 0.5152685605614149 0.0047559955637918715
0.22380710211656965 0.3385452006157078 0.5189342606769479 0.009686254451497598
0.2894525309035606 0.3245670131616302 0.5064701462858723 0.0036475132520572906
0.15304486373448406 0.324477900809341 0.4998658891711952 0.0019109765189468417
0.249356607158247 0.3327903414862773 0.5029880173496251 0.013445200677286126
0.22004618119655014 0.3360413561279877 0.5025354311994487 0.012104810111557436
0.20293979944136167 0.33548994626827483 0.5086702289518551 0.0050056254032823455
0.07195525580550273 0.20233933210705826 0.5362412285508462 0.000489192882098057
0.05218532474771407 0.0666515626396105 0.5304510944096195 0.031042153891795633
0.06505276749564311 0.18333316370657712 0.5328096377448414 
0.06403241316580888 0.05258380205230645 0.5404863642245232 0.0013830876926373041
0.3528095085544722 0.04037902063826781 0.5284872703169067 0.028682943041108588
0.32690684183985874 0.03464693437432803 0.5342745882785884 0.01943870234544851
0.21538235845631706 0.032366194174723716 0.527569534170237 0.05678373337784262
0.16137181153219043 0.03334707747515056 0.5194781806111974 0.04515540387330226
0.11954899495977878 0.04107429171923297 0.5310076145227165 0.04502300491393985
0.07859704115607716 0.04093081123021309 0.5326653484138179 0.0105364866189656
0.2616385570454105 0.03218524642074709 0.5198116726572038 0.07162534078555347
0.10205075880976583 0.0314164382373299 0.5084640583593466 0.022278258447861472
0.0766871576446917 0.046117759357564334 0.5143470688517087 0.006736386938966378
0.1813432022372387 0.028341886266278784 0.5194170073149645 0.034396861470956434
0.14856278255116762 0.031677668084160567 0.5092311662350634 0.03247165614447389
0.3062638707191506 0.03307855580886294 0.5163392619758921 0.003412624686021734
0.2947625690408546 0.0356903719842567 0.5231252985260169 0.035754617513805355
0.24964232523271504 0.02642347615643628 0.5228552612201923 0.029094870878741397
0.19227514345581437 0.02582784642329779 0.5189820771371654 0.02742569762409065
0.15725784103915552 0.3289940695470982 0.5122116193133474 0.007066944130655128
0.25750287068857486 0.33332794768358065 0.5012264005761027 0.006155286253246687
0.3098145358752685 0.3185582399923554 0.5215987899062806 -2.3992437741156404e-14
0.3561867251931984 0.24306487954554507 0.5362517647429602 0.0003241397749667105
0.3572029266731527 0.17416126818602984 0.5252421394870408 0.04816361245692789
0.36176388353537126 0.05939186580010462 0.5299392313984663 0.11852557125361199
0.25718139321406924 0.033998498236709696 0.5065619192776453 0.042146189393064235
0.17676678696088066 0.0374821288409501 0.5085629645769594 0.05030755569087504
0.29135362220137306 0.3684533155156206 0.7534659419181211 0.0841907795739001
0.21369284349529338 0.39371680051578195 0.7604743741341118 0.070229785012188
0.19895161867801064 0.37879944107601143 0.7566809294425513 0.0660077208896526
0.09359294952698903 0.3813486175569699 0.7547404173129804 0.10102459425702771
0.038174674136485544 0.3372149190085078 0.7079417679094117 0.08048326160081958
0.038790021312691915 0.33233029671014086 0.6694093037968519 0.17292171620533792
0.06301754092701674 0.3150182149986073 0.6098531339417398 0.10256220039302247
0.09836654991020338 0.37162510708274965 0.7696367210901607 0.12923867092784977
0.10431305013800163 0.3706778244911609 0.7666684493267754 0.1328971235586949
0.0768681565145628 0.35344465770350547 0.7574770200863695 0.05947212302988837
0.31677230518118893 0.3580353289475443 0.7590567061396596 0.10308972308492419
0.19808379317510816 0.3886404073971914 0.7632934361882092 0.08137703575811349
0.2845192074332536 0.38581143735144585 0.7627040770818038 0.13500123786364296
0.23230180503788886 0.3904206407368288 0.7653886788959774 0.06464792289997491
0.30436721627920543 0.3825525661942969 0.7561576681185601 0.08273392547203101
0.37648149185062346 0.3273260442347612 0.6549939221930482 0.08766157956016138
0.1646992858503658 0.38745745414417343 0.768703059759046 0.045370005076279564
0.17435076789843065 0.37096682756101523 0.767616024543368 0.07179586611568534
0.29453261548231086 0.3361373672862846 0.604107274605462 0.05529749387107718
0.3760002737242717 0.32100439373109646 0.6709959576907336 0.01843407275451685
0.32729573125493644 0.3326857818221834 0.6225084672647282 0.22982000680190703
0.24192800385194632 0.37791031240423417 0.7616551427097593 0.050664389608741395
0.28281976729898245 0.3559544047867317 0.6130247296456056 0.09198661402059069
0.22560923676200242 0.36144253986052105 0.6048317205311323 0.10593514768352194
0.041181534558356936 0.339095132806238 0.7229626355371412 0.10068087033985956
0.03729171949109892 0.3277284961876805 0.6626890089678209 0.20539497227539635
0.04688061581853367 0.32155856631288876 0.6426188066157892 0.027359345919026234
0.047605081641435024 0.3279098799136359 0.679728174269011 0.1110710743136151
0.09173624777550447 0.33261106256688167 0.6154243485504195 0.1940414521900013
0.06532293715388597 0.315361049946838 0.6134338195784965 0.0406996931181354
0.038752338804387144 0.3341537491038821 0.7122619536013257 0.102196981581457
0.10991645544658378 0.33548195862550556 0.6189885588385642 0.14135966186073276
0.04458712621912812 0.3424402949817045 0.7433516873477072 0.05026257456612982
0.06448964261891453 0.3141540446126393 0.6399439259203934 0.021166676587129226
0.05495417925740912 0.3187690523554494 0.6255163693645286 0.11659210661982077
0.09748920409030476 0.008075009260911464 0.23205237290815947 0.06117577672007337
0.17936816875470474 0.0034687798496363855 0.234628055111319 0.039186765116895894
0.2496809982419613 -0.003028152882915933 0.2221278566212263 0.05463354687398787
0.2972031300539238 -0.0015756242790164066 0.22234244852112392 0.05133718530677257
0.35046922879073283 0.00973295536536803 0.24068074604390097 0.05460560934617295
0.19612917367279342 0.00430841659438656 0.20536425333331904 0.02201746834391664
0.22857600663607602 0.0020362318530751794 0.22049148757482617 0.07370150230074636
0.14135759952964624 0.0036334631298953765 0.21541809729155453 0.038790007826260096
0.1542250005153044 0.003943834780133302 0.23631129121920114 0.05880204126289735
0.116365201746118 0.003363057106727492 0.24466932966254717 0.027907872382262618
0.23762905021930025 0.008326509425017956 0.23824941404962885 0.07169293092888877
0.292201469938249 0.0027420211177115695 0.23463840047023526 0.026761822325817197
0.3224566348745117 0.008242035138503339 0.23521143406169973 0.041173606503881334
0.19745685728480014 0.025770104391863634 0.23837878132055154 0.10895741634597525
0.22057154222199574 0.02776373259632706 0.24258864694378873 0.03271878387652674
0.2809962502365937 0.012138602410704224 0.23711165428582237 0.03293268665884684
0.2669042688357246 0.025175533759730195 0.24327092352843865 0.04155063595585971
0.1839552631115509 0.03197022965991004 0.24239270861814324 0.008984672578136678
0.1706493755429181 0.008675243683803893 0.23523376374957727 0.04617423562621587
0.15851704703883535 0.041696752475844326 0.24565134175315456 0.000627204129857784
0.13684037992434583 0.025556168935539404 0.24106294147905402 0.07237192589894421
0.11997758072238027 0.03347924470304122 0.24451311634892267 0.04395989651747802
0.2886786935628632 0.030831034427562305 0.2426323147902488 0.049006474445882235
0.2956092172471725 0.014660378938474421 0.23868102820784154 0.03905389240900651
0.3116742937197262 0.024822059298669003 0.24117187639626259 0.04407688492977423
-0.004824908524530451 0.3861955565132787 -0.005418043347862614 
0.06171481771821938 0.35462355808703844 0.6976677370882906 0.12808199693228223
0.07894552453351121 0.35566190742578324 0.6243310799199432 0.17361390767861445
0.08080678232243303 0.3568516637968421 0.6288053224691521 0.1434737444642943
0.07230807510567541 0.368560117596612 0.6483868475099095 0.13294628736921787
0.056921688550762156 0.3671725109466367 0.6501487913785767 0.02950607621314079
0.07105536224467733 0.36838754298349985 0.667045484655454 0.2001467088112978
0.07637894912393438 0.3584904124141529 0.6936802716635925 0.1086782630499428
0.07822224982110618 0.368584474938931 0.6578248675960018 0.15544071452778369
0.05390445338627107 0.36052052584059413 0.6574324497083571 0.14273318139258898
0.028852536449592535 0.3856141051829234 0.020154410170040795 0.12629280940978296
0.03120247077275755 0.38946222279589493 0.1379738526208972 0.07802874289112754
0.03800339453604346 0.39182150027091955 0.08152066720505236 0.012928478200623617
0.04614526409672945 0.3782323785523891 0.29365735590567754 0.032849684251259705
0.031163176531741745 0.3920534346463749 0.04209097496838099 0.11881860070415319
0.04225587332406646 0.3842089312421285 0.2777587335546596 0.015055829449958428
0.05628981393160221 0.369038546620028 0.3969962115157163 0.017514793812070013
0.06442865492925093 0.3672522101713244 0.5528931882040631 0.007075579693494344
0.04632025611310292 0.3713696446951885 0.12599994232891523 0.005947932245344014
0.05355489459050792 0.3643093365277325 0.21377211323398454 0.0041992390449739165
0.04598541743271846 0.36625892370457347 0.040415106044596597 5.353602530435398e-05
0.035778733215282306 0.3877327454138867 0.050149634177394944 0.03641429933435225
0.05685374011375584 0.3732157672615234 0.2574431956292772 0.01871752270481533
0.05774627709163178 0.3700366143521508 0.2804875964663647 0.012943681213779003
0.05164259073887679 0.37057527494355913 0.30022434499581313 0.056561087798829214
0.05103806192459235 0.37011156538406986 0.23102470758351157 0.02644453564885208
0.043047839607289265 0.37418430685094517 0.19444518614869824 0.08725547770261595
0.03724124001622883 0.38198664099378477 0.19608375056855726 0.09097483421286143
0.042768449315412974 0.3756397907578964 0.0956841441509162 0.004527198178080853
0.052383729860552564 0.3773487524984633 0.25084439274292636 0.02885538735739971
0.06602758802141336 0.3619851788204169 0.5083024981212082 0.015503931660373527
0.061725235099498364 0.37041793994554384 0.3506885751565229 0.02248028660816511
0.04960958446022737 0.37574169388831724 0.36623002045562203 0.047205342680279976
0.026294432374501558 0.39253303276043106 0.023447712491959354 0.12432488288827537
0.015104754440730082 0.40002640679684104 0.050170317708633255 0.04595403349739537
0.011705193154354594 0.393818125870017 0.07514453210919407 0.05401936881974232
0.01967660445579773 0.3999691931571924 0.0017855342572280601 0.00259628182198943
0.012469606227517915 0.394692476334878 0.06334958106268006 0.06318517533682805
0.017583145887900168 0.395942088432929 0.11564314457087468 0.07450780367840952
0.018990173220617877 0.39891570933286535 0.06574610024056728 0.07389280212659396
0.042566340139046796 0.3820500226159308 0.2496063596763328 0.06506416700576587
0.03039837515999255 0.39039899336260303 0.10788046691387046 0.0719806841307619
0.036853213091088764 0.3840953713586762 0.23612594650042273 0.07967559364787687
0.0347534759669159 0.3814440721647063 0.2889509000919758 0.031774351744572674
0.02318095346638764 0.3951514549230358 0.12264839402272613 0.08021874143249039
0.040746227486055324 0.3801741990056437 0.3815812338352178 0.008739253192670866
0.04821039084455437 0.37151159943386675 0.4290248758355542 0.013774301446258984
0.05168692698804893 0.36859197599251514 0.4583738297355431 0.0298637417530516
0.047564062154887427 0.374155273379933 0.39093192732542037 0.020664273452640613
0.05065017017958489 0.37998210701064666 0.3321031694474979 0.024710581194826813
0.059337725415186886 0.37815528149368294 0.36802403346857526 0.02060076490558753
0.0583061262687387 0.3685086835786951 0.5988485701254734 0.062496747777131635
0.045064140390787565 0.37181384971009535 0.4048341304131372 0.018158662711043976
0.058435051001205614 0.37092463804659115 0.5749843483431716 0.10671722586291324
0.03566022404156273 0.3909586695539791 0.1649123272244772 0.019888314441098984
0.03243229110394415 0.38919391998126285 0.22513560899528268 0.045199692688732994
0.03955463197235325 0.3862905380691983 0.1351031822262919 0.07988133223464346
0.04652099248477996 0.3929024765572875 0.161304623308427 0.015261497558022944
0.003855543162650044 0.39833710709613257 0.019888456101581138 0.055186333022443024
0.013705906003515952 0.3895100897861082 0.15423460768217773 0.023123689762548194
0.0222923715153891 0.3807620419862753 0.24838001701621487 0.08407973848131396
0.02314599418049532 0.383511393500559 0.26632047245638435 0.033609229174630516
0.07267399805307939 0.3695415950769859 0.47796502367156546 0.009784619446940115
0.0667316753610558 0.3616481453103169 0.4146446502299029 0.009050463182577932
0.055252349730813555 0.3683750554145614 0.4793585462711677 0.02970460322606828
0.06561106659198966 0.3674489799063466 0.49671184055283535 0.03632286839330006
0.05458502302735626 0.36689232397824617 0.44407788183096314 0.039119206093137744
0.06679454049629388 0.36005196922598814 0.51640961058962 0.02252934770908496
0.07433848630473154 0.36242917798845303 0.5635168003944487 0.08478288453415077
0.07947009482062972 0.35510221352005994 0.5366626308289437 0.010061443498572418
0.07995549592369137 0.35588349176023265 0.6035675160071038 0.09090648213252943
0.06805678993446711 0.3720812790109721 0.4625550904891111 0.002314128268119481
0.06434724988304809 0.36861790651807924 0.4312224426548662 0.014595056150701648
0.04597852920618313 0.37026551352603415 0.5229750143287227 0.023172386686648512
0.03921086820171655 0.372515083389441 0.42057181514008457 0.015524383679884358
0.0626749430626049 0.36144109534266083 0.6091322043722722 0.054114652877485486
0.04639620847485125 0.3662310785605955 0.4913164982548925 0.032746157179421274
0.04719747798435589 0.3626080129661591 0.5950160159964245 0.19453378569713206
0.038233427226338504 0.3691516344405048 0.49286146523313606 0.03031980074389678
0.04076241354635063 0.3784112620824879 0.5703563569434659 0.038333315157188144
0.042117859083194 0.3646902427560196 0.530314325951903 0.026512556531330927
0.008660645836877149 0.38729119041565746 0.19347566966763866 0.07367281396985179
0.0035308606388613764 0.379565919345498 0.11987047201601343 0.007135750089836995
0.011199021458485208 0.37026698836290645 0.24880781115256415 0.016332784357271528
0.030195918317423014 0.3800123744395282 0.29149301793064025 0.024689267133780786
0.021492408294381565 0.3726304367081568 0.30442827373585746 0.04765660460721008
0.03734487074262782 0.3820527952414388 0.33776677983249936 0.02934660807988801
-0.003711575055417216 0.380241025975085 0.05537574618078308 0.03554409373804849
-0.0056466112743947805 0.3814974658605164 0.03598749232232486 0.08671689630188005
0.008682622980174576 0.3621026282641111 0.2015757630072031 -1.208468734319426e-14
0.03162558175669307 0.3548542202227258 0.485481368215494 0.0327958263738708
0.04141168010917225 0.35015514533484837 0.5943074574113351 0.14655138611267093
0.028604570415289864 0.35008247679379245 0.4675667430160475 0.031575578119320206
0.038746263638824746 0.35892095559128395 0.5220920383164587 0.05115656729251907
0.030473314389689827 0.3692813060922429 0.4180283426626368 0.011557950356958844
0.04226069133811965 0.37325861041253905 0.426654390009194 0.01126467294489891
0.02910787154387575 0.3688984968571361 0.44424031525786273 0.022070925801496093
0.026176932987180476 0.3711631742166767 0.35569493465460755 0.05825337631075588
0.03009559735160498 0.3711149488378243 0.37674997007664535 0.04509765635787341
0.04390594395457361 0.34862109110745687 0.6073490746876714 0.11598174562789801
0.036239185360412034 0.34669692002492025 0.5850025983510875 0.13539355080165683
0.02288184375150621 0.3655997750557925 0.3241034250791251 0.056752242181853534
0.020598113111833117 0.35583223015525794 0.35040294664912786 0.026024820627050475
0.05581576653900047 0.32973250955699124 0.5755240617529097 0.07090040487734912
0.053382474633240924 0.3516732784992398 0.669941083332549 0.12127540230269658
0.4206879081630123 0.3757102701522338 -0.002378959916741326 0.08103905098982882
0.3999760992609609 0.39337205655012386 0.005753847477570216 0.1798478188095954
0.38966546432663446 0.3782708957032365 -0.0015549366990602574 0.17573771207771452
0.3684010538652801 0.36626005724635363 0.1551167118875811 0.1741769704687384
0.35747754865193615 0.36036905528737134 0.3375573656468138 0.10467988980348669
0.3707415613148016 0.3369799100643636 0.6617193779344515 0.19962774047970097
0.3616679422907578 0.35672789878072714 0.6821711127686262 0.1295811406206268
0.3492083121156756 0.3569745419979219 0.6872358366253067 0.09486802197995957
0.3418254168586351 0.35677521401313717 0.6194242288841056 0.19161498297546717
0.3452935279490956 0.35688901418890684 0.6647370865359626 0.17376096491519358
0.3520173798355763 0.36184241635777287 0.6315850237259986 0.19864941434105635
0.36969084563517074 0.36685517620966 0.6215665503547239 0.06581519455538837
0.36337623825108845 0.36065938762298194 0.6703110337828893 0.08597868974635509
0.34762847595487 0.36910825220184706 0.6502943958670243 0.05945506073149641
0.37788922008452763 0.3853323085037871 0.15936077766371656 0.014058338273217633
0.3758491553324559 0.37897701654821375 0.14310983827264573 0.14876160394843274
0.37392628619576634 0.37924413908453775 0.06421633233309496 7.662305158771726e-14
0.38055752310185265 0.3811306633696267 0.12801038085606842 0.15656328189591917
0.3874200486801167 0.3867660455967988 0.026618832131436815 0.12470979461670488
0.3747789265348769 0.3852908374325058 0.2427718395501796 0.05451078100233752
0.3828262818414469 0.3971766533866618 0.09969284913680147 0.008620871187914695
0.38599243921985454 0.3899676643751448 0.06264155605026157 0.10048884253357303
0.37553372364519666 0.3831232070630528 0.2717929562684575 0.04083747562012093
0.3671774877747716 0.38447301280901913 0.2802451308190984 0.03846081832883347
0.3726019501835128 0.377440854244516 0.30665287113132367 0.09765223557210786
0.3706749192359264 0.37563753062838195 0.38207030287487154 0.12419523232778895
0.3731181957248129 0.3813687577245878 0.34794066631011034 0.17521483384782635
0.36776885286823996 0.37245475483509827 0.4386173707964061 0.08852968129904529
0.36968734430397626 0.36795988635547683 0.19427622320538918 0.09555881325702459
0.35529801267627054 0.3646091446677542 0.3661448302342168 0.1591290486990063
0.3635956681347543 0.3701252979222241 0.2488940395817129 0.0550000677862077
0.38116197790676504 0.38924135613564714 0.2088525240257052 0.10636323269170461
0.33929825329362595 0.35153045463174204 0.5684794633686122 0.168629711803965
0.39939594913888055 0.39698459965784166 0.019730200839719055 0.12180545749855468
0.40240324679900014 0.39037447356693333 0.03893109107394348 0.12709696129793735
0.3963222375759573 0.3897719949338161 0.11558800141471011 0.17945228869308033
0.39507931882356406 0.3874864401232562 0.16847168445451968 0.13105260511790856
0.4140784458243791 0.3885736352724601 0.1194741116719622 0.059825182826115784
0.39450519552578506 0.3946243705884696 0.07070577090145097 0.11061426640446144
0.38192064767522993 0.3845267870324784 0.21686380511046544 0.1774630076254806
0.3952013720176173 0.38508860337012696 0.21026383992338088 0.15057398467016456
0.3948056159389593 0.39270479708413 0.15007774423169365 0.10119049757023862
0.3901526442975363 0.38102284754517995 0.27424302659227423 0.09055316112125708
0.37378812226223096 0.3840108896976753 0.25035643240911476 0.055060099304573513
0.3750808745914878 0.3772844107688483 0.36849387247681586 0.1307896193218801
0.3817660621347896 0.38822252978492966 0.3470784912995574 0.12311589461064888
0.3570975144173029 0.3678384337676935 0.4809905029888929 0.11230929447173565
0.3650055549159618 0.37518502876999316 0.47508057912270807 0.06437667658641867
0.3607358549990298 0.3732346956809386 0.5357216621176798 0.13111101910807318
0.38756195971629137 0.39132959502632636 0.11004619238609914 0.07750556163184907
0.3836092536508067 0.3826691134652212 0.17094490793900452 0.22138634140647434
0.41189047549885155 0.38652864500592565 0.026746621178885342 0.14073549437174213
0.39694163176235564 0.3835797503194144 0.19053490711014756 0.14597979074404563
0.38212074490503195 0.3823925775437962 0.31633509344739263 0.13030495278131074
0.37783865112174164 0.3702747757857066 0.4424280539010433 0.1374333165983627
0.3707432025911485 0.3681431226528942 0.5208334476957525 0.11507129520349185
0.3807176828346018 0.372544849520467 0.46006305993740104 0.13035047009424894
0.3789468767461475 0.38306316624276704 0.33005486431681413 0.14013396806834028
0.3642254900040215 0.36762067023841105 0.5639314632074622 0.17102708381856513
0.36821166402472244 0.37860345272339546 0.4031123382758425 0.08080378117767242
0.3468736719326773 0.3644379020219014 0.5939732181062513 0.10426369340157891
0.3612342699056267 0.36980001484292785 0.5437628169614369 0.18720506612339052
0.3628607569392285 0.3699379980497953 0.5700938929723347 0.11567312393253518
0.34185164667091045 0.3590143718904407 0.6021394952548839 0.14128189983480793
0.3448731035088636 0.36427770421428973 0.46275852571587023 0.015359267417799768
0.3431026291435016 0.36337196929023335 0.5887113987217756 0.09852835726608125
0.348463861992654 0.3540424327867448 0.5466949769977979 0.20706876303546534
0.3430393238988203 0.34615704913985024 0.5389877206718503 0.1642701557279664
0.35571598984279706 0.3663015132872499 0.5123754003504402 0.08845811190613868
0.35617336460916343 0.3694743136779064 0.41086886194910477 0.07600250693285528
0.34800230022571277 0.3600051041697698 0.523939955908205 0.1439302282310116
0.3575842092075576 0.3623838987307168 0.5982515055540985 0.11854011806106618
0.3843611818210656 0.3731185799612061 0.39982515832273496 0.11397953543703067
0.3770849191059287 0.3738291136264847 0.4242194844002062 0.10142830341604865
0.37579738438660865 0.3620091653563351 0.5708225968578075 0.1495324816288084
0.38394710521367725 0.372269963860574 0.4746556417684295 0.05230761719824544
0.3778283292993377 0.3419645586999139 0.3879552931971848 0.1046613865892416
0.41494170442795514 0.36936184732204097 0.15498902853424462 0.08142255004558774
0.4085132140176134 0.3677062967341733 0.2573321280354311 0.06826186975361317
0.4004373281019929 0.38264442036490803 0.17009703549608937 0.13458292647881642
0.40326169356848024 0.38412380720459804 0.2155370303095205 0.05363194917363967
0.41973133737965557 0.38912242132088165 0.0802724281473885 0.06520469897301086
0.41501898772627294 0.38236411547895444 0.03494065153233391 0.11117945338055178
0.41826344130483706 0.374661662259646 0.18209933308758675 0.0626101003119364
0.416037725509785 0.3710743320903155 0.05406528756840709 0.1305685269765101
0.4240880683413575 0.3770543679921913 0.01865749674856204 0.1324259702477089
0.4010257229973159 0.36988325655844156 0.2707178926030191 0.0674670042284149
0.38317201203098844 0.37980708291786824 0.36999491382209565 0.0934073956781142
0.4051399712166272 0.38205707693058927 0.31025956814875355 0.06922137445926159
0.38267594910744485 0.3790893304709256 0.3905880590168156 0.15072160924120206
0.3905791813738753 0.3690568934927965 0.34844667437773796 0.13304267644887655
0.3870779363823089 0.3812848131172322 0.291801446809707 0.10857706981832996
0.4139176182823092 0.39213898626355764 0.06446324052691171 0.060571907175656484
0.4125480094427957 0.3888573544675837 0.013234838292103514 0.17160768473583526
0.41753027732604187 0.3730138562198155 0.1153546004431861 0.13741261917445677
0.40258742974713246 0.36193619705004293 0.23831074009939185 0.14219135141003025
0.4156273366247272 0.3631628252277912 0.1481432147104927 0.06925604255955722
0.39093507055720766 0.3582957548958082 0.3131578519695886 0.09474397880459852
0.42179844069280636 0.37444749831864377 0.084749675239034 0.044210889736361565
0.4161683673777744 0.3663026436725807 0.10091099262303832 0.13893932623719424
0.4007036533544677 0.3708365865032896 0.28859606481297795 0.11132621546716746
0.41750925663661886 0.3663674470431863 0.06647487189048114 0.09259502860593671
0.41291022285071205 0.3596907598591928 0.03853235571025442 0.16489704703121918
0.39818779035162616 0.3470119128566903 0.28840122765699994 0.01314070455252586
0.3913341881819966 0.3530253770652845 0.32956630349577143 0.14956011324033688
0.381346718656117 0.3456129892257119 0.42845173530666125 0.12217216696513658
0.39071100690281535 0.3435002560147963 0.3357737473321483 0.12550541075131263
0.38225874257889497 0.33533213108758503 0.44854440082201247 0.03316909987634855
0.38878660351036737 0.34766114100382683 0.39613780818424255 0.08134243145621578
0.3882482150703104 0.34565868620435164 0.35687962182756 0.1487011990153457
0.41419211387409943 0.3574120545164262 0.09832280134636624 0.03342468364505436
0.4167880834888834 0.36845594656892094 0.11699928905610377 0.1429467549798285
0.4139135311609375 0.36488547735862514 0.02832600936293664 0.12727117105902253
0.40731521696726963 0.36184085650777326 0.20558144752345361 0.24250892709958988
0.4021133217433809 0.3542130440716653 0.044885433707622574 0.03082895821667358
0.40074554617083896 0.35151149821450045 0.198200071790581 0.1559926042272124
0.39835543599427814 0.3507054095266813 0.11062579920883789 0.0733074140152866
0.3822139327632037 0.3491547044306698 0.22492250104940717 0.07504601833423193
0.4045777466717374 0.3563275999608625 0.007107803060154868 0.13822771393154654
0.38252864210452225 0.34655385996364263 0.1697307090577483 0.08718444264112214
0.40186217800832896 0.3529681456485396 0.15453766443530742 0.1996756834177327
0.39422373357578777 0.36700633058057497 0.40241995639253136 0.11585184461908662
0.39397456407755616 0.36418926954942155 0.34025725060029977 0.14352092344883494
0.3930177312436464 0.35777802812893583 0.3565096333039707 0.09669396607329604
0.40038079877979194 0.3762832363416132 0.31793875477018885 0.08525609496161989
0.38695150475237905 0.36024502102050443 0.41501690182748086 0.10066500103667858
0.3867461735454271 0.3596861808180436 0.4466238848583185 0.061483385850393674
0.39005128125327476 0.3608355257235884 0.38682956838536836 0.05631582761334931
0.3803828106485058 0.3477394317582575 0.5827627636096812 0.07856805137478254
0.3897694859604692 0.36635971662175787 0.46887862471894964 0.07831430883343764
0.3830725485543424 0.3550654851815991 0.5010041349448494 0.09565079798171167
0.38319609921846687 0.36406891006285846 0.535753523445319 0.11841941042899713
0.3861484859842978 0.36114730376173493 0.44142647487314257 0.04823937888597458
0.37377342335254676 0.3652819558927992 0.5637445321382255 0.17545086363430956
0.3858860964515546 0.3729982671327484 0.42782717279071963 0.09312140566175546
0.39802911333079244 0.3531191110544348 0.3484017006665973 0.04788996322521336
0.3699197490469216 0.3406155249410444 0.6158125148953392 0.15136572689698144
0.3828111109027994 0.34862476067184084 0.5060821439421413 0.08625115798092399
0.3840626067992734 0.3526937476763513 0.48829065986569753 0.0885047862821905
0.3814959130060409 0.34723641210977435 0.4723364529838758 0.0736327413294003
0.3770241428522419 0.34362226462526124 0.54788307728923 0.18639501776482106
0.3671384082768905 0.332730639141945 0.5518022545764121 0.17078808038912566
0.37379265179635834 0.36036894160416794 0.5821170845988267 0.12192242080752362
0.37385307960575925 0.3561527879414817 0.5882204733247001 0.12285167682141615
0.3851822358190157 0.35036522412494203 0.42181158234098354 0.10938586727421162
0.36534860901051947 0.3371108054867456 0.5990176101898173 0.1670389091646993
0.36992955963763235 0.3370826182267023 0.5735751998415328 0.21774007022409472
0.383706029929378 0.348228387972518 0.5289433767481097 0.1334820980390374
0.3816588291593978 0.3333150055553931 0.5020851784530225 0.001096663798643399
0.37948439027404257 0.3395399301246711 0.48930682063420194 0.1238547139273824
0.37278383401079873 0.35235392291988465 0.6166993824640931 0.127903309992868
0.3747662207071462 0.34778801883819893 0.6373977668666667 0.12643467144641107
0.3729173870000874 0.3546792867745893 0.6344213147327293 0.13061776505856856
0.23849281766577718 0.06074953877905048 0.24448234990139237 -9.937450347626473e-15
0.20692110708532135 0.05924302879343014 0.2454918699092254 0.04978044852410325
0.3513966613150597 0.04858727114922696 0.4936489168475505 0.046774336693601606
0.35752092994481954 0.04210854650836796 0.43350132671606484 0.10201447200492993
0.35023930589682195 0.03819537937769644 0.3794488440523371 0.10336572105783487
0.3528909963058205 0.044784912625483356 0.39032268097221995 0.18949306620102765
0.3638590227472516 0.030035425354140215 0.33106751989137473 0.049820674485330375
0.36197146902096655 0.051164745820990364 0.4218991521602722 0.05719930374946338
0.3768332670902132 0.03772984407465151 0.23666861553489468 0.029780848978180785
0.35981861394161774 0.035017812242743675 0.2751155275508462 0.08285384872442739
0.383716517133695 0.022327469076097034 0.0652971873644718 0.15301736446695213
0.3700975055366838 0.029693779163896032 0.21334209320440647 0.051584162920420056
0.3821531236064359 0.015628335970033828 0.04585634377290697 0.12229032940831429
0.3787119460417681 0.016979915891235525 0.005624789128772367 0.15859499596013962
0.3723674224972672 0.02461492757659157 0.170335885315175 0.09050180003750262
0.36444468047518985 0.018958452587456865 0.12714251814568264 0.12029531730279282
0.35638425940664087 0.011708481849284776 0.032831601862241454 0.12074760407974933
0.3607971117106456 0.019796772005055238 0.1480701088109715 0.12744999728075443
0.36626690391684447 0.018173409554664902 0.10759883188712023 0.0980009478989304
0.36355169492250966 0.008459470522104235 0.02340270363126754 0.11087056805282149
0.3511298439135965 0.014530723560642668 0.03771418008527888 0.12097193004178601
0.35672244320652835 0.02300828300047565 0.08024730375891392 0.1987077912921536
0.35821089199507006 0.020249960318407506 0.15462939917133772 0.09656313268741691
0.34065704412952436 0.03434494628557117 0.3483586606652962 0.06980629207377603
0.3404677994840969 0.03212257581726556 0.369422440197164 0.10087527432260213
0.33441655044818364 0.0352072865815798 0.42849080198940737 0.0568043285032314
0.3437477229488045 0.03440201044924288 0.44977799149151054 0.05814688079673598
0.3357294679258473 0.04154755889369831 0.3924884503018994 0.20200692668599646
0.33154014232730716 0.04788647952361367 0.4463816512335169 0.08209365526909661
0.3280118340303312 0.04950379547156301 0.4822103869980634 0.023244226515013552
0.35201084195526644 0.0160446454735842 0.05272073228550952 0.20169585401064105
0.3497046376329161 0.023582078503085566 0.10936527605309815 0.13691863267234503
0.3385878170693452 0.03615753503500875 0.12522530756505046 0.10496155123207884
0.3468389943865693 0.02687100640015936 0.14170213122081762 0.06813322696788236
0.35213655073711847 0.022656211443092027 0.07624142040356753 0.16879949016713328
0.34356422162924677 0.021373066425497304 0.012961128986484296 0.0662812787254674
0.3456633296344337 0.023249029214917356 0.03512488580667432 0.2370605723755605
0.3317872727317635 0.04910854959253223 0.38343308138545457 0.15282947701233066
0.3231231611962183 0.05880124605227618 0.4032118317376325 0.14639899946523932
