x y z curv
0.26397135814318884 0.6783761365566157 0.9238979506293096 0.01524807083334288
0.25348144110655524 0.6712168801994118 0.9302387341589506 0.2729570519831652
0.2644628479826893 0.674883507019637 0.9125801258108024 0.01862231792464245
0.22691798172996627 0.682076095489339 0.927835355571085 0.01572059329812824
0.21910770114946768 0.6735338383774354 0.9187549651788798 0.11662413380074729
0.201756915587931 0.6749890524251292 0.9223311191804026 0.011885611283981511
0.1829166357992894 0.6712474588562384 0.9436318920314225 0.014351886051604227
0.18787870444427657 0.6712573860478911 0.9172273107698984 0.011682156018699362
0.1623963688060084 0.6667091743101556 0.9387735207177567 0.022750315160541823
0.13767282541389037 0.6707783044108111 0.9808755499597245 0.24071063799797518
0.17481566346358982 0.6737992695479894 0.9417818058311836 0.013977134857182593
0.131337665326556 0.6763048621447872 0.9904664094270713 0.010261870290639004
0.16096099557570817 0.671731270339883 0.9607800967179224 0.019638705712241987
0.1328505913902219 0.677659644377466 0.9455424926472116 0.014496484381282995
0.15211541273215415 0.6718571851652121 0.9779187615193407 0.02052724630280358
0.17389501056787277 0.6832411489376464 0.95913822970048 0.012175488031798106
0.14429839631271713 0.6741034548514862 0.9919194093440922 0.10106253877011956
0.17090384667345931 0.6912065839186058 1.034057457210636 0.009993055607003754
0.1479582015628542 0.691771563296773 1.042006737975801 0.008982663412456128
0.1404507404784549 0.6784996067817967 1.0088229360245635 0.010007625094987743
0.15345509529951296 0.68479864899325 1.0236840400239675 0.014806276501223823
0.17802543647832905 0.6800111259065765 0.9893936571466085 0.024928757016992518
0.17418775546540008 0.6841022054473818 1.0156291134005322 0.006991608506522877
0.17150355083812663 0.6803321189571795 0.9706568551180496 0.020888690759483984
0.16668124355067201 0.6790088427395767 0.9828712611190212 0.021715217239193008
0.16728188674135314 0.6898865731963748 1.0085327495811225 0.00621150750737853
0.20287506609145214 0.6733347852231006 0.971027344068254 0.20544473482558656
0.2278320061014865 0.6907950201562492 0.982149187013997 0.01957294902893952
0.1971000683347688 0.692795505259108 1.0046351892309857 0.007952755166968799
0.18776977259103972 0.6785777016504232 0.9802138092175483 0.01981198848535315
0.14840776962661115 0.6699901072112221 0.9250020880617058 0.013704602961462087
0.13526516152347298 0.672980414688369 0.9211098544262772 0.0218384124731603
0.134980970772445 0.6744312977065775 0.9353551938701473 0.021090297542988048
0.31042477103182037 0.671861118700936 0.9236341796043569 0.009990299877516992
0.31569957534848336 0.6769281725105183 0.9355403967360222 0.01336302040439604
0.28566267869333417 0.6772742876866311 0.9329476296316157 0.014957175393660807
0.29216158215328436 0.6689859662128746 0.9200512047359982 0.011785966661310428
0.3390841867529452 0.6754197085055965 0.9409805033587749 0.14203813431620027
0.33365206111545836 0.671382345572628 0.9273308315065308 0.1252130150245343
0.3608481237785931 0.6794692826491652 0.9364111370879574 0.009931509565531188
0.3543150505255114 0.6727546754397445 0.9178302902679473 0.009601833174836743
0.19062818084630592 0.6668933326512126 0.9060483181853266 0.012511600967849618
0.21310367749246828 0.6661231219345276 0.9103027451514827 0.17817006250454429
0.186959766389344 0.6670932316102708 0.8895057020796259 0.011093487734344942
0.21431705047967237 0.6626750649925065 0.8925597913637687 0.1788594910625781
0.26258425851449807 0.678218513688017 0.8917045513070194 0.009682660697707953
0.23747751856418106 0.6739076153086411 0.9014195945804703 0.021877418653786958
0.2404288076239113 0.6772669012402898 0.8980045799082043 0.01867164305943094
0.31246571961637865 0.6743396871946505 0.9073283771870939 0.01493438529868966
0.3279499071147644 0.6689862299221755 0.8926282183615667 0.014763302194907879
0.29856290590201323 0.6682720039579104 0.9148765359318937 0.012613603977163065
0.27374081308806747 0.6782291756789998 0.9051693069834769 0.014858793996705227
0.30377038554220703 0.6687099283566575 0.9021720401683503 0.022045770529178506
0.286910435258294 0.664648083534561 0.8891311365981658 0.02494533796637594
0.34982044052875844 0.671268922925646 0.912786924685754 0.01675217788707179
0.33429976620500723 0.676469426143087 0.9053931192826439 0.01040271813963147
0.34547468513008994 0.6699611912609865 0.8859651225138453 0.02050254949581959
0.36235914745324577 0.6749077283632364 0.8969494149600279 0.009883332670912523
0.39190648138046585 0.6744937233392185 0.9077739923479506 0.021282672537155885
0.39825517036665364 0.6643330167113316 0.8831313076224422 0.17503079098230306
0.42062750824639283 0.6753424729861344 0.89904280040098 0.00788827573885682
0.4003436886601495 0.6684194880890914 0.9014470879929607 0.02173057522106732
0.4064037995584893 0.6668110050265842 0.8842250485148447 0.014097564800253076
0.4534317736364789 0.6649528368149321 0.8984669698405015 0.12464055003697166
0.44265390607331645 0.6690739817312042 0.9082719740552117 0.11210208332617252
0.4562477096710824 0.6670285493847004 0.877193942025925 0.003909301523467045
0.47373238957084446 0.6606747356611842 0.8914262340580826 0.008833066068270909
0.4805919071222321 0.6627088043195527 0.8916387219034054 0.01605966689360708
0.4401099642584777 0.6655585070108901 0.8915058526767609 0.0069832482843188385
0.21113268378408506 0.6607733874844356 0.8880730517084618 0.17986352057797747
0.19721381525377593 0.6654001598759726 0.8811483197200808 0.0216058475603533
0.21775917412016016 0.6577566284662952 0.8619369997680635 0.01689925616238366
0.1773494938969687 0.6506083821235635 0.8652429242159001 0.1790570384642637
0.1628170499628071 0.6592814330622494 0.8748799187214306 0.01715977357967995
0.14820929288416013 0.6591140768446933 0.8842313832837426 0.015605037401649082
0.13910609403399876 0.6572883159745592 0.8917831016514502 0.1418687422353477
0.17682754849209834 0.6649528343988513 0.8922963872498744 0.012345724852568301
0.12254619288649139 0.6622335946119112 0.8963569157241577 0.01433318085425785
0.1411898911926643 0.6593635406154925 0.87919882060356 0.012770439905619425
0.15506891028462405 0.6584484592049427 0.866163347630293 0.01733777389457645
0.27328948064661185 0.6653807710953965 0.873701671061808 0.02123165657773676
0.2522191659936683 0.6663834899493917 0.8733514153209673 0.015020940821817187
0.24564889251423894 0.6605771579576313 0.8619994915631155 0.01250186228826384
0.3153354823978112 0.6657051452814391 0.886376924104479 0.01458518351160756
0.3025402347862128 0.6712248105007772 0.8886852267933981 0.02541917246179692
0.310772216273598 0.6750896401319342 0.8738449212931656 0.014935339476738444
0.29829560687118045 0.6652711274666342 0.8751778745597157 0.017528560474090026
0.3425588966480267 0.6758266860175407 0.8787911194726082 0.01807672407458069
0.365132302635973 0.66386525959316 0.8789830952634129 0.014939494346684732
0.3862897842140869 0.6631486898421836 0.8757367373372535 0.011969011131731455
0.4035225421466239 0.6704811529122218 0.8728848557166056 0.007582065605774213
0.41398077225861146 0.6724586337871271 0.8869905518414044 0.010872538534033572
0.38245118777496845 0.6657832606790189 0.8608607954650467 0.012758225603319961
0.39216796087642436 0.661150955319581 0.8581962893104814 0.012001545050941522
0.41840796753296644 0.6639297035448226 0.8635833599309342 0.01333461957475456
0.40893179067815366 0.6670191362530203 0.8692039794337183 0.01255858636448442
0.43951057245425074 0.6651164105865149 0.8720871424450203 0.00660876395561473
0.4781107013897156 0.6611439059397997 0.8865614980893067 0.012260159280430007
0.4802515137446582 0.6620745845364329 0.8802425362074388 0.014037137143718435
0.4729859074393882 0.6589294251577519 0.8664951722072343 0.014388228638157138
0.5176435624431198 0.6537532276358142 0.8937024917466646 0.14845580621443477
0.5186390738835412 0.6598709865964624 0.8768731388213611 0.021241598440472253
0.47991289871882614 0.6566504175035976 0.8545066249975178 0.01589920294389368
0.5307786101679907 0.6615206157101076 0.8858017277960744 0.013543518279040252
0.15719639322232382 0.6591195652721866 0.8545837493094539 0.012540198409862986
0.16387534503002482 0.649715456021212 0.8421073943642503 0.02227089115875729
0.14213025766087606 0.6396717367596658 0.829040694946049 0.010323212451136597
0.22881032211030677 0.6526233468558893 0.8324982878670111 0.01262779846880542
0.1977968133640529 0.6661177082288652 0.8504610881544803 0.009088203171341262
0.18092801011324613 0.6505906248915054 0.8324268345171417 0.029299496039902312
0.18325802166417932 0.6518065458807832 0.8234497674031274 0.0036942937927158903
0.25645401725782674 0.6581720923183317 0.843955574510304 0.009417088539059513
0.264058822661605 0.6651426083277489 0.8575562865171056 0.012651368682677208
0.26414217068905027 0.6510061016197614 0.8330681990079516 0.010190975183754497
0.2365581223077556 0.6528883817588992 0.8488798581914303 0.00881159802053954
0.27316547468106755 0.6499689072160938 0.8297218956317267 0.006997804541243292
0.30861274553899026 0.6731642506148311 0.8598714004064394 0.014493503472589968
0.29823749388922055 0.6545253757621026 0.8291604111767764 0.016813799756464718
0.27813986942477864 0.6589359057076106 0.856737378102031 0.015912545159920802
0.2829003292866172 0.6589931949798273 0.8479635837869093 0.01468100088351376
0.35583693016942824 0.6659210731032323 0.8582385740480223 0.014525828125790072
0.3336450665203829 0.6531893570107509 0.8412586945312195 0.011652147023786433
0.32566651070195857 0.6572581834522658 0.8390898506114713 0.016825323854314515
0.3725795139497834 0.6556202729882158 0.8447069566220975 0.012486497941760868
0.35691340872331845 0.6597731582633032 0.8299320133592901 0.010947806086302542
0.38895364044694486 0.6542670731209225 0.8415069305312491 0.009031145343243209
0.41428616744150143 0.6631183706328211 0.8571772277507439 0.011189101244075843
0.39170060572646964 0.6537132382667042 0.8321085065727365 0.012793098227086666
0.40076684138894286 0.6624464887820085 0.8394694083944815 0.00878912612474683
0.41935849673330694 0.6612036436789147 0.8437844618595226 0.009661161603270404
0.4500335364620581 0.6511686370562997 0.8386081268174739 0.0057116991867697245
0.4429771186416508 0.650461811063957 0.8270996997221866 0.009163799272336728
0.43796111662099124 0.6648120368083754 0.8583286805767675 0.006411444531492056
0.43576625957297715 0.656580471001989 0.8452231757540013 0.007619814104789942
0.46396112961462566 0.658234208956401 0.8374519706393055 0.0041831333625829414
0.493960467766518 0.6482784769953028 0.8420352418184064 0.007851253648571007
0.5124821666140171 0.6579973026139341 0.8566047304813118 0.014122763784203062
0.5109440669811043 0.6435327551582225 0.812953170582676 0.007405330014203631
0.5249609047151671 0.640402147636074 0.8094755883644306 0.014025130783228968
0.4825226739634644 0.6446788448701689 0.811460796259901 0.010086725493253738
0.49952107826237396 0.6354100977875794 0.8057670417098495 0.00801418190424949
0.17212297529398243 0.6434616805536786 0.8177517706639169 0.0078559845637153
0.1355100271358551 0.6402841317792314 0.8113646961461568 0.00990457059670805
0.3024587089629902 0.6456266154145907 0.8052750644150696 0.00824713792948389
0.28736701470503345 0.6502442807481849 0.8237827448203557 0.006643077143101654
0.3111549452382774 0.6499990973700778 0.8287348772602586 0.12349447761269607
0.2990426873816547 0.6445817872947955 0.7853509568117344 0.013680861158609059
0.32656027005448274 0.6422876261947034 0.800359167126919 0.009593882472110581
0.29095876614361493 0.6428177249814262 0.785531511949131 0.011086450385649543
0.33798228917371004 0.6468105945332397 0.806772179803546 0.013089738646497312
0.38186036220184005 0.6495720409899508 0.8192929963286076 0.023784773094222455
0.3600690817641901 0.6474995377024817 0.8071048656370119 0.018065762661973062
0.34439460842338765 0.6549003280669405 0.7996806309756939 0.011189246557508054
0.37029455144861234 0.6526972264665754 0.8207113096667363 0.022897709400881018
0.37304168398803994 0.6461474111628464 0.8069323487834006 0.015844479033195965
0.2094012181519876 0.6377775185748304 0.797536163844338 0.19084060851450207
0.22939116743184237 0.6427269115849562 0.8094149094321732 0.00796704430273162
0.20837119979785673 0.6504763779071527 0.8229249659543274 0.010799153950029679
0.18316284085435316 0.6294646444335652 0.7843666782824014 0.0021266070118462835
0.20223420295715883 0.628681238114101 0.779764944208079 0.0063895097707607155
0.196939965298564 0.6319822864280804 0.7879434673200083 0.006329818340687492
0.25685460335043964 0.6456568970304855 0.8127881045501474 0.010100191058260592
0.24207562134912264 0.6576191083223121 0.8314961920326606 0.006168707133101469
0.2801189446253361 0.6526522019469663 0.8165918710411934 0.0064202529016234005
0.25028704603293545 0.6367425599269768 0.7915165734122274 0.012739461690017129
0.23072207795594937 0.6404789532433808 0.7833264960677117 0.004362641085169696
0.24614235636887155 0.6409481388989954 0.7987107226235062 0.01039218183301736
0.2651556325307448 0.6380674982561813 0.7932562306821789 0.006203169393937965
0.4061111449734334 0.653954458175784 0.8073902666350657 0.006313726227944405
0.3940399855265228 0.6546535379309517 0.8303758334544994 0.013171247797085565
0.39183268097633606 0.6374362095656879 0.7943306780009277 0.010469707249205882
0.4250347618525218 0.6337771359107717 0.7851930262767106 0.009110421617890403
0.4165273333767156 0.6395540188595058 0.7862402752897759 0.01094565349143374
0.4615024827484877 0.6443773796867589 0.8078939383665623 0.014730285846554843
0.4302519418923225 0.6481570171478092 0.8199633566475131 0.009586619308218292
0.44572301246163276 0.6462815609039806 0.8033488290779508 0.010414758008525041
0.477147172500082 0.6297285658348147 0.7861560637784727 0.004101037153354587
0.46367523526501514 0.641521317811526 0.7929755607834104 0.008823913502579453
0.45367151675393624 0.6428900574846511 0.7894217517488356 0.00849538951411457
0.4611223759160874 0.6406486811856045 0.7857309558528276 0.011269110065507713
0.17251682683993536 0.629678206161561 0.7895404859667491 0.001829735468146626
0.15905457885699645 0.6301933826843427 0.7966284857275688 0.0039215394995592975
0.1725533393496393 0.6206765268469991 0.7644894138089662 0.008024116584111502
0.18583314959342834 0.6360916823144738 0.7971919185952165 0.0024534137020814405
0.14400758405754133 0.6349288109020846 0.7993212577973312 0.00823527606276759
0.15775431269045878 0.6148639732739583 0.7609053487028199 0.1345647656134614
0.1668620844768948 0.6197721046677657 0.7629828726768547 0.008603857895109245
0.13885571030663557 0.626755342210723 0.7854841695697552 0.004828965789171165
0.16733408579248388 0.6239894610115966 0.7728398893830751 0.006107954565057129
0.1487587583132621 0.6281156956508374 0.7858629714336887 0.10866545693561004
0.5402386052988999 0.6204237747264847 0.7808289843117822 0.009123462132333178
0.5183962248777125 0.6331789933651147 0.7898019697049229 0.006557918816931784
0.4951036010862304 0.621274312711365 0.770841159687851 0.1653265385391388
0.31854992453727127 0.6290382536594683 0.7623146727665138 0.0042934023956907735
0.280592538337974 0.6310033931727458 0.7650832807447041 0.011378144098036013
0.3017800857398092 0.6218576299504933 0.7567528057049122 0.0032688071941883094
0.3133378208225101 0.6265460013758731 0.7513417450397925 0.008367141651793917
0.30867136494073477 0.6298129567809306 0.7648611777955227 0.00514499896781892
0.27011649647149033 0.612464094105139 0.7427692933087109 0.22996839520266876
0.3343019000049401 0.6402243390503082 0.7692405005129658 0.011497817689833108
0.3703764539369682 0.6360904088780011 0.7755130195623843 0.011962098822992711
0.3724768203919851 0.620616942462179 0.7479017686291721 0.01561163577595013
0.36480442195717755 0.6307753481528627 0.7634986207058865 0.015916315482143974
0.382056469399761 0.6122972400697635 0.7239784904621498 0.023193938364963255
0.15912988370848882 0.6179454251216038 0.7395252567750108 0.009823971935921291
0.14498917829791036 0.6157101860256095 0.7420523505664088 0.00867909349772797
0.17025209956145143 0.6073600540063275 0.7225159411470663 0.010433799220911087
0.13864089453554543 0.6162183634013143 0.7564298471635645 0.010390900315176498
0.16949158776593237 0.6168619435893598 0.7429758767081038 0.010360607883011803
0.18846061656654783 0.6168115664267858 0.731378316483449 0.003632314026312747
0.2547825628554891 0.6348442604238588 0.7689633590363859 0.014067049586317886
0.2769632205058123 0.6425346747363807 0.7816646864036765 0.006946558397434718
0.26169417033159836 0.625200480674871 0.7550933030522221 0.011674975876427749
0.3835410734436252 0.6360497263381207 0.7763072771813884 0.013045919918457249
0.4021058645007 0.6301618164396554 0.7663388491653252 0.009937289298958816
0.38613100907753495 0.6360359029799433 0.7603298172850241 0.006811590033110001
0.41019305358944047 0.6242101293218086 0.7562214618444945 0.008031654224834064
0.4275058962684316 0.632148882391084 0.7722677441173752 0.006620061637610292
0.19324394607010364 0.6230258668541274 0.7729137146839552 0.004833288256976081
0.2105446947286369 0.625173945655817 0.7742403481337007 0.006806349534936749
0.2130689010288623 0.6197542699340508 0.7628175394365531 0.005692999513189638
0.22041459367342048 0.6228273529676744 0.759752216494628 0.006579338575346569
0.2290672523180712 0.6192549892256562 0.7399577059232887 0.0067180997312467575
0.3048991003147542 0.6108618888770643 0.7267976765692917 0.00929387900615413
0.2838555662356987 0.607338334169094 0.7302547880434698 0.14365564279191623
0.32051784646265646 0.6103759043304543 0.7339446839427647 0.11252874004633259
0.3670523938679717 0.6067562531558971 0.7252513117494698 0.01759191359143042
0.3412466745817027 0.6062809900045567 0.7209797817629111 0.1251478023007461
0.33505958813374953 0.6166851394758595 0.736351244991122 0.003808706978427159
0.10426345062391162 0.6821446849501805 1.0369093511439493 0.05224296314959222
0.09718520445188066 0.6736407392774026 1.0443779431935953 0.08463983415029824
0.12267086640848107 0.6793153107661793 1.0284649806233062 0.01676783641425671
0.12809574576284075 0.6783568081442152 1.0000999650426023 0.008777912218152262
0.11616988953642958 0.6852269312962914 1.033589732187452 0.021690144995770457
0.12681624371625014 0.6807586539757559 1.0159216206099746 0.00809117035140641
0.10934657929096483 0.6847765034735876 1.0158215372119108 0.05199923415018402
0.08898256782371311 0.6888075793096261 1.0488288701978525 0.021513321456610238
0.08739901937729354 0.6474952159276712 1.0542482487663034 0.05188265574096723
0.0875795588463376 0.6751798670901229 1.0380915167944171 0.10592575637173235
0.0934478433919484 0.6571467501291074 1.0738875504442327 0.07687709897668149
0.1064916099981105 0.6519832065545631 1.08548827164742 0.056891210345823874
0.10131362199025871 0.6694627171246292 1.0773967431493905 0.0840804790098252
0.10186010688173726 0.6734698823819791 1.0718982017998182 0.08865973402296
0.12512670867295592 0.6796522735595537 1.0852577144521036 0.06452419614115383
0.12489180970439083 0.6550598092303975 1.0897604282178943 0.07419808165225726
0.16234908767472142 0.6715187813111562 1.0927959524819733 0.1263083719498435
0.16053440183309495 0.6694481251621882 1.0958128537616687 0.08529435734952288
0.14732770888618887 0.6825185777157337 1.0926596001366455 0.11479672357063475
0.17153111681005598 0.6863971265233895 1.0823698824340493 0.11915303335446707
0.15286696169785832 0.6937045181499255 1.0877327125189453 0.02624510479417253
0.183247382962902 0.6584503960653671 1.0875383011568491 0.12095997819856076
0.2041681504192838 0.6966258501395453 1.0830622907039407 0.06916482351818626
0.19207328425308157 0.6820973524125048 1.0863268627399933 0.12489753575391754
0.22199043005462324 0.6910489380829322 1.0769742536111995 0.11793056680838064
0.20683252639157332 0.6870877424783016 1.0912038040981629 0.05457270867379559
0.23757775248260724 0.6613834659081278 1.093940439439752 0.055306453610269854
0.25111031075172774 0.6800576967804313 1.0872803078516102 0.10610462983228433
0.24082212448308296 0.6780022991380324 1.0853821356680473 0.10998963038615094
0.23740408756976275 0.669246390573173 1.0898851969220562 0.07628737430108684
0.2937619804542548 0.6637109517766 1.0895320699910978 0.08864854137641415
0.27510932932141446 0.6670564649778306 1.0897455713105246 0.11099802208352558
0.2846875779421797 0.6627339867539532 1.0905879590433831 0.021080492375887713
0.27878444861639884 0.6920792685606999 1.0938582656935942 0.09026613706829549
0.2917114661563524 0.7015376218621685 1.0801233916785604 0.1080400225224836
0.3076336284176481 0.6958486666447424 1.0972947360178782 0.07330172817663405
0.3160931635697432 0.6557189842402171 1.0835557281607056 0.13313571366607244
0.3539844793201933 0.6938276971207703 1.0824284503369643 0.19561299015169717
0.35093310380428017 0.6758598405901433 1.0883282873560307 0.11890314632236834
0.3738833654073066 0.6571367908656182 1.0929741890277394 0.025789700923571583
0.4056451363618359 0.6606877694047165 1.0880295983475647 0.07247211011306257
0.4189958962157116 0.6589161947250283 1.0899217988249725 0.05577570424333984
0.3955225763251405 0.668099801970166 1.0920942852026776 0.10755734634927788
0.4182066027669601 0.6878738433571301 1.0898420937473434 0.11639551262339064
0.4426257751562662 0.6803516119911857 1.0854949924110067 0.12173202130689005
0.36590766779338796 0.6830415637014726 1.0907686929012108 0.11863850035392015
0.3600830097235301 0.698734812270793 1.0806418226942929 0.14099991602012424
0.3950730653682559 0.702293327161772 1.0760942341074589 0.06225613507415576
0.11685803660640605 0.6886548993016486 1.0738750422561623 0.04386410488832366
0.10402801326973848 0.6804675973274232 1.0666151339417378 0.07609901820039715
0.12080558971218959 0.6698089192052872 0.9475737767864907 0.029164495432964514
0.10654018944789218 0.6613943039766289 0.9660263383361056 0.2087616474443572
0.12928825315874223 0.6645167167734359 0.9608091690067252 0.15373718187809635
0.12392165773398478 0.6681558789273291 0.9583330377994237 0.01506352321399405
0.10140388676253208 0.6712543117373733 0.9539052930487123 0.1414286195633787
0.0917423867641588 0.6664272424498797 0.953689391479433 0.1682519242662675
0.08797894785663787 0.6767540206660592 1.0083789487203132 0.07447691937001837
0.08938436087862263 0.6696262096107666 0.9963165197932319 0.12201880769360328
0.08545477066785924 0.6791577530654639 1.0288588711422275 0.11461941555777216
0.07252183484716976 0.6578284359760218 0.9634172313759659 0.07261541975839522
0.09152232959670223 0.6667637141009775 0.9746919410477948 0.12665748972018995
0.11233103763195375 0.6795565268812839 1.0043910818739512 0.041648889486671316
0.08745452885666326 0.6675926394588692 1.0249675716577629 0.14291950827536984
0.08888309041558336 0.6554537362059668 1.004784673727051 0.10218782007420832
0.0902762540620024 0.6465618242247841 1.021244606261653 0.10624742173715264
0.08384472346476678 0.6611717378971412 0.9913863307129869 0.0842228286972612
0.08956185629823579 0.6569592156196251 1.021594346039845 0.1105764531812907
0.0830125346139579 0.6349681080593803 1.0125438283690213 0.09675502637735704
0.08105300429611124 0.6407539475840835 0.9918898514881767 0.07577368014935698
0.09264466629071662 0.6390901253615255 0.9535505030924621 0.08602965595824813
0.08328289955065059 0.6319652926166575 1.0077250968329725 0.097023230548357
0.0928144663678279 0.637534788798204 0.9447771654795479 0.11146667203437192
0.09473954701247972 0.6348750235270092 0.9647478677764241 0.1123662595119128
0.0897237376612545 0.6249857224394285 0.946660031240058 0.04712875374017133
0.09494045912078013 0.6337926094523358 0.95582129543624 0.14953499455468844
0.07913111947623247 0.6500814039669812 0.9102089369379814 0.08510073713977918
0.08609519622398673 0.6620210888555521 0.922461168328356 0.12692529331299182
0.08022869507242043 0.6449667010334775 0.931322741333349 0.053596639036440005
0.09101821816069668 0.627252156766508 0.9054465480460951 0.1110239502040968
0.09462301506159171 0.615766071252804 0.9111390588679354 0.10166040282724854
0.09195581373639289 0.6152860630100099 0.9286353387451485 0.024661326971056805
0.09249646748417566 0.6271924897564155 0.8949096239384173 0.10744454280244788
0.0809961278300318 0.6319450926607536 0.8823467592442075 0.06794803659392529
0.08712588438058604 0.6517843333022066 0.8905719119801424 0.17392212696844989
0.09056048283905119 0.6057944954101454 0.8615424970441645 0.12762952890554113
0.08722439813989924 0.6294107433384711 0.8521452848584202 0.09927838724994398
0.08714554954395749 0.6292321252986735 0.8369767032600035 0.07458325770187799
0.09000774600676008 0.5968645102781064 0.8340838078467601 0.03256278719320274
0.08204103657631234 0.6164849922698219 0.8139120962178464 0.06057846205332292
0.08827526864085163 0.6024270543068634 0.8059535375510741 0.12482724966790845
0.08920546900999109 0.5727868881983366 0.8032289872126535 0.043651677181223016
0.08738905894676248 0.6012378071842159 0.8213333149615618 0.06810713229065288
0.08964544348983333 0.5875888758136827 0.8594189227539817 0.016903204916094452
0.0823730947469523 0.6114608471965762 0.8358678225192276 0.040803613219846456
0.08857853471629153 0.594083171495925 0.8019895462272886 0.1242947904274104
0.08881315861646297 0.6652294755554123 0.9294589044103697 0.12628575166005263
0.08418926447425537 0.6642579132865091 0.9412413523875347 0.1360257726116889
0.0802752257037784 0.657962418670565 0.9120544231918302 0.09225861570513205
0.1196502467701769 0.6683664307782766 0.932023084591569 0.026482110971851023
0.10507227387691287 0.6538790162614629 0.9153210863041537 0.14927420598849908
0.08847296021313727 0.6596717807508843 0.907565034340963 0.13090350006193746
0.12390351771371731 0.6859260510488904 1.0729422799882595 0.07816449314685525
0.18155979697115743 0.6888401668011904 1.0706746010079016 0.1397731803503127
0.17046680695657215 0.6834618446554894 1.0841312536039156 0.11995707669105635
0.17924576017034005 0.6926470088682308 1.0518393433654922 0.01727447612811993
0.14134994483909719 0.6849638983106919 1.0708457049391973 0.13315534098452164
0.16430222399138228 0.6846547965921169 1.0588053604986714 0.030941317669299504
0.14531986756195245 0.6890097442465948 1.065503046104117 0.03577423972780207
0.152929776586593 0.685233153540399 1.0521237109458315 0.016568288220744215
0.2685899265797215 0.6944073828779108 1.066666367490847 0.07816878946708972
0.25370810675965916 0.6955186007643032 1.0759662951092142 0.08700687214890218
0.26071093074383045 0.7014869771022112 1.0439383051014821 0.010262699291211385
0.24047451844406792 0.6896488159965547 1.0510548943034095 0.18666883558584843
0.2348144835295916 0.6970616178408655 1.0695644971082519 0.07796344827445015
0.2617841757463142 0.6924564949323607 1.0674234581193487 0.14653437903971586
0.24256883993573455 0.7019314670810504 1.077305723097976 0.08330180342609288
0.2045753755929826 0.689832848903617 1.048899037154542 0.11935571903740767
0.1936610183224465 0.6969149250039494 1.0686373589180616 0.014923531563781293
0.198097380840861 0.6957618763506878 1.0637180200954783 0.014359569056457328
0.22713287293233902 0.6906337294124483 1.0677241223492187 0.1594338333491959
0.1291616294458133 0.6897175648101459 1.0620002449363246 0.022202296071971477
0.13452487183036815 0.684765121597571 1.0694897306498765 0.11415247241199299
0.3112709640053382 0.698495804475868 1.0649540382981963 0.020992733988667515
0.3101317391471651 0.6921493476902066 1.0723140794292971 0.19478776104140452
0.33459139302457 0.704602765352877 1.069572595151034 0.04154486709670274
0.3216091688346848 0.6989202377575495 1.0532108623313552 0.026391624495513608
0.28623611751217476 0.70105579603033 1.0568505500010061 0.017184775808710567
0.3313009382235242 0.6946010596938563 1.0849122345550737 0.07970075329897706
0.34853389641833143 0.7008980563388209 1.0444297904403816 0.02202876230434269
0.10376425906601656 0.6561109869024189 0.892053787358363 0.17200686524420972
0.08298172403632902 0.6623702217454973 0.8713724245154383 0.035934478652082144
0.13059185228721518 0.6562426434769187 0.8611180878959912 0.009183720188500657
0.09933349526533457 0.6567534796063114 0.8722010554713174 0.10343049329677423
0.10933191987612981 0.6532249883772897 0.8775789465030898 0.11733948604369754
0.1036346954106858 0.6443723139893919 0.8438491289647259 0.06579159644723821
0.1341069569197546 0.6466774403747279 0.8441206601478248 0.010831310932313548
0.11120931128434196 0.6412217801339463 0.8428219130852563 0.026069818330057302
0.09963154430388531 0.651014009896457 0.8619104622106082 0.06018950316438452
0.08717279334754248 0.6453867483537581 0.8576077218405538 0.09839263583885481
0.11874012503131161 0.6234589019824364 0.770954932785297 0.004864429869530721
0.09583020272956178 0.6188599675298786 0.7801773831975811 0.08858911780441156
0.12789790750041868 0.6259823941648238 0.7663896556374955 0.0058467394513273966
0.5230978356418675 0.6811116737246437 1.0745021532242882 0.06868570584524175
0.4981271943010507 0.6894380309803797 1.0666368448720216 0.039250388823372145
0.5153027370998465 0.6826046718973179 1.0824285347472784 0.03905200449722888
0.5220974971728479 0.6732041041336552 1.087671058416493 0.039738432194405565
0.5287585096543528 0.6432472737731854 1.089855553983143 0.05597504568967107
0.5286833549081018 0.6687488098732309 1.083402098667057 0.06208983688880115
0.5374658320798502 0.6572274505620092 1.0787574781287619 0.120102782790765
0.5534026066401854 0.6821525144175847 1.0687401997075523 0.08034292244020103
0.5645889760477641 0.6765844055445983 1.055848780264027 0.10586171193180355
0.5611099837661447 0.6413698522239945 1.0596468006738207 0.06460100067465496
0.4912134836133395 0.6880587220235282 1.0797176229255554 0.07028295573947367
0.48763541548125205 0.6721688588636064 1.0880670610138037 0.08579840865898573
0.47026731308720726 0.6897577638085087 1.079394322464179 0.08487428260013428
0.5015543148609157 0.6571471439024026 1.091777788739458 0.055302224996028375
0.5752532062646214 0.6754596227932633 1.0227234026820606 0.013488747574519459
0.5725982594704195 0.6304429312173557 1.0213091988886644 0.013296607728655126
0.5789639647804232 0.6635240052080968 0.9959519170536151 0.09247127875678586
0.5650838793971376 0.6256343521594161 0.9737305308458967 0.06132865886090234
0.5776580544112087 0.6366031048177327 0.9789907951107047 0.04528374538491404
0.5696717727129926 0.6700692426601343 0.9863317406922274 0.06868231228877458
0.5762024876707756 0.6589763159545464 0.9622264121764579 0.12777378864079328
0.4768565649483259 0.6924335679527821 1.073399851334486 0.07996327072744021
0.4821584450820255 0.6971466715302893 1.0588951173286025 0.04357468522082935
0.43776644574612555 0.699054597576025 1.0567020857611822 0.038849260487364944
0.46252256322754803 0.6940112108219767 1.0771716659517414 0.05595595787215984
0.452394241468473 0.6886613166730624 1.0582188526512848 0.12796222534660384
0.41753574537156507 0.6925314601550566 1.0615886656672449 0.1291476450285721
0.3962302316163594 0.6952259425401295 1.0574772887708428 0.01542353708365345
0.40911896551562976 0.6942667342744709 1.052864804581438 0.01968063005328466
0.5441634536361329 0.679803171475742 1.042047310693288 0.012633075166689935
0.5290487799471523 0.6700147968428567 0.9697423513622019 0.21224191025415984
0.5696502026922603 0.680676234577924 1.0344397551269928 0.0034939383429922737
0.5658101457256256 0.6774153110399945 1.0164144037601022 0.01222144412792164
0.5391141896441947 0.6846844825002054 1.059729307695584 0.042290854402912206
0.5468332779073541 0.6794580749580884 1.0573114365086684 0.10657123698173576
0.5446620536369088 0.6783070076707988 1.013402678589539 0.00903629719446077
0.5388002504873639 0.6759190339868508 0.9917852813639291 0.010306813326814058
0.5480587966640702 0.6800363743196088 1.031261407223888 0.00955418193048172
0.3961063577052907 0.7005533470695441 1.0662796511786639 0.014226913006676662
0.3682210575151886 0.6988583137659602 1.0626615643659112 0.06972777483426192
0.3621487143812039 0.7056614834277064 1.0657836295979342 0.05752386784285691
0.3738285397752782 0.7016351637145907 1.0853835344511575 0.07550525532959998
0.3804617076627744 0.6973471611242655 1.0478178690118534 0.012380365547574752
0.5706892938988314 0.6542414620967265 0.8736775566557468 0.011780268576994412
0.5614226316115617 0.6487979457760539 0.8951467595905924 0.012722187480299496
0.541908757292061 0.6545942663694329 0.8950613260263677 0.020657927049590893
0.5617787866511637 0.6485602276397893 0.8667589875116471 0.09634793582578798
0.5444440203756244 0.6524049212381131 0.8791191986838556 0.023348110880215708
0.5585060242480588 0.6422168327321641 0.8580186869786237 0.16865131322669832
0.5535466030614388 0.6316206949369737 0.8017340265092044 0.016953371271272687
0.5781686271413213 0.6253254148212629 0.8043987463570466 0.055701345074826165
0.53673963123697 0.6364630299030805 0.8052094546559224 0.011090523273661104
0.5389146155354898 0.640257193912227 0.8293836362990373 0.13392742972050956
0.5434418343258199 0.6435260152586368 0.8187162460517144 0.006677051539615551
0.5615090695070387 0.635329336465498 0.8372058145771043 0.08250594729217565
0.5463717462817947 0.6439007707137577 0.8596937145690885 0.26002841204393345
0.5289472218854472 0.6437979667274678 0.8304371336200475 0.014464146649892798
0.5439330829710727 0.6420563133940723 0.8573901718758642 0.24450321581572818
0.12356885490961768 0.6452000202448257 1.0820625994627056 0.0981713629035316
0.11926001460444646 0.6411105468272538 1.0743436994457152 0.06589349262608445
0.10814910361913135 0.6479595227373727 1.073076659685087 0.1315145786038703
0.1146537775119134 0.6388701230178289 1.0656442831775752 0.07340307544760044
0.11385298960437822 0.6359573016295762 1.044415082863311 0.06027146384731266
0.13084429332785139 0.6406747348826404 1.0431917706094556 0.010116409862381086
0.1407163782663677 0.649195714160327 1.0746527990573338 0.13491688940796653
0.14065628911257072 0.6431986838379687 1.0527779198919722 0.007658275924206112
0.179165765642523 0.6561677593075347 1.083341240047426 0.138446766081932
0.1517731065604954 0.6392341613886329 1.0379244094192328 0.006630293885030408
0.1435838170816045 0.6539578044005222 1.0889853716266065 0.11079476822106264
0.1587039187792001 0.6452730163121353 1.0730411930242028 0.019140329409887462
0.17886623989147948 0.6451766465128839 1.066687258255723 0.007518846672488602
0.17790018453787837 0.6453665324150145 1.0391511231719708 0.006873677435002526
0.1902071197628922 0.6480424025881685 1.0305080785376854 0.005642116619251622
0.17223194932982383 0.6383871699744033 1.0137321675631412 0.016866015151271094
0.1647892360023882 0.6294488879675603 1.005742090894964 0.005745190743390345
0.18879380541369423 0.6413960166846133 1.0174593041647866 0.01518126019806332
0.17898092440597846 0.639396582507647 1.004703642035477 0.007538468210002705
0.17476343298578126 0.63364109735727 0.9929817531938641 0.018225852960690927
0.2200416861008572 0.6407475188830581 1.0234604544844865 0.005910163591669576
0.2230827555905525 0.6410363088448258 1.010883980758145 0.010188044716335944
0.22215689185791704 0.6406623015576981 0.9935606199667406 0.015893978760849806
0.23863075692025862 0.6360608946156358 0.9818847504527902 0.010339355942291085
0.25072987357706644 0.6458472648112428 1.0142015344365243 0.11406431501380235
0.23660963778770783 0.6430658513421494 0.9900578737764038 0.010670695581549386
0.24047713330036793 0.6464038855190064 0.9960777510312866 0.09608878342327008
0.24954883937511319 0.6467132940647157 1.044321585718545 0.010121792608711343
0.26327097050880116 0.6460594240481105 1.0119934480845085 0.13738716318759367
0.2710335854338459 0.6460882961288178 1.0002444369914443 0.16598027853085712
0.27025449147291725 0.6455281858974634 1.0510567503883015 0.00792607020512828
0.2599145733854046 0.6446408282725345 1.0279910254790106 0.0028419802864649026
0.2800542467439645 0.6446246898099661 1.0152146026596303 0.12354165931242836
0.28807066472158527 0.6459765192124444 1.0299457642318748 0.0038329473346366463
0.3002752163356076 0.648839145426357 1.0389020017135162 0.0068642317317672355
0.29233837024350495 0.6435624727540599 0.9976328797295395 0.13621541941032772
0.31357356544040454 0.6468526212183233 1.0394546380551173 0.008912800969191604
0.29953015642646086 0.6526504880862797 1.0503231208050614 0.006849995861371417
0.2942000624029961 0.6388341043188911 0.9839353247753415 0.011537044618370056
0.32562833559936094 0.6403736582518246 1.0082383845579501 0.0152903736904124
0.32414977491664004 0.6469931371982085 1.0210475565464001 0.1217036038679289
0.30679907322168776 0.6489116632831339 1.0086629343804665 0.13595572572193246
0.3197919618585937 0.6344970185640831 0.9933687705942991 0.00721154898028595
0.3314034917011678 0.6446225880830512 1.048246391688433 0.004664823169426587
0.21807870774461524 0.64111462536375 0.97810305050483 0.17716327718615835
0.20461422457822417 0.6411025217025877 0.9823159580382382 0.16159371002239878
0.2090769855880712 0.6316747413407203 0.9455094587852017 0.00699155614077895
0.15214283345684684 0.6271143227864281 0.9596935910174902 0.007613250157526826
0.18185228036773277 0.6281880707856586 0.9753595482148768 0.011476785418792166
0.18110335721883816 0.6245584031984242 0.9312140955098719 0.00882456281516504
0.18178758916483032 0.6239184092429036 0.9460343972942077 0.006275651196067552
0.17228355650822208 0.6269355190995851 0.9509319830583561 0.007443219382412448
0.2588509544990713 0.6362201878617815 0.9431522193690787 0.11423437839429734
0.23154903955423325 0.6387005879769881 0.9483788776592407 0.15182992526161376
0.24456619837160942 0.6361323178902732 0.9341033526901782 0.10294312924888356
0.23348598264539366 0.6341568719247849 0.9653936064605925 0.008725569532359393
0.2330549223830877 0.636168487287838 0.9321706956011578 0.01377548567722956
0.2715423837325333 0.6306427149058029 0.9433572749850193 0.0034145902645071574
0.24043773898334866 0.6371598090490079 0.9719865514069889 0.010147242368547622
0.2570248947069055 0.6369852575619408 0.9841303580685661 0.004338777542422595
0.25557856342388496 0.6368816079294334 0.968710213199914 0.009022396551755418
0.3097229423409627 0.6254728810210106 0.9388795138250168 0.004343790865917476
0.3036593734270187 0.6332555580661386 0.9582622142674212 0.01361300302121606
0.2902086125896749 0.6299095997369744 0.9547410464094352 0.007183538048904159
0.2823721217546242 0.6324305458366467 0.9434895249788825 0.0068718912700988545
0.3211033420416519 0.6370014781743575 0.9567207805708908 0.011095848191926416
0.3206807756570518 0.6332714638443219 0.944954208796995 0.009088670496470785
0.3557058500199092 0.6343755427555149 0.9669413577811146 0.002224212937263664
0.3393327721886287 0.6393912310273465 0.9473627626406902 0.20415350641558894
0.3453852479035794 0.6369553892274108 0.9557950012837071 0.007585407206887254
0.3742788913411218 0.6420675401500082 0.9627961610550617 0.004943946169396934
0.37822920405203275 0.643323133410727 0.9797641219592397 0.12597164387934146
0.36999037055306605 0.637599308232671 0.9524261926560269 0.008417355690005344
0.39279389119646774 0.640172837679341 0.9664681336706729 0.13327767929229492
0.3861982739292581 0.637177206560198 0.9547451143553116 0.008210309956191349
0.4177832869918264 0.6407693938824703 0.9848978003545906 0.19342662057737672
0.4204918422150612 0.6526570048278333 1.043917287513628 0.01670648237983637
0.38012289939233485 0.6444339773199104 0.9906660977369943 0.22342687899306132
0.41373625720801543 0.64372498216028 0.9912563942271935 0.22777101545143136
0.4167400878468687 0.6488295702125038 1.0063872991299032 0.15636459693674745
0.3935772185754251 0.6444244679576155 0.9973869973369531 0.11370049687539142
0.4285602957340846 0.6521027991056539 1.0358665818986796 0.0048633658409660985
0.37976710957866106 0.6361079851316493 1.0120590747511538 0.002976948098641343
0.38704048012458564 0.6470340240157916 1.0333652435205778 0.02533886193299467
0.40651460526184013 0.646287900567673 1.0209946664278022 0.011140477335011762
0.39427003180373127 0.6467956175655809 1.0308844123516367 0.024700087815309045
0.41937602549394287 0.6523630827925285 1.0486368094156893 0.01842302385355932
0.4264205039475233 0.6324991882171019 0.9700031224091268 0.008814107512879877
0.3844478210763105 0.6376175855656454 0.9462662468568998 0.007232864310513902
0.4167570076529565 0.6266830083443713 0.9244446608259096 0.007315700188488026
0.41184027393928113 0.6340339235476821 0.9355116140221716 0.11858900974658146
0.41953079667968823 0.6346539647646134 0.9614582390252389 0.006938131631948396
0.4386033861501187 0.6331720549473049 0.9435499784349022 0.15798280100462772
0.45417563167451563 0.6377796971783081 0.9794438005277855 0.007789817103610494
0.435101325895567 0.628959133360519 0.9687958897458158 0.004878710384327894
0.48182705564834505 0.6373344262106191 0.9883903736069012 0.003845857441756685
0.44989954755686806 0.6330663514968922 0.9686251948670787 0.009032918136526081
0.46307514365565283 0.6312795737095315 0.9423465458874636 0.008938687580881758
0.22920316001094435 0.6358196543702593 0.9194992873444432 0.1953769607132413
0.21412416426139275 0.6243611717665771 0.9010029725045003 0.21308048242296432
0.21333258169982766 0.6247234717502734 0.9144093288327041 0.007481943227409176
0.19980486785302085 0.6211246759244067 0.8918157597382194 0.0064631290921337734
0.18790420528052376 0.6193552915185478 0.89804003560478 0.0056726621820625284
0.1731057967606689 0.6278334151459374 0.917788857839042 0.10195590144915533
0.19070521607319216 0.6206205980476471 0.9134860392946883 0.0063144933543981
0.1848524743163968 0.614671626778888 0.8864820183635977 0.005253824785012046
0.14346297417696335 0.6139541172436697 0.878932957984389 0.02769115177962652
0.16093081980526874 0.616546194754449 0.8872819469910983 0.007852274772333315
0.15273764983657104 0.6206795217606893 0.8999121241529894 0.19558510883830832
0.13202697375515396 0.612524571154231 0.8939960274440498 0.022373938423086243
0.15708134707088092 0.6121954103674251 0.8787438803763322 0.006772107056652409
0.24099234858613164 0.6201540563439726 0.8986531640017983 0.005614496721019749
0.2536891116781819 0.6231599502177934 0.8837148246798227 0.013574999150216364
0.2507982471703255 0.6278619912329885 0.9050462547293824 0.01157542735533877
0.2640133827929578 0.6318827749039176 0.9332048803708974 0.003362714547501998
0.25482133081725755 0.6364812304758971 0.928545931029528 0.143112591498444
0.2739847377819219 0.6276853605102282 0.8979372986186948 0.010200673932015052
0.2691331681002751 0.6322381629381829 0.9170874596897355 0.008581786575356163
0.3206661714916504 0.6234428283723384 0.8907035769970989 0.007785170158963846
0.2948671275133586 0.6268444005572634 0.912887526005267 0.006454476033849598
0.28831775097897244 0.6206638305193118 0.8976231342478403 0.0030099909649675635
0.29518429113185607 0.6201060626505961 0.8913575482396047 0.004091597428814761
0.3366357966755573 0.6259793699128066 0.8977560494378606 0.014679534747217551
0.31993208814518587 0.6291372606567028 0.9138912164387765 0.011130759286685483
0.3249413030892239 0.6283185473652451 0.9281348467190672 0.009884819862766722
0.3430947867975912 0.6300305555504406 0.9210810968980456 0.014527104243138026
0.3366948780107756 0.6247109383104664 0.8950871419991876 0.01401496012869112
0.34673961727410657 0.6332471856290305 0.9263904914752649 0.011929272237976903
0.3479370826573075 0.6156800120831989 0.8929673925389614 0.009664160584182459
0.34962897701072626 0.6198094166773772 0.9043392122151716 0.008316053943004564
0.3702518817154251 0.6313673817415453 0.9260393321308518 0.0067702101543608345
0.3756750706434592 0.629212781173094 0.8970808274213792 0.013705702468170112
0.36237718599381036 0.6241869299830216 0.887535266009555 0.010882903026286514
0.3871209348244158 0.6309028788784438 0.9115509929932653 0.010051826109089513
0.3964002496959101 0.6241334509541027 0.8783191266406882 0.0034956886567941593
0.420743718626222 0.6303915956664755 0.9013971991577205 0.005208157663925614
0.39772779073633513 0.6255990662040002 0.8865909471478968 0.16608780640321624
0.4384670324803389 0.6274173214044609 0.9294791306410374 0.010023051690980484
0.4644023383277015 0.6233143578815694 0.932732719047107 0.0068850659808890775
0.43132644539044107 0.6211194007231243 0.8993916229804811 0.010889088638977907
0.4440609548293668 0.6293474943984428 0.9099431272455627 0.24840090457809325
0.4558897329964868 0.6210650958122608 0.8912399927751836 0.010953564687843465
0.46519977020457065 0.6184387584287814 0.8982639287549793 0.01497037622297085
0.4390733651168985 0.624005017558509 0.8924060256531854 0.013608740923584349
0.4551692355120016 0.6217116411420948 0.8937078891365311 0.012089239573617577
0.4861436889795297 0.6165936493589812 0.9138988867267506 0.004384523626042719
0.5218665109545356 0.6229193819788257 0.9248132367473112 0.014174881397331024
0.48902057377971125 0.6196733207494981 0.8969589422650939 0.011058345100638878
0.5142636534161896 0.625104615498941 0.9310922708624895 0.006138439100411946
0.5117873164373905 0.6275063254298332 0.9425333528622882 0.00605870610856235
0.49901246286544704 0.6236604831453478 0.9303244907521789 0.0073534719137473255
0.5133785501351696 0.6211705506497053 0.8896294720912984 0.13564097677862097
0.5221442131457673 0.61586102311616 0.9064287884424234 0.008746196116502713
0.15840381242714083 0.6017542664459761 0.8554209970401523 0.00955858522130727
0.16290320413400527 0.6090856839687082 0.8715800981206617 0.005425964122637929
0.20509000028452323 0.6141335435600445 0.8408298354729711 0.008542286613845483
0.18652577327208225 0.6145908076769631 0.8656613506114099 0.12049330997900537
0.22298119024092944 0.6038779574190617 0.8593735640974466 0.006267449504910036
0.213432391700162 0.6171315106242736 0.8759792708091909 0.013988113165931227
0.20092696852839637 0.6201180640082795 0.8856023807599425 0.015201594092582874
0.21912105184872682 0.6182941447444207 0.8781552711514373 0.01175644063026683
0.25865274308546365 0.6162475561097298 0.8573302565789287 0.012312602822617362
0.23519261316543288 0.6111149135691042 0.8736605609924966 0.010834165368554544
0.27426868697300566 0.6189800993681256 0.8589998208313434 0.003163247571921287
0.26926023234553464 0.6249595621645758 0.8829410118103592 0.011268279746240374
0.3016191378487594 0.6165202556934897 0.8552754334941397 0.007901164952292797
0.3026029057937247 0.6174590067404533 0.8641142281421087 0.007647797032038428
0.31725319524962337 0.6093911221549179 0.8432423557216725 0.007592178947942524
0.3197246848972357 0.6182667456413548 0.8791804136522747 0.008457800833071955
0.3014407634497134 0.6213258666864004 0.8773808909870447 0.005912863416166933
0.3449358100637964 0.6150832164463785 0.8725100891431262 0.012399401440211578
0.3358215122007166 0.6175079342182627 0.8797051064913423 0.010778310687564775
0.35783637558017395 0.6189070605864769 0.8770718964056677 0.012523049744268287
0.35163445400907145 0.6140697920732493 0.8473415265839238 0.0030109026211736466
0.38597587490723856 0.6169918428474881 0.875745235758448 0.003234800351192915
0.4225337076192114 0.6187335232703108 0.8732159688879166 0.009428496948356086
0.4184855123764192 0.6148321211667132 0.8629075011843835 0.00707779468161692
0.3783281917160119 0.6141131976320838 0.8493708436796449 0.00636966725533588
0.4326635005800334 0.6108287470426959 0.8540668331923003 0.007872077909845057
0.465541651668523 0.6110479779280409 0.8785942908345451 0.006747583439355955
0.4438456970965152 0.622777471740659 0.8738649794224149 0.005785812177886967
0.4431985857918538 0.6131333084000167 0.8559165242727275 0.007316295543930033
0.4744570672493967 0.6087144109425865 0.854664832855395 0.011121766580181987
0.4503653507708186 0.605815449268734 0.8469093725412515 0.011199392412789366
0.4714613624163722 0.608839022112812 0.8500834571412452 0.010038866757267813
0.4690179180608046 0.6102102852108453 0.8651630691742828 0.008851558222071588
0.5005273102316046 0.6140936041513786 0.8731986718218844 0.009668687238968805
0.528084774660579 0.6134382284498603 0.875457732641225 0.1907277871238876
