x y z curv
0.45685317255848584 0.4019819737803879 0.5403058561320659 0.12516662526459757
0.4649650671627462 0.43280942399149036 0.7405554134309479 0.0905726457858716
0.4636459184861627 0.4366741833234836 0.644643124282643 0.05567407906070455
0.4572376670249561 0.4275082774061687 0.6551810014323104 0.09424793158909092
0.45086890910817135 0.4177239450548115 0.6847997481113913 0.1106719205508521
0.4583424210615816 0.4071649060436991 0.5090018439239433 0.1802984496564787
0.46259020910068754 0.40378928069267794 0.6250382997359673 0.040717270869342896
0.4637367989621482 0.4341969631111733 0.6820433865514746 0.09272646533112902
0.4636588417175156 0.45342441863106386 0.8029661295709191 0.13650762250241424
0.4715599615022084 0.43554244631354344 0.5993634259303079 0.020750434692944516
0.4619269638458804 0.44699894403948454 0.7711243309270279 0.14031157954010856
0.4736671416210114 0.4416547478884429 0.7300900052055382 0.04123962826273553
0.4631898633815544 0.4446460059414641 0.748843365450168 0.11664725713043803
0.46168310306031474 0.43327888604812026 0.5275008930980697 0.002120965517972398
0.463893852125947 0.4368678947053271 0.6430596677283609 0.04564359733699067
0.46234506370286227 0.46671801162814924 0.7716210888820862 0.07753991537269374
0.46045189831531247 0.45156363856721976 0.6904096428820411 0.1031055241060187
0.4583737638638293 0.4253365233883053 0.517592956808474 0.0039510083225588735
0.4664522177096683 0.44410567870482504 0.6232332044247669 0.0327573784857137
0.45399544160048577 0.44671020026447944 0.5968104412881361 0.0008027981226321778
0.4558949439512786 0.43911660986718726 0.547469582511211 0.022849410396322642
0.46886397597271545 0.43303090733619337 0.5829975040091984 0.04596409354664494
0.46203898826710227 0.468317119125239 0.7360716154451473 0.030954230294879398
0.4662119764738391 0.4664331280129785 0.8053779475504604 0.12413323399063045
0.46415489658792153 0.4669711988330195 0.7227048755169438 0.021434114492641418
0.46718702010799384 0.46959413468931216 0.761143253754536 0.020247166089287207
0.45475383261720337 0.44549827645680934 0.6639627229113619 0.10606237079356683
0.460860093690875 0.4647151385278213 0.7850364158603893 0.13222523731170074
0.4614440068067056 0.461674594601984 0.702330388776269 0.03173353285911124
0.4472544606519842 0.48004328607161384 0.8016355851216157 0.164477055017769
0.44112390152655806 0.4615447542684648 0.8140271245430705 0.18552917662211163
0.4443537695377282 0.45028008801369335 0.799729660539838 0.16917869154499246
0.46465121673113424 0.4596976918558852 0.8064865060646559 0.1351726254014326
0.4426167578244844 0.4739279318133242 0.012403890570026438 0.038885874098712934
0.44048170868062914 0.47742545481475474 0.05921367325375157 0.0011537527995839972
0.46006619317593844 0.4458453261067421 0.3342089553518081 0.006887074749740616
0.45714544579148103 0.4656327574675038 0.13050881461191666 0.0019662464803387215
0.4631893116447728 0.4324134594007779 0.3569106983118413 0.011128249535642652
0.46185510369433946 0.4656986645099382 0.038828692707756886 0.047437608118444975
0.45939882995346065 0.45463697838585054 0.14876196122914545 0.005017213929545605
0.4606659226937106 0.438433505905197 0.3159878431552344 0.006845913596347337
0.45879350162224247 0.4725704808139639 0.08061040857324418 0.02905974344630624
0.4576064927194626 0.449448621223561 0.22692558474147712 0.0157258494940158
0.45875572600738124 0.4387095758959366 0.2766246469528998 0.005112598347590855
0.457326314428768 0.45972705843025846 0.6833435350386484 0.11275539614614204
0.4515146348593882 0.4742915044781904 0.7603302334288139 0.035632823521649905
0.4574001748873546 0.47166043406814967 0.7860562645176735 0.12176288545158778
0.4484089714601534 0.4753891572793555 0.7767341042741741 0.11436980050162981
0.43790499387809445 0.4665509721834294 0.6692039532304477 0.0012077378858084537
0.45893209349913044 0.46499410229114146 0.6950534970953695 0.061319527716900045
0.45549447890711 0.44756139618750235 0.5668183457158168 0.023621196641927394
0.4488301482137379 0.4529651584073066 0.6565368637382696 0.12802511138897096
0.45399319562310364 0.43291967420189187 0.39133638056225056 0.021259438282994453
0.4668356294934648 0.4167616024698155 0.4285319715313062 0.006703389801377175
0.4563170879393561 0.43036445288348624 0.3743633475089884 0.01922479476441866
0.4229479303887121 0.3994535590920576 0.5032405987508713 0.047618285518777476
0.4256627495913977 0.39465602421784646 0.5256290210893964 0.08220332387436771
0.43542610401957915 0.3756679647323781 0.4963292535423337 0.10152611225857928
0.42656080531716645 0.4126756059722293 0.6281895934288584 0.012175967257871808
0.4289574975693829 0.4006212243859772 0.568366013989946 0.06208550820454923
0.43106998551355924 0.37947943409867774 0.48895147872990113 0.14456170599727453
0.4330199819580751 0.45394413265779854 0.8147539118504604 0.06871997014977137
0.43436074525758567 0.4054382617361517 0.627867770065121 0.011034089278765027
0.43046989117970086 0.39947094951895623 0.6006385239520575 0.03305765649579936
0.4364187157238124 0.42492220421720467 0.69810281655987 0.08229226572667768
0.43570680322332084 0.39154188054220546 0.5563526886609698 0.083118497473684
0.4437023559275849 0.39976821499236287 0.6100927104145201 0.02680237731643579
0.4327099506690477 0.3831633142018802 0.5442549255925 0.0795124562973287
0.43111927018711826 0.42061437210702884 0.667252576349958 0.14749239467788497
0.4471703259923355 0.39295149054461437 0.5834785078009397 0.07480248725370506
0.4423022258156377 0.3880026475630196 0.5576968342494494 0.11023892053274531
0.43593222735491716 0.3805055761726761 0.5060722638186029 0.1336956010161271
0.4292611211385741 0.4351571985731027 0.7587874062980591 0.01866431732997965
0.45751406142098994 0.39446996196839335 0.5290990454018342 0.1023661738985651
0.44966001714401843 0.41501615522104446 0.645556993788033 0.12074470206633636
0.4595836367233912 0.40295169308591444 0.6231369077627085 0.04314941820531147
0.45920244808805655 0.37805733024430643 0.5108618880463082 0.05740373720236101
0.46339202725739104 0.43708935148142797 0.7547081013855258 0.109640718132784
0.4467867825294285 0.42991818616970573 0.7271490978793493 0.013432992048601926
0.44389372752953243 0.4249318788785954 0.695442997126854 0.12681229334143712
0.45401837726500105 0.44387020677995176 0.7904598181822081 0.13551407316894112
0.42227693181075615 0.4429224673324069 0.7924716414919082 0.014054616269175948
0.455672724633511 0.42016804125628 0.6537229076558473 0.13700128320158195
0.45533832342268665 0.4294586695382579 0.7122130213175755 0.14067184302359048
0.457608051566783 0.3971758515267286 0.5945062198589645 0.08256771979804885
0.44635180263907437 0.43250307319195036 0.7745666463083967 0.04802480730882526
0.4582510427713813 0.3794722743340505 0.5515383558095498 0.04623656496003805
0.44780000232370404 0.42964359622806714 0.7372606907729589 0.025375032644012675
0.44070036536307394 0.377181789430996 0.5015973752852072 0.13634958216753496
0.45771901217791733 0.37621794057673424 0.48192764999821763 0.07035633906312717
0.4615038930842347 0.3743750980933475 0.43848926344957895 0.029126697796230207
0.4517595163980645 0.36829122807416015 0.4146694423869459 0.013922347943778928
0.45132939179331555 0.39122136235241683 0.3052507017206306 0.005241958722266111
0.4580001340179821 0.3842064491499949 0.40424270794263073 0.02317134858595361
0.45714744891787173 0.38614780720767694 0.3643906320417107 0.008912035383807705
0.46589418990735354 0.43474640167375384 0.041818904406371774 0.03735825161263173
0.4671051309830117 0.42008089595718373 0.1564490265302301 0.019061888900838
0.44759659581005706 0.4363986790761922 0.009271790664524757 0.05008978536343509
0.4495003537115221 0.42536809872673265 0.08827264492532545 0.0030021432853918847
0.4553772007619269 0.40573176837597913 0.2205212021045302 0.0030328740979377795
0.46300183568674824 0.4031401332010094 0.27862428678043083 0.029944044405331983
0.465545296622457 0.4323206724070612 0.06088067575472726 0.022641020353654326
0.4542173343968556 0.44476830273946505 0.010910313942622473 0.04297930133414998
0.1354308445476109 0.41723368343957534 0.4431272728670382 
0.2974434151059661 0.41271044085058406 0.43705719342955096 
0.03274675330651227 0.27711919412076597 0.43967961627952984 0.03314514241011476
0.032710718255727245 0.31665735656037425 0.4490646448963314 -4.336735832277339e-15
0.16951038923758627 0.37802999985495395 0.4456189659783373 
0.034542058220889287 0.27481340744491806 0.4439695876706349 0.02378800421931082
0.08154630994197878 0.3427461882924525 0.4478939350173833 
0.38081288431571536 0.36975010121595925 0.4473637267077868 
0.2680552056855735 0.40252034409270904 0.44164686114660634 
0.3241707569621662 0.4097360340228562 0.4407645865596873 
0.4309139403935604 0.27223070501531144 0.45321763871125803 0.02435159191886581
0.42641808653732816 0.23580496869615344 0.4439437640056832 0.08803558855956826
0.3485707739439676 0.3451244041745393 0.44844384819160416 
0.42098090986386505 0.31855525483763836 0.44684593293552877 0.010728723670440834
0.422886012034195 0.2897101098114354 0.44260356914994836 0.07150943466466417
0.07361765729369366 0.2818306233394117 0.45039012795218514 
0.03989940765409125 0.22937020572866992 0.4439112890701909 0.10045464535288033
0.036838467932153264 0.25304792506820195 0.44649684420546926 0.04660894191104379
0.1322555794303073 0.3324538598403308 0.447233810893584 
0.027163151043046643 0.23605373626182308 0.4391346114656 0.03302499999005132
0.2853686092423945 0.33107954452269645 0.4463733046199636 
0.4028397346558904 0.2477246505405331 0.4485235526653705 0.06315220049412537
0.09326815360287899 0.2648090845732985 0.45167753595300125 6.713915933853167e-14
0.12281124248536511 0.2390177695371 0.449361815878609 0.0008030020113388468
0.1257673966223057 0.2916344007243331 0.4469170692773001 
0.33072203474867773 0.3031642700703621 0.4515378368885349 
0.32568029611501326 0.26440720890285324 0.4485987023682383 0.0008602118904900986
0.1548854793176577 0.23294994206165218 0.4512350592431757 0.0007763683447707391
0.3505813874557208 0.27310214731911436 0.4471040283233879 0.00041190049394750083
0.38247172131604273 0.24998155078113277 0.4478052118745558 0.0018095930849308965
0.06821727018169726 0.2258502539690603 0.4514656220206385 0.0012691373151983852
0.2149504971512786 0.2836942992647438 0.4537816767277865 
0.3998961582722061 0.27083788455812363 0.4508728181753557 0.07271176465708541
0.25617565405803017 0.2724965083595754 0.45348950300921753 
0.35584765027303766 0.24360954240002922 0.44866492614447756 8.200769423197582e-05
0.23842412312916064 0.40013735234404957 0.44963331941531604 
0.28226883272169395 0.25254489943580694 0.4544049446786434 1.0519762069330665e-14
0.15185816655000714 0.26036978118617354 0.4550552311390718 -2.6894595434788795e-13
0.20713277192164783 0.3945492489700964 0.4449061810641758 
0.07690919681187652 0.25406336956068937 0.4486219670113255 -1.2645898285000033e-14
0.1445802289792581 0.24115783808610355 0.4527705644546227 0.0028270701664239463
0.31649725164552567 0.2605154963159546 0.4504782783088665 0.00023226190417290028
0.1967554417341385 0.25498033050305063 0.4475936957127907 
0.219646025711231 0.24079353732000683 0.4467190384221606 
0.3085213781772326 0.22984810966522554 0.4505005530067605 0.001520144456562896
0.42669230363968674 0.20736649274575766 0.45000360911259035 0.06697203070817796
0.21356917362916705 0.2141783008604619 0.45194536834739535 
0.40938385853278214 0.2256837013619577 0.45351262500232403 0.030417584592952476
0.32314496630041206 0.19931594696119917 0.4523507381130273 0.000193112164000181
0.11818439755948301 0.21876226149270467 0.44983898402289585 0.0022461902208292463
0.4055302971764405 0.18418526820641323 0.44953252961075163 0.036193247912816445
0.3468427645323602 0.1886505820853494 0.45371750602741845 1.700398352552018e-14
0.25642618024575736 0.2113032242984848 0.44826450101776616 
0.3617452830691031 0.231879682279272 0.45109613576739443 -8.978775579168664e-14
0.23127381686061593 0.1980229249080198 0.4543030715968993 9.868686423009202e-14
0.36919450384161073 0.1967967886303449 0.4538371432211402 0.001135951985999156
0.4394762142063428 0.08789601451871774 0.45934975873252637 0.05954892271916669
0.03425393185975657 0.1920354256190336 0.43874132432710083 0.018129410505718948
0.04821416432926284 0.20372873603816835 0.4528886781172053 0.054369076016962246
0.16339871726143468 0.18951732018268966 0.4517338951218883 
0.31236084007060677 0.18975587171458352 0.45089288349377643 0.0001974388092968335
0.2955278848885622 0.19214347248545216 0.45080807996632466 0.0006874120076081036
0.4303779549497342 0.17539689813180406 0.4488126836004241 0.06970519292395154
0.12354519039059576 0.2072467713880883 0.45095928687513415 1.2597060960961964e-13
0.04135972522361275 0.2073178965977786 0.4524905118147068 0.08310463530131197
0.03392254245163476 0.17189953881973635 0.45593651402120694 0.02789921880933815
0.029381166136151705 0.20482352020564504 0.4428666588070445 0.04843480344304617
0.025613527505266208 0.12827036650366708 0.45216114743279884 0.026190634896049447
0.034537893829753405 0.03089813519528839 0.4554590038864132 0.04499117173564907
0.1829555285890769 0.09992074929284661 0.4553263724028561 5.991338253964935e-14
0.24535454480562352 0.12154204526802145 0.45738446981910313 -3.1969676295904285e-14
0.04156821663283311 0.10400538750502226 0.450913879161405 0.07634320717011436
0.19909222991364614 0.13426312032558924 0.4588064659634687 -2.0346908484550293e-14
0.029549743248460988 0.1540226037621842 0.44888807487574417 0.03501409584468743
0.29687387488952416 0.13011988743072864 0.45867491515053804 4.317327140184637e-15
0.10423716262284263 0.15536632803333378 0.4517921689165349 
0.13764151540463668 0.12033251411634294 0.4576366732635067 
0.36034788418107433 0.11367791271449469 0.4545443455964033 0.0002051401648553353
0.1320887023854746 0.10421933096726092 0.45719982585096297 
0.07612176952448649 0.1566745899780965 0.45996864250956604 -6.76060276277008e-14
0.10779414903611906 0.1665893651414707 0.4510617189165382 
0.05358672547231993 0.16120962516609022 0.45766962429046076 0.006529395031100805
0.09164407801646472 0.09984124304358936 0.45572159055820366 
0.38635739669531377 0.13173081685814278 0.4511859113989189 0.021594186702167575
0.23727331147639202 0.15316806780993583 0.45675456001739884 0.00023736353543398766
0.3909863042487263 0.16913771843800043 0.4543827802389554 0.0009325073460982137
0.43111645208027866 0.11747363953652694 0.445575561846052 0.129020337876332
0.3984282088083778 0.1499130916727074 0.4489584100434823 0.003385161224556725
0.18993401007203278 0.1579239546338533 0.4538868740940396 0.0010854768603996644
0.41768404818526805 0.160940766826304 0.44656859622578854 0.057959533241877206
0.17191460589135824 0.17217830934612724 0.45161701973322677 3.997720184510333e-14
0.40746954396384477 0.14154400219217936 0.44576209349901885 0.01613866848188237
0.18163990925397028 0.14870779586863708 0.4537848696428504 -6.025767334108808e-14
0.31263506031931415 0.15933084811766535 0.4551469515800414 -6.462676544302679e-14
0.4001860365611878 0.12266684109911061 0.44870828811968366 0.04190196916816738
0.2297049203448999 0.1620642428834921 0.45351941036598264 0.0010817641553242437
0.25830872385879355 0.13296435007200036 0.4575456274964187 0.0010659215357254777
0.40103495028921265 0.10566919271590815 0.459491091142339 0.001949559668062912
0.26713554828919983 0.16419373025895556 0.45394489986625275 0.0005647470702921558
0.3281207678894689 0.09708041646163514 0.4566538500579747 0.0002996273492102471
0.04373549635277747 0.09650317867636085 0.4515526687937617 0.07240589244858701
0.2471911540805249 0.09035597492905709 0.4559753569672479 
0.030665550297120845 0.0832963795122939 0.4551453756575543 0.03292321003012758
0.19756772109603749 0.07717137224165184 0.460849199104341 -7.339320111330614e-15
0.3058577008514609 0.09268593211515877 0.45742892871565566 3.915914341691105e-06
0.18568149286972857 0.0837069458684646 0.460116952503426 -3.1663332155303994e-14
0.048629637363115256 0.07499901418116471 0.457722262645557 0.04375312299826431
0.10747836789650997 0.07893273772445102 0.4549321108310279 3.325819658927731e-05
0.4275168667535932 0.06493682889645658 0.4530011164775834 0.052394310948863314
0.3432635180456167 0.08266054144771716 0.4554016785885086 0.0003188814316980437
0.31543099452204365 0.06305319916964987 0.45898826604890114 0.0008747539525516698
0.27267783799972645 0.06032916108090343 0.464132152265012 
0.366758987479864 0.05904829347606831 0.4559206749623711 0.00013534434756937928
0.3657938910559393 0.08466017362536994 0.45503816348043247 0.0024506079997865145
0.39539537692310167 0.08946434976023744 0.45985638803974027 0.011236698251318013
0.08667669514045419 0.044259803015716505 0.46356045516957867 0.008664559863206517
0.33746176857915094 0.05515550606691097 0.4561545785906589 0.0008393836949416909
0.17369146204387123 0.042386869261663095 0.4597117320522341 3.640799581597992e-05
0.10764755054259961 0.05588445760158235 0.4610486782836479 0.026311282238289855
0.12061568472119981 0.061928901210540815 0.46060524014765647 0.018999784602387527
0.0461120042899306 0.030711682410898694 0.4617030377049001 0.03941030777108431
0.18741092682538246 0.04972619621930385 0.45935397090638863 0.003761216723408676
0.03569818921137317 0.046678495380081855 0.4602085192966371 0.031570599181472744
0.04599929468401948 0.054351594784757 0.45848758623858893 0.041216878835299446
0.18819975814162 0.015582779066314528 0.460366800897513 0.08846189833005638
0.09932314819083606 0.025098615031042576 0.45380054099851835 0.02913746882217575
0.34839547301316914 0.046389035537035266 0.4576058503715314 0.0012099119818996436
0.4000040762072004 0.0378878696356167 0.45939499483610546 0.0636255748753196
0.326208029015692 0.03097696144446027 0.4583863506133053 0.05337619465671813
0.4094999004573237 0.0187787268627642 0.4540269902341312 0.05227050312437932
0.07894858476227767 0.02321943575842712 0.4592134689355897 0.02143885986489119
0.30368963124524656 0.02382104595062939 0.45753680562073634 0.07125573667338353
0.27812337823703 0.03487356180627714 0.46462620666223603 0.05042293305811097
0.3741409615148314 0.03272739928177637 0.45846138979720563 0.0550165555105887
0.314608792128388 0.04349624625755147 0.46085536367054397 0.04065666602285204
0.21770217965463023 0.030984829538672043 0.46339006756695456 0.0693290101040516
0.24700122947672556 0.02548448122979097 0.45938083258529233 0.034313418808274765
0.40864228728503893 0.06450920233564358 0.4575616747230824 0.04657811827301759
0.09650509891994552 0.031131309298255454 0.4566766703495807 0.026211737866291107
0.23954650850969075 0.029206917912532507 0.4680811920102998 0.0349628328470054
0.027714206826562005 0.27816641109452955 0.4316471253219225 0.02105605414240424
0.025357158465769594 0.23456580535188742 0.4370637571795909 0.03377904563623824
0.1725023153687336 0.017177403827405627 0.4543241351094492 0.09899812101644492
0.09113321225973085 0.012968544586969553 0.4417931489385977 0.053884801133955364
0.43165738428656086 0.31847996190129385 0.4297338433249075 0.021538089136688487
0.38346920465927226 0.01361691952580081 0.44124305168088573 0.054320462314709085
0.30477374946234276 0.01668135385635305 0.4416484831243419 0.0486867458012473
0.13838844954754925 0.014953940905112557 0.44927178309293897 0.006392924751756232
0.31845178843215916 0.016719238740567532 0.4536529361505753 0.08926113479219835
0.4355658603789278 0.028805217831281912 0.4511409376920289 0.09101591251398862
0.43045854964584696 0.09938348849078978 0.45264000920615705 0.10682814748505176
0.07758701623915798 0.020303205196896545 0.4578954216206441 0.02031936271393652
0.33229028125436094 0.014922793483939975 0.4593647901806605 0.04748462953467309
0.2896455360000826 0.010850077058550373 0.4524177362949243 0.030458972587511145
0.36284785486975946 0.01649573248520816 0.4572756329379134 0.06948238378367584
0.2002591786580356 0.007318173378027757 0.44577535136494945 0.019684313515506757
0.26333783695579455 0.012999116039830571 0.45578683318865293 0.02793771342355142
0.23725349225078238 0.017070338605077697 0.45258451835586355 0.029159680345154232
0.405596742528169 0.03793949106725204 0.4585573214275709 0.08303810395075381
0.2766100645644851 0.020048016596276003 0.4624027934124575 0.03146667685840818
0.05761753208515948 0.01853617604243788 0.46111628547285727 0.03883848640258713
0.13931015071322034 0.014363451186885756 0.461209843852709 0.0047056225128817636
0.39190282109117397 0.02538876615202657 0.45104764639807876 0.06421194116313646
0.42417722923743434 0.025144205778104556 0.4596833780399088 0.1135161945985816
0.09096755138646823 0.022591651611472592 0.45084731759361085 0.039602708215252136
0.16539857999745095 0.018655523247560514 0.4511565873948807 0.10599043896002946
0.4320324260136804 0.32096005308084596 0.43136483667629755 0.01945029652315745
0.42743095523201213 0.042188289257639074 0.4475580140745429 0.09444688736160416
0.4341848668089029 0.22354489062916416 0.4406186691298026 0.05191545526414298
0.4265398882533717 0.12990891078102806 0.440184010298372 0.09855853820546669
0.021189813940718033 0.26066736868514156 0.4416607592949346 0.023128630731773018
0.4374410265007788 0.15621747048410778 0.43867313525207713 0.03840031483906679
0.4321868518237847 0.21111462294314623 0.4429939773516591 0.06739427210768707
0.03150494997764104 0.051309107708356116 0.4506254466472808 0.03611620860012373
0.028914145321133226 0.01786984206758818 0.44779818196675386 0.03853441277902461
0.3977578612369238 0.022620374852758883 0.15807759969303806 0.14865001891999277
0.39494947598692814 0.02497828160103806 0.19214681204835013 0.13544439857304483
0.4001712703067983 0.027856335295034007 0.07742915455117214 0.07543282048587842
0.4062758677980987 0.0062750088430884475 0.1781419386320171 0.13495936930099592
0.40973893574123726 -0.0005859732229984435 0.1445792251380173 0.18164417879222827
0.4043756253270702 0.005015852908743879 0.09815048465212173 0.16064589619495018
0.40730798397577167 0.004383205482859862 0.08185836294692428 0.17182880898975703
0.4113597097740525 0.004387051408574973 0.06338135279516598 0.21310327444845115
0.407247884526874 0.003848177387296813 0.008806079870868806 0.15831604942405386
0.4080934651861144 0.007526408265868121 0.02180899695670661 0.097110435511159
0.40930581793155907 0.0025417684408570408 0.03739442553572584 0.07989868770764388
0.3991660816663608 0.020778149595476705 0.2261733366534774 0.17910644344745616
0.40194010222962084 0.007310991022430888 0.3327765834366963 0.04976702888366331
0.4041030158097756 0.0089623913779888 0.2830930401113821 0.09577558229470579
0.4099724563223586 0.008750442465537635 0.29887695444718076 0.05925912623789754
0.4361039150369931 0.05296830928501938 0.35715045396409517 0.003372554840240274
0.44148538987343394 0.04269658175168875 0.30902484722446316 0.03995104407846918
0.42700347786252674 0.044913363270643186 0.15551834613844584 0.1512261240623021
0.436467206168787 0.04556508048849152 0.37401982972799414 0.00992973474968932
0.4345946593857088 0.03049019112089703 0.17417697788823774 0.09169356292923919
0.4335598076182699 0.04634104729361664 0.4025801553294735 0.0185754401490737
0.434064330410783 0.053017648170510315 0.2596020070536013 0.0024341944881610352
0.4289314203787286 0.04206247457157676 0.22066312003792107 0.1471383150984814
0.42388768308862296 0.038801636139281274 0.09698137301865735 0.10818533191383929
0.4290747400551253 0.0489879782906186 0.4362642520304412 0.09940576461133784
0.4303250652348611 0.03213567254340557 0.13502438392391544 0.0631038807060183
0.42840824458222326 0.03992376693680546 0.23460986275455462 0.11264835870280501
0.4331619120041721 0.03919101076480951 0.19578496722283048 0.0526061281686384
0.43377901628782084 0.058962183893047866 0.37709451446800374 0.003566995863226199
0.43561923972066785 0.02766175088834844 0.2903304657013645 0.09144016114507719
0.4318725255992769 0.03592473089624314 0.21127472711591225 0.10358348974889801
0.4343386979342808 0.01632748943972133 0.4328009054052645 0.10094507905010613
0.43029185912619267 0.025621291621069357 0.3460033900557483 0.05098972709853518
0.4298517692860653 0.02598983463941939 0.3380614068695331 0.04622882483577613
0.43927050386325844 0.02904131552317677 0.3965200730742611 0.017917793905637625
0.42933058433720384 0.039105355957396296 0.41697744613795845 0.10245664526387543
0.43341553471185684 0.04054929490846525 0.3487437200899563 0.004410448226356247
0.4289984575435732 0.029010026588276176 0.2539927585698597 0.10465965473344983
0.4261684807376783 0.026552852970341916 0.23575336223194315 0.11012072615703117
0.43523746838946764 0.03156270855388317 0.3200452756586 0.05389094165308568
0.4335079569601903 0.025573566832338634 0.423404503548389 0.07940543995500492
0.4234907163905719 0.012366884020707045 0.40608724800618895 0.11395823254932343
0.43717894426697257 0.02599918613041116 0.030593255006922372 0.15449422317729455
0.42913881636812407 0.016241147257369613 0.3097856671088574 0.06487594136352766
0.4346679960455649 0.03280533714757936 0.007948908279990799 0.15457482234468062
0.4294898853297801 0.01065406988134975 0.2518351039198895 0.115092414255219
0.4338274335154813 0.013800656362554259 0.2202893592623156 0.10303372126911477
0.4299908363059321 0.015926167615689466 0.08311963246250713 0.16848226683363748
0.431750591892566 0.01686619558613728 0.05598107641949621 0.18184930804970773
0.4442968143184628 0.011398271774236923 0.04743073534592065 0.0955605314086073
0.4313346062211752 0.014237852526917035 0.17448825541405402 0.0913511541861283
0.4312720183923109 0.011270031865107971 0.10274980486302894 0.12034933709703781
0.42977628114642275 0.005526538015005242 0.12937604349632315 0.054781413749581585
0.43097238885680195 0.018848664708355528 0.21355791368845695 0.10431495780032353
0.4310768195162078 0.011662574115751523 0.2907580506060658 0.054773607753382844
0.4341811716281675 -0.0022492719269114067 0.026901187120851874 0.06145786471026835
0.4318117574939056 0.009861470073843099 0.2688943029391023 0.10041870051792047
0.42720502788933123 0.006485787864352709 0.2253632062041122 0.11758166233349071
0.43440954874414084 0.004207044328146326 0.06943208845200677 0.13441281833316923
0.4280350622424743 0.003523765143255873 0.24016151404653785 0.12261157073310815
0.42394215147336695 0.006602660924737446 0.16589841609574285 0.12673268225994264
0.4177980199313291 0.006151082157003706 0.3280805903736504 0.056922304901892956
0.4283436264703844 0.0039882112241079425 0.1482118623862238 0.10582352419667791
0.43400887312267816 0.0076370492535779815 0.10956332821767031 0.09656000324897121
0.4347377024038367 0.0013704305277322515 0.08847421552626733 0.13173007609967727
0.419573319422725 0.0016417503361039467 0.262913139530239 0.07895977502240945
0.42436205455188786 0.011075475151205112 0.27797369030212293 0.08272602138837908
0.4289979636208772 0.009956773598908472 0.1851947445585782 0.11389947860523596
0.415911538484294 0.004063918587706457 0.15523967703631394 0.14539066027200118
0.4143273107932091 0.009454265907965213 0.4221314655086161 0.1118937169824059
0.4312387804959992 0.014960159933938776 0.34703895682765257 0.052518360023618926
0.41642206169744045 -0.004265288904916864 0.0788948563165292 0.17235502806263037
0.41058260259051815 0.009785804071474967 0.4257966668847892 0.08779850274179361
0.4278110074463673 0.008531819169537894 0.36756931823579553 0.04999292274418051
0.42422186444632776 0.006831062972469819 0.2071786158832212 0.14861740723558958
0.43370409113858266 0.008047224871784178 0.4405555287846349 0.06550327554555369
0.4024534522153859 0.008001422744532367 0.3675895020868358 0.047128023857625746
0.41179328868473136 0.013345749615850253 0.44112604847722864 0.11564965603843075
0.40316743973208896 0.008369974568987876 0.3831237679994905 0.02552888813024423
0.40992236289734935 0.0030825373546042325 0.19725145181055437 0.044723386211104825
0.41986379943417357 0.006763644129746573 0.16628139228512462 0.11782934927231264
0.4200161465280114 0.002156130326337472 0.31747545555272516 0.04241427556578246
0.4107731799311189 0.0022822721826664854 0.24116622229699666 0.11841679746312746
0.40703505593445816 0.00605998220889624 0.22988866260019608 0.12427072792537035
0.41671964656163685 9.531833543165169e-06 0.40793028455872554 0.04317303085025907
0.41545020410518035 0.003773249530160939 0.36316888964743804 0.03824650898134488
0.4209358525306455 -0.0016735380818604303 0.10568863278350821 0.09108020031824693
0.4009243443071787 0.014060049489650162 0.30113247160877393 0.0396657482409496
0.39871323010214355 0.017947967175394236 0.26519742614076397 0.0708163601371482
0.40751566939381945 -0.0008723402334480834 0.13431263444463187 0.036128846417115945
0.41864924501936 9.349275044949945e-06 0.019236712807934698 0.08680992884829783
0.4172638373037694 -0.0031247170718592403 0.04927793283319485 0.062071957036441
0.4295760327418624 0.006112577065205769 0.014670592975529532 0.08018876703879432
0.4065993204774539 0.008293917419194488 -0.0001824476353340541 0.09927485002554534
0.41301966936032203 0.046598104691611374 0.12691952802464715 0.006317085848792222
0.42224294384675326 0.032456153621590274 0.06897835970594351 0.17278304671539527
0.4147521014991863 0.04898968351886502 0.15960918869812826 0.1155185461047969
0.4262788884922979 0.036111599005026807 0.0531594033960345 0.11892754190948496
0.4345057628152611 0.05151503127496955 0.30319889486819196 0.07891640209293524
0.43256064189196963 0.058297024868450585 0.2906166527245372 0.037906825182805144
0.4234795875649836 0.052912442585299466 0.23890464712716955 0.006950690505104051
0.42210041368131246 0.03700651518433557 0.06015542246736791 0.1344109374522114
0.42928602897944773 0.030126027671883472 0.11388323201452023 0.10793104638115159
0.42388274829079714 0.03667560689003037 0.11870027248377768 0.023738039493786018
0.41104773628795893 0.05111113108057468 0.19321568950977203 0.06526531097448911
0.41555301205156087 0.06327613814396467 0.31971653015257784 0.008521227275590093
0.41266404511071536 0.04240910639618986 0.08839340123932103 0.11633289183962388
0.4337226751215706 0.04129673717383194 0.1783148541870756 0.07242314659338624
0.02939303683611704 0.2582115690152954 0.41121493215789734 0.01760892277049499
0.030168722175954718 0.27558978316066485 0.38811564903804663 0.02835728699966203
0.02452216531667212 0.17488112643732193 0.3851000222110849 -1.1080712185870406e-14
0.033792677116577734 0.20867593795425907 0.40758099954525384 0.006571136683620596
0.024093377323823717 0.3362992365436699 0.40631113132780244 0.0029942718409654897
0.02734850171533871 0.23853939890487966 0.39125020277368505 0.04360682729361235
0.026812491369138824 0.28099975883480227 0.39359105814800777 0.004289201925216335
0.029595494749763418 0.1480237875029246 0.38965323758977954 7.449457576721585e-15
0.028909000320763885 0.30641355544463245 0.42097780231947546 0.0048724030985539965
0.030535788848835357 0.31144132420923604 0.40133131732119387 0.004852056815558823
0.028320746750232946 0.2961389402022503 0.39616046076313416 0.0038361222065368948
0.025828628249669177 0.09533440676708133 0.4151073414746307 0.012571535149808409
0.021302356639546792 0.0878383524641792 0.40431838483072935 0.00927468818517332
0.020987986471104062 0.16365428679308616 0.43080295703167226 0.004082749782164068
0.02855604258735798 0.29207486739092114 0.42810088894541104 0.01208551934801654
0.029150470393016506 0.30446363112361596 0.426331415153959 0.006387444801290276
0.029634226754865444 0.24201039507615735 0.413128733845389 0.029178900422870503
0.018954610812479115 0.09457256686509494 0.4369191856102481 0.03855651873335962
0.020663318407643273 0.18383861301295687 0.4079804030900636 0.008619306458670893
0.02500600545774528 0.11220820184733768 0.42211726124552 0.06270151661267424
0.028895976822237768 0.14980770334445825 0.4403821485599297 0.04429065522719296
0.021952307299064694 0.07038275872204228 0.413513218721145 0.009081177629174476
0.02798456795284891 0.18419536455810764 0.42279609849719446 0.015739566118486144
0.018058456296675005 0.14056556218642227 0.41627226960582475 0.0119566529095919
0.032396385929199495 0.21797165714035036 0.4203876827262182 0.033592211971800554
0.028733639106468572 0.2730664543041121 0.42715858130060536 0.014071294184750978
0.022606149582870577 0.13490071922276942 0.43169322162792045 0.013465326147642478
0.023034256715133795 0.17576843018538307 0.4278614379055296 0.009258817586056477
0.02748591435107813 0.3279254566230028 0.38962858651948445 0.013876102930037996
0.024104708365309452 0.2964252623718117 0.3814503346370431 0.0047313789273887435
0.02911122444549426 0.3125428634021664 0.38311282571447164 0.009879879949223083
0.031532873052459776 0.11573863011557578 0.3971853033021392 0.01563372854846269
0.022896834601533453 0.2221464396020228 0.38905525516965 0.0008840380247509165
0.04630734115093596 0.251909508684856 0.3728587197060842 
0.032402782783716666 0.347569030559848 0.3788237708551877 1.4217981324260817e-14
0.02808838851099489 0.07237436603516752 0.448244297009394 0.04806978055605472
0.13794303014548495 0.46179345597507737 0.8030680258660811 0.017767930039244834
0.1591410455965833 0.45864667149800287 0.801152941728495 0.0038231873280655396
0.07685379652111454 0.45062309521041133 0.7961588121998728 0.014417365415297896
0.04259130730074928 0.4477180345822583 0.8005604049905138 0.022023576508894475
0.10766124173770146 0.45239788695204897 0.7990608669114091 0.010691374154565468
0.22693012890907865 0.4596540092496709 0.7996557042195339 0.03849490089647731
0.37639403341739963 0.47831417356137945 0.7972444442963631 7.28003543393294e-14
0.20214741457754765 0.4717876534979981 0.7962343131069471 0.025551152670395576
0.22010831205702086 0.45586381051788066 0.7948929962667525 0.040488962216840084
0.2620742941491604 0.48210246544296365 0.7953142150032858 0.012431595810588805
0.1550143938073869 0.463745353050873 0.8067324432238987 0.004350764010865039
0.3221681128222203 0.4762886587488134 0.7990486933104705 0.031743337045219075
0.24136633679366795 0.4612545976186815 0.7950437943160081 0.07800496841032746
0.28392706967874776 0.45589707157041015 0.8044839206394199 0.038046055840272215
0.3332634353340003 0.4632598553806842 0.8008347579561631 0.060805506958008945
0.2687167715920532 0.4579488102750885 0.8003107303622359 0.06844717006962654
0.31017586165442346 0.4607369083032765 0.7970123611193507 0.062153415393030646
0.37641330152021113 0.45357187551059036 0.7948107448750327 0.0625216272191666
0.04249350640408986 0.44150100675781095 0.7881477437915303 0.023737523839540593
0.10045970783702428 0.46537511890354144 0.8027810526828688 0.002866053408501701
0.08449917656428836 0.4447920721046061 0.7755345882964203 0.011974918554888794
0.08432940208624208 0.44703493276493017 0.7894075112233868 0.013708689756975277
0.04705653464000595 0.4451829784788768 0.7892470082902439 0.02077747831936581
0.06463155440183334 0.4448497473102217 0.7764416010439628 0.005140600449181174
0.1244763428275698 0.42529627456573543 0.6755118379850891 0.00448747672491003
0.1607480211930867 0.44860554400210817 0.7612182017008832 0.008523733994672485
0.18027769121429782 0.4542598873788222 0.7907480085096309 0.025195708307599964
0.16140630838310582 0.4343591024806364 0.7108895130399496 0.007136897337227731
0.19655261589746334 0.45632592384997794 0.7949568127347305 0.01905926708324598
0.14074262062632548 0.43886020861150343 0.7329660852082676 0.009671470693556389
0.13485787430911889 0.4420814910532124 0.7575167335954411 0.005866205506875401
0.14490918533861866 0.4524527665029055 0.7712213685934123 0.007985574710601922
0.14196851130834637 0.43161483622177393 0.7038450080108782 0.007863624988744511
0.1662941665371621 0.43504658789224504 0.7307132817303745 0.004977625075922346
0.1558713908189275 0.4477049178376927 0.7555589917108284 0.009482518402442406
0.2013103890611796 0.4473815470249555 0.7776499929802917 0.02293289842031128
0.13385351239624618 0.44356374250427316 0.766302814098207 0.004806209773383405
0.18903391672801853 0.44608780732725556 0.7763971093467027 0.026653886777749988
0.17348824164543467 0.4472761805644593 0.7733451701905737 0.0038988233562872016
0.15186337621749765 0.4291276844448469 0.6964907847408628 0.007717457513685327
0.18466145177163545 0.4413263385699271 0.7582311324755067 0.007152456552121978
0.21212580463489678 0.4319155025709761 0.7142787034274718 0.002703492283148523
0.16699116764493926 0.4350706702568764 0.6964953870418402 0.00451323527679794
0.20789243717609854 0.44727249982901524 0.7488368005845337 0.0027948611478005353
0.22021521509929756 0.4280157971728721 0.6991209811716251 0.0029822998794362295
0.16940487009113114 0.4352849426781445 0.6861722742798035 0.00423598284609776
0.21673107906858954 0.45278025914724074 0.7821525310228067 0.04402870712936858
0.22046953254879287 0.42555865492775885 0.6641689864436248 0.013433728192306088
0.18925296270626643 0.4313747699715963 0.6977093990463294 0.00518470771944998
0.17267464287993992 0.4278314484493816 0.666738900706685 0.0065423127627264625
0.21711537275496426 0.4459884706481601 0.7587328333076272 0.007655509171193211
0.16408354399286088 0.42912455859393167 0.6731239126659266 0.005794964237530932
0.20355277716741468 0.43469632862520957 0.7270843263315463 0.005909791774215202
0.1803636109723853 0.4309141509488425 0.67040789311493 0.006605493657235744
0.21488355715873161 0.4379915281580291 0.7281367783219611 0.00292377956821426
0.19999872289019233 0.4260681094074877 0.6660476111922082 0.006130775372481081
0.22131618233261746 0.4432772138715997 0.7449169046710968 0.00662964258720878
0.1532253566625422 0.43022630586333316 0.6855368288275359 0.005076103530588286
0.21829604835873695 0.4258195930173873 0.6827763552420174 0.007180550956840873
0.18294376126143397 0.43336910363371345 0.700821815217777 0.005068527514959441
0.13927908562832825 0.4247351051590991 0.6548918905463302 0.00264662393137001
0.1897299778028944 0.43739081742383057 0.721272034915496 0.008488297162710684
0.09777251140403033 0.44316221947141415 0.7575753406526 0.006163651124546325
0.12266332751598229 0.45420485474128397 0.7891332399870722 0.011830883789372415
0.1304544219517703 0.4384112595519535 0.7176737607308944 0.0067394517024699846
0.10931312195332521 0.42810401506890333 0.7010122646956327 0.013739177730092287
0.13114880948251673 0.4234181743370075 0.6769173695815737 0.002949980560242125
0.08345113676343593 0.4428002547889444 0.7502190457319828 0.0054677120015177725
0.04622650482277649 0.4283406280747004 0.7517830181654607 0.002050569921098774
0.07972218913830266 0.4259590994327533 0.7226539459817626 0.027091314941336483
0.116835769543956 0.4482895938572522 0.778514500961879 0.015237659190350973
0.07852011143793093 0.4282543907791198 0.6901400275111897 0.017584828937390252
0.06277178753062057 0.4343852786197654 0.7466708497818696 0.0049959246334098486
0.10958710243411908 0.4292207846048105 0.7264704445842406 0.004762999014075809
0.09475343303699608 0.43339695586637045 0.7300293585963584 0.009047958831567528
0.11353460958930217 0.44426401341374266 0.7482030998900928 0.008972255849007186
0.11402069741341464 0.4227940516245553 0.6936872301550306 0.011877388904906293
0.053956770277188884 0.4237826410102302 0.6881826802326091 0.01786588526089071
0.039288757844484705 0.4230212216740649 0.7057842036631239 0.016098002633446077
0.038674350784213656 0.4224025725369548 0.7090066694789897 0.01663000053708619
0.05621860966431715 0.4166816206992828 0.7173805191820277 0.005196509698777892
0.08076402319124863 0.42702498654973814 0.6854873083912649 0.011042475912576346
0.10274084239322284 0.42106565541336416 0.656610707048946 0.013083316164046644
0.09710531836245732 0.42004759030254996 0.6822872152979195 0.015862303444456653
0.0651201679135405 0.4212229110333461 0.6618325032445015 0.014033030457750386
0.04669919763583945 0.42235582599733695 0.6772586942895902 0.0057820354016127
0.03603302503426074 0.4200158823548621 0.686062477781147 0.008635300559458464
0.08869588981766285 0.4150901687039591 0.6705458255034629 0.010823106318729535
0.369739644051687 0.4467818041787284 0.7894132906081299 0.07791739301805393
0.4261069187064592 0.4397609756187579 0.7802446638045607 0.01876262572149528
0.39199731022681 0.4463757093844927 0.7937094638828823 0.04731671091113098
0.414329380476561 0.4387262453606462 0.766735810050095 0.006639707440199903
0.3466064821901458 0.4492040018149867 0.7987040950945384 0.02615538187294776
0.4011046331644458 0.43751871243562007 0.7719423399863429 0.006298547295188364
0.4024496909177712 0.4327590240207838 0.7205225141641117 0.006515541087271607
0.4295237003771403 0.42624558918362493 0.7317206487154156 0.004369923968218034
0.41407834150790696 0.425572052856311 0.7084503109521011 0.019862570500640175
0.39661157497852606 0.42382441957262534 0.7092732979609655 0.013073166267000759
0.3673912974839325 0.42412176942047297 0.6784356362146354 0.0034894571344318195
0.39790804710934885 0.41407644683766176 0.6949034656064235 0.0053190979064318055
0.42331078056768623 0.42930424326535505 0.7263199686258204 0.007212364532007244
0.36200607833245574 0.41841839384412294 0.6698091568921133 0.0052497923424631165
0.34199450108743024 0.44994503342779957 0.7824558150376092 0.03582590800119122
0.3505770154483211 0.4331790252465026 0.7261820086468294 0.004699930594364271
0.35527017678680034 0.42364504715175155 0.6736981741694489 0.0057366629609177065
0.3587270583781997 0.4273069006763678 0.6990239214132334 0.002720709067695236
0.3404134525957789 0.4234374944086199 0.6720664395268223 0.009356479870943289
0.3750556385827511 0.4401864253101923 0.7733091361473482 0.005833369174520473
0.38962819709366886 0.44135958277340065 0.7520387542039962 0.000890269598147852
0.36417203604174864 0.43581961053483687 0.7396593278878688 0.009841735016548945
0.4030387556453308 0.4372367676577612 0.7468399861765819 0.00635424477747025
0.39014668287369214 0.4345801839262317 0.7301441344330349 0.003515527798194621
0.3467673763680186 0.4447524048378332 0.762592341953416 0.004094291017640469
0.33633179192838425 0.4457178465835551 0.7517474679780922 0.004399746449599227
0.41817360710996765 0.4374593889107319 0.7535320387749218 0.004112947838607572
0.36554474556150307 0.4263291056688238 0.7172586729247176 0.004025662019580838
0.2603248342794789 0.4448172668891006 0.7488616161170102 0.006321884807796178
0.27413544290767466 0.4360340254993425 0.721776412967714 0.005318150991566719
0.24125465562974077 0.42983150605890674 0.6736776864699437 0.0037751091247872205
0.24952631420314692 0.4336847748452615 0.7228041403411444 0.0012882533314215066
0.23487481583140182 0.45329464824996274 0.7868874993153934 0.036537971980275155
0.23880179132891674 0.4403244191416 0.7387863215099266 0.006155990187590955
0.23399097750617392 0.44798689361674865 0.7666645995523002 0.013157005166927834
0.2660334551177044 0.44042930736212277 0.7692806205978723 0.010919699145896217
0.24160415976345181 0.445199678170137 0.7509438865463253 0.0071691910422742085
0.2789361139620233 0.44874157651925134 0.7818518690035912 0.060126434407939626
0.2651147605302163 0.44442431246421193 0.7553318085814373 0.009680230786104756
0.27834170715894757 0.4410348681726393 0.7584348092516555 0.009587803481554438
0.31381391812568216 0.4475556068933764 0.7811382579405959 0.04142703677282643
0.25981644689091427 0.43595967562337756 0.7154408760387058 0.00640784982910384
0.24395200134790698 0.4443669728853651 0.7775524704154747 0.006539712575236953
0.3177374486146549 0.4481411875451848 0.7602229566658811 0.008987745932128593
0.2449098337787229 0.4223344989730366 0.663378516568034 0.005231363201331883
0.26951044199396834 0.434466574221148 0.7087897106105119 0.008537903489237825
0.3139437088659815 0.4199617669134683 0.6653883173073322 0.00338594465849297
0.33130289187747675 0.4228446339085851 0.67057708775448 0.009087229840683525
0.3032425737996456 0.43792191164838246 0.740282638785592 0.005493346060358654
0.3130449231556082 0.42476929779606787 0.6888175018082628 0.0007704176801722029
0.3304206092752986 0.432111035858791 0.713035010969285 0.00389734499173333
0.2686920109261387 0.42447201508115967 0.6544059447893663 0.02328920422251437
0.31318884369887234 0.4209242388251662 0.6762223612051119 0.0063620391152522686
0.32000785107367563 0.45130831240342045 0.7880770458621386 0.053900730045331136
0.2366140638343668 0.42732983632280597 0.6542780582565154 0.022498792325792886
0.2974872992397648 0.4276082408119353 0.7129803189759686 0.0029496870881799927
0.3066017575938692 0.4458623732416229 0.7519369350886271 0.003529138418375443
0.273645303611702 0.4223683238785117 0.6871294976766225 0.005584893343001512
0.3141596963513218 0.4369844876686802 0.7330007267501873 0.003081121074592802
0.37274442138945413 0.41559189660877843 0.6608065602983677 0.0015873963061509692
0.40515809789049173 0.4125748641881556 0.6597521025099062 0.006055471639518538
0.2305927961997465 0.4781576895765585 0.8022705225582448 0.04510624014195515
0.2699006319566527 0.44171011790089026 0.6387272385488459 9.989606009036692e-16
0.17449308003679498 0.425845540366216 0.6541000634877446 0.0056833721535684825
0.038828609763129296 0.4156124516924342 0.6576534293785087 0.007324333033779958
0.04909387549583136 0.4201721744112932 0.6536313959666971 0.00831675560839844
0.1147753619746459 0.4243307076292558 0.6578887994777177 0.0029547718142730276
0.07324110423553967 0.41682724558749557 0.6694052143848469 0.013684722710452159
0.3328524155724197 0.4240724842224635 0.6518979950530277 0.008755066152587955
0.38816128108631637 0.41261431997313597 0.6541666067481661 0.001993759616456108
0.2845437610989583 0.4264877603024247 0.6547842704869324 0.018993181341655056
0.14803445568898738 0.42652747298440474 0.6515197069184057 0.002909887325957134
0.21153033517068448 0.43060194782556666 0.6562264429712156 0.007120978101501994
0.30711488169348866 0.4260881407157087 0.6489484765962975 0.003092038348520184
0.42914680149678497 0.3488335711888433 0.3868492205940183 7.18705958858954e-05
0.42811264765741863 0.3190874968459006 0.3907819943636708 0.011860670382625123
0.4328120350661288 0.277432555547713 0.39992238645362943 0.0072867899339884076
0.4359322752323468 0.14008006691827957 0.4052425767823362 0.009308678748495561
0.43423387217818965 0.36467602565716034 0.3837510168898517 0.007706208583654306
0.433286099695428 0.33742484018499413 0.4056510895008223 0.018811221458314233
0.43803781438362577 0.29447508406350836 0.3914120364756496 0.009566693165234726
0.43279696206034807 0.2872322258001584 0.40939605744485175 0.021220596623300832
0.4314000015010842 0.30312079927296864 0.4060907082144616 0.019373005514900486
0.43265386159275365 0.32315748732796895 0.412265142752254 0.022866274045167737
0.43596480308893487 0.31351951301037295 0.4212921050134831 0.01799447291939777
0.4390508488211611 0.1719073679347302 0.4021934873612872 0.00906367974408499
0.43183876196596815 0.21614611779260876 0.3952811696929209 0.002252962663352056
0.4316547537888319 0.20446057848549878 0.40174505755156714 0.009538499138474226
0.43261613067349586 0.30059238456531023 0.4283171446582567 0.015220698333513381
0.4389699259742252 0.16115224288654156 0.3909365073965221 6.769866496440595e-14
0.42962384827233085 0.2897871533638465 0.4240508176154695 0.0160047811287709
0.4340324218008884 0.20869104712105213 0.40767218992635185 0.014946722803473098
0.4359697283178768 0.34509069713000684 0.42935328410277296 0.02634773113136994
0.43672429926741235 0.10601940556225081 0.40076450359849397 0.00440541797910637
0.4332168671570125 0.1289508677885525 0.41745505112912284 0.010280063368367617
0.43308177433868883 0.14526447580480026 0.4349213493476971 0.07890159818452089
0.4269564342321068 0.18099770592610123 0.4317505578939323 0.0540876297993106
0.43864283632024154 0.24497211413027586 0.42239861304330073 0.003849054740676422
0.4291652558952047 0.09566323214916446 0.41835269164892047 0.012821766395468906
0.4283906916360182 0.1935817802426724 0.43444459102379746 0.060208246890311075
0.43024882036450196 0.10575933401533184 0.4271179734772852 0.014531331445789691
0.43063606873074833 0.10784051915342985 0.4284584652849229 0.07985767246123102
