x y z curv
0.3145008523128685 0.00799703676076994 0.44094820667573564 0.048305249051623735
0.3250126338003515 0.0071523261183403285 0.4429048230449616 0.0378180980645831
0.3356304719041336 0.02307023921467901 0.4547492752329106 0.03798771913124845
0.35515396558957874 0.019839405845544854 0.4533534496502342 0.013537053558736483
0.22875603953925863 0.0041178166376743585 0.4457924269064881 0.029072411516702437
0.1953330071790841 0.015167927276744719 0.44967246473556954 0.04835013226588519
0.1656826933315981 0.01328210219215718 0.4485200515272906 0.03722230338561842
0.1541082392865019 0.004206078499705104 0.45090712365307245 0.026291075297236986
0.16331157970891116 0.03387309081360046 0.4563522308793025 0.01258507870041514
0.181339812559115 0.06156906574801844 0.4562688598510663 0.0003824873425118015
0.18290242400167334 0.025932122040129693 0.45548149878795186 0.04925727292812595
0.15302541602907915 0.0773090794004133 0.45884443178280254 0.003181379696786595
0.16355889372395482 0.09404787902973517 0.46173154613703543 0.0035980411139024345
0.14027545094745464 0.10498905524778465 0.4680739036256308 0.0038780765593996024
0.14205147787803415 0.11727774833328465 0.4733083293015874 0.004987881062402342
0.1486132410178653 0.07750115976850543 0.4590837424967665 0.002975383553388678
0.13013788500293264 0.12355977918529688 0.47447404714836927 0.002151597977258546
0.1256971163153845 0.08630696976455628 0.4641821721347085 0.007192880948110511
0.10870536900500222 0.10548474772561506 0.4662004125224161 0.007481920547604424
0.11997908294294683 0.08290956076427225 0.46347646475615356 0.004360194470201037
0.0809025504433895 0.10425294145212614 0.4690721105926934 0.005275687779080698
0.08724555536115337 0.08098498911326316 0.4669495645011259 0.005192002674455615
0.06815412856378783 0.06234169786272311 0.4676954509615523 0.0007704098927401921
0.0567375317784816 0.11641206661002725 0.48182252320797236 0.010351271778630343
0.05632595535884676 0.09968722470195493 0.47794624881972464 0.007160648375235026
0.049176722773756336 0.07189754153361828 0.4669203740952409 0.00541138586327215
0.19555814964728638 0.08909897193945528 0.4620548325579988 0.0007242261577367786
0.1898534570612722 0.09382070456107075 0.46350609598239534 0.0005380707422388227
0.183190222419176 0.11727846015322096 0.4644764363768803 0.0010646339087285336
0.2087236742070101 0.11549135239970523 0.46594702685853395 0.000937570119688263
0.20716980304590746 0.06880867155214798 0.4595173962971862 0.0010424231755435946
0.2074276149200819 0.09328758593542909 0.46181674704430936 0.0004560459041957035
0.06733812714832245 0.13799150232613075 0.4772787986652404 0.006180990811268788
0.07207535874918623 0.17140588286263744 0.4666437208478212 
0.09025012551753732 0.1316587626692274 0.46698538152049773 0.006815517949444474
0.12336301408798375 0.16504850848044073 0.465069699463048 
0.17784981107072803 0.17837308422553225 0.47020190576387644 
0.1980511092062445 0.16529884512639972 0.46785691819021713 3.59678148536835e-14
0.09569991206511802 0.22698619355492322 0.46786967429412185 0.0005729556734425342
0.07828112107807518 0.22836363054842584 0.46575072735129913 0.00032361986970869946
0.1024807426102506 0.20230801435709747 0.4678623769183561 0.0005444233614910588
0.11732562547608949 0.20082421980169637 0.4705688655671581 0.00031783969814807667
0.13223451037643108 0.21694032974375668 0.46885310758845555 0.0011465040251379627
0.20007845880096897 0.19149257030639905 0.4674003040638872 0.0001522611808945022
0.21496317595821166 0.21895498229864913 0.46808869627576044 0.00019204157779392585
0.051103580014166226 0.2544411278831868 0.4640236129063495 0.00639665732901687
0.08494382624193991 0.24823003910612956 0.46530611792800686 1.2420096547495557e-14
0.13239730412513226 0.27979921745093367 0.4660776890453625 
0.1499561336368331 0.24503497358343598 0.4659186788466977 
0.1987430181964537 0.26303807760704717 0.46797818300151095 
0.2113168019734391 0.29482919336499963 0.46692834200335886 
0.16886350339334139 0.3455977227049411 0.4682585091595818 
0.12906278238534852 0.3777699225090761 0.4814446674802964 0.007180247848349764
0.1263909498519791 0.36163341587594083 0.47443243012803166 -2.0753102465969648e-14
0.10339675913970577 0.36071497653826584 0.4751841498909922 -2.218106903681763e-13
0.1064738804657779 0.38604559459948207 0.4871263843550483 0.003816292816510928
0.17600954031168417 0.383540818312909 0.4821251539235781 0.0023700228260908115
0.20803011222700057 0.4009309266932193 0.4881287745987181 0.004466646644264777
0.18770132414939858 0.4014120332402931 0.49025137792836043 0.22145345572749658
0.08912063149945841 0.40651662368814895 0.5207597089009213 0.0027709674038503235
0.0807665980609729 0.4074524396672123 0.5317162736161938 0.006037550789470839
0.12113751229856891 0.41398446083697 0.5237550440675428 0.10785723652113952
0.11112684152040367 0.40211557315829777 0.5042842227956683 0.1837221914800011
0.09873043240661471 0.41690755015762365 0.5361925274160808 0.11930594382486502
0.09435164798150872 0.3925075432593559 0.5051368879645859 0.002701059780106868
0.15132935751196033 0.40297558220143326 0.5164644267145441 -5.366635574934012e-16
0.1257281871247105 0.4090702570987192 0.5190379485011611 0.009521935002006085
0.13253391280824928 0.426975972540826 0.5465717008018469 0.2152084079471131
0.20597670810114546 0.40406933100796966 0.49043749290625005 0.12003263632839299
0.21236162798735492 0.41837074682493264 0.5073380442264783 0.11455927596440735
0.19193097019697297 0.4082390880579854 0.49979925327650027 0.02231008594564154
0.18533523568549407 0.4165054363518231 0.5377938265156869 0.0015872736551525016
0.08750574536663117 0.42022245447444617 0.5520856885947134 0.012252510719191954
0.08313506674704947 0.42045411312621633 0.553943702229119 0.12115748293472546
0.0776734414051798 0.43583303294004627 0.6111619833110239 0.11809079046831995
0.08518214632593948 0.4274348625598806 0.5813412347212814 0.010185325705803548
0.07081959243979448 0.4184582188155924 0.5843793958128226 0.005030065420031195
0.06724672685059654 0.4199861124571108 0.5727834708790271 0.0612608145483383
0.1038838503113036 0.4222221475208845 0.5660367707133821 0.014929877214471726
0.12630207034742053 0.4335656469756924 0.589425194069087 0.012707387139966707
0.08707196610014481 0.42425343262527543 0.5773030080564056 0.010844371575826513
0.11132377680459128 0.44014447449484295 0.5892610542391662 0.26795111528949694
0.10922079083746311 0.42949250916062165 0.574055206585845 0.013714839299540777
0.13855876573641912 0.4248313383881127 0.570680412675425 0.012757977156033384
0.17644974686987286 0.43938589001204603 0.5686491528716869 0.12636337450628288
0.16467905952235673 0.4171867476250408 0.5420209476198932 0.01945298321971414
0.20757129750995906 0.44040717514816063 0.5871379310324867 0.12430326311261959
0.18391732642552622 0.44434838309459895 0.5881705355972667 0.1541818324893445
0.18367394044235863 0.43719845581155575 0.567869403264792 0.16192164759451994
0.10226741226676957 0.4392786620087876 0.619212840504953 0.2011273436997116
0.1169794741929677 0.45034178291243354 0.6427642086288007 0.08074440383444328
0.12209281555769719 0.4397522438887789 0.6187213572273733 0.007294132598739415
0.09635865581893997 0.4483434371727925 0.6354411898520267 0.23706999311931146
0.15265273907638519 0.4420066847336731 0.5951669967033771 0.14032094096618764
0.15173270452875 0.44652243867508584 0.6049972031531371 0.002411742942143734
0.1322448423153674 0.4396272772002373 0.6021565557295919 0.011815007071226314
0.1450745372877431 0.4503688352627498 0.6367794254385841 0.004800601603182246
0.1329814136700848 0.44663169486975207 0.6206231924964821 0.15434191737328515
0.13728028225253328 0.44816867330308696 0.6414744394944656 0.00515229686347219
0.16126220180975886 0.44407565416531175 0.5980351232305372 0.00480865719103782
0.17224093493474582 0.45236411925832765 0.6153234518207275 0.12793653891466503
0.1689927885451399 0.4475413600764646 0.6045903792140902 0.004619458545797723
0.19772685650365768 0.4439565895590698 0.5959156509465763 0.0067673571660037905
0.19746644142556233 0.454384758478601 0.61551906272158 0.004835358552169704
0.1923791229577798 0.4467425525511327 0.6061627367202431 0.009024833346109488
0.20293488268999516 0.45990643259502223 0.6311287951195065 0.006498043701333383
0.11825646458233191 0.4619649049405042 0.6849612018997042 0.24299637389639409
0.11817879305540849 0.4524060980468224 0.6652189221714749 0.005769797719388755
0.09893037801559083 0.4563219730345072 0.6944081092722297 0.004186217839927897
0.10145997983781609 0.45812813386649176 0.6784733982656967 0.17595202598025
0.14437631524803451 0.45507013654405387 0.6669098790371653 0.007770174889256154
0.13756240517219356 0.4519500079285621 0.660970753505859 0.008296592887681737
0.14011199646457234 0.4580376464579531 0.6798884837374263 0.004749674417066864
0.12848840724314742 0.46103097796197967 0.6787606736927602 0.007818947172427712
0.1409146171019247 0.4706792250408074 0.7069790259299639 0.10744164964785417
0.12673780895206985 0.46360512760783734 0.6939180201925004 0.13955959611584648
0.17620296105950695 0.45977013343553513 0.670688960885309 0.011289894332434693
0.16244500783112747 0.4611730768002995 0.6568940134892173 0.18572799126551123
0.17066506204941212 0.47449879915325305 0.6995191217965314 0.24217100285871676
0.21211310976379566 0.46331369500612135 0.6514694474911573 0.23051758412270057
0.18835974251687312 0.46215397748700765 0.6643157001725691 0.010074355435122829
0.1890016106831325 0.4574788987714523 0.6417968131820488 0.006492664185209981
0.20938798835454545 0.46264425383069246 0.6633652742318413 0.13159756769071157
0.19673394631988605 0.4711667473265539 0.6907363050672937 0.14102898668770125
0.10220274245399927 0.4621076923887861 0.7188458853124529 0.006115657473480027
0.1156860891753859 0.4745206263285952 0.74437983449031 0.13941242121921021
0.09835815527614496 0.4786061617771711 0.7594516714739914 0.12308980353891799
0.1401987207873751 0.4726420265700868 0.7131150353926805 0.15598146615232583
0.1545132888255641 0.48241222233829745 0.7335547880242719 0.20379545768291638
0.12580966022413667 0.47864199492804105 0.7506102826862489 0.21188423097416595
0.12280802276495598 0.4731047552221635 0.7302518688676786 0.16702154319823195
0.1834647954015169 0.48155538470237336 0.7446030072500627 0.13554461104542412
0.16350476430739513 0.47844058373307563 0.7288610400641676 0.13941950552880894
0.1631793304560637 0.4820699978096664 0.7487157532293688 0.21628391062741473
0.1634284241577245 0.47825488069772326 0.7232843470549285 0.11831713937373901
0.20033024920473907 0.4702549964257118 0.7137262257539007 0.0036532662844263888
0.20365677568964766 0.47854201272896085 0.7435031453514489 0.0014891373498598158
0.19829958147006183 0.4816956963373862 0.750234805923728 0.0016558493635199854
0.18261545235557508 0.4742455865541269 0.6987949025207306 0.12508891875417075
0.18785143780765348 0.4778282725952125 0.7289480969320724 0.0038458166120588964
0.029612835899534812 0.0999669603507681 0.47419801498831193 0.08159005955900774
0.009210852670265605 0.1076870738283852 0.47057319305483686 0.0760391230158518
0.021190422093886576 0.11914153957779587 0.47513094303317244 0.03057172628873575
0.02491988824421639 0.18819207842882651 0.46981788244227446 0.020148127838348066
0.02811840279723675 0.15809662840339903 0.46581264106084525 0.0364479007619434
0.02162669703105316 0.06646639868060202 0.47218653923993925 0.0226002768909289
0.04077721685217922 0.051796481702903546 0.4634934978818093 0.013877618958661464
0.005664773973197895 0.014074699903280558 0.45267789437111705 
0.03992445728064542 0.15268678415913683 0.47492116696047665 0.011545339476715192
0.039441835147867615 0.13939205745078137 0.4759771977337701 0.006342020687297274
0.036836522956976606 0.21137879851053754 0.47229828238751503 0.05950644036831943
0.03014233988664761 0.2692479528857479 0.4635269885416795 0.05130610173246819
0.03673417603772867 0.23684275701745905 0.4724426605116575 0.04195898443617657
0.04090739034008217 0.3010817720658572 0.4658835529584227 0.04999824018924362
0.11330330174394455 0.04951341972300008 0.46368064287299277 0.004097891577426417
0.12685315045512613 0.0194718543231874 0.4485756490860169 0.05400895508510039
0.1028291268141588 0.03176487658606183 0.4573822901222036 0.05617631729170093
0.09304354321166282 0.025954600072285828 0.4558140982765685 0.05770799442571701
0.24917924304703737 0.07493897963697181 0.46619648675892034 0.0001472293235061017
0.22520775485160294 0.04927852529424565 0.458400950628942 0.0019044988595619983
0.19893771590197332 0.03483478892194905 0.45614075191683473 0.005183307901156966
0.07272537963939411 0.02083705293265092 0.45326600883913626 0.10748748721427231
0.07550448923325509 0.03917709579677522 0.45887951085658746 0.0484669146405431
0.051187918690294 0.058532562131475736 0.4644593978127913 0.00399854078600788
0.026965230083902083 0.39298814184841235 0.5146697222541502 0.09918454802972164
0.0428689406528151 0.38238330380237234 0.5082492292633026 0.12991727519756122
0.04095864240291967 0.4116200302895334 0.5313892594802778 0.08098316512560981
0.05013118925342697 0.4097074691508063 0.5389476287186867 0.03256824742104486
0.05439303658970189 0.4412753318480517 0.632861174793498 0.15631491275692838
0.06465140885191417 0.4648800499004801 0.7142897619383055 0.20220082011795368
0.040138054181987924 0.3683503152643103 0.4872291265557904 0.19801029963648578
0.21927487163393142 0.07664145621564311 0.4612915416510263 0.0024239987404376137
0.2316054802602754 0.0855206340949748 0.4628809066986384 0.0008517946790136906
0.22731421599029947 0.15115356742067243 0.4704622688297798 
0.13605761631550028 0.044815343613941606 0.46049408780908024 0.010897094742423005
0.22402716883976953 0.2161228737620587 0.46601401138829585 0.0013427222684016802
0.2544633458160259 0.22418212441624352 0.4645808632937044 1.591122047375461e-14
0.23757230156169648 0.22854043583066896 0.46402144310753285 5.3019542410436035e-14
0.049472329927143635 0.34490079621513886 0.4769572469726346 0.0080493827168425
0.06769628423038046 0.3889566608624869 0.5099606039860826 0.002408112933227468
0.06349694651734973 0.375782876844319 0.4909322990313636 0.15640663282888637
0.06173962408034165 0.3963116825290446 0.5210317366646088 0.0862720002129983
0.0546626153898274 0.42990580606246803 0.6057605742557451 0.13030811704752027
0.07621559331014388 0.43939385736497766 0.6271384973850739 0.10007070661106231
0.08402080698347689 0.4357521793898785 0.6138703152206035 0.011448028389662742
0.07479357859778613 0.4500895888973176 0.6425888314303053 0.23398534902748025
0.08166975328680101 0.4705300749767353 0.770463468943411 0.12315239022786853
0.07943709245640562 0.4679938490382984 0.7349983076893633 0.2267487618701023
0.07263290262115994 0.45650784691738777 0.7126209037704553 0.16797881755699018
0.06666913601590169 0.46336281212192915 0.7260299333954537 0.1446207935880358
0.06124945495635086 0.44642368708377944 0.6668521124918274 0.10593426240879941
0.09018419539232127 0.45095298362478725 0.6673357813001582 0.006817191947726633
0.07065992445222762 0.45094801360165204 0.6988629513629526 0.08640587040517475
0.11085636103457615 0.48270644610139407 0.780323918798969 0.1905309527903623
0.12029106119832939 0.4799035516898527 0.7956244182323018 0.1329683752609299
0.12994188023960898 0.49655401880574684 0.8155300314441289 0.16870615456456164
0.1305286363162798 0.487596767980823 0.8141531102963732 0.09721246683719716
0.14774312061111278 0.4946230216796016 0.8020094208951013 0.17009670568893093
0.13404801867956873 0.48779889045957847 0.7802421902706818 0.1481405773355601
0.0880369477931998 0.4685468661722835 0.7390662262637027 0.19840962654614963
0.07679882599528025 0.47997150167393887 0.7820035208571288 0.15853281149474358
0.15304304379488076 0.48856887983435104 0.7807154004648276 0.17552105113879873
0.1560035965389744 0.4794642972025848 0.7642073963371504 0.13330551746404312
0.16043859747228123 0.4949878248592819 0.8030957617985696 0.12163336522504699
0.16753022278754473 0.490197285863501 0.784325558328738 0.10745428645806257
0.22336091883604303 0.4215643749379097 0.508996837056426 0.1070905446717337
0.21667070606738223 0.4254457717599903 0.5170768602337923 0.2617325400809443
0.24581845900743346 0.41448395536278937 0.5078044134032105 0.017549800798535273
0.24213248277429367 0.4005319688912361 0.49150495633929625 0.1510123211795412
0.23550154056268666 0.38474530925931877 0.4763726426883132 0.0010712208356938309
0.224175241891656 0.3902889492896111 0.47995246887040455 0.07929849931617416
0.21708549632942495 0.3898330361515753 0.48134094352547757 0.00233130935101593
0.2232749546614281 0.4241579523050134 0.5497654200858167 0.0071412071690142055
0.21423566665079988 0.435276187829109 0.5699939247060887 0.015562796148426305
0.23296225458296735 0.44119616299957964 0.5681138058287166 0.0019217766995392842
0.24006172691491173 0.42943054818660226 0.5283089099828518 0.21243053491655783
0.23959378282861343 0.4489715740517239 0.5838683891494365 0.1711483763450296
0.21910157345702044 0.44524072415050964 0.6138880637154112 0.01261492105438288
0.22692163536279314 0.4546023800880102 0.6369496541454611 0.0140984028842495
0.21391771441946725 0.46318223944086223 0.6834475560152188 0.008014262257584746
0.22194492582018824 0.4642425965454177 0.6627240160003636 0.12099386915698297
0.22874119182295297 0.47420365211811194 0.7208889407189855 0.0012649269885212364
0.23869653929676835 0.4686806715177996 0.6893830408463665 0.005205348175169395
0.24753814695625315 0.46537712758623107 0.6844945771140095 0.006028108303395868
0.21884488510589167 0.4831430361040931 0.7477353454245337 0.10410450060514864
0.23623166883466012 0.49052596664496473 0.7825483856091072 0.18511767186856995
0.2117716761770413 0.4933072563703543 0.7897278586771747 0.2163307477221899
0.20925347744925507 0.4947039499924055 0.7772711870841658 0.21834107380817291
0.21572156280685725 0.4952414248346671 0.7969873636201458 0.1747848370541567
0.22780419839003946 0.47412774272814595 0.7033344125296532 0.1551551747899867
0.217719988951527 0.48961026755092163 0.7653039710848839 0.14886688480804253
0.18771988669875664 0.49536617882751044 0.7829808967432852 0.21256139937760404
0.19153951081838316 0.4984060082364602 0.7928855383252579 0.1834201552259395
0.18492328597097718 0.5002081607000973 0.8098893670511749 0.13811922158693382
0.33940791343566595 0.03889230517281902 0.4596940538016293 0.011510006355016292
0.37130414949917023 0.018838029269174078 0.46278056919192806 0.01733711521852008
0.27494387808923265 0.030163122459074515 0.4568661287012122 0.022581310843294965
0.2887672199898241 0.01928134220781167 0.4562489497870046 0.008258898880129525
0.2644572714423961 0.03655895609694704 0.46405112692169703 0.011831311718010162
0.24327200561240306 0.01453684186242879 0.45355197290880067 0.03775277990380849
0.25946325542376425 0.014424149203885765 0.44821824429712365 0.0389218251613938
0.32040621747130943 0.03421823970028445 0.4558741867405465 0.013700559759670142
0.31471328138127147 0.06480606584363675 0.45978445584678124 0.002762392698762245
0.3517687861930114 0.11049157728548131 0.46731424883172407 0.0029962755198515395
0.3389393247008787 0.10551397705706195 0.4710565531673363 0.0011777596013327059
0.35497957089493 0.12395474323110828 0.47015808303670686 0.006062130606823259
0.3711350025304019 0.08818947057703107 0.46387424088892604 0.0021364203604952387
0.3911221229738422 0.11909729458407864 0.4720241293647183 0.0009237303507428253
0.3775734564971478 0.1106195229708136 0.467556949332753 0.003015408779803179
0.3833296691230345 0.10454914874019246 0.46802775788222617 0.0006692105482049475
0.4030982293533872 0.10532909525852453 0.4688375007311147 0.0016627447354125918
0.410046584456083 0.1126105537007058 0.47035859977367594 0.0021241069222525835
0.40400873339732996 0.07618383622637671 0.46482379068457574 0.005804005219079679
0.4284062400126971 0.12385208957098215 0.4703527863506922 0.0005386082566050764
0.44580123596075916 0.10238927875153002 0.4720381996711234 0.0019238754009445907
0.43442189201747206 0.0834880312135585 0.4642973393241454 0.00041345558771850203
0.30484399186863975 0.08614202784509754 0.46850072576103224 0.00016591577028292903
0.27837863150103137 0.09175963695649152 0.4701573616431899 -3.5243093900646656e-14
0.42573357091695674 0.14755566402819242 0.4759273645435997 
0.36981051457709385 0.15900897497176972 0.46820449885968807 
0.34767866798059366 0.14043978461119438 0.4729949721979608 0.0015901742511068323
0.32928357612098624 0.1365315504171625 0.4705042641130759 0.005190049480824766
0.3174379013654046 0.13887442101821781 0.47119345564775644 0.00048712394195375355
0.27028380690847364 0.13225100253904704 0.47287969268990726 
0.31376743696236686 0.17762989048948724 0.4732040759405356 -2.118999121076359e-14
0.42719303699709893 0.19460499944773793 0.4736860249067245 
0.38546284683741094 0.20343260631449359 0.47104412857566474 
0.3595990953794244 0.2045019705626372 0.47074255864084 8.359859105203855e-15
0.34438836613305424 0.21393331709518904 0.4757895430212909 2.0783382458312085e-14
0.43827342338935377 0.2560530670068992 0.4687538922325598 
0.3756075810918773 0.28032286537517154 0.46431640047847017 
0.3486544895469308 0.24196163840981252 0.4686471368820838 0.005521957206759165
0.3407253438089411 0.25270764012689545 0.46583029165685014 4.7731150514606515e-15
0.33600858654934246 0.28860510723267047 0.4615030902839944 6.99792606523502e-06
0.3183938108109889 0.24264661181063882 0.4691094852943334 0.0001483876692576405
0.3018719133473529 0.28620113674002967 0.46280178538037214 -1.109482899554424e-14
0.30064156885724375 0.21327991068155813 0.47008423505673075 2.6621893613935147e-14
0.365550283053621 0.307282128484974 0.46271598398419217 
0.29974381767572866 0.2940524970386055 0.4625087984914798 3.779645997579121e-05
0.4041413714768397 0.3571127967532591 0.4811446125692596 0.006880441088466914
0.4314145325123115 0.3755900191394441 0.49540660105206197 0.033035352622469545
0.4156009739498237 0.3882212844586467 0.5067293775630326 0.008463943908855435
0.37215439093827946 0.3634711197086652 0.47320866097550357 -2.8171182158635088e-14
0.35771339676425296 0.37926989113289156 0.4808032333621241 0.004088936416297099
0.3514398187786997 0.3846197060527112 0.4842836481709655 0.0023412301792819544
0.35726614959593844 0.3987073478057792 0.49271435276715225 0.011321337313091127
0.3143741174194941 0.383651985755311 0.4791310739638613 0.0024028414945423335
0.29999128394013713 0.3843958439743439 0.4748637055812224 3.698047227480188e-15
0.4066860340858534 0.39893372856835063 0.5211438816672164 0.005366692911343548
0.39837546665591356 0.39158459448520944 0.5003447093233607 0.13403602570445663
0.4153046538332479 0.40186929354485823 0.5280382436708605 0.007649573158176222
0.41432106884497966 0.41960151293532033 0.5516377307223067 0.25534997380428504
0.3997501009906651 0.41748705682305765 0.5444539378727767 0.16426762452715163
0.39635075877516107 0.4109836498545234 0.5287269014826451 0.11238149589718115
0.38990873557142924 0.4022014628945488 0.5122211735159266 0.0038179930890012916
0.38018359487818754 0.39855375344594696 0.5013140467041414 0.13083850267539424
0.35965105419625487 0.41252420752727637 0.5045806717400568 0.22494073961069838
0.3681881913949356 0.41765133378196423 0.5317470278817341 0.11673231095572892
0.36489329825748107 0.41884725118602384 0.5442041652074914 0.010097225134793613
0.3629394667536243 0.4200068163388512 0.5223254630362669 0.0968269272900738
0.3679439034894856 0.4001327279861454 0.4950934850989997 0.007468569167006433
0.3268200296950642 0.42289305374413905 0.5275875882599598 0.22077906458444546
0.32515152280526155 0.4148969073032779 0.5165412686154229 0.003674083755108786
0.30483724352272656 0.42172976844086035 0.5291367947970237 0.011407445792966524
0.3319045807780428 0.4088888891913517 0.4979798579565438 0.008878627430801575
0.30106275332949306 0.4042064943301574 0.49397656858585604 0.015168291065340525
0.285162622918224 0.4272165380277012 0.5336726459834292 0.10748092077483005
0.30180960027060016 0.41173367457839866 0.5052214517154409 0.007764353315550333
0.2850064866530704 0.4034657819553704 0.4923890682631241 0.006123307645257811
0.28199210177595846 0.4200552215753734 0.5097150793854769 0.27353213240565066
0.4047239830123175 0.42901584670867926 0.588123259853529 0.005784308991403915
0.399601407639779 0.4303919122999516 0.5728777676904836 0.10667335804921164
0.4039933932871986 0.4205085129475636 0.5579909077349712 0.1601543345739898
0.40272717663986907 0.4319096400320042 0.6001999517581259 0.00620882850615268
0.4281823166866998 0.4341547493347565 0.6081002415718221 0.08262066163346184
0.38511342259027714 0.4308224715762346 0.5649930679093359 0.13507844958097046
0.3908653597795351 0.4357247701327045 0.5873257735459037 0.0077519173350257395
0.38982483328254885 0.41820059159881406 0.5517558826011092 0.09805631677936756
0.36922212870089816 0.437655669308294 0.5750794542077915 0.22074556363537792
0.36049647685750186 0.4367239715524669 0.5871384340345106 0.1141113724227101
0.3436254178691747 0.4289113807327191 0.5772656647479836 0.01695359012966127
0.3228653629170189 0.4430303189713709 0.586117882182053 0.010962641265672188
0.33705836784755966 0.44067955637352313 0.588966658106995 0.01969178182179337
0.33524608595780686 0.4261252733522311 0.5488108897751192 0.0046150526886737184
0.3130450092475674 0.4236413612316926 0.5485074951129162 0.010488542705879277
0.2793483269865779 0.44345393558314866 0.5874566134559903 0.14819424104275752
0.2927019493261062 0.4336746577337132 0.5749533524431933 0.022519290445623164
0.29092841070361775 0.4247164539423222 0.5534444718872769 0.009798795243240512
0.3801504705628418 0.44491897884880044 0.6289705783224366 0.0813490865491712
0.37113807972631113 0.43879089370485996 0.600561969701448 0.09321083079751502
0.3794047068351754 0.44170179236121915 0.6093760552874975 0.20495541880273271
0.39604482711472505 0.4542297068844959 0.6417566550416117 0.09803947917545788
0.38510733928985447 0.44530008836160484 0.627085441161393 0.16476707489926753
0.3647459965042801 0.45940727111455426 0.6445171616863751 0.24661522834185443
0.36314535469648157 0.4446858124787181 0.6175312755041804 0.1872301049850022
0.3476347440814855 0.4583489796660832 0.6416946188948033 0.21664404384633412
0.34094656221290764 0.4475335568860316 0.6161040700830949 0.1270759867695389
0.35277242102401546 0.44826245481493776 0.6229054338253758 0.10745435168364484
0.34962496621465616 0.4351591047785745 0.6054398240027202 0.007491782667728544
0.3264707341031253 0.45017974946543693 0.6277731566922539 0.011762045088853324
0.3195105495441387 0.44593414805305287 0.6022363889645357 0.015624946013200367
0.3219855972599429 0.44843329225350065 0.6097885882207097 0.012771888153973326
0.29311616385208666 0.447814521046925 0.6235069705172164 0.005725962139591743
0.2681677950652625 0.4531914369383661 0.6474502405497161 0.005802073326914475
0.2886848751018382 0.4453594455384097 0.5979787531240659 0.01450487144820342
0.3708947097504277 0.45497653794670917 0.6699827319272496 0.008729169834982953
0.38756965197720733 0.459122710118943 0.6603169807500794 0.1806347096052684
0.37228266385316316 0.47174799793510114 0.7065851495286722 0.20600021942881655
0.39174837297025505 0.4567382056826281 0.7037508759079232 0.10078218718795345
0.3931809547094281 0.4580684056246748 0.6823737648958319 0.2291858032394386
0.3656271996585548 0.4588452043945055 0.6813727764754838 0.08799481653565137
0.34106795330142275 0.4696160149736771 0.6845399768451136 0.12794900465081407
0.3435648664904758 0.4798579063051197 0.7009108849550532 0.1586873488166052
0.35107283585157545 0.46408111092750187 0.6731376238172088 0.20942392855009295
0.3381499148371079 0.4562047452092527 0.6587471411014565 0.011244773425261818
0.3153513211300961 0.46370340398256804 0.6594310905927309 0.015447428423606278
0.3084772790507103 0.4599348085148 0.68656880703109 0.004330133989230234
0.2962967448168336 0.46222548839083305 0.6669064425153471 0.2069168925480286
0.3077890522934627 0.46246053632888473 0.6488950353726515 0.013100926528060212
0.3938044351836635 0.4698876532685863 0.7511390390770645 0.12865172770153005
0.4002552851081726 0.46916343002947425 0.7616044963271944 0.13759393717041699
0.3432016749570295 0.48275826255377263 0.7552817730467911 0.21915499947440717
0.36221636563391635 0.48148202275028135 0.7513798069158273 0.2432610400121746
0.355254644804804 0.4712421981879616 0.7377345808754643 0.10961669558390255
0.3247361068618534 0.4844611682460168 0.7388299672619899 0.16103781969710765
0.3224402455216805 0.47873453994176823 0.7237326217117722 0.17409727616280027
0.3048362941494699 0.48252278526464526 0.7202264946750335 0.1454367783255745
0.2909706746811956 0.4813279211618531 0.7071727566555511 0.25279099779127034
0.2799491968067921 0.478601236258404 0.7064309704727845 0.20480059523712182
0.45485274760823075 0.05499734940834993 0.4672377118170883 0.026709250995668572
0.4649022638160111 0.13187781725085587 0.47654720714195303 0.019484208924739604
0.4369594733168756 0.04558572598000019 0.46184730300411514 0.014127280028445235
0.46190313283004464 0.21703135519658218 0.4711433061957777 2.2620647583928344e-13
0.45182559824167906 0.2564542249858036 0.46852732094658966 
0.4700929454344452 0.28068393780890416 0.4717440739655355 
0.3067634809535254 0.035523857911316174 0.4563302792786322 0.016531650687385924
0.441475585306347 0.2995516254554859 0.4745255997990596 
0.46122651969657485 0.34565310497608565 0.48060267857520933 0.0737367115114532
0.4562451496863129 0.3827226034592721 0.497493685279791 0.11899150152692155
0.45446651836860075 0.4067937534742363 0.5510430942759412 0.19208216060939134
0.4547351951037032 0.42392501462200094 0.5821642880128353 0.0882036740123053
0.4420263249019627 0.4474533316694523 0.6388389480012782 0.11146599260626562
0.4527497800067664 0.3494718899516155 0.48414644146246066 0.007024408981189813
0.4484139927372956 0.3916688214422127 0.5127863636845238 0.1587087414616265
0.42395737093657143 0.4481325395802565 0.6490146050855591 0.11912376789794328
0.43125747053248376 0.45716619271871645 0.6790414419592662 0.07108304006521146
0.4253948104098688 0.4595944140109655 0.7103031772023274 0.09145973368303771
0.3982733616516118 0.048124289352380806 0.4681163836515521 4.690084453109564e-08
0.34615780058898754 0.05825392842387167 0.46594197365060286 0.001024807581819858
0.29136266700394137 0.04650179318436596 0.4565253317718228 0.002727396113549728
0.3105622599911905 0.07105357226575237 0.46099232055527367 0.003458200931797698
0.2521174281406424 0.1818472617128772 0.46667045911580923 
0.27546214300537775 0.3168659341653866 0.46165147016551333 
0.2664228727037398 0.27636135279789953 0.4635271191754611 
0.4220452830933506 0.3424549453087541 0.48249168738118065 0.0007130279057526419
0.438925860912147 0.3750325626892404 0.49587765892131724 0.0611776585147567
0.44070961060635844 0.39559310575939294 0.5360126031367545 0.046427605497984394
0.4308090288132582 0.3936338205234358 0.5206597282216148 0.11221678463581045
0.43146787193965747 0.41636603902723623 0.5593848809085634 0.15511832001841894
0.42981913237478087 0.4203160680811897 0.5828098203301033 0.004457331828221561
0.4255185951890496 0.4410582726074072 0.6283572778506947 0.11931899136876167
0.40470887528434984 0.4502226883998242 0.6422610970667044 0.16145653321417283
0.41499255442644356 0.4467335952758936 0.652348934397663 0.072787378129965
0.4021674833586736 0.4337200772829111 0.6085155541750573 0.007173116387718746
0.40974374438406713 0.4378587703632624 0.620557417607804 0.068321369179215
0.41482792056564943 0.4692119892186166 0.7336669516660662 0.16837588911905044
0.41722156247650394 0.46566140765092473 0.7129213709136376 0.2123667949226323
0.4155221771037224 0.4537276516968664 0.6739329250386132 0.06390426025917635
0.40109442299621617 0.4572583981302943 0.6617348271270499 0.21238557522008247
0.4022366017741999 0.458239369962735 0.6852427497106344 0.1836367443570177
0.37861318219661183 0.48226826691956687 0.7667521496309051 0.17622021613935462
0.38884322794576764 0.48662756971245846 0.7879742370009301 0.14111622307098184
0.39433014609248346 0.4885248736235312 0.8096017529312023 0.1624585193152529
0.3540576487119966 0.48894732114258566 0.79818114514384 0.16284025167965296
0.34885525093268654 0.4875023324661817 0.7813280173109408 0.16117149663273506
0.3938858368174385 0.4840504696780183 0.795103738248349 0.12865356716854628
0.4145341754702309 0.4802871220788703 0.7825244885234212 0.09341083298866239
0.3343258423549602 0.4950419899329188 0.8017610587949972 0.14135784942171706
0.3175360489607862 0.48617281209362323 0.772559450673948 0.1603735825909792
0.34297774558411565 0.47991144231804 0.7682191460794996 0.10264970920634706
0.31233783143275046 0.4886324608116746 0.7581205264770522 0.20328921862964827
0.32268086924950284 0.49768352312707115 0.802456959860908 0.1713278997492148
0.24835795751731038 0.4009089260327959 0.49300799247118854 0.004804674924634245
0.270450290951335 0.41632284834420274 0.5007510128477513 0.21902934695112594
0.2648208360302095 0.4235626748323258 0.5183016431381291 0.25143220677106654
0.2777696192057532 0.4374253675408292 0.5600221288761065 0.21343975098382423
0.26212180287483927 0.44269835777896 0.5605675322761201 0.20223481674561733
0.2707172742445208 0.42875450018300443 0.5463912277934365 0.01073193849830504
0.25946555019231793 0.4470974150481342 0.5771557419091956 0.10234496014919785
0.251749514899439 0.42922740314461166 0.5412388959976231 0.21182416076260696
0.24489643884817064 0.4579432296539272 0.6608361967078233 0.0076858572982160655
0.2403030679649695 0.45633929905862836 0.6216815036976111 0.13430643152245916
0.26516905143634584 0.4408015145738534 0.5999306563945499 0.003992287073253366
0.27423976391580107 0.4482685485142705 0.6116447230496673 0.009659635789473134
0.2676223006613817 0.5012631415719326 0.8054299658146423 0.18234556747673464
0.2685028119617173 0.46693248304184226 0.6771029970816418 0.0011373683842892037
0.26927937954042247 0.48703521261139465 0.7364555532873394 0.2211256119845677
0.25490043020850317 0.4803338496576989 0.7236976528041087 0.1783425239941659
0.25805057626829814 0.4865009470425947 0.7449771700074115 0.1751668915364373
0.2649638775719999 0.4932159916451667 0.7660137100670306 0.2460777773346939
0.25091686907166916 0.4747311305557463 0.7087814476841356 0.0989841722649254
0.2647544429476035 0.4724436264242065 0.7007210216652525 0.1515670594323635
0.28242408631684013 0.4915264336845777 0.7584084476726629 0.19818038150700285
0.2836075610709817 0.49189503312421207 0.7655340762795356 0.19899859812385312
0.292760662968459 0.48437599757546557 0.7529784413540243 0.23459664264622443
0.28601109096338156 0.48803990139166414 0.7913071361076327 0.11976249733984486
0.36257965213950355 0.4896367617200694 0.7864980942131883 0.15268065687682217
0.360349793828214 0.4901668997738969 0.8036272958132092 0.12080475136560363
0.306985577485546 0.4914295524242076 0.7846417380176351 0.20379696688912663
0.3106781141310443 0.4989037563468325 0.8085951515549786 0.21937810238391045
0.251337085712951 0.4968076509120088 0.7897472296584682 0.2086668879426089
0.2613142117365436 0.5028950620724981 0.8063447180680222 0.1720484743286321
0.33802235960550403 0.001953891504858537 0.43969051029158407 0.03452144789425234
0.3175025895098032 0.005343000102838756 0.42374832353688974 0.04674291927211694
0.3505526682997803 -0.003377326968167258 0.43566163756212356 0.024873556780185224
0.4195524438132002 0.019441623993285417 0.4604333045046199 0.030031192602152056
0.43902400494306876 0.013230683320660875 0.4522670932084827 0.04177176543718672
0.37348424926149365 0.005535938100914281 0.4415840250899789 0.11340615596513122
0.3462793038565621 0.010969466691492014 0.4461648773796646 0.03140071279745586
0.37499463348490564 0.013542158558409404 0.4509311370532182 0.022630111471584436
0.3967472075446519 0.0034008524057524622 0.4350652084775478 0.028322522599018567
0.38955101629897315 0.010890291971481558 0.46060738175955324 0.031492051134712276
0.40175851420812464 -0.0009155043524495202 0.4459026274133204 0.014919780367895376
0.45323214163696496 0.010819734969596085 0.4433543510288426 0.0034519027430875223
0.45525169729054504 0.027833229794867194 0.46373852038822105 0.029829233987288036
0.4679658970912346 0.0271804026397925 0.4548683327393109 0.035931704917466945
0.4832852698463315 0.03119236286551834 0.4547392248598369 0.07095556053063375
0.48365549500724103 0.027749692863063332 0.4661567121114191 0.005046832369035399
0.49832249288640074 0.053793190869027376 0.45511986322476594 0.023672222676507447
0.472655216206147 0.06988551838631293 0.47424012009159777 -3.211887022403093e-14
0.4928518149327867 0.07793118618528418 0.46659584745799904 -1.0121419203395894e-13
0.4872292428536 0.1079111304368737 0.4712093928887026 0.012578090664227952
0.49513099573151537 0.1231478556070245 0.470461230704646 -6.309876679262631e-14
0.47484727608176763 0.12842630416571807 0.4819554353344387 -1.184293044066106e-13
0.4567105177095754 0.17992078982205098 0.4745028659568591 8.339014999252361e-14
0.4695830037500416 0.2101251013028683 0.4733857562480713 2.1853829936728895e-14
0.4905555879799454 0.21859078462233986 0.46552664150740497 
0.4752265265079547 0.3295656679015811 0.47185258757710197 -7.091248610900687e-14
0.47839084815902644 0.35075822631749665 0.44916373632834705 
0.4677186958739152 0.37436312241992425 0.48410709577342137 0.06117912899894967
0.46618178802485705 0.403472573202295 0.5120432893087458 0.1619781170289256
0.4730545600985012 0.4128911750697724 0.5333796028158218 0.07978797778868577
0.4687546081088749 0.4268259484162303 0.5554388554550018 0.11272052291631965
0.45489697013644187 0.46176683954045983 0.5854623679917562 0.10946999194917996
0.4417979025945575 0.4265477048560924 0.5899965000581073 0.13034740690600025
0.45772731155802465 0.4495328653201877 0.6054930964866712 0.07676077381943065
0.45030372884471487 0.4530456005123049 0.6279548630427525 0.1697622886532068
0.44856582988742827 0.4624058134723508 0.6390502106709043 0.13220016156530637
0.4448169513068747 0.43456297865049304 0.6268421298309966 0.10948520009398449
0.45324128400021224 0.4675580746831202 0.6650937825341695 0.06514567853148014
0.435360603895697 0.4675781578229007 0.7214475815415017 0.11013544495122839
0.44522859802847914 0.4711998931477299 0.6917735200768909 0.13656867031417647
0.4382992988286788 0.4765066378179423 0.7277561176285774 0.10604310332767532
0.43761692015441206 0.4586151724493551 0.6932523789862514 0.1138716425947441
0.4329748854246741 0.4742781445440897 0.7506744317215377 0.2060966015678903
0.427132576301711 0.4635192346181714 0.7517394289383544 0.046834653656956625
0.4416245600401318 0.48118469084189724 0.7159407127961193 0.11303960898722314
0.4417985420422111 0.4892389538484752 0.7603127756821955 0.11590938942985447
0.436805776317394 0.47805329382224554 0.7847949254777496 0.09302710314931746
0.3747413688477783 0.5019594931684036 0.8175518865808316 0.172683693689216
0.34033695572724054 0.49824608282349936 0.8172177389840808 0.12901557114128986
0.4232506758030305 0.4782461769062619 0.8003426992085481 0.16753832216098064
0.40968502536806495 0.5023423754048654 0.8110537622324754 0.11625478707678474
0.39607099252117817 0.49710683628551283 0.8130928273527607 0.13436952163196358
0.387566153428287 0.496874161303387 0.8167148745532526 0.18511474962659616
0.36576513533907234 0.5101903828389478 0.8056910847496956 0.17059052194916963
0.3800559927121105 0.506445907251774 0.8080864768421474 0.17837597133251107
0.3028328774093807 0.503397515081802 0.8232296980959262 0.09925771286028967
0.3474307704265048 0.5172685561103108 0.8211168862997262 0.09983701666180259
0.31944147113075017 0.5060334239938468 0.8224357549650241 0.17051753586929128
0.28843579065498215 0.5165463293480907 0.8307893675773962 0.09890325520806492
0.26697318059637054 0.5182290890893908 0.8237632374335 0.1388224243789059
0.23799879565202545 0.520270098861795 0.8236905642655172 0.11506303654620863
0.22676920235800863 0.5240624284616209 0.8168589621827052 0.1512590480268955
0.2329011990278372 0.4984596548475165 0.8213207311859175 0.060521037265309746
0.20803890120785937 0.5161154978817548 0.817011704921029 0.186516867139921
0.1770092585758598 0.514652612311809 0.8261822557649666 0.13495597730040623
0.15197283461494537 0.5096376399738132 0.8177287270856576 0.10042676124507167
0.16503364458764191 0.5019986279509876 0.8202935165058597 0.07456441487656779
0.14392642266375294 0.49822691068077984 0.8155880472212694 0.12608131567173395
0.108381563769377 0.48787270018249296 0.8059407339560833 0.18028672839476245
0.12781475061838898 0.511301816145487 0.8179168243648427 0.10489071118949468
0.1046230555597928 0.5019377465479017 0.8124826402601655 0.14129103449493202
0.06918366714699736 0.4982472236174347 0.8003470154877532 0.07200624304344823
0.09059924965891566 0.493524554850693 0.8149905464624508 0.11871415698196458
0.07642685924191121 0.4879733626717203 0.7985685798701413 0.17409347297764244
0.054770678763493647 0.48182410024477873 0.7891507966316944 0.05846365194769836
0.05957811695027905 0.48715969645108326 0.779192155019304 0.13716162598002773
0.07564446425421081 0.47397796837550943 0.7591713060380801 0.14038445972094024
0.05143015428571053 0.47566623181298023 0.7446823704145968 0.08462507288654948
0.054116382521450415 0.485213254742216 0.7639781924201348 0.11935893517680501
0.04561193252088979 0.47935526819300955 0.7212696662496959 0.1703783839436436
0.04319951284976284 0.46913693292081915 0.6875639327876133 0.1216803697777096
0.05405750922077124 0.4622462275541687 0.6960567337764281 0.14487134613124966
0.04223254529645786 0.45907478917657857 0.6682923480983176 0.0857664580335944
0.050106002124458746 0.47189370891142945 0.6731462344616056 0.13412131441635594
0.05196617278469612 0.44554275321246345 0.641531787454476 0.09922632774746884
0.033271155276844135 0.4297646367592501 0.6091141138659724 0.07113434784734018
0.04038558079842286 0.4627795514925593 0.6301664938104994 0.14199161000535057
0.041306280289182394 0.46223137127898667 0.6543826148851669 0.12046864163241625
0.036165884884965846 0.4548501702784071 0.6130078689483097 0.0758255950358948
0.0411902109993798 0.43147878729246264 0.5864143686170005 0.18100015417936377
0.04239055329933073 0.4225034806279786 0.5581852704280936 0.03901825389517534
0.03135037855322847 0.43412121586460367 0.5732752089424917 0.08517807803754412
0.03431244222643087 0.4487686105631598 0.5898990350559686 0.0823937501967538
0.034486968470476324 0.44025516673481035 0.5670225171960916 0.15219205772683636
0.034419381677049506 0.4283640667908324 0.5395498153526052 0.13178672386626258
0.023194805676053455 0.4150926099338132 0.5254302734302101 0.07652019333186842
0.03922323888897133 0.44813149570019584 0.573717103533828 0.13105144163586077
0.03944621412432107 0.4415738529761778 0.5545675012715527 0.14846005535550974
0.050626243973310385 0.41696340660927816 0.5487345417221939 0.03851902750906248
0.034541433875837704 0.4334463846987856 0.5520357888623144 0.11299004361636987
0.021589773932815963 0.4141626987202952 0.505091262942383 0.09470317008400773
0.025562109011710916 0.4022057595388399 0.5093213260209242 0.1312326593419465
0.024124362040892123 0.39695864001337156 0.49369146918213436 0.10128491113062366
0.026380576281185394 0.3714644914410807 0.4880936097416389 0.16074136448393261
0.018185272137757853 0.36635065322186594 0.4678234095846404 0.10261240301042933
0.017395736366969547 0.3693152454631779 0.4689524022135518 0.06923661521572284
0.012368907118568159 0.3289674855941895 0.4609338295409059 0.02071311554091695
0.009474995201674937 0.3397267350460863 0.4688894218025551 0.008815803123197638
0.006362272859841259 0.31343456862882607 0.45455116411185 0.11652886438917294
0.01785320673309251 0.29978068245461237 0.464187808627793 0.11513018266791644
0.013040400758001893 0.303492398549144 0.44675950275784243 0.11372539086000942
0.020469996975724693 0.2738071542738598 0.46384712463711303 0.04557987621389277
0.01722342062259512 0.29384363503813044 0.44910595028638606 0.10357535335308288
0.014588747753396988 0.28356188739515603 0.4433335014291867 0.08517957903515037
0.011654273614207318 0.2655102584334168 0.4421374857481662 0.02221619106312694
0.017191438593323206 0.2367087583463653 0.4644470119086047 0.05551097494854534
0.004638469364999309 0.19623176244624782 0.46018764731242573 0.026369305399633478
0.012138811657806683 0.24929854562434023 0.4510900481101259 0.027478707576247523
0.024566302270493928 0.21675144075458364 0.47016552833923675 0.04807072054304475
0.01962249652751378 0.19910275761899654 0.47238957036790047 0.048035158142349293
0.020776480990651346 0.17546177098032997 0.46194360070314106 0.0350588046478432
0.015718635643132195 0.21869914022814269 0.4622432469322198 0.042289622105193825
0.004220286288550875 0.1678244197247322 0.44761624484435936 0.16008357593657668
0.00168543381136102 0.1733585709980642 0.45099032415909346 0.14566377065479003
0.00929215454967744 0.23179063413835 0.44396896530924984 0.04589713468813892
0.006709199889220913 0.1892444497945686 0.4440897252579032 0.06091977942513899
-0.009750123017385301 0.14342999920040214 0.46552458260396556 0.054857051176817405
0.02506772510696552 0.14163646789050333 0.4724679835229445 0.08744913080525304
0.002310819229187669 0.11927444087700645 0.4607128680202597 0.15064882559036138
0.0007588988499022766 0.10725600671826203 0.45794032543899904 0.1203949785323193
0.02563118606128012 0.08638061400683725 0.4761061044301474 0.0659914939450749
0.007882188922683333 0.09129996228020132 0.4586796443388176 0.05854372597502549
0.0061841652242326794 0.08743809164492203 0.47018831718303905 0.05070869615695751
0.006922922458995884 0.06107561772528946 0.4589090423181536 0.0847482555120988
-0.0013969377746462317 0.029820958969443798 0.4593408055144851 0.0005488329501609489
0.022193649216104963 0.024458936587991496 0.46224508912015805 0.03597378002121335
0.06507508985218194 0.004949237328715315 0.44454302033906345 0.11804054015235162
0.051468999689308764 0.010970580787993373 0.4398430383835681 0.09495897980584758
0.09929398484340182 0.013937887278934379 0.45467258993802995 0.04736667238018326
0.04953997349915723 0.006548832719061927 0.4579978305598788 0.07570982130627875
0.06858571868998302 0.0136045874685912 0.4493585423074965 0.10583129843755398
0.08412152183587003 0.009754668301408765 0.43985462888299276 0.08511592659189737
0.08243933045148881 0.012237805445402601 0.43126557274902416 0.09244958800666842
0.09782960338406275 0.01413968321187982 0.43885284116726364 0.059357009162771666
0.12636398543182495 0.005667577432411881 0.427852815053384 0.018470462852830737
0.10807711698367908 0.0172240615715525 0.42179953516050067 0.027378349603094595
0.18224268739903515 0.007259386819877295 0.4468095223934797 0.060427646769596166
0.12167551948563679 0.014693501746313588 0.44580667821832437 0.06546154571167195
0.13453788215492798 0.008092065886619544 0.44787682998703887 0.06224438597851349
0.15289031085028007 0.004273295497002415 0.4386129465149996 0.05119128921569456
0.14108912897461706 0.004049712301919139 0.4344109527511542 0.03366200245907375
0.22297454246565815 0.0036703638985190433 0.43148355155532125 0.038374052909311056
0.2032324956260576 -0.002177109627140306 0.4363974203867871 0.03736622652992067
0.46224412734448445 0.39940940375329287 0.4811760401967999 0.18206812572902023
0.44186074702965633 0.4730270429329199 0.6400518351655772 0.13592545338155132
0.411865567407883 0.49861904480799185 0.7959018608064841 0.13053399019766657
0.06306630490070854 0.02685781661198321 0.4596732531597018 0.076683187122343
0.04828194923834292 0.4883296019035691 0.7420303940960666 0.10375305279771108
0.03222563783706363 0.4271949514328193 0.5458140918443367 0.12467862343260004
0.01813829940349785 0.36120836377361915 0.44433630413499176 0.0028204584989766695
0.02908122743871715 0.39728857703924514 0.4753309183389412 0.12004063516220734
-0.003999513988920885 0.05946084267221474 0.4510307342252841 0.05227013579881608
0.16405959517219149 0.003880642979502467 0.4284318242907367 0.02607337476266495
