x y z curv
0.1345099638896465 0.4764997200856117 0.585397646155967 0.02982779764318454
0.08559485713710019 0.4805001336134923 0.5938799245885937 0.01558391223961411
0.10867248201410923 0.4755870712072687 0.5752508551800665 0.005773014258076981
0.09135595382644628 0.47757693955265107 0.5644436939844066 0.010133343229887288
0.12009822430608297 0.47148582772740427 0.5632538228052567 0.004427636302324642
0.07846276957870092 0.47557353667077235 0.565310582218168 0.007478781328985765
0.3466043730650787 0.46550650915966535 0.5136140334231027 0.0035170503908891243
0.3642624595282562 0.46869817152281257 0.531155363109738 0.007017789430252972
0.37925817189897226 0.473501952193035 0.5497034139407634 0.00565310542698853
0.35464235065590255 0.47565051990212254 0.5422921909307296 0.0026832615292883572
0.3865859734211554 0.47341602357180995 0.5211543822079474 0.0044046953437514485
0.40424184059767887 0.47558121697017874 0.5373394605498754 0.0035015159064720846
0.39181085826982737 0.4744441709165175 0.5419486119077739 0.004079341899811452
0.36630969809889075 0.46724013391934854 0.5180893634146758 0.007777702402582939
0.3729877150477246 0.46787715141895764 0.515230109472701 0.006470906643424629
0.3258648650928338 0.4657515015584949 0.5622415080433353 0.012337770841128207
0.2794176507569401 0.47126710902735486 0.5393381125211887 0.008461645196361892
0.2847681443929184 0.4574569778459623 0.5203574202174693 0.004419163273081894
0.2925683220305091 0.47356950920398594 0.5520727150016272 0.01193863856082695
0.31658424536942736 0.46385026123486095 0.5428659134091112 0.01648813663810805
0.3177332747392372 0.4657125637978646 0.5346861338984499 0.015591626873621622
0.30491865071350593 0.46295002322798207 0.5111600246078208 0.01224789655535496
0.23488873765609317 0.4633054683296027 0.5367584557380612 0.005123283602824644
0.2066472371789054 0.46693821618942366 0.5398621100815495 0.009465173532464614
0.23654755989388135 0.4671991564205846 0.5542331938379692 0.005817506974369316
0.21424423570915188 0.4595778432963526 0.5272179178058529 0.0034654182155823524
0.2445705531494059 0.4687960653262166 0.5524545174661034 0.008044868389090597
0.2469919981572714 0.4693408023277473 0.539909713587528 0.002582449008105256
0.2373555115983422 0.4626661065110529 0.530597206770504 0.007432593293226565
0.2459295244892718 0.4597156481233342 0.5097134814777202 0.007288395182168833
0.19833375637908734 0.4669816081659847 0.5460016687000646 0.010602804110389358
0.18526224416777648 0.4621173816703473 0.5111287823517979 0.0035213263845806694
0.19944831546554692 0.46388003214023293 0.519483658146484 0.006906896221080181
0.17280304857263898 0.46817290636668685 0.5304056666335687 0.004081238398708159
0.07838103154957554 0.4728363595981283 0.5350076012289531 0.01464877968082367
0.10609046446778965 0.4629630631184302 0.5360951671640387 0.012955623656997223
0.07345840752858869 0.47477561584889244 0.5530465739199988 0.01618367717121534
0.34228058429311825 0.45733930677514983 0.4981175649382862 3.965926279485363e-05
0.37522713092039495 0.4676796420960706 0.5075042588012365 0.005617353042743823
0.4006864464343635 0.4663476054504405 0.5086255415472328 0.006131958169087531
0.1520062023266744 0.4578086929561078 0.4924999722376701 -4.469222799628364e-15
0.1693541187462098 0.4606048918946234 0.4960489543798707 8.74072918193702e-06
0.13291809022932835 0.46383828624597506 0.511410035630949 0.00019232850759944996
0.025435755198878147 0.46683378231874895 0.4989513406211607 0.04100908959372593
0.006651098332776305 0.462639974570535 0.49158026673593497 0.07001785394547032
0.04846873313461195 0.46027449393415554 0.5255847961095323 0.005702292446452786
0.029463177487614775 0.4729065705325751 0.5491598325869447 0.0323975149287916
0.055213211582194395 0.47500555027219826 0.5444174969749148 0.013250628783535409
0.0012528511316415025 0.48376164990813597 0.5475199587086454 0.045578278549324384
0.013966872616206561 0.478223185751523 0.534454654244413 0.044102061230895245
0.009335487582119368 0.46685376422483343 0.5147941845536009 0.03270862659235373
0.07018535784591184 0.4731617902520009 0.5714619440330341 0.0026858395795428553
0.05029494181901892 0.47998867403636386 0.5705138092404319 0.01819644954885805
0.019438189745293398 0.4740122453002721 0.5874697011569336 0.035045077139580764
0.050431391705541756 0.48577163637661147 0.5832249224478607 0.008530751628117039
0.010381588525817087 0.48185433564586666 0.5555585278053828 0.03780886090519458
0.01845327679449853 0.480373457418615 0.5682929750474219 0.04510455468066554
0.00304180819184538 0.4817584489069051 0.5803749490314425 0.02955073049198362
-0.0001442654018888054 0.48613060455777835 0.6033990115641027 0.06437305549606114
0.011107502587442634 0.4885096977289354 0.6200984457676051 0.049937819519660046
0.022677470605809713 0.4821491874057541 0.5995405626986078 0.06623564243848873
0.04175840612716333 0.4764773880310101 0.6229156373019915 0.010301366871474421
0.009805004836153052 0.4896217333647233 0.6532750027339066 0.03621732544755544
0.008322643896245508 0.4958910785404346 0.6906918129066151 0.05362692389992444
0.004093236588293864 0.5012424197047497 0.6982286622147882 0.05130137164127568
0.4593182458815113 0.49381789836351203 0.6862337970413277 0.004159930544359122
0.4638644814336928 0.49237571800527646 0.6379281745737442 0.049858659165738374
0.47258074235714226 0.49219243485935205 0.6492867929336287 0.026557534780809067
0.4356493494561307 0.48576081663631737 0.6368455560048486 0.014577389416418758
0.44306522666346665 0.49251987150041615 0.644323613898811 0.02315227527119573
0.43014815425598785 0.4874387076425577 0.6445478331504015 0.015746176224231117
0.4171211481561303 0.4785450644847166 0.6134158894161932 0.021601029383007973
0.452638173853794 0.476447298473387 0.6188950395670435 0.01576651903725889
0.4563474834295462 0.4754690941439576 0.582822580592166 0.02813028714827517
0.43638771534312 0.48060819784196895 0.5891087060406272 0.01814411202136521
0.42053862927652974 0.4810014852011614 0.5908881444241968 0.006716199546019812
0.42553182770098 0.46859403305729125 0.5263474208547217 0.00411364558650167
0.44770293517273496 0.4740097911272782 0.5231658602186893 0.030118689608638796
0.4394386906315293 0.472816344895097 0.5627621118886456 0.010146175816066243
0.4544481364318229 0.4733220949358798 0.536638781297602 0.009242672710038025
0.4297447992718404 0.47220694473499425 0.5656908471407446 0.004060314505884251
0.4086972203212647 0.47299094425942473 0.5508843249814361 0.003498517476544937
0.44999966102950567 0.4700652787242233 0.5077625591822099 0.029904702029532635
0.42572967533204764 0.4690401073719863 0.5036762242386434 0.003147181198233308
0.44297964214880886 0.4699991243110529 0.5056993841542159 0.030702810878004853
0.46705347230755073 0.4736715222272844 0.5065301790696366 0.042313343512733304
0.42073875404997885 0.5161037367136723 0.7558919108486116 0.06482616038446973
0.4534277101138764 0.49704125576602576 0.7006530452074995 0.01431679949394441
0.37615095270083104 0.5147329136689233 0.7618114447369627 0.0726499317000547
0.1306750648009472 0.5099156392550692 0.7536506330223703 0.01639208219097388
0.04659445161438662 0.516489169654921 0.7575340602950978 0.04464242934788847
0.059490275904145566 0.521583401878835 0.769228021893104 0.024151311185651808
0.41338174205202666 0.4864058484056775 0.6396082846472082 0.009458853097969018
0.023924965549533658 0.4956725731458206 0.6665708100052966 0.04918908172982935
0.04648058877715969 0.47945952536999514 0.6603484350918887 0.004680368872933258
0.016380888496970974 0.5002477491952957 0.709739672141753 0.051243579411921196
0.002039464142792673 0.5426805906543231 0.6506730019283021 0.012804075583996122
0.027138808764439592 0.559096260184194 0.6924679361558351 0.012832115848723824
0.0865690270839401 0.5338807288522434 0.5439211676989413 0.0036815703614606985
0.10250733527154544 0.532973925571904 0.5446196934546496 0.0037768924892086623
0.08696187648523766 0.5348037398296586 0.5709785937684412 0.00020120426525145296
0.0561938656617298 0.5394636765885013 0.5548761990563953 0.007601465104726772
0.15114388987664878 0.5410373919252931 0.5391847131506532 0.010848883112286349
0.14727309841152328 0.5415251748789163 0.5555605195589505 0.013052574910147463
0.1225200781888688 0.5372709842675434 0.560576800431441 0.006151872830385368
0.22320965709937493 0.5302494093632505 0.5317818896046963 0.007162730284915917
0.15897444213509282 0.53974872159841 0.5510183806277033 0.020463495077016034
0.12189583123743182 0.5307899360956353 0.5454658502212025 0.001844971760266343
0.15102148706838633 0.5290029375287613 0.510947791286031 0.021948024100236503
0.19331501210601212 0.5286797544266287 0.5295033098680408 0.009277677830016325
0.20271735752577433 0.5325668862677165 0.49514837556399677 0.006127930242139558
0.16501116969456278 0.5247719829801831 0.5176869145526735 0.003749195242729768
0.23061319718899945 0.5286105643597581 0.5147203506873038 0.010185074836895756
0.20910418762637412 0.5309990005804037 0.5047699418055849 0.013621576488668076
0.20454906737091574 0.5318245891379408 0.5269536534389881 0.009054332877282753
0.24343941843459754 0.5267367976738795 0.4976812658674725 0.0113333647558475
0.2828068904153039 0.532215720355866 0.493161175446886 0.007190745507028906
0.24815247830572937 0.526085547141327 0.4869931146993246 0.008664361809215197
0.24278543440776038 0.5246692918735973 0.4818058196856106 0.005329772890483562
0.28613459149916226 0.5306786228431348 0.48988848767040805 0.007248107654024963
0.2618086300232414 0.5313909962064819 0.5117707522782977 0.007679766193421488
0.3156604988192397 0.5197386625915151 0.47280986041642836 0.008947038526830953
0.2966746039555549 0.5308275735157948 0.5249038178274148 0.0033559948478732865
0.3405275488584032 0.5287506957046566 0.4779637016939351 0.00755677370293249
0.3261092188489649 0.5286984349247128 0.49716654630074664 0.018012482801251138
0.34016200052559165 0.5340113570132012 0.5219514795656668 0.00500617715243491
0.34911966642590997 0.5226005432392055 0.5005560167515994 0.007614238791449439
0.2721283573799683 0.5316297092835559 0.5371791737582965 0.003958109913340127
0.24752447847942177 0.5377176381169495 0.5230822702366196 0.00101901933867085
0.3258229122515304 0.521712736585328 0.47632793352721 0.015777325430056603
0.3220940846750952 0.5297344023869146 0.5314592200681261 0.0033707443238559873
0.3014742783253831 0.5325612391022057 0.4992902068629401 0.004753045968442502
0.15514616365091954 0.5300172050457366 0.47819500432450707 0.009168598226352201
0.1490318860828286 0.5303542140636832 0.5149613707423581 0.017879491438681155
0.1849104178475572 0.5224608163366523 0.5001394621398757 0.01352444692861236
0.16364155373560674 0.5228931242312336 0.49402597906315193 0.005417009574386324
0.18286031510505207 0.5248743123445172 0.4746792241387724 0.021662091496162276
0.17202721505536042 0.5204938342898539 0.5027670222427705 0.013452324172758627
0.11757377240731137 0.5262125364621357 0.5058083614317818 0.0016297928741970588
0.11532403922464607 0.5319913584368317 0.5180193312153962 0.0019569713781270636
0.12611703725943565 0.5177990452299174 0.4662962193970547 0.006061691742769707
0.25066262425395913 0.5369261185052128 0.5655227277148603 0.0008616790838578929
0.2800038819915551 0.5343216849615735 0.555633736756045 0.002067846911870519
0.31917306801257295 0.5374250597166378 0.5457914275512654 0.004835753744404127
0.3064104098010367 0.5352899020819565 0.5621112223692081 0.005721881010655255
0.29038161758444325 0.5351472436914559 0.5354711310073347 0.003957712420385016
0.2342917301346595 0.5347766747551326 0.5594063538605706 0.003245166957063515
0.33704663754921277 0.5391848750089633 0.574096529733657 0.008647822949405288
0.33378094121909574 0.5373760119536991 0.5565205650842912 0.005283017863101621
0.326256450792277 0.5407248799231017 0.5673820112593722 0.006737313521213114
0.3431205900358533 0.534767648229452 0.539162507500715 0.0049096795191583215
0.3101213049860337 0.5355735686458662 0.5646876169583924 0.006840086100289877
0.2183637926331569 0.5320978303825167 0.5603734555709807 0.0032336661960705028
0.20294959449092342 0.5316073340103991 0.5615612163290091 0.0038971292918878013
0.18739182835606163 0.5356902515421312 0.562002106885433 0.005579794896804634
0.1285667721278455 0.5561761862059239 0.6532648471852848 0.028393076045221243
0.22871586782360248 0.5561242060884604 0.6864754336702709 0.003187500773430129
0.24858983280078698 0.5557334603401308 0.685899668075531 0.012212750112553133
0.24044385362965495 0.5638971175736182 0.7040223027364926 0.010071835596222791
0.2764622130458911 0.5607781759153193 0.7060551021386628 0.021713893827269768
0.26613921990570155 0.5590697800403296 0.6968033962415374 0.01059964465836017
0.28462520539438 0.5593147199446306 0.6940934178387452 0.013528524181328546
0.29648915906463785 0.5537683329070051 0.7033218150456227 0.010187569278715593
0.3177586201482659 0.5571101174583625 0.7159972972767268 0.03171938643712877
0.2031180468200304 0.5558453499466889 0.7206054174583593 0.0038665863583409294
0.22837845496096876 0.5593783630367818 0.707956385275407 0.011414295121495359
0.2572169297714746 0.5536613364669299 0.7179633913208189 0.024671869486853154
0.17062070217243072 0.5561319263682176 0.7250595214483623 0.00770961300663948
0.26582850605079567 0.5544540643687815 0.7298367917832456 0.03994978302668153
0.2971371931931757 0.5654193091053185 0.7251635599485365 0.013321388525786775
0.1800196578419366 0.5578115819313357 0.7247380298200281 0.008086719802188187
0.23829100530921157 0.5619834215420808 0.7330968775923355 0.035567194294614586
0.24932451484967874 0.5531342892368647 0.7422214474757207 0.1022559137104359
0.280309380090141 0.5582558015464195 0.7259738903297464 0.014035910039644366
0.26938587568290817 0.5570290552557665 0.7435994002702915 0.04670683890530161
0.28451450974641834 0.5607938296925371 0.7373388955711999 0.017049533211676775
0.33989028458084913 0.5614940933320323 0.7240736021427389 0.04059199053041892
0.3398328693724813 0.5676289945012785 0.7450565186308027 0.02352729949052506
0.29308952569034324 0.5527811033117855 0.6682510025511287 0.01625081159925177
0.31774515137043274 0.5501410635904972 0.6671401718171661 0.013935714416542832
0.3407038888777717 0.5477510694259067 0.6714203039009276 0.011242168758819476
0.3032383675507507 0.5505188461003946 0.6893084009886008 0.006533531155980371
0.3227838103983451 0.5513468699542906 0.6978545420904707 0.00884982027947321
0.34424194512989115 0.5582735291951595 0.6972407736029853 0.004452793681205452
0.3522070360038377 0.5659359106426491 0.7271148936499965 0.03741354178587235
0.37659864986316843 0.5481578805746327 0.6788223270983896 0.03875946855995007
0.37330260100355417 0.5549389380354718 0.7115880143653525 0.00643889607810083
0.3682325056772001 0.5560135961084632 0.7014360492033681 0.005301014219057903
0.3861403411064607 0.554334731037601 0.6967019650464978 0.004846092504064421
0.40875033031587477 0.5541757687869833 0.7016920970503778 0.006681361505438415
0.3894784699582336 0.5610831256523026 0.7110553473792081 0.003732341215973843
0.3568864204491771 0.5490329014324759 0.6752017061404297 0.040471646479367476
0.387132599911574 0.5495836807643726 0.68290096961223 0.03665672155463323
0.4153621079068789 0.558387316100941 0.7164506618425581 0.011595435313914786
0.43139220483087787 0.5624872002079894 0.6911400327781716 0.009661099768200666
0.10815443308761435 0.5592432550131576 0.7522007218816873 0.04516080251038236
0.29784217331581364 0.5560553959449698 0.7502095337638048 0.03981041546962229
0.3229393761272083 0.5570159298179572 0.7396199340254791 0.05946871700430434
0.3766502186431592 0.5596315161909118 0.7496077220031152 0.05354244884292602
0.08887005067980104 0.5629887634792389 0.7504099913783677 0.009412145067958967
0.1724427219703333 0.5490641894317971 0.750281841828138 0.07017728270263368
0.364773630726727 0.5550994891514456 0.752023930587695 0.05234325027727513
0.231668361103738 0.5569706168377105 0.7488399218444961 0.010015406555457913
0.04197308386397919 0.5545222218846702 0.7573342032878203 0.08870730077202733
0.13297917235239004 0.5664271950441472 0.7499276156650956 0.00893874705438916
0.20636624526062158 0.557838037676488 0.746622380673918 0.048564356068583885
0.2885653033270998 0.5510286223379152 0.7556256702112377 0.047043626320820375
0.43039894794398315 0.5662441036315441 0.7482566535157805 0.058755812772794826
0.16694544153864668 0.5519622576914633 0.7481492475986302 0.07267283340773197
0.44545133472881304 0.5524861262174247 0.7533667245714118 0.11390549345752599
0.2724533417497142 0.5535879200425404 0.7594185289214557 0.06354519356989742
0.1927974805039352 0.5568812337811672 0.7541972822808979 0.08640797594971159
0.3805779885372839 0.5525324301258339 0.7520394217130557 0.05619228071732773
0.07877571118727361 0.5502160654115618 0.7560918824471203 0.04821296975612425
0.3301766836903754 0.5461160011230074 0.752347674690592 0.07284778161678601
0.1552901256058937 0.5498962484713562 0.7528758736742959 0.0709408025692828
0.36404789805911836 0.5485407322846542 0.7551131441960556 0.05639104811983553
0.34570364428712175 0.550847150027312 0.7547690486746507 0.0449224168244144
0.2066047141111609 0.5581099259552456 0.7518658954211227 0.04843634975259828
0.23537746247464156 0.5374897937680215 0.7607649029148831 0.042903839369088044
0.03626806428839327 0.5430955175798226 0.7592455165381597 0.09661678707820422
0.3624998420988163 0.5402213741779296 0.7578554768328143 0.031158556747628758
0.11869426145779342 0.5490324402491611 0.7638872911677647 0.06866060774979794
0.0806744478450017 0.5486949452622266 0.7567232228448224 0.09472475837172219
0.10790166591273553 0.5477217494948008 0.7636273707358762 0.10358015213088165
0.06271392547758618 0.5549738290073921 0.7561841288222249 0.07220382267902599
0.1671545836305124 0.5461711422458686 0.7561732322690664 0.07727680779256521
0.25230061765597617 0.5440487007261232 0.7522357636088519 0.13030032351441118
0.31200981729021 0.537847815037916 0.7574119055249087 0.06883685945543483
0.3638934115752683 0.563039202139891 0.7415316333220132 0.051419026596006966
0.3937471646458516 0.5607666668041591 0.7295208653868941 0.01204931747279869
0.40482787168339085 0.55784818225276 0.7288875694313396 0.0332670322570929
0.4091858660918885 0.5618336042138183 0.7508939844363766 0.05408586340465764
0.41535763116781327 0.5557502305075551 0.7532126737384384 0.07030855125166352
0.41161687540409075 0.5581020015872709 0.7353270296842542 0.05676123217432364
0.4611859915074154 0.5577174434616272 0.7149980346159398 0.00783775378190085
0.42229605362764205 0.5630287655168373 0.7278401577993362 0.034391559511562746
0.4393583438781222 0.5601459645074696 0.717242390013031 0.013050427270690343
0.446539154850634 0.556786900100439 0.7463974960970634 0.08170088720014407
0.4221449409461384 0.5415578608680844 0.7568595315218081 0.10186516190126799
0.4425209151888672 0.5444365527443255 0.7566658070611885 0.08801880754423934
0.4472517649462648 0.5339953588267813 0.7626368462122249 0.049026471833024284
0.019297004421906436 0.55648297353399 0.7387991100849032 0.09653774727561404
0.029403289970762483 0.5607108628087639 0.7547883255019907 0.05479609970543961
0.03594644886072979 0.55269221013461 0.7321772043285879 0.0259139466253728
0.06105759122139634 0.5621161783601345 0.7378169268530615 0.03590067085330362
0.06088719916367502 0.5597611199500803 0.7278564944357951 0.029465555034714333
0.06521040288819316 0.5610386236919835 0.7266234799191119 0.023289112105237462
0.06998781493858995 0.5591881782940383 0.7360468953009568 0.0351675679356785
0.09550277483417031 0.5623258611852795 0.733505151060113 0.03316830176202736
0.12136827135106787 0.5593562232002706 0.7276071554358232 0.023346379885216
0.11279870948111684 0.5625361028119457 0.7303520445002271 0.04336745878134349
0.07764102997976814 0.553649929288651 0.711842129432386 0.00532960461888575
0.04967112471604947 0.5533284137991236 0.6915543397847675 0.004451499464076915
0.0596905646053178 0.5571599921681135 0.7092350391442315 0.009211195813912939
0.03166213252645768 0.553732202715879 0.6973391718900712 0.014110356309596535
0.06642478647592834 0.5553116679047244 0.6994529032792326 0.0048314182767445054
0.07424683357322322 0.5543467013107034 0.6815857545676666 0.01952427623183565
0.1015528323764006 0.5521435936062808 0.6664867228384225 0.031216187645460438
0.10325007686394523 0.5478102336561135 0.6844614996932796 0.011731770365948031
0.0883847736761422 0.5560092586653741 0.6930318249765679 0.0064871405516999025
0.1139516686259256 0.5478087833147188 0.6891798709717427 0.011377909203661244
0.11070118220267976 0.5567859951595125 0.7134262171407766 0.0086744491997206
0.09687567624100243 0.5519002186127516 0.7083019491508274 0.005789847815723894
0.14577955726361033 0.5548569166248633 0.7088724730394025 0.00889208366937416
0.15105070446572974 0.5539640014259971 0.7015152000198287 0.00878361088849086
0.13246981450762918 0.5545785973986418 0.7035631788145074 0.009402275637880894
0.14172936739754408 0.5553026314846338 0.6787507137425207 0.01936733227346005
0.11538487879246269 0.5465555296296801 0.6705617811179351 0.032291311716716994
0.15505861014523367 0.5540326412567663 0.6763007217750241 0.002885237980225977
0.15842615268173316 0.5531646049770979 0.6732687689618028 0.020167507923250956
0.1804664841145282 0.5545044269481003 0.6943209898752292 0.005464389871029381
0.19208023459713874 0.5521127191257107 0.6869888704257865 0.006064208762270741
0.1535808031210226 0.5555173075797247 0.692206910865227 0.0028298100586823887
0.20409854186082033 0.5494643271197164 0.6712678658565201 0.014760211683925158
0.19770867208815837 0.5580714714487499 0.7016910848387291 0.006378167673092988
0.21606798276844494 0.5577256921463256 0.6899895008964916 0.007584219064099472
0.16590673973215683 0.5508717415003958 0.7045113244476265 0.004636611726447893
0.1860523269189871 0.5541625087677181 0.7017739420526327 0.007220777225055789
0.19690909407380836 0.5536987348700677 0.718442935322595 0.0040478840649585774
0.14348983428484086 0.5558080076827273 0.7316276764811739 0.019848054749076877
0.15886403856572306 0.5499767319059046 0.7362772138864385 0.080305956593921
0.189907116590375 0.5527039116307475 0.7400696670102508 0.09989389552865394
0.23377215340395688 0.5628123702544998 0.7395268041466829 0.03279194793889816
0.06150454589342251 0.5441848673529904 0.763555098336332 0.09120134430429944
0.19231028076682466 0.5175761265090768 0.7573861195176612 0.06852671020689524
0.18308243978821828 0.5309862917035986 0.7593839586619922 0.0672460738126914
0.20231089844588507 0.5441729952546137 0.7597418980305862 0.03193847013054248
0.14863842273588157 0.5270958370816813 0.7611081981093454 0.08180589475292806
0.066295880755492 0.5353484908763837 0.5413405754112763 0.020746980186067857
0.06379007896105372 0.5294549250033472 0.5108911247525096 0.001574502603634275
0.10465876843615855 0.5270646696270996 0.49744966743349905 0.004079595017655399
0.12302155295060009 0.5234688983903306 0.4932036973717014 0.0067752659782394555
0.09033669777281456 0.5288345140420043 0.5052771352189568 0.002360847070975236
0.09998506412417045 0.5251269793536706 0.48379740725932585 0.004983825043562646
0.09159779351404343 0.5322799856247536 0.530203141675639 0.002051698010497099
0.07868563483966691 0.5217197310555327 0.47481354622697325 0.0018296332207438982
0.05786476312296637 0.5296659499558026 0.49273431322430844 0.025195014296668164
-0.000604961765975273 0.5179378107216521 0.4314662190811234 0.015177066415078225
0.047840125734339 0.5172232265807913 0.41782124455650543 0.006375031008716855
0.07717622074393321 0.518604074737039 0.45193492201674423 0.002679234563107808
0.10045891863482552 0.5160181661529777 0.4242442920318588 0.00395373595489922
0.10884839070955327 0.5176538468415363 0.41847130681722156 0.004811448716437411
0.12163992988609895 0.5227966858547028 0.45262901220039764 0.00473547542100708
0.08896954941159713 0.5132403623619284 0.4209203634871536 0.004020851438303643
0.11437514441028279 0.5219290702622306 0.44973344368276097 0.004934445867374274
0.07198953975984332 0.5094183771297517 0.4131501322115444 0.010475601284067047
0.14443376681630066 0.518999730942533 0.42265560769528077 0.004338108261740513
0.1518002758871299 0.5193080096798426 0.405601843728478 0.006999844348703261
0.2055520746294659 0.5184028586304158 0.4134494340643461 0.0015167356325778245
0.2045564907460804 0.5159063452876949 0.4193255387443625 0.0035450032976917473
0.2200291701660259 0.5157389498356402 0.4282986756625376 0.005638229268397412
0.2699834576188929 0.5161737608537635 0.43094236359920396 0.01603490055921021
0.2538725382272752 0.5176347893234945 0.43144523115966305 0.00976082606849347
0.251132953844223 0.5180357609968372 0.4510060756184036 0.005191252611869136
0.3152581057391263 0.5131008329959446 0.41396399210403434 0.006324201378480609
0.3573395520343857 0.5140318852277043 0.4059697104559834 0.0017191387638131265
0.34517653285286537 0.5133773137192957 0.4514571787928795 0.008152214087108752
0.3463337981943526 0.5125220498818089 0.4091360280423062 0.0014733451065543901
0.3290121515272216 0.5142324798165104 0.4230905049613801 0.006657360547224751
0.3696637626375406 0.5185475321520507 0.4372966292798623 0.006328107112822927
0.3829877569859932 0.515142762570811 0.4336488402664753 0.008290252634070289
0.46208283962643143 0.5217944652334657 0.757304466197206 0.04022117859726442
0.40884919306211165 0.5177853353694829 0.759286571828065 0.07903073186431937
0.3573653553610859 0.5197708706188141 0.7628114602493786 0.07481123157677905
0.31629529756643815 0.52857400443173 0.7581984510591339 0.08090090259106489
0.2589699510243791 0.534707507330257 0.7582509747953058 0.09294983108385911
0.3780289846281908 0.5293094834665719 0.4849721048611874 0.010251176217361178
0.37716846900662826 0.5298623811735212 0.5096117614497688 0.007877678377188158
0.40216288076761053 0.5231946906764977 0.4870815304585347 0.0031007223414731143
0.37086467152266867 0.5297785892663138 0.5190836873007545 0.0068215632897589105
0.38398573473562303 0.533374783441843 0.5323978074554035 0.00786495595688395
0.4000148623498577 0.5295132740515506 0.5085917015278221 0.021377442330986075
0.39506007475264765 0.5333849529591127 0.5164037166609539 0.019271699237306816
0.3768887928001128 0.5395604770660547 0.54652635944763 0.0034088614414440064
0.3947092135684906 0.5352869043918763 0.5641126844122626 2.066635248807789e-13
0.3650439995957693 0.5363690216912043 0.543370744796429 0.004270407392446647
0.2828438668091127 0.5183833026161063 0.45579597468643973 0.007082167905594204
0.2858577605757267 0.5209920754368127 0.4406478817149107 0.0017107114770432749
0.2587443067755587 0.5183628412485464 0.4530680587442783 0.0038041074427750507
0.3242778794220689 0.5187790388300182 0.4668338335416769 0.019409721006346893
0.3153341680413992 0.5199438102635857 0.4444696959722399 0.0021035043768069415
0.28180854924984605 0.516345413751314 0.42494964274547514 0.017879631864857158
0.30761551757456657 0.5173084854035384 0.46014038365826077 0.012050176945987628
0.2716523530721413 0.5157749926263329 0.4423886340901861 0.0039785964293263245
0.29958649022990924 0.5156669649878772 0.43404458785777345 0.005122656359511062
0.31156862931818374 0.5177085927415641 0.45597494897286633 0.01308728933700418
0.2909730688390315 0.51514092195385 0.4184273063905692 0.013775424202599728
0.1929670263606531 0.5193661386650823 0.44516309808473026 0.003951510604334966
0.21833578486105734 0.5274660418372484 0.46133233177121225 0.001156104489476095
0.16744116631425313 0.5177598650291759 0.4352482264159187 0.00409569637152992
0.17060727308609316 0.524388667244833 0.464301012277208 0.011437591718499226
0.14409175440164082 0.5192701397320206 0.4464431995571189 0.01065763621315266
0.3560735018698887 0.550888161977479 0.6588058243646043 0.0016833197322188471
0.3285443176970981 0.5293827350582258 0.7597589130883868 0.08766917750314943
0.3333331404861384 0.5257532827439445 0.7610404010332037 0.08073389493244347
0.4112298113374556 0.5506278793257762 0.6662863410210436 0.025167438174639768
0.39179393745174385 0.5328906861897085 0.7642375174184408 0.01978541209627924
0.41540451613803997 0.5323485927217873 0.7599667962994556 0.06086034077907489
0.010512245635501481 0.5590264245866263 0.758727645919063 0.12664513504360192
0.002621469039867985 0.5456233728298557 0.7338045552959441 0.08740746745817501
0.013940803476416732 0.5613445778214479 0.7052494417762192 0.11143959806510041
0.04265234833342721 0.5518866186773375 0.6715578692693028 0.0056190418295926125
0.10598826974955625 0.5231896338936265 0.4612210767387081 0.004605883839872494
0.07719580298005649 0.5209263837162859 0.45749875863973694 0.0032068784182137547
0.07541564408730057 0.5141827194167516 0.4272418158462591 0.007716237223039941
0.06463110833948255 0.5225498134701351 0.4560573157378421 0.000763695871754213
0.4084247436921284 0.5254219281478689 0.42144349465206116 2.235111907304933e-13
0.36604122633396824 0.518968395382139 0.46488256459823923 0.014706796913415554
0.39485486114882035 0.5159040306292358 0.435473325119222 0.007005336346926544
0.38547870618264196 0.5245406202253079 0.4628262214472372 0.006955102752230341
0.4412233874807475 0.5560713465024039 0.6879590042228579 0.01522847658491457
0.45898489272684584 0.552627463574511 0.6794546434089395 0.02094824253245591
0.43635687578332333 0.5575898247302408 0.704988496930647 0.00872188912085778
0.4556130317749669 0.5571439295671978 0.731543420648656 0.09546095291657189
0.020430978270555025 0.5589211246975498 0.710269574567626 0.09260676775787322
0.4708983497102029 0.5584513698521356 0.7366579317373939 0.09818854930545726
0.4690746201086382 0.5532788393820657 0.6692690458262582 0.011393008644197435
0.4684048549699298 0.5596047431749646 0.7601675966355012 0.02218771855755925
0.47421383922705546 0.5485944352901113 0.6903502957213561 0.0010752571765883033
0.4742068612374292 0.5021760641741172 0.6989879463068167 0.00963388749072665
0.47300231797190645 0.4990574307728449 0.6127091205047457 0.01074798941872991
0.4668320248660833 0.4934129254250902 0.61951058253278 0.06367675861821118
0.4766002229979749 0.5016927255824479 0.6754534898482353 0.01975466082402009
0.46827231495908683 0.46679987868844686 0.4987717941418046 0.012123408840143492
0.4641414618432046 0.4833195622568751 0.5317516055739313 0.026676193286689694
0.46356888959078785 0.4993010459800203 0.7145602013848295 0.00458589679297765
0.4693995110085031 0.5085635950342675 0.7457601376849909 0.027793364263315915
0.0038196316010778233 0.55939990655955 0.7378144241083487 0.09014615445792196
-0.00413685103180522 0.560439984541085 0.0030256725370123192 0.036454479010091564
-0.008956844748737541 0.5460936022171915 0.017671039381871843 0.09212492905762838
0.006741215231201523 0.5044211368279987 0.023169651520445027 0.03140803385405475
-0.0002947196355120119 0.4845860665621551 0.02471482663166739 0.04490888185660079
-0.0034181881781781484 0.4783545544723093 0.005458483155783167 0.05127221179366212
-0.001415270098130499 0.4987728745602528 0.006690775428290271 0.030426082802131334
0.0059982757081027864 0.4848874591641212 0.025960802220561328 0.04953155792861717
-0.005110122407914291 0.42373221047603565 0.01884801482986023 0.06219295436538841
-0.0071633939289179605 0.3242445140312401 0.010878684165594822 0.004425340676527467
-0.00035285159173409277 0.22976384215945872 0.010572259280473976 0.05005800145146298
-0.005839809190818718 0.25455239766131893 -0.00799989893158793 0.005563348969751719
-0.007784111068164504 0.42275227692048645 0.0040650933041825885 0.06314920350939005
-0.0020668482331313164 0.30613676178532195 0.006569573947104414 0.07278773607364392
-0.005723051012476839 0.20240665209245523 -0.0053559852444382584 0.0014923946209065028
-0.004662765546355709 0.4509709997349045 0.015302394561231409 0.037974470950573776
0.000350692163075725 0.3853090316461407 0.006242005231190699 0.06335495491863402
-0.0040530186259548325 0.2869208962200915 0.0010379730072185324 0.01638234664699245
-0.0003436685296109543 0.3694143951867767 0.021809317657636156 0.15672791680464399
-0.007010052657166467 0.257313156514556 0.007795000341044033 0.011217924302310276
-0.006623943570863237 0.17800804740901824 0.01787011277710732 0.009667493370101109
-0.003749298743134157 0.19125357881661798 0.021562161993598984 0.027779308736002487
-0.003596463455537641 0.2724611065763443 0.03129408593531606 0.026937417153812187
0.0088161583973015 0.17587261983346503 0.03417673667453619 0.027026149136146496
0.003266299147090174 0.31171398209457774 0.02261248290655926 0.05654138844515843
-0.0014589467177938944 0.32622800784325373 0.02042106774861302 0.0702796201319634
-0.004815697081138891 0.20851456896536455 0.021192102977425763 0.03354229746512274
-0.0032279293371309348 0.23498833893818244 0.02054744529648316 0.048215261585173357
-0.004657110850114299 0.15838264511379258 0.004335317949381156 0.01736057558852902
-0.011268210832716029 0.3885091215456444 0.03498025497206777 0.045764461889790664
-0.006040665980458856 0.1477746114272458 0.015154551819001879 0.016551020259055815
-0.010391234399466773 0.28252284420319695 0.0166439094262538 0.015109811317801373
0.0022366292128989623 0.15682142468214835 0.029453872977382965 0.056806786276362015
0.0018280395661264526 0.1399117785903307 0.02312160212909689 0.016818172311065853
-0.0007476116575720381 0.0773094087344855 0.01401561797475054 0.018853237332808255
-0.0032923784663942248 0.09205289242469727 0.00472163678783082 0.01760415669413437
-0.007205712013244547 0.09916062155331287 0.020622614348995077 0.007863180836490994
-0.0016783545833294832 0.060433274107738175 0.00795692167905513 0.021444563525524662
0.0027465920741430085 0.06078011740396549 0.01979483115725483 0.02935416491595552
-0.0022731916718995637 0.04049575643398781 0.03240102931107115 0.01649885017905006
-0.001654323462686761 0.022504126981059393 0.011431933005284566 0.07560394357107604
0.024855286658338915 0.5594292580276927 0.005081923086166095 0.10122638881922648
-0.0036164478293725048 0.14641106300667253 4.65828314019353e-05 0.008860028958089338
0.0007941309441350055 0.3549486191149846 0.0032266190218654 0.010198763373446391
-0.0012627141171964477 0.24028525278088622 -0.010909137018742236 0.006713034119750464
0.013495102281348766 0.024451791473267606 -0.0016173639972037472 0.035119126350617945
0.015756156703513276 0.022304295516540302 -0.002006836164890574 0.030856539570861066
0.001042901636607519 0.5648545053411578 0.010523168975266424 0.0721399135555062
0.010642348310534512 0.008375312915947751 0.009951776051227379 0.02966581068400932
-0.001565502393797163 0.12198018609474917 -0.010567181232137356 0.010285131559641116
0.008995457241070164 0.044830197242061706 -0.0030952686897608253 0.07664447425187505
0.0009089128374163702 0.07141487188414321 0.0006697081993756308 0.013487112557095685
-0.005287398520442046 0.5221120263844469 0.004092748223114717 0.01907954751386877
0.03574028979264685 0.022722587233638944 0.008495746893697585 0.09291610733465966
0.023493953580143674 0.4617310057246171 0.037935072364287385 0.06903837102103393
0.023572258302367317 0.4832784571842741 0.033779194736886814 0.025201772290622208
0.017711112246915933 0.5109660825248968 0.0364868211800697 0.06214723933873338
0.011192855460589034 0.42143758874284704 0.03657600047178733 0.10683780441949778
-0.00032295638969845005 0.35982958787446107 0.03486415189615746 0.10509104538481308
0.005446166151700963 0.309872674055174 0.03451006258762983 0.03898897501155049
0.009562360286601054 0.28427955284863754 0.04195430300175358 0.03590862329183616
0.009064632074370776 0.3550191978303523 0.04195408314522278 0.10392733101154278
-0.00956207690814169 0.24866199642978737 0.03251896939046539 0.018502535367982496
0.026212100905657183 0.40405674529429153 0.03431815220463548 0.0005157447590826214
-0.008186295451181555 0.4166722173269483 0.037008363297506106 0.07836671447118089
0.0014296212073151577 0.34754821917643247 0.02334684064395419 0.08637471977932927
-0.0011653487961213363 0.21245017394599125 0.03460599229662601 0.032099167846207866
-0.003709026356456864 0.28673683384532017 0.027444497778308388 0.03876618680374653
0.012557033138082463 0.38792088783300216 0.033837480344337575 0.10320205399391039
0.008453663049708874 0.3250426232904704 0.04102204626705176 0.05319915426558691
-0.00659512758206793 0.4567581129903055 0.031917930987680226 0.014833717660634902
0.01234074544617255 0.21237466473136216 0.0337964374568594 0.04998804757459803
0.0362481746219305 0.3881986421300686 0.030600635309874925 9.405609221148375e-17
0.014597214630677528 0.23642483816372573 0.044136097576891936 0.04492626172171961
0.001721110258587448 0.12728768383262734 0.03234923291590503 0.012433198553148832
0.027354795886955646 0.33683376264302295 0.035726168315218944 0.06366058123099178
0.03029339246147769 0.35479353620327875 0.03566376154081459 0.05331225450130447
0.023315119672388602 0.30775490453106213 0.03437543928541502 0.049430688679414504
0.013762586979670182 0.11608346285911399 0.047229836135652084 0.006900982448951956
0.03137916633294573 0.18154891025434863 0.03813242731512248 -2.6149673122018195e-16
0.005859245694633454 0.08973813077707497 0.035953309296550884 0.01391735701230693
0.004252278884869891 0.07490397369067879 0.03274014822862165 0.024931467430577184
0.47913317992733745 0.5328862542272813 0.50991346856682 0.01740188619092895
0.4749887923335713 0.532999324398676 0.38931024704558914 0.10125393325038935
0.4780703242003662 0.5366195597583957 0.46451966460395006 0.08430455310733048
0.4775894244364819 0.535340836494431 0.49860243862302245 0.045907816627439584
0.4743259323879088 0.5587492521464485 0.47323954233452553 0.030440944550943157
0.46178218433659346 0.5554696766266622 0.5060895327961622 0.0470131686966702
0.46760873261091324 0.5525929850442167 0.5136110232218108 0.03391160348977425
0.4793171327381404 0.5709312489457667 0.6043439682009298 0.005276915282565737
0.46777726814017156 0.5510274932258341 0.5266546562751425 0.03740728292944065
0.47054328095176307 0.5510117091814531 0.5408059604771273 0.028928681374485007
0.4763002786603879 0.5657739202488413 0.5805560052048225 0.006875228808396931
0.4773370367925137 0.5210468820109259 0.36488344310630927 0.041658426705907435
0.4746921970889728 0.5368825211727017 0.3076429452456775 0.051047494816790086
0.46813186890930425 0.5523875524143462 0.30664298923980127 0.060127100450124434
0.47267865852794627 0.5523401133051711 0.26081663086346785 0.04195743652487082
0.4745221160695304 0.5402041784408448 0.276846646101317 0.05666925444059561
0.47339268319469413 0.5454085149071566 0.3203474444949566 0.07768170708102674
0.47317632045685076 0.5567595522131371 0.13268741679163795 0.07015280077613724
0.47910217999772164 0.564981444180278 0.18032996625235523 0.036129913290876614
0.4651958541700762 0.5670075678897626 0.1087528852533327 0.050896961262657144
0.4710225601266119 0.5797470539544332 0.05355394348691925 0.010807839091735402
0.4673133468784648 0.5393206379888463 0.38040808070075915 0.08460502930322467
0.44994542733749415 0.5372073655877706 0.38977462809503516 0.045758123584553695
0.45973763798194467 0.5407380537930785 0.39372609393968927 0.07871250115598044
0.4575200586810322 0.545666822605647 0.41872387532744393 0.017329062079834645
0.4548320935625624 0.5471316447204642 0.4491203175837479 0.04148648804301644
0.46134565109248343 0.5576571467062058 0.47404079893740425 0.06872362376227685
0.4575156624205177 0.5632800080987688 0.5412609378157759 0.028034541729102237
0.4477444240546808 0.5622342698699699 0.5309269010919042 0.031020327283463368
0.4622089415539378 0.5628287233155503 0.5698505880712734 0.009253466022021923
0.45942607595118146 0.5535370832171054 0.48435095143644386 0.0628019182235188
0.46842154565308936 0.5333478750557511 0.4114320798900003 0.018634361069281118
0.46693232880689745 0.570357433152577 0.09207440563014538 0.018275316499413205
0.46427032656918577 0.5618068963825927 0.1483879210595768 0.05085792784774457
0.48288318995297014 0.5753095408696098 0.07962798666421912 2.6069318331916816e-14
0.46003026096497884 0.5684033507994541 0.1305848133495337 0.050332496724137574
0.44808986435316106 0.5801168870322666 0.03871668394632993 0.05392014689819101
0.4687604729266086 0.5730233236273689 0.024245346866636205 0.01327840594552916
0.44048214863637697 0.5727349092312083 0.0361054914459779 0.05884184476041792
0.44662793922066346 0.5771960897174552 0.06181402794154441 0.05274191117247478
0.4441982322535415 0.5464913431942107 0.42258314580857576 0.01519507370641788
0.44415329583503493 0.5777382210180505 0.06858799415940109 0.04100940170473273
0.4461403204789588 0.544836641464269 0.34192213004745803 0.02292027284607247
0.4667866644915766 0.5619123289523564 0.20083572075908682 0.02793645416539018
0.46686973400576004 0.5573742894917697 0.32674007196346777 0.037903274909598626
0.4699639834339276 0.5489534573353727 0.2925285555779941 0.05458836084695282
0.4479145829444033 0.54406690984461 0.36639103401201056 0.06291092732804399
0.46833053348283216 0.5510256234542622 0.3635014824574478 0.05244921093418316
0.4634100082699322 0.5617194004390654 0.22924431836490497 0.05031596046198211
0.46864699296756523 0.5554998720222967 0.2218920641085078 0.05711328303020073
0.4495962510240623 0.5470687867528481 0.3284929802194872 0.04750681743147642
0.44300319163229723 0.5539750297781048 0.5095544595184964 0.02036395996935509
0.4488803368875313 0.566830927850601 0.5604142308220472 0.010650553214916127
0.44019741854427274 0.5754449371741476 0.6424898460981318 0.044222423686945
0.47097224460583886 0.5841073076452558 0.6408283931993287 4.868616682130397e-05
0.4525291131043211 0.5519321547265972 0.4987217656927267 0.07174347656254887
0.4594000571343543 0.5680876710097402 0.5941005183189039 0.003826056791127285
0.4620778138233972 0.572978455162728 0.6179141473415531 0.03371895168005985
0.45201909150828556 0.5709628770637771 0.5871525822750919 0.0038190995031061824
0.4338551782647213 0.5518517150618845 0.30883660856428863 0.024941673908708762
0.4437315735898225 0.5646069677187499 0.17465706392523694 0.043684638012978796
0.4457300976545943 0.5678742091959623 0.15406802115351736 0.08066974085993261
0.4558710886101211 0.5575416411896135 0.29563216583631774 0.034202982659004746
0.4488780323955861 0.5527153358624194 0.2576892989409156 0.0897075080766625
0.444096068433907 0.5595987128527533 0.19480449195165395 0.0442311374510368
0.4607111602235297 0.5611346256381711 0.2244782907618092 0.05030553661489749
0.45735886390213204 0.5670282528954131 0.16729087784501212 0.060019043903210466
0.44853871581891985 0.5778730222933955 0.13604801807131725 0.031062692189378033
0.4578463776441955 0.5718003223210165 0.1946917042901744 0.015142534486334229
0.4746126487836514 0.5649547459055482 0.6506287161931733 0.0582320474052456
0.43334375598538083 0.5341682822598002 0.2016204207830125 0.041129047403734575
0.4358232528442133 0.5557153117246845 0.05723221523356775 0.0032445915741069207
0.4342821533801674 0.5530286982304093 0.048165227807419955 0.0033393367032469473
0.433402177732189 0.5348663696447877 0.260430096477713 0.04388273293999641
0.4362480778021147 0.5470867491407208 0.27492681235055 0.10519037062343865
0.4379517973369388 0.5708664404894647 0.5826977573011639 0.0071712683177204035
0.4437481222473604 0.5707878901240323 0.5974335330547791 0.004131646859985147
0.4419875302008504 0.5573463226720103 0.5373850375819694 0.03222867489301388
0.4476855170988476 0.5495232316573594 0.4574928075009356 0.05485047858425346
0.43549736630815333 0.5335447811381833 0.3911756110244213 0.07268862609498584
0.4388278204850875 0.5392658103962992 0.37599794689514177 0.03751560050312596
0.44263570012776887 0.5670685661974427 0.24334617089827604 0.031030278481025374
0.4482537326055769 0.5555055891342143 0.28940334474588364 0.06549938046809915
0.4348462734301266 0.5609323461131025 0.10703651635718572 0.03301119922944681
0.43735448081169215 0.5461325539405703 0.26498559640244096 0.15547024857090724
0.4327780227257889 0.5451517004165479 0.1750438379318599 0.036706428778293415
0.44106728365980424 0.5396701375108244 0.3533799894415718 0.009454002675673583
0.434013717935841 0.5579472013505122 0.18943416641295058 0.03300674558044306
0.4334716991074614 0.5577186220399833 0.13250517412335505 0.09872197904232889
0.4351425968764329 0.5487844050675293 0.20804884474104454 0.03861627363953332
0.4385113240315333 0.5599924813270416 0.08348591156891788 0.06160186002005087
0.43517693137890434 0.5573702480799798 0.1563595686545786 0.050244549506576607
0.4261136997032293 0.5497955575741416 0.5265969523514182 0.004133459783713835
0.43443857465062974 0.551236757763932 0.472738060631146 0.008229770911296013
0.43956964514369273 0.5646665106203097 0.021208984353002606 0.04745978280684418
0.0015091627188285463 0.5076184427695047 0.3961948359846884 0.004639658673361656
0.00040381763503781503 0.531009549233168 0.5438301563794234 0.06787452474830975
0.0018269757828877767 0.527765354625152 0.5111100622551563 0.02154698452388662
0.00032498677735267613 0.5370478952792508 0.39500984026947034 0.09846904941499723
0.006031285018817382 0.5422842165479109 0.4278496674708868 0.08868314535285986
0.0005782284193728265 0.53059620828416 0.4057907019785968 0.1346996644335553
-0.003400829261663834 0.523749977904075 0.4014508582660558 0.10245566096167838
0.005986162679833289 0.5417213835125648 0.4694385459955823 0.05603431573398661
-0.007102979911117935 0.5258502486816438 0.4876902246671918 0.0215741626537313
-0.003865848541699079 0.5494397741910763 0.5998817146795413 0.023798626858046634
-0.00419500539441716 0.537704413517293 0.4378972733958348 0.042139587714918436
0.000921313763263664 0.5594508603427779 0.6307745679432323 0.09719121358519696
-0.004669755016590334 0.549690390885993 0.498063549843268 0.029919065157634133
-0.001912248284886874 0.5553932561324644 0.6094255663824539 0.11065169044188744
-0.0029891342439009785 0.547199131949874 0.5013466417893869 0.042579877411242174
-0.0014228584322344704 0.5467588575697893 0.5231042603892443 0.0430212335845349
-0.0029290597406910887 0.5523984042554991 0.5948809590655608 0.0341050968984644
-0.003416036101668514 0.5434710436204006 0.5691794376477698 0.05460050249310049
-0.00011470795211693604 0.5628430446247038 0.5568203287907172 0.08283077157179661
-0.0034199471860773853 0.5512749852557342 0.536310010054261 0.06842032385777554
-0.0017276912526057728 0.5530984700265633 0.5460241896661654 0.17931988583461905
-0.0010579402356621604 0.5430477535040847 0.3684772816978849 0.09625281732561031
-0.004452219805534255 0.5377251019862084 0.34495485523216146 0.07404750266222594
-0.008156977818554005 0.5580469945158999 0.23765444892902962 0.05651599735171302
-0.015656175111214827 0.5231913177881797 0.3120396486663098 0.10255244030674712
-0.0012132897807065205 0.5390344144598942 0.3565989395322018 0.1103495432992128
-0.015082117169148678 0.538090652441234 0.30177726667278315 0.09679062188360286
-0.007876371267106212 0.5207089869597554 0.36562923693268756 0.02192781313506077
-0.002146869455107149 0.5578244920218728 0.1659065706111727 0.13541751403658253
-0.003827235016721763 0.5411243008166116 0.18930864052042165 0.14099513004883185
-0.0035326403958176114 0.5443525421697467 0.10640656847837489 0.15182094833185358
-0.003541550266815885 0.5396194826070738 0.16244430071149096 0.11635212998844635
0.0008830913836722283 0.5718338815996723 0.10094870863487522 0.1433335602091515
-0.0002955078627687986 0.5138886780267463 0.3521649585588297 0.04456834028349967
-0.007155243192617676 0.5536035686718768 0.10016245817826466 0.0724003679887346
-0.00761229100479362 0.5304093081823628 0.24612644725161195 0.05849579662506733
0.0024884081163885 0.5300297088555674 0.1764324152799808 0.12456581709282812
-0.0020831059403737277 0.5388881276195664 0.2150286108038365 0.2224864470087934
0.0031321096465625475 0.5414746853923913 0.08883575503342704 0.214325367811612
-0.008017888303133212 0.5524604361106964 0.1272086679671584 0.0797888932825078
-0.0019764793042699245 0.5561457284639646 0.06128348280645596 0.11071927910891045
-0.0041538277128871206 0.5586354366288755 0.03023838565817889 0.069216851469524
