x y z curv
95.38408428294474 0.17144594671646834 0.38672218118995727 
95.37363796637699 0.1916943564538586 0.38210511988698675 
95.38862923950767 0.29687094903666855 0.3905512973949661 
95.37623963412344 0.2544131822402062 0.37792150982726586 
95.37143776192728 0.21844565067137403 0.38031440807166517 
95.31221334396206 0.07176402688495397 0.40440578258461823 0.007601857138400627
95.01491976957189 0.08295413800521816 0.4130097564034143 0.011560215777792636
95.0657241115549 0.06988671736268713 0.39633234053158173 0.027743355127610062
95.01550328284563 0.08242668293512471 0.39610875215347546 0.007069126722342619
94.98436552936553 0.08284103475747202 0.40525738746736634 0.013763633845146225
95.38338616251876 0.08541349636420055 0.4186735094256331 0.006307981013613849
95.36416083607375 0.07712506850541981 0.40115913645567053 0.001457681020977423
95.34693573369948 0.07362208836300475 0.40084651186693826 0.012179045656994748
95.37704915239506 0.08108114213929188 0.40317974636575815 0.0013223052006822293
95.07483880864666 0.06893800133598176 0.3946132015296426 0.03363487778091725
95.15708996579467 0.07498246583892017 0.39025861757426344 0.011008162913691688
95.0738881786186 0.06927352817913757 0.3964567754670907 0.033207469223758924
95.05119317327257 0.07475716580673879 0.3928156037552615 0.01619978393071989
95.02895139407379 0.08224789327021456 0.3926758500501616 0.005058046937468018
94.9957841407229 0.08388627268685976 0.39277667668356697 0.012029027657101014
95.3708887410706 0.49741420825894656 0.39722242696283216 
94.99321705757711 0.5056093699438198 0.41845156376927073 
94.98795171716179 0.48724600176882843 0.4040766384889887 
94.97814325143358 0.4791904889471365 0.4049617837596752 
95.38633667190776 0.4900270480417376 0.4061521299544563 
95.39175750270284 0.4788648576596957 0.3970572639056136 
95.41737346629931 0.48346572667311466 0.4424054626770921 
95.44430054803905 0.17060266126793394 0.4395790375581822 0.009759596772050256
95.43309314336499 0.21498752752976055 0.4385766382712881 0.006542923665583544
95.43253163465856 0.3104391208483311 0.4379551302015228 0.002484459576802084
95.43620283930639 0.24292884529089412 0.4406100710370012 0.006476450410039645
94.92523025972817 0.30613837881643585 0.44807947315800634 0.014292992876834984
94.92759914889737 0.17890674361824616 0.4411747460157763 0.013015197736189876
94.93018284038321 0.28073418477304596 0.44347171190695156 0.008088393521573969
95.43761103541787 0.1327562422613257 0.4445078237081899 0.010982191308403172
95.44456867461538 0.1501922299339972 0.45765954628851646 0.006916210544053801
95.44232375592696 0.13553179720959188 0.47506747461427434 0.045956779063191344
95.437693677064 0.12686233436346003 0.4837838290982266 0.06942193770984334
95.4471171881155 0.16312505297454674 0.4646101164003518 0.006153141407936874
95.44421654432085 0.15724916059198507 0.4905945109064266 0.02585689846113119
95.44257501448526 0.1684340263238939 0.45402130462320384 0.007821528885938041
95.44181804492558 0.17082464248015852 0.5037502719307507 0.071690215154589
95.4435680503499 0.17133441081483194 0.47550755562322966 0.023843789628610102
95.442772230523 0.23619795298353272 0.4818276305651285 0.08112134580786727
95.44358583517098 0.2033303689631063 0.4872363660716119 0.08258226116235318
95.44512937033856 0.2533828026364686 0.4640985477010696 0.009050030750896958
95.43580169712358 0.2254715619160855 0.4635021695315349 0.028379075813813773
95.44545707768174 0.20304542282773502 0.4408508565380597 0.002236657307634935
95.43431782766068 0.2188575813616882 0.4531552338047501 0.019073247919565665
95.43695377323662 0.21400137895383775 0.4812547549245919 0.09634566775994746
95.44026055482233 0.27755665166966476 0.4394447981736113 0.00647114992124332
95.44221740669605 0.2557370129831577 0.42979232675093504 0.002663907468370127
95.4420024033318 0.20459173669572514 0.4835057178436746 0.0839192187958419
95.43923888430258 0.28267699401375573 0.44423612925088046 0.002606243214648787
95.44230496051176 0.1866835754817243 0.462772648645978 0.008651920801044667
95.44176782977058 0.24633705980764659 0.48582064927784 0.05885533259512197
95.44662692652962 0.3099933453414651 0.4952985811073352 0.06841210543911723
95.4526560336022 0.20880752105613976 0.5056435646283997 0.06692635268778589
95.43830868497813 0.30451234322812337 0.4495908599774407 0.013646070792562854
95.44341341004474 0.20787832593955854 0.5077750625120295 0.08838940646791935
95.4379280158238 0.2839361224723037 0.46268839035160864 0.011338438338101312
95.44370437500027 0.2577365159961883 0.47348329209524387 0.02493261622311304
95.44808535089992 0.3024041540535299 0.4793756767715528 0.04944217909194922
95.44112509451483 0.28971598455478853 0.4682675129277139 0.031082578810723092
95.44036943104933 0.2898145894592469 0.47140034086323596 0.03354097953646925
95.43426103436663 0.24830442767829378 0.499475240926234 0.060648191181270995
95.44341664646697 0.2657302439464252 0.4733182542912336 0.03337894684197731
95.4429992782296 0.2160120641658171 0.5038627350731445 0.09585012521197592
95.43780150573046 0.29680901293874323 0.4958402448780172 0.0773713195316523
95.43771521054369 0.3063000206045187 0.4575337951852258 0.01660128779933004
95.44171979620553 0.22674935805383678 0.48997876402064217 0.12221401344036867
95.44840238348434 0.27941002069708476 0.4986407488708959 0.030678701754246453
94.92575238828651 0.2720705547457266 0.46386904433120646 0.010597592064490633
94.92907128722476 0.25708207092426316 0.47272935585515324 0.019042419610810855
94.92997055518417 0.2929222377578607 0.47754814688086095 0.022597420240374637
94.92741913891214 0.25560853260613875 0.4895553977290903 0.03747616992865121
94.92188424203911 0.3204866583478278 0.48557285446861936 0.031408438589562354
94.92608836406711 0.23039001766344605 0.4979422925510629 0.04339188718904921
94.93429369970366 0.21035335669859057 0.5007409971820731 0.050958435880917204
94.9293217628189 0.27697822640277336 0.4781891027331759 0.019208589877431105
94.92544342009394 0.3145630364679186 0.4402136408451231 0.010318356838808844
94.92624941944221 0.30704745832938857 0.4591393159447522 0.010414658782988195
94.92685467368443 0.3081030252809641 0.4997846750397142 0.038434214906510666
94.92422052885263 0.28846522009223513 0.49787264914723295 0.021556505041544643
94.93367214800004 0.2459915062273669 0.4808004874874964 0.02959744857026366
94.92039209138977 0.29381033378821286 0.4606066893746804 0.008456632796572506
94.93187892628396 0.26491046750406505 0.4835796313775814 0.03292714141997495
94.92327618201949 0.24395453879824652 0.5044318598038321 0.028157094500605596
94.92929708533052 0.28190614432287325 0.49189023138035304 0.01711088360237542
94.92579820481743 0.14752279039465585 0.48190636449091756 0.03154094518015157
94.92492269680271 0.16481163060598025 0.4891020570036401 0.015019383419682205
94.92511679108453 0.15587185861160363 0.47151348616416267 0.009466423266772103
94.9262527950645 0.16252725877864815 0.44524886926802165 0.014616835519317065
94.92412325398443 0.1745852431832205 0.47533790447672575 0.024851181042309236
94.93576804797068 0.18549378925020457 0.4989651594491037 0.06596994213566226
94.92849015202903 0.17519844239912782 0.49915244400785314 0.024380610613579747
94.92517116848906 0.26007248778766834 0.4625691459510143 0.013035313151989353
94.92081373736357 0.20742297798387085 0.4705658453230475 0.019514792171692226
94.92265477805562 0.2644286577922787 0.44991001096097594 0.015089021586444061
94.92422953735822 0.22240968704406872 0.47547174440869533 0.01580995287491576
94.9283962755772 0.24372592549014607 0.4418780502201228 0.013488879825910162
94.92706673258466 0.19229196076789487 0.48809139816008834 0.026578600565584132
94.9320611413627 0.19288465974978883 0.4428255010781117 0.00836846005149273
94.93017263311437 0.2310817261729614 0.48595016547828723 0.03163021935634057
94.92664423804251 0.17954365631163433 0.4800486584872867 0.027001699292489773
94.92754361621007 0.189266485554113 0.48443148404804504 0.027019449484381387
94.92890112000102 0.2452227476630676 0.4583819994513371 0.01089350034156168
94.9223799202799 0.2018418331625692 0.491224848207566 0.02241950899283415
94.92704001519783 0.21792842877890078 0.43748201846591084 0.005376386799962698
94.92125687146036 0.18211410583024734 0.4576497379794898 0.008568578795992363
94.92775225951506 0.23383884736316982 0.4595153558824753 0.014283964570192818
94.92833722143106 0.14624895174078034 0.47281544565050715 0.030210267574588605
94.93159871384671 0.14918698164247515 0.4496712458461359 0.007441318234860541
94.92527580929757 0.13509926679863882 0.4605144475154735 0.03985722119858008
94.93059498957705 0.14322067871728145 0.4527464644883591 0.00689414641991963
94.92437198569058 0.14039766077138777 0.4325159974599671 0.011084149338564999
95.34710636835575 0.20218235789599262 0.5019783352157549 0.0030090452436825374
95.27647759005926 0.23251970275401213 0.5095324505043659 -2.299167839795117e-10
95.27133799462494 0.2646780716109552 0.50649063786965 0.0005929757920032022
95.42090699665825 0.266929044007892 0.5093179084940587 0.017835832812189298
95.37150599003844 0.24135710228480145 0.5080628239880703 0.005448343005233458
95.38650601220166 0.25196032006473357 0.5104597258438518 0.003941176487471765
95.4291723732003 0.3081657349935224 0.511435109736609 0.08796783687478824
95.1060052847333 0.22497841095616672 0.5075077688445668 9.91142263908461e-05
95.24788309296278 0.19465456591779928 0.5062314227366398 0.0047450332954853845
95.41710733247503 0.22180090159253713 0.5067572296579709 0.10613729017835698
95.29550281049274 0.22939422975473772 0.5028989551996279 0.0006403798653321186
95.27066370793457 0.2110535088485506 0.5089580284220354 0.004589044679276324
95.35777944325073 0.22515338527491247 0.5037882644406647 0.0010705277558300216
95.40994325048608 0.23178406025013182 0.5064023278252167 0.02153310408445844
94.96269436782518 0.1974514777230609 0.5089678156072609 0.016936648170915707
95.3466303150455 0.23891284087058962 0.5079140060982178 0.001431100794196356
95.31664732873153 0.28021004003438743 0.5068753775275976 0.002406997522834627
95.32489533295949 0.2147821290274528 0.5032405137336823 0.00414397887666441
95.39320532709989 0.23018411274950543 0.5110054932646 0.009121836307511089
95.34954164721928 0.2983856207744169 0.5115726166682146 0.0016914129591944435
95.31701741160975 0.28913871077080894 0.5066177754987031 0.0008756064530711454
95.02060030830934 0.20742743244500483 0.5111172469031221 2.7558010934994068e-11
95.19307616341582 0.2075396295918962 0.5036683357857524 0.0002531938712320275
95.42926228138852 0.2817667717694698 0.5030034677926388 0.04570179474076887
95.2374142669937 0.21367316208106338 0.5093297709163488 0.0026503084452007344
95.33125506864134 0.26653384982727363 0.5037457967641886 0.0015424051404748585
95.31357785000102 0.19171539540931207 0.505295587430843 0.002649498248176174
95.21102132051485 0.2409714671318671 0.5090142475112583 0.002400313023588647
95.30496786856631 0.2686520550863472 0.5053313991480095 0.0007604868669714435
94.98736937615055 0.18756028293550422 0.5158069883843767 0.011031351556701029
95.42904876758566 0.25247056480064034 0.5027807347083064 0.06337280654786631
95.03177113329696 0.18401404097431293 0.5081317776385603 0.005880852322414223
95.34818584864958 0.28395419845426273 0.5085272201651956 0.002056117599695462
95.24123568971491 0.26149254020395474 0.5131404832698373 -1.629145735408362e-12
95.16977647192058 0.24066925496014105 0.5075223612517129 -1.0541448622734244e-10
95.12051218485594 0.22166656264479392 0.5066205211603322 0.0007771418574734912
95.1504174817131 0.20042386948291593 0.5077686152616214 0.004603855879005579
95.11302611029492 0.2161655719345682 0.5067754727399844 4.718849398449507e-05
95.080274790708 0.22671151573499898 0.5099479730539056 7.145575011405106e-05
95.31563786527485 0.2504389997991585 0.5026175437245624 0.0015242475150973552
95.28932702579205 0.2802463829451237 0.509155313441344 0.0003339828483754625
95.05340503435659 0.20176603348468314 0.5128016239556495 0.004107696871967457
95.35275913718124 0.26151467110636994 0.5076415670752955 0.001956523913361411
95.21722979041755 0.22010858590339824 0.5054642254399961 0.001174624721516373
95.42889083516519 0.23489484975235836 0.5001827667192141 0.12725972227251903
95.102211575308 0.3121672777829731 0.5085930362981218 0.0014204009086564778
95.00466799296402 0.2635999964705989 0.5098519937155717 
95.19117259638011 0.2733691511003387 0.5104432162220033 0.0011813741390880406
94.9370003392257 0.258819839196113 0.5086250560124066 0.06520303633890707
94.94780176219959 0.24581564323035018 0.5069843247816143 0.03841147047094825
95.05888157315378 0.255159154984537 0.5086066886358643 0.0054883661859023375
95.15918739758237 0.289961377675364 0.5087739730372846 0.0008267890561782479
95.2042899306477 0.31805570131220207 0.5088850030362009 0.0007009589494796066
95.02477798350573 0.2478856419384814 0.5098548588420344 -3.9319261329999876e-14
95.15453811512515 0.26093836661534237 0.5058544320072179 0.0001760756533999502
94.93914098851027 0.272610476513412 0.5053529024691441 0.05565987266007725
95.07414825876194 0.29279455372651414 0.5067592415809771 0.0016671974313293661
94.938470975016 0.2928206059923091 0.5001801915128025 0.013888812937806295
95.12564289504377 0.30669834851793065 0.510770189620622 0.0004100888936629887
94.9332889353422 0.2146934638262983 0.5021619374832598 0.05541901956606573
94.94821271872846 0.20039444265576065 0.5070931360310946 0.056951477940664644
95.18994797521104 0.31172774454238306 0.5114884741611623 0.0029086349240021125
95.1317290352566 0.29364770451181943 0.5082526413058722 0.0014349896952602513
95.21329884000771 0.2807008647333514 0.5077231558661615 0.0015235657010090641
95.13326380578012 0.24578009628459685 0.5046332893131279 0.00027155276205747517
95.06773317579962 0.2881239660838754 0.5066095394703564 0.004809531220052183
95.08764572473842 0.2868836124296246 0.5084731798220847 0.0017333882094252753
95.26993788135545 0.3065307583235723 0.5067191659129243 4.426381877784195e-12
95.03647168700044 0.279838977513487 0.5146245431481636 4.99711454229745e-06
95.10027768753974 0.27079682338497263 0.5097054123506466 0.0001988504729197443
95.16714456140087 0.3883540224624824 0.5060791947345485 0.0001413865499900918
95.24443141319367 0.37367353316663093 0.5055080222237686 0.0006736861935559293
95.22394335100553 0.37971104641747283 0.504805215627089 0.0009511150522796492
95.04197440288293 0.3540030873586206 0.5058312836026786 
95.14021970038978 0.36218740328512705 0.5080086814355382 0.0009887295755701226
95.15516914807677 0.3464178146562512 0.5064685064525304 3.3254694096957714e-11
95.12436486719761 0.3672480223450304 0.5083172305045337 0.0009368834231725327
95.06126117830506 0.3706684171113474 0.5083486879165213 
95.28135781034473 0.37923299117511405 0.506596589800046 1.2710842113981328e-06
95.18195532347202 0.3828678761664758 0.5063471785889105 
95.10635897062843 0.3745410353140976 0.5059164693382581 3.116298130822312e-05
95.31048068871779 0.3611149666412397 0.5129665727749673 -1.5230075136696848e-10
95.14100230065944 0.3809862987662521 0.5067074692207193 0.0013501099910086395
95.09132534175147 0.3146619244029211 0.5103544449851315 0.00021976573983655115
95.3080635104566 0.37417713584884665 0.5116287569289992 
95.19794838223262 0.33542886546181727 0.5100612707303218 0.0013434607950373813
95.29218105399526 0.33453120869866143 0.5085966526768978 -1.3170225002943442e-12
95.25688198933787 0.3202424651777641 0.5114036329626794 
95.09587748195484 0.3293164596381326 0.5091786507277711 2.0908415696109826e-11
95.19241178567461 0.31690755242925633 0.5129107877264131 1.7123229835558502e-05
95.21947044282616 0.3401500136556356 0.5058098447127736 0.0003983563920720216
95.3474670000786 0.3284244522498348 0.519128741549369 
95.0989661053649 0.16163288316854363 0.5083733921593577 0.0035353441467090487
94.98073763660243 0.16291527123508254 0.49914622515901275 0.015003461373354282
95.08182361962822 0.1758522358114173 0.5088629915838835 0.006205928711404609
95.20070313295979 0.16999055962004272 0.4984806344787246 0.017158218824937645
95.26502673085795 0.15539821872167353 0.4969139042043999 0.005939873252627898
95.05371476480417 0.16765870410135716 0.502159166564858 0.0035428747272654945
95.0119208391357 0.14535772409038716 0.4951525785506978 0.0146780618532814
95.01078130809094 0.15680667139543258 0.5075134730541898 0.0034642345458915794
95.23715979381579 0.1530477256126786 0.5026157021348366 0.003848144920053661
95.124384326802 0.17145923752257608 0.50739001380424 0.006582101276017372
95.12442529347294 0.14492172648675042 0.5006592845822236 0.010466001044001248
95.28159801267967 0.18275489675057247 0.5054484789402243 0.0003161417229426786
95.25851372419358 0.18808599003445226 0.5032650219933881 0.0021544010848954685
94.9406779884638 0.1809677661604962 0.5046288742285342 0.07372038049029746
94.98120492936698 0.17604513840240724 0.5092050360220552 0.004111656369439549
95.36510663355757 0.1910208697222528 0.5046346507613808 0.02046617219840919
95.19696335070458 0.18045495934450417 0.5018969448411899 0.023122466795422902
94.93518479727838 0.17099549972010936 0.5117308897480419 0.03406787096507674
95.11311591819265 0.18250718131679336 0.5072689521682971 0.003047905022307668
95.12400260078493 0.14075324063768924 0.4979333629109916 0.007866609214100168
95.15398070343802 0.14462652244637822 0.4975679293115118 0.003482843581461334
95.10942206729081 0.14154217683144263 0.49576025243323885 0.007921394695290972
94.95171357449205 0.13609218611499863 0.5031627452996502 0.05792629501371947
95.37002783626195 0.14387387425751313 0.4911750573832873 0.010868831273421099
94.98512350849761 0.14154914542209482 0.494209615315703 0.01866862250848104
95.20230445047851 0.1490512363395673 0.49640343651460866 0.016876284007375893
95.04136431317237 0.13802994687801723 0.49183433323375797 0.009394919053468741
95.05992645099595 0.13843503388226558 0.4949037330806592 0.01415373423649642
95.0525913148902 0.14132340964023674 0.4996695563508928 0.012046765281020111
94.93158975627979 0.13107355581580407 0.4911540835892619 0.05476919205616899
95.02802946320695 0.12290216690201133 0.49058835297642656 0.01068209419189025
95.07019248189913 0.13296665362564772 0.4926495205833151 0.011777423809217685
95.41953148217779 0.14643169793959304 0.5072612687712267 0.013289199866451907
95.37544018253435 0.1573291231870838 0.4921789740968012 0.01054795687628965
95.28508763991543 0.14030160668197542 0.4945101690841009 0.005223230366846916
95.1784927926278 0.14269908088827732 0.5014868824905582 0.006604137860342366
95.40067089204402 0.1542002905382156 0.492089854818745 0.010933939860724818
95.26228137132526 0.16127328031840654 0.49849356782359305 0.004381036135457211
95.35016213365643 0.15673980501701804 0.4958370789849137 0.006943031566718952
95.14675798986126 0.14938290420478798 0.5013126999722279 0.003057622193909381
95.23063565702026 0.13272003816629016 0.49699124625935914 0.007918206082185165
95.08860874694665 0.13656849285602266 0.49930044185765043 0.003491548340784485
95.33313578910614 0.134018227554415 0.5013343029635318 0.012571551639051142
95.27156206159525 0.1331734451178014 0.49034800772580506 0.00535611827649453
95.43491790526163 0.13829748665351035 0.49638427223535514 0.07619936060538911
95.31451805891567 0.14145530036770584 0.4953112284286288 0.009189428720770818
95.25210329041751 0.14831333270444738 0.49513948699163607 0.004279877693723832
95.28497042517083 0.16903054734849882 0.5001528198831452 0.0020780931491140744
95.30201849615908 0.17586069471510088 0.5006496069585101 0.0011707924535472923
95.17073311991574 0.1705236388680217 0.5132317849437811 0.006096506707280061
95.22836510218518 0.16447698112039766 0.5035115957500412 0.004978748935718625
95.33785726530274 0.17281695557637777 0.5036419880952988 0.006784462595593659
95.32177249796496 0.16458333043828863 0.5019762855930688 0.0074952865674762755
95.16528878389109 0.16546907398574165 0.5065979844153837 0.01857041403307721
95.42673183690029 0.1790216946931137 0.5061418026252553 0.09281490047093335
95.40155509640581 0.18070334797898693 0.5109907794244737 0.020605823390913748
94.99459053522105 0.16339925616065942 0.5021686091137256 0.009281812130037405
95.3635502434713 0.16351088111972606 0.4953340782766278 0.0026794773149899213
95.40358614687506 0.17082812618286433 0.5050170595635884 0.026994091832944756
95.23163848405639 0.18461949708810058 0.5065973248090663 0.004498986883421064
95.3478746721628 0.17862282351326356 0.501540244062233 0.006246502160365684
95.3678192720514 0.17853203057600184 0.4997180209438533 0.014309542629894858
95.42817952586788 0.18981254927697 0.505334225545158 0.10522546132731911
95.12615624663177 0.13768417541003933 0.49683030772901776 0.0057292294680209785
95.16782402596331 0.13604742451387733 0.4973735857714964 0.003905945338799544
95.41280638579317 0.12794096792500084 0.48795429907468835 0.07636372172404049
95.42480972708762 0.11878146571060826 0.48087068557234214 0.05711936877768535
95.33891981809425 0.12882341525047764 0.49608702857403997 0.023283039335612883
95.34943827393093 0.13293444058623313 0.49159497314163203 0.023767650942637983
95.38898469992813 0.11775339366548944 0.4858972467720781 0.020152492229519994
95.2354572504078 0.11989392440218574 0.4910305757757381 0.019057387525048763
95.37040840955257 0.12521827851819214 0.49040280450058943 0.022221255868430448
95.14329529073663 0.11803011315718957 0.48967190282461476 0.002574837636886181
95.04806211292426 0.11756339697338074 0.48120381339324697 0.009656852788437066
95.28174343108827 0.13036166690906464 0.4949230426670863 0.0018791190809740056
95.2043473866851 0.12437840709135826 0.48611178850205256 0.00886173979282577
94.93160093566391 0.12519570214974252 0.48584047975343136 0.08766873480144462
95.06699416465923 0.12801642341033032 0.48810816309311256 0.008470142475570203
94.9402296140119 0.11601130315987634 0.4861256781201258 0.08638882521658527
95.2929752411107 0.1160666394748576 0.4879433117417911 0.009985557366231487
94.9397050191154 0.11109692607449415 0.482473173843452 0.05770831128056115
94.95984704019779 0.11342515261951083 0.48340600173075166 0.02389578416001247
95.06357399699958 0.1156519985231679 0.481961281463433 0.007259629742201663
95.15475325447274 0.11434211493306642 0.4848946267279112 0.004351490464297108
95.22736946292919 0.11619405536484285 0.486099204188637 0.030301467773607475
95.00069606184151 0.11583231519408686 0.4917509850001163 0.0060694281243634535
95.31758928072796 0.11572826558595496 0.48619937479787667 0.011682725142215697
95.07971566780249 0.11077814476382482 0.4871485798384623 0.0027106620697266606
95.17615980799559 0.11326081240331773 0.48287872058226144 0.0066465588640202645
95.16401726923496 0.11180552272600586 0.4839791857303496 0.004497662122826525
95.42171346464947 0.11678393079995182 0.47893520117098415 0.04683051375654706
95.12279054198794 0.11406242950712776 0.4801850417410821 0.009838590261493092
95.14671536087461 0.10995698841836604 0.47971295835335176 0.007498162504780288
95.11772929915342 0.10611693053328883 0.47739314753801315 0.01026454958472394
95.35666985230573 0.11364175103153472 0.4817284917854027 0.01475887933232226
95.28091410304168 0.10817680077881547 0.4805378286407336 0.016411140235612454
95.40211765998104 0.11540069976991185 0.4885222126570877 0.014538318661757517
95.03414358679886 0.11514338044333255 0.48204656270763535 0.011275626080612023
95.19734363291192 0.11620957487452802 0.4842540096833634 0.014618433690865192
95.13716051361743 0.1052297666349621 0.48115444232704735 0.007562534968808441
95.18226444304763 0.10065914284521602 0.4765132746634342 0.011802739843076726
94.96900623091067 0.1053474800645062 0.47308112560524745 0.013116354190022914
94.97949650729096 0.10317381804231744 0.47863224641958113 0.0201105097888958
94.99232185510738 0.1029241845818505 0.47762385417964615 0.013947361249946808
95.03271058254248 0.0950022688468542 0.46914674772690573 0.024127146747638235
95.2503202192936 0.10647248790040607 0.4863037758025201 0.010168241361926133
95.23368297867101 0.10166010233043088 0.4751937853660513 0.02153982869708588
95.39425992872552 0.09730817463716368 0.4647708684254964 0.029361430923667782
95.02050585693077 0.1054827261416945 0.48382837834039116 0.0144411122674656
95.0980897020953 0.10539049849672669 0.48136553008425653 0.010378741232341187
95.41192869812667 0.10636545659795944 0.4735408174926999 0.046688490616860465
95.20833900670885 0.10574477710400583 0.48383836433572563 0.013757017282105594
95.4314528791112 0.10753684086998734 0.47329219570339914 0.056036610632610506
95.00698533821361 0.09554168152209694 0.4729776972868079 0.017229894638188612
95.11817697528531 0.10321894237862383 0.4743170185130897 0.008252920380547183
95.2993574801032 0.09310260229936387 0.4769960874729115 0.003851224369807625
95.07767483957548 0.09296392286420632 0.4710839421235405 0.021503218106378383
95.37782530362139 0.09904159295262174 0.479363164561444 0.021708890576595103
95.32270889729955 0.10518191057094614 0.4745526690927688 0.012783416689206805
95.15154479576121 0.09575271316169376 0.47122202064176016 0.004003259612691036
95.34959761371795 0.10941628567467584 0.47492549795998396 0.012068693866525818
95.07860492888186 0.08706291300681 0.46407288489891624 0.022664263746408946
95.05263707462622 0.0842555436669633 0.46986466287028555 0.013073606071148932
95.21005994573693 0.09489695637760803 0.4785481181895545 0.009096718213984011
95.3599466027683 0.08985068693891032 0.471107495187531 0.02736001494934106
95.15957103750058 0.09214027440634028 0.4709330074383882 0.0034653771662858874
94.98758060592388 0.09031293829414486 0.4681787823501239 0.011564727333291561
95.18593293685318 0.10002909417084752 0.47176333220547695 0.011007667917956328
94.96572472298018 0.08818495641265725 0.4637390131599235 0.013024399496817553
95.24612666473429 0.08682060876363097 0.4663396843129119 0.009066968236584597
95.38901031130408 0.09959468737776486 0.47706234388921037 0.021944363420306763
95.22160621442062 0.09497950112771647 0.4635866418475094 0.00844543057427348
95.02001852049172 0.08795313369270465 0.4646814848325337 0.025471646866832395
95.29877030412341 0.08915591149777642 0.46449853684937326 0.013888798032289772
95.1296316865703 0.08842280483091645 0.46342034509077284 0.010308089916629647
95.21348079835889 0.0861492069000667 0.45999202173934056 0.009786042871955287
95.33572011062037 0.09786017553081251 0.47002014914858486 0.016481029186733286
95.36428599658935 0.08959039529810794 0.46425544830120424 0.05102467993925647
95.35320602803932 0.08446866203098864 0.46533398022835754 0.04475755402488574
95.28009867166415 0.09175388863659235 0.47105674099953593 0.007135638753531844
95.33542207860869 0.07772690763706222 0.45459533283731274 0.02777401628865392
95.23489562850493 0.08615400411285057 0.4572018517446871 0.010729968973456619
95.25938484138817 0.08337334682295139 0.45745138381941597 0.0042835605807744525
95.27520508474335 0.08423371743975747 0.4617440929398609 0.008246318003216709
95.29654569372728 0.0779101696106684 0.4543993690959146 0.017998241874697833
95.0991878024853 0.08821653545654692 0.4676061828889175 0.00787807877174775
95.1703802838994 0.08138036368792759 0.4542586909612798 0.004154805263886769
95.15712433544125 0.0815508980779455 0.4547196572287446 0.005305932750097759
95.32268502164932 0.09521901290779114 0.4608332657543601 0.022353765474296575
95.05114836368094 0.07870222318675538 0.45675580358350887 0.007184065964611989
95.02104995272474 0.08279928628906419 0.4490985801590665 0.018514636149691715
95.11898655244451 0.08518951618545408 0.45482979540012175 0.009669159929361444
95.07016992942212 0.08258315658112095 0.4589946912373509 0.006074179919716016
95.15867211864503 0.07469643032431013 0.44878845318111577 0.005170585811022126
95.13362690157487 0.07634942998638224 0.4495772627209716 0.012569495251010624
95.00468819000899 0.09015495360950374 0.455743843614691 0.011559717525582694
95.02604481698368 0.08686992102956488 0.4627760672277774 0.02630179970023317
95.08598741365604 0.07826042948944323 0.4527103446587325 0.01512741254046284
95.16530807297026 0.07162764424387937 0.4513945400828472 0.004609971036316228
95.19196510103923 0.07358704187899455 0.44820754189188694 0.02006590837265854
95.05313020471172 0.07778677934237747 0.4437868033836872 0.014494356094604555
95.11917004428578 0.06592886715194919 0.446968242906408 0.009273006224046438
95.10583648949161 0.0774172729503977 0.44555447978103513 0.012190057371276578
95.20569491233165 0.07494499462781766 0.4481132048404826 0.02200594636187806
95.2211086037681 0.07005973126744185 0.4463646172363698 0.023744806087139737
95.28803092949533 0.07393402739550606 0.4516888036399672 0.007231131424504301
95.25927334218503 0.07118636698149865 0.4485706314907607 0.007967672124255951
95.1802134483444 0.0707403690908869 0.44269541425791953 0.016757876626333237
95.22914050032372 0.06264168405448549 0.433552159280245 0.034464575501438555
95.13930975791885 0.07610823701877967 0.44822994511072256 0.01268162595258331
95.11639688580667 0.061981289571478304 0.43532198832656827 0.015485791951642958
95.15145209559145 0.0647538557641603 0.43740134304154354 0.014366966390608124
95.08348749393855 0.06967473510047346 0.4318282665337027 0.024537001430013774
95.16230755130157 0.06597819626222813 0.4352947302687568 0.010945277981642885
95.2732984895074 0.06180612946143298 0.43380957568518735 0.025356242182413002
95.20885788675673 0.05568708798945596 0.4357018731110792 0.02213035918237232
95.2471659467381 0.06521352334936469 0.4290661020836262 0.04476379535187134
95.15718889313573 0.062064722909088356 0.4302795207454562 0.009905069753036441
95.17925535132787 0.05859904078491235 0.41795219175688325 0.04353366709457515
95.19203450108988 0.06332761171519252 0.432352987395412 0.022510910264670374
95.11223833727807 0.06058138125138304 0.42721076474894837 0.03256405217168357
95.13945221122371 0.06006143081134376 0.41626786767708784 0.040789998761364486
95.43580235739857 0.14710029845494896 0.439521097379851 0.0054503434435506665
95.32978317532249 0.07213054799211793 0.40623416295816794 0.011082439409715665
95.24180073712158 0.06379735710003465 0.3943506680538188 0.022061668736499316
95.30042671312056 0.07375923420141177 0.3967946823058354 0.007741568416991599
94.95159052939667 0.1001951453096412 0.4132949646289046 0.009898682958585857
95.11271145798679 0.06781068686734919 0.3954466764423785 0.010127423813174255
95.22736818458357 0.06277884139933658 0.3996104323491433 0.01545683134128267
95.19341408575244 0.06540621117626497 0.40323626422534226 0.021157302193003616
95.17334198274402 0.05680511692738177 0.4129005072518625 0.039156340341352354
95.1590239562899 0.06052157137973456 0.40561084989189133 0.048233351751108634
95.14533007748233 0.4286211544537772 0.5070126279725078 
95.23268336427729 0.38566245115427544 0.5063918177962771 0.0005513958434826766
95.22607004997789 0.39824195222093545 0.5046768013316986 0.0013143799490877876
95.25368155074496 0.40148025273716087 0.5043167443645495 0.0005597719311747977
95.08263039731769 0.4037769251991816 0.5093631551716576 
95.17279987436821 0.42437175802187255 0.5060373936296774 
95.21076415976177 0.41145428125018213 0.5019780993809206 -6.799771010464291e-10
95.03799183583388 0.418508411121805 0.5046490494400805 
95.43670344257637 0.3294543600773982 0.44800632779228533 1.939073938548825e-08
94.92562143244521 0.32807070158893825 0.4380796962539219 0.001626612462736219
94.92288778123351 0.3296478104877092 0.45773036756136626 0.023015717026674428
94.91748428309604 0.32433445538421807 0.500602954462081 0.01630382889530083
94.94298582328796 0.47175512911853884 0.4504034800433076 
95.40711753331738 0.08404058079944156 0.46059730285205197 0.0076221609725884735
95.3319057347957 0.06668275225956058 0.4480690922527925 0.03022186922512122
95.36169689478342 0.076220768012435 0.4413035210302269 0.021144059626490727
95.30830564688526 0.06500205532514831 0.42866326200154514 0.022975120063379238
95.33594101085575 0.06591252018537593 0.42947233735112006 0.008592090888076127
95.31095172954792 0.07087957484558599 0.434939387190831 0.05411784406389924
94.94761625471102 0.10702823814244597 0.46623012309813044 0.03670080515396091
94.97337898248358 0.08819763316138743 0.45526434659273296 0.01958840687913128
95.23668119678877 0.061128048589844136 0.4187521464186275 0.0284904400833762
95.26448746755464 0.05858357716614392 0.4239027374818212 0.02089465723825277
95.28607258476958 0.06254369338171574 0.4286718098292715 0.027813160358708507
95.26062202381523 0.05671954978054093 0.4310817068465389 0.03682333623431045
95.38105952826064 0.08540343177535006 0.4309210897222098 0.021345757378591568
95.33349169139372 0.07106123474221054 0.40863217554135195 0.009767149655569225
95.30411659454447 0.06592451013633982 0.4263510163677651 0.02466224762692538
95.35877811682438 0.07674042532483107 0.4186579249277796 0.006261615939296698
95.41681022520912 0.09846872053132122 0.42365034975757826 0.024838361166671638
95.35634633959452 0.0788499474025119 0.42928153078683157 0.014682412110408282
95.38957341885445 0.08422801645485817 0.4085686325951299 0.003906499018440593
95.2568522694074 0.06478178514791276 0.3962520795800193 0.01952869753373795
95.28216289060643 0.06760317821106224 0.40981443820016805 0.004636033420599147
95.28821747299465 0.06699933150840472 0.399658094043675 0.0027620861270932803
95.30146635997508 0.06757415093292474 0.4234987660637436 0.02617264149933086
95.24609944400659 0.0553797167672835 0.41355413555040965 0.009692856966210027
95.20748383536196 0.06089037916223386 0.41385670653240003 0.02744470770972021
95.36642353778488 0.07512763301110718 0.4515393157841544 0.009817691618993015
95.09508584984852 0.06620481932120235 0.43028056758297123 0.045045024184629356
95.09465354422736 0.05802148917988602 0.4026668466020442 0.011243131494626087
95.11155764930477 0.06076544719595152 0.41915610400512743 0.029538511648398907
94.9929401926039 0.08939158044038173 0.4535850323340268 0.022231621741763668
95.03320162745723 0.07843245514939445 0.4475696129342626 0.01952052630911142
95.00965063414478 0.07617549324377706 0.44679262006291515 0.016290439404487114
94.99920532423685 0.08435837477754157 0.44215418861843603 0.01703288834669082
94.97771125563699 0.08833567496044303 0.4256473301283893 0.012265702777472232
94.9537220075039 0.0950236088131672 0.4346398579561694 0.021667284181943313
94.94615847640345 0.09336763136374808 0.4326606617738668 0.01646042476042441
94.99387431458324 0.07851880209906993 0.41640314540396783 0.009653317889684872
95.01834696115341 0.07718270775519051 0.43468741314690934 0.016054867012970382
94.96015001597299 0.09566158823018539 0.4311096359955933 0.013209734412836684
95.38305735187751 0.08332127475368929 0.44349641492682473 0.024981699558339725
95.03018530020404 0.07606397127398336 0.41178641138034633 0.02750194059296418
95.04640395455583 0.0719489818633313 0.4298948624326987 0.0296607745671212
95.18133404281548 0.057151415514051285 0.41086491235039985 0.04341452881134997
95.15815795251777 0.05919668318465262 0.4208127686381281 0.0432750694917144
95.13152589538673 0.05779392857500473 0.40227418340366805 0.01697294273229438
95.08855894191711 0.06323476980918821 0.40737580603242 0.021565421950175568
95.04833456312078 0.06862863277446438 0.4207876356588758 0.02442799405536708
95.06208119463189 0.0625539331790291 0.4244500160003557 0.02260769184002735
95.05417228528974 0.05980555310699144 0.4148460411356434 0.020514089247301904
94.96608205256202 0.0885831134886284 0.4097489328196608 0.007813949145017832
94.93773398780024 0.10027400271633459 0.4452581184471649 0.018771392610159716
94.93640567665373 0.10376556234308369 0.4238471623182635 0.02650319443839033
94.9263465643989 0.10949067740136524 0.4399987901798132 0.06017739633126202
94.92436800993788 0.12011078061540292 0.46985173268704195 0.0678699064492725
94.92629972408254 0.11908498531953904 0.4437137195656177 0.06636900417013793
94.92653357763724 0.10714165442980392 0.4620660812175084 0.03343810810670482
95.43977040758134 0.1272693159919476 0.4585968292860008 0.059095512380455927
95.43589558223142 0.11811567729785707 0.4818694274514904 0.050804938463461534
95.4330341604981 0.1132544049497258 0.4438148854160015 0.04577901511273674
95.43892229279962 0.12919748937195316 0.4380858882337523 0.0192943760944448
95.43793063760407 0.11541122765793098 0.42290736706214127 0.054273412738868924
95.44138504223278 0.12818665046057315 0.46644704206863924 0.05912233786333257
95.41539829056342 0.09138146739992987 0.43928100551995913 0.03063164121734388
95.43294521866608 0.10925755054717796 0.45637936965338344 0.024874989243203246
95.43620938125748 0.10038332191984684 0.4212571139318607 0.030141679120044926
95.42508135173433 0.09865035069363375 0.4313965781289199 0.03704376638646621
94.86931832135244 0.2593634259272888 0.021007225906495678 0.007386522837384053
94.86660027892273 0.32193003520137814 0.03786497565596318 0.000421789850998201
94.86248378925292 0.2615979828731323 0.006876025106271401 0.006064491479983961
94.86788999970757 0.2604959868849427 0.049180903907568026 0.02780182075146279
94.88447636793772 0.265979119677715 0.03380351933261726 0.0046959567883134165
94.8362990599116 0.32169275569230343 0.007912684930064456 0.03714083639898545
94.83164078225094 0.319887489644685 0.02729574853221925 0.05963943949632735
94.82946894312556 0.25136386294997454 0.02201520315360233 0.09993352105057825
94.83967865773607 0.2584310841965891 0.010848285888946822 0.10517686831853053
94.81837685848146 0.2868157306969948 0.05528890357760211 0.05545239601812448
94.82363465547984 0.2974892830020487 0.05751507381852853 0.043730976313082884
94.8190443138443 0.30393294134230386 0.03687340578015199 0.04266637514996838
94.82139330465922 0.2902998188253626 0.022084939767846614 0.02150357134467149
94.82281142716067 0.27167266950649355 0.045660280362168244 0.04337571960397647
94.8248243216086 0.27534452296851863 0.016365589916340455 0.05563675276250591
94.82387329449008 0.25973805325305815 0.018034089502516056 0.11090745423930237
94.82409791052056 0.2754547670856668 0.029069080198158622 0.09048284166922578
94.82433197155396 0.25813442348924964 0.026383713885896536 0.10840121358576968
94.83220775472607 0.3175236577652785 0.03122661265683207 0.045069100481294005
94.82995355880246 0.2954233828008279 -0.01091337633265827 -2.299069871884776e-09
94.82312319207557 0.27118288668416807 0.07106782769088525 0.06630551181888825
94.82883863638028 0.260410116211506 0.05620616327415187 0.11013657405859485
94.8541260881369 0.250900802030807 0.05963834124164445 0.051378296379464894
94.8450452652068 0.25073694517414835 0.04026048053931844 0.07069493922174121
94.85766388692622 0.2559353526145061 0.031180046430963865 0.05761076242726169
94.84903231273339 0.32210592794693343 0.032486849128980914 0.013887352775471009
94.84598540485757 0.3099301575252834 0.06444436950369035 0.014549891781945806
94.83312648278765 0.29957579810907187 0.061964013784711586 0.06538523145735588
94.99279706511595 0.7113123454538537 0.03392709568945433 0.05037423551959791
94.98739426974122 0.6849200686878287 0.06743496658164147 0.04936290241167323
94.99812229063843 0.7062973202817261 0.042462942789394 0.04241128195419774
94.99510754293968 0.7027378038313814 0.05250766049031131 0.029841820375674424
94.99727250390985 0.6952476603235135 0.05405792808056906 0.055838684054308
94.99970211215036 0.6828181984909728 0.04921090144721139 0.018755543438664087
94.96697908121912 0.7175581460737652 0.03222806129055204 0.0707741344251344
94.97413051255685 0.720873465853933 0.03374991680353181 0.05215723741491701
94.95974319671181 0.6914807528107539 0.06146236485210751 0.057398945965456215
94.95210643388022 0.6823755828386822 0.0460357169950181 0.0665453975064522
94.94996055017945 0.7014943780135896 0.019833880668855306 0.02418080451181748
94.95366205433962 0.696593462112264 0.007881661407857048 0.029698823795299346
94.95141832105561 0.6727661439557727 0.03653616376230201 0.015580559610620753
94.95176649576507 0.65126293278914 0.02955074208395357 0.002100461607760937
94.9489293972277 0.6848880384798919 0.056324613300747235 0.10003999024803831
94.95708079027828 0.708926826182799 0.042371447867406625 0.07758330618053459
94.95909301151553 0.6449081428359696 0.04690091725074215 0.011120872428359446
94.95163658198902 0.6734741668400881 0.0019235522229513872 0.0014437035986450658
94.94935822096915 0.6716473734624174 0.06426650411376132 0.011186890895670083
94.9594716316475 0.6526329109188259 0.0455148087858023 0.012460823900772971
94.95457233918842 0.6645663642930599 0.012735630036139962 0.00899310071042426
94.97944192844538 0.7027162992138901 0.055511186180643476 0.045577460014965106
94.96481316615399 0.6379421380227058 0.05270442010735376 0.009283658842717408
95.40884181479416 0.6701800053755216 0.05071549675589609 0.05576871388832938
95.40596555718288 0.6511816717867719 0.05181044510395964 0.022407595495016266
95.40110940271276 0.7155523038464192 0.022525093297027097 0.12146151137254456
95.40033700507881 0.6987662846375076 0.06060233642552964 0.12204341012021316
95.41076836968433 0.6756720120668329 0.06467508092641275 0.05726367626087758
95.41588581055258 0.6647267747797234 0.0066529374621286195 0.016024727224352463
95.4116861694615 0.7145453985080331 0.022887309903599908 0.06798456592343886
95.41961170811122 0.7062182738852604 0.0519569219511906 0.028349364331291753
95.42443164616397 0.6449738601970589 0.02334644902793695 0.03143137075363911
95.41463709537261 0.6826925512503449 -0.0012217865968133304 0.028670810452622854
95.41877454821747 0.6887868525518166 0.031093801562608474 0.03887472915638358
95.41572586340277 0.6730211016676682 0.03356396253265788 0.03314164976412666
95.4127834647673 0.6903183629593614 0.05079221595856268 0.05341539410369255
95.41482905545962 0.6990596784302815 0.018963443023646928 0.040965863045600605
95.414516931096 0.6711221869098222 0.036007440347716115 0.036054536279605295
95.40620050557834 0.6587109612336274 0.0525214643639783 0.031766402144913976
95.42380292780345 0.6598148618337712 0.02123453717217076 0.03698216261483225
95.3668359864651 0.6974753280355095 0.0489801390091159 0.01096286315090124
95.3740097049557 0.7120949779583301 0.04015543297476728 0.016607874895962667
95.36526972904494 0.6861152834326293 0.06856229910384294 0.008746761297344188
95.39971816004746 0.6480202341866337 0.059949563672285454 0.10973899179592057
95.39876536483106 0.7119519547795501 0.042611939108454684 0.080182514894643
95.38772312994563 0.7023131105942085 0.061581706017999144 0.0770746328306207
95.39748620812051 0.692472209757868 0.065545997337078 0.08185025497285461
95.40460842946558 0.6469550053249201 0.04657126144591801 0.021466760419848734
95.53936178801878 0.2593583937540702 0.016510451567967828 0.1238719504039828
95.54150328897477 0.31490140455233717 0.029296881390919034 0.04434411661729143
95.53786230107323 0.3210293414986411 0.039258906206753846 0.04441270367646637
95.54055059839406 0.3118902129573095 0.046252647232138 0.0407242743799125
95.5367831341623 0.25706542288451295 0.04541871018945573 0.025508527972570288
95.53723780169827 0.2947104361259892 0.06048125876038349 0.02761209534856653
95.54468007163862 0.26879808660941235 0.05965246334900954 0.048816728991781924
95.54441219533409 0.27810117587459837 0.07140739076427877 0.03624877595102283
95.54459777827364 0.2649422691474608 0.004829166081346373 0.06499648569347975
95.5412405776803 0.2603324312937377 0.023525826068933175 0.10911401755764072
95.54098823555823 0.30568671001880354 0.04441790332171472 0.045081652096923684
95.55548807863924 0.2892568663544729 0.04069958955928641 0.026865637859245544
95.54961217415851 0.2969968219565411 0.026566664402376605 0.03846785201059134
95.54226616144933 0.2980018043148989 0.011490038242847247 0.0441065180357296
95.5440680928117 0.2730349227966514 0.03459780863320558 0.042779235441531956
95.55267689936024 0.27005489539358624 0.01383211397012638 0.040748440495661536
95.54699201564867 0.2673668074532369 0.02148520042250556 0.043733673598174753
95.55221656497444 0.2815861985778592 0.03235765278632751 0.03262065580375613
95.49276064985287 0.26790314258493547 0.00024357711335694626 -3.34206973248248e-11
95.49165171023296 0.2512724043974884 0.036326625428798776 0.004571279199740533
95.50038189765752 0.2551199537596397 0.01454523505068078 0.001875500760183651
95.5102533359547 0.25223146638754984 0.02714321550126607 0.012489550696189107
95.52080632914347 0.24297335666808753 0.05660947957447329 0.031693593996382656
95.53229197417218 0.30806638141294085 0.055357158134361956 0.013647729240327812
95.52166083461603 0.3141300737223438 0.06445196655902105 0.0037392825051102605
95.2012889850557 0.05684762626899264 0.003096595534246656 0.04164685380629061
95.21179928220504 0.042598787185575214 0.0033878956057160135 0.03934698938279622
95.19490270464453 0.017900011565839025 0.004967492046194725 0.03950123851008352
95.21114596366593 0.061229548690154595 0.0650337550896008 0.017267302166961974
95.20924098556101 0.051229697319550974 0.06435978790012384 0.01714954445566501
95.19884845731862 0.07071587030419961 0.0184872160346174 0.05316232086115921
95.20583157923372 0.07043190622012989 0.031928943469887484 0.03268564173899089
95.19672586657313 0.027459293151477108 -0.0014040393369837067 0.03693500130979176
95.20551321613647 0.01566757586208504 0.0504919090160734 0.042586158839366436
95.20891833570782 0.013905714321186086 0.015649354782378538 0.014882138104803107
95.21378629171264 0.04411685554620782 0.04152425631199969 0.024370436987928373
95.21694167575053 0.03156442145257697 0.04965506694799242 0.02167339261561334
95.21370754434979 0.060709077708996896 0.03160456890433782 0.015508091061445925
95.21501789603963 0.04869143499474135 0.010497815904707698 0.03447778964758967
95.21204642899443 0.02465031277557341 0.03021197707046074 0.037247538530665446
95.21095026883324 0.017065380611387963 0.03769615566180319 0.03728995618488266
95.1626413463614 0.05857798945561228 0.04938638694689107 0.014798903738833191
95.16095338124744 0.06226433755207995 0.03246599913788983 0.01715003361494149
95.15586940823546 0.058564661302758024 0.02858098723369231 0.009113437741149134
95.14934052239143 0.03290559618267039 0.029449147426904708 0.009190513179079377
95.15861219626723 0.044558480429471865 0.04297572618848991 0.04808258429640188
95.16094511295815 0.017801470684816433 0.016354439177519865 0.1044406132579243
95.1515978159747 0.04161576247134482 0.0665680299501977 0.015384538155707447
95.16324419377477 0.04836235236307609 -0.004570244103591462 0.04649712593050899
95.17383931065156 0.07214782667753157 0.04256840601625323 0.08863645180271923
95.17110305184319 0.07138092417198717 0.024244539141155753 0.07913702245715652
95.15775657893549 0.029531626083238654 -0.000408548074729273 0.07411560952484277
95.16235372812412 0.022033871793263226 -0.0005141083943735643 0.059374637506238066
95.16045145643162 0.006810992591687397 0.039339028115458 0.05875068653118783
95.16300969328134 0.00860422073391543 0.02162467813613297 0.04153291940627811
95.15781878797884 0.01594746459523333 0.04297643992989963 0.05522863318210137
95.1742728740702 0.07483262834938212 0.01698136202367624 0.0351590671123193
95.18976841556815 0.004183746711514142 0.051792107175867984 0.11083661613679667
95.19285171825956 0.0007015570013245579 0.04066075796452584 0.03525016476342186
95.17864474356823 -0.0009268117391786485 0.03422078288847583 0.029183949183727124
95.51525015400934 0.2445035222649459 0.06458107393171886 0.07871471954216637
95.50443188115817 0.2484328007909237 0.06616151236588792 0.0821385183559776
95.47952731405356 0.24749150692760424 0.1008324647255795 0.052887895722264135
95.49220385589886 0.2500881071737624 0.09399612771857116 0.10344484510834435
95.50340426430098 0.24504865864586012 0.10303171521630129 0.1573234298594289
95.49367641519655 0.24822475583732992 0.06767808559023325 0.012492644062877702
95.44591731938225 0.26660689822563033 0.10495439338424652 0.10460250792228674
95.46201477034623 0.2587744540460276 0.08642850597715482 0.024411948315337016
