x y z curv
0.2444876923425154 0.9298478210683518 0.9703834274098816 0.19327347369791528
0.2336663424997685 0.9130355599784613 0.9345096474609913 0.14860955005050266
0.18844846252400319 0.8532407873092157 0.8290884586345981 0.2359735566516638
0.1829208917751676 0.8344677560472611 0.8080991709016184 0.09919645529440732
0.2003648170615253 0.8498548160351359 0.8261421475133371 0.22283737125500164
0.18928337855760252 0.8602764578216896 0.8572206705725345 0.1531237292512971
0.184741380696115 0.8704564711798005 0.8707728027081191 0.1625617384484004
0.18289094048897983 0.8602285124826917 0.8445082136716531 0.24986309712912697
0.18067491333794522 0.8269078889572785 0.7984113581929893 0.11298058329066633
0.18083900163291403 0.818906636186722 0.7847008282505428 0.20829145560989923
0.14543064121280705 0.7583249089478822 0.7466036424029917 
0.17325665177233507 0.8582911491959405 0.861770723021095 0.19624609348038158
0.22408351655695727 0.9188722654383982 0.9618782198991993 0.2668315892303782
0.2533064561463683 0.9416134009493282 0.9975785477965593 0.25417468038001867
0.094226206055793 0.4263666021385796 0.5848171789398822 0.016838749492987793
0.09809471933050798 0.5291054204811173 0.6781361745293503 0.010629198046875163
0.0967961471646579 0.5751698333050799 0.7023705637232889 0.0026458056784575755
0.17708186807811227 0.8364048260418254 0.8199531656814717 0.004575931936171254
0.14828214853182534 0.793056882580204 0.781348726883398 0.12731107885155732
0.15627137153951465 0.8087487994046563 0.7922943039225407 0.13337919986749652
0.1587702093849256 0.8202066994348501 0.8024230247103165 0.2313919968436917
0.1617681811540427 0.8434690148252396 0.82727232463153 0.15599672817136323
0.2008001378962823 0.9336077437322936 1.028769997006428 0.117278548298172
0.18330514409109552 0.9304563972981011 1.004116407208926 0.22324559160048754
0.17991697008471125 0.9192642865397588 0.9791358597723502 0.19898961257304076
0.18311153958042364 0.9007879121741531 0.9625720080652912 0.06732371080041848
0.17358679743620922 0.9004142933006042 0.940756486074039 0.2060839674541993
0.1620646857710812 0.8641776739921536 0.8737698314283535 0.20570670029054652
0.1469820388204935 0.8374979006254901 0.8517968259860084 0.14163106305518788
0.14325637128749594 0.8294340592090237 0.8305629274914953 0.16468773931892472
0.1288880767598681 0.7807590726838491 0.7853490237906062 0.09062245223404339
0.17287144854691902 0.8901233516931837 0.929847818367636 0.15055061657384722
0.17096270768079122 0.8814308864823174 0.9112195082859734 0.14536677867105838
0.188688786232211 0.8975640221142699 0.9183902914501753 0.19462898452781513
0.24246130973485092 0.9635490117702146 1.069151193590412 0.04659177943395311
0.21452203266233666 0.935362810724818 0.9935704671132682 0.29784339874124754
0.23120691596308462 0.9369712334194552 1.0269483848139032 0.01625913353137318
0.21668635460050584 0.9233843125056328 0.9717346533156571 0.23995362949330382
0.19726951091444736 0.9004311877366913 0.9304125616326961 0.13754787035746663
0.20467723758776477 0.907911376083823 0.9387565247695792 0.2137237897042277
0.21049170711898718 0.9087438054598928 0.9602116236602253 0.012547035578816031
0.1914681324146287 0.8868868251003404 0.9021614767179099 0.21537178999977252
0.21618268253986747 0.90797903839709 0.9384706370967952 0.13163685043585466
0.20351351088816313 0.8979860644972875 0.9158012351087014 0.1537202453146893
0.20052742223389866 0.9202412238840206 0.9757101464717974 0.19236235489111364
0.20110123318379894 0.919919028128447 0.9925507268155371 0.08898113330996439
0.2011008532055251 0.9099059514985756 0.9457555439959022 0.2512863336562378
0.21726962452047124 0.8939206212682884 0.9109254924946847 0.25173129492780133
0.19463421226639024 0.8768151140901757 0.8924219215923433 0.14633039031529926
0.16828688797693528 0.8552715949015192 0.8418152662411389 0.2625911845495854
0.14492261444330334 0.800252944290677 0.8030586990068544 0.17863554045089258
0.17203924482119332 0.8763013499419714 0.9000435836216553 0.1985729600188994
0.1639654968060002 0.8712119139354132 0.8848261004272707 0.20489417281394648
0.1388901941196331 0.7655934084923319 0.7589813792214485 0.13649612954698914
0.11805421687788055 0.7262533179188174 0.7621994740014852 0.04202537946020778
0.10518000152789217 0.6950446006303966 0.7438243554179611 0.05855623734543577
0.16176598583844587 0.9118565873434946 0.9628900793945684 0.14884792253589046
0.14769415544284933 0.8905015018321224 0.9486503398550222 0.12669069000981237
0.17745522991308213 0.9298211679266304 1.0081924055810625 0.12398130319516376
0.10763193616911673 0.42849192513647255 0.48349095266440745 0.04559740189194861
0.10383475271237878 0.40962849175408794 0.49727929322808795 0.013936131560458422
0.09256567523762876 0.4089260888114556 0.5139111603262293 0.011388094383669705
0.07975776295720492 0.40892764584746494 0.5323763447470659 0.004662606584807189
0.07745608638364697 0.42683974386848395 0.5466916381201703 0.012545341980605312
0.07692956445167892 0.41557299289059224 0.5754205451567528 0.12758958837819956
0.14065165097269647 0.8844274989649707 0.9092762378329695 0.19938184539926274
0.16658772376431413 0.9050220356080606 0.95885682941116 0.27386239142445834
0.14015046060906383 0.8598975156162155 0.8765970144312183 0.15939251812338867
0.13417424044600743 0.8191869494341169 0.8404115966134378 0.11165755935374443
0.13666232739995798 0.8558208962841559 0.8673254618009975 0.15674232326022486
0.10753201558221852 0.7736026019306455 0.7883277862720646 0.060118654821708674
0.07741756032026433 0.4620401823571123 0.618329752980933 0.16280862337478297
0.06490576781544938 0.42431743267297617 0.5842370293467155 0.07071500717825524
0.0962210145226759 0.4659031127904272 0.6241100519604301 -1.3886843468661094e-13
0.07653100005963064 0.4830573919402915 0.6458266905296703 0.036903066191414105
0.09000496835898557 0.5890513818908063 0.7092327695432257 0.023917604284502472
0.08223964564324085 0.5362876047909263 0.6799949720180866 0.09843727707523468
0.07534902854698812 0.5802725209527668 0.6962737300399403 0.07576348773093255
0.08138499153147669 0.5635688951055309 0.6958245633159571 0.0570361718290272
0.07039909568939884 0.5419273202125583 0.6732913654501842 0.08021493804054457
0.07703217349839225 0.508691868135462 0.6638410175771537 0.027253245937480495
0.10422101186050879 0.6636442939096061 0.7316326575997185 0.061848105358088955
0.11065546934885438 0.6708947771636513 0.7381969058319413 0.07715502813236555
0.07278086672072563 0.6152873460006871 0.715197782163021 0.03884801274086823
0.07383596997547881 0.5596102392221229 0.6849731923588872 0.08746130322122533
0.0666253007416578 0.5263779388850442 0.667580464489222 0.051690786942624196
0.06356882735407354 0.5017590687769339 0.6475232620502372 0.02651007773499274
0.049307007853228016 0.47656273755657 0.6326772749888754 0.07756589338365649
0.05923117625897054 0.4910629016227131 0.6472341525548487 0.02060866939940697
0.06378926498487472 0.4585105277349254 0.6107885967176329 0.190469396635806
0.05759988978460178 0.46548024400148047 0.5949234917937027 0.08237209743046618
0.07718971464731521 0.414529092270754 0.5539297281900626 0.09016729317285672
0.0804559591932655 0.4057310035042706 0.5462147051257503 0.017462353850795042
0.06524065951122425 0.44343367187615945 0.6056912282772506 0.07417269013609637
0.09484530724868225 0.7480561688950499 0.7788028386217727 0.031796235049043046
0.12101738433126379 0.7932953907095819 0.8076778864823448 0.17124423382743628
0.1136350176271393 0.7114386411556262 0.7564675295255054 0.0570451248924261
0.08138368427280987 0.5994161945896131 0.7059616680670174 0.01704866549149104
0.08404928078629542 0.6134390840290805 0.7123594501575956 0.05016632290933333
0.07761622755880575 0.6297310164997957 0.7146546826251693 0.08670221382777565
0.08449973319437519 0.6361454673526108 0.7174073877263384 0.07638910215463193
0.09494610894836544 0.6549257334923442 0.7229148167873056 0.07997688114093172
0.09779240501382046 0.7201318046458315 0.749624368442447 0.037501677552405445
0.07581878339195339 0.41471504955852356 0.5670893834752699 0.09180036331802142
0.06620159983998888 0.43643135259644533 0.5661990102779957 0.056307342906420935
0.5650150084374778 0.9239516972051935 0.9574902879768763 0.23959314354630953
0.6082536967354503 0.8658978958338581 0.8425666295337477 0.16964011717800778
0.6063691219589007 0.8457178387921922 0.8127144077912754 0.22835060705440752
0.6241745740409702 0.8329501877823025 0.8113183369991048 0.14214894238392436
0.6502220133452422 0.7409336981548112 0.7443535118956719 0.0016387773570627807
0.6419203770217295 0.7634458781433596 0.7455962704019026 0.0052832390843564085
0.6506511526645141 0.7005559900296839 0.6996837030653321 0.0033713867849770574
0.6645639439235752 0.6804509888672545 0.6991296779294506 0.0045197056275150865
0.628600935793942 0.7927969366376539 0.7714085218054697 0.016331664395420754
0.6325627090743096 0.7848753033145448 0.7597720151064634 0.005581362715783993
0.5885822539298698 0.8967299844299683 0.9119127421568985 0.2787943867809594
0.5787663611372235 0.9167692056079376 0.9386829371313183 0.29024850348558173
0.6172274989481976 0.8158455279750364 0.7962709117233782 0.004759412940712011
0.6178113094361164 0.8496896112781376 0.8289916002667386 0.15859785010319521
0.6008699542890171 0.8779319345162401 0.8693554243626929 0.26169661265623784
0.6092177759281635 0.8788829074102383 0.8893941576909029 0.10373565863825142
0.593942845891939 0.8879165250062826 0.8900374670200283 0.24913351206174517
0.6330150987879946 0.8334314014189718 0.8256296761468515 0.12865364446034874
0.6098810330837376 0.8782995849614679 0.9101725624495752 0.010088557288592608
0.6140498041736427 0.8926606451975715 0.9268255875522499 0.1928419335866498
0.6452265388692496 0.8721198898410139 0.8928296496169467 0.14878533878104513
0.6290800404769322 0.8753817577771673 0.9042242429244132 0.12422568083231444
0.6482602856909807 0.8811326037447037 0.9027127090044499 0.19686285899894848
0.6286934913127785 0.8478402780001572 0.8571462695113468 0.09728869620113816
0.6226217919891074 0.8716934500490185 0.8855018744002586 0.035424184748072865
0.6121042207007609 0.9059418009362645 0.957833570275975 0.19876076779108676
0.604627047756969 0.9107210275369138 0.9610264731678998 0.15302920632475492
0.5975747160779871 0.9178616450984273 0.9836444334273926 0.19986818837506407
0.6472990746691406 0.8612463715313938 0.8771042097603169 0.1374243214148211
0.6633326657573418 0.853486231759717 0.8872594012686754 0.008855104582525393
0.6081801694438234 0.8968083612944461 0.9372350854927438 0.10331939625202213
0.5661413155971293 0.9274988587713764 1.0071747198211427 0.0002793528538768897
0.6360361936935495 0.8835308876512376 0.9281259560762959 0.15489200257071603
0.6184614893964832 0.9016304197111061 0.9555389847149108 0.09233839855344683
0.6105575558531348 0.9084013274900559 0.9779373566538656 0.0853962505057402
0.6854438020215434 0.44376124126558303 0.5666706870314255 0.002481639203598633
0.6959780214735758 0.4893532443145818 0.6076921643897102 0.0015571327998815706
0.6856424206918906 0.5066471811779255 0.6121876049315537 0.0001500879024555136
0.6935564050468401 0.5673361901096858 0.6724946650076415 0.02138226862200107
0.6882707813960749 0.5689727655289848 0.6487828966455098 0.006390378958344615
0.6872533240231774 0.5434357937321174 0.6353462307178736 0.012425364709033172
0.6947128251304574 0.5144423592920643 0.6382639993850477 0.007141731066857629
0.700625872066601 0.49541134318687835 0.6282661766455787 0.007870476054103135
0.6911550117142974 0.6180827498796162 0.7033916627190258 0.022207149220652377
0.6945909839311328 0.5853688677331899 0.6773179527404457 0.01191227587430837
0.6902058252248149 0.6579869935707026 0.7196471726286683 0.012967197904137785
0.6873281446588738 0.6674184006972558 0.7229692118192962 0.013791984487065902
0.6763831251785076 0.6651604208556329 0.7093801363469958 0.01668282348081081
0.6836424406372922 0.6254489410710412 0.6919694857312727 0.00658119276150639
0.6951191784832752 0.5643976589345557 0.6678896042329675 0.022179305571925437
0.7011431651942226 0.5402228605281414 0.6605031596711276 0.023277789055935593
0.6536592507745939 0.7556761379215671 0.7517616112069574 0.018595598032541648
0.6658145689886406 0.7350347035606564 0.7482304171003712 0.015412250388969746
0.6549429911129473 0.7890313113896325 0.7787089342827941 0.015606413297542218
0.6958719125663536 0.6033196063002103 0.6996634371169884 0.02567668014223298
0.7019201014509819 0.5945518612198697 0.7043294819443573 0.07742722675088118
0.6990640161141093 0.5761461324874728 0.6822979016608225 0.04052717060898679
0.707884184968921 0.47375700934415554 0.6233030379910632 0.00947773774179596
0.7117910557898915 0.48187969179616913 0.6352059636224151 0.00739444441974689
0.7052623877390027 0.5017762571957999 0.6461471517148746 0.0049026388608677815
0.6447196435833445 0.798593615363361 0.7787268769341567 0.01090504745570647
0.6295770638365823 0.8142079993432302 0.7906210238215162 0.014794206309481826
0.6516357552828819 0.8071147295513086 0.8085608484427576 0.013756097153938322
0.6762437545908542 0.5969576884211223 0.6703680979910749 0.002291050799773659
0.6733904736441925 0.6317129477432954 0.6703647383992521 0.00327575621918923
0.7069765261496017 0.5841095175808054 0.7002220295064093 0.027646700553930485
0.7071072255627182 0.5349989933402287 0.6690540135866396 0.011302582160815934
0.7095828121108427 0.5227667813509855 0.6538503009687738 0.018969646011522963
0.5966293022643927 0.915804786767842 0.9542442298681719 0.19531205011425648
0.5806693230674679 0.9249689995075308 0.9811648280826832 0.261630423614402
0.5764936671669508 0.9187921511903351 0.946687238493448 0.2451554695001209
0.6679856682739349 0.8083417965268767 0.8238724943746655 0.08305089450266256
0.6533942685995338 0.832262950502072 0.8343554616192667 0.2249071921227569
0.6744859547476171 0.8398113729021542 0.8559656054895272 0.0706842504424961
0.6823179673690494 0.7598598312607298 0.7693351231687867 0.007135395282847182
0.6754274524944234 0.72891023884387 0.7493522768405356 0.018240158077695256
0.6892220723124358 0.7029151285624023 0.7398701853034106 0.013303486069922031
0.6928672387892437 0.6867768291919578 0.7388570463318549 0.014184820214130756
0.700304984435171 0.7513178211575597 0.7671207330485988 0.00025130796522815726
0.6896966048160361 0.7378765414778622 0.7579864809197683 0.0029210082072350695
0.6617303906379187 0.7571444930770169 0.7651816910761847 0.008948713373284829
0.6631613511934012 0.6976249115325069 0.7251854397062409 0.006479073083894902
0.6781485159606344 0.6346416500922988 0.6907858292999614 0.014330074873985667
0.6725337408441923 0.6635650408467659 0.6997560246886807 0.02256549524674834
0.67360538896999 0.6568745953372775 0.6803325501551947 0.0010125807541351733
0.5631579910372895 0.9232614212951711 0.9633776860937799 0.19327217063920704
0.5695769685276741 0.9275447914620719 0.9836935113072898 0.2572542237102862
0.5263340742959681 0.9745296034162781 1.0708789052464642 0.09688869475166684
0.5653958593961549 0.9753504107490584 1.0647883179854571 0.07196797952104589
0.5901561497485412 0.9686123311971572 1.0486189399574262 0.051105334196739995
0.5834813054562515 0.9755713435648791 1.060110380467863 0.04400660376355853
0.5879707703536287 0.982325310456758 1.042562901719345 0.034292840323228366
0.577170327322602 0.9809810855441942 1.0580298992801571 0.07217633908057348
0.6027533213303865 0.964174242503751 1.0362994138286599 0.05072500164584289
0.6124795655626375 0.97971271966138 1.0253892561720919 0.04226430660775804
0.5419586858974947 0.9877701124317771 1.0615210967771518 0.11278122232031428
0.6402804615551256 0.9352564138324274 1.0073961286839335 0.13010304501905293
0.632671421932056 0.9438876222904704 1.0180161761919966 0.09090345443421043
0.6394814791329698 0.9558712702106772 0.9988462318288025 0.049395966065098475
0.6237225322130423 0.9527933105763575 1.02221828836906 0.14610199083546987
0.6501287132282767 0.8395153252694371 0.8443698817456762 0.15870998948896894
0.6027862234198914 0.9270419871107256 1.0153457253417262 0.051553327353933906
0.6155581836896182 0.9151466674934041 0.9990105380258522 0.04148717982529336
0.6204124707328259 0.9095457286903905 0.9816611112977718 0.011521792492956394
0.7057911166290809 0.6443413747461129 0.7204848215018288 0.0070338261813167186
0.6708774779121222 0.7228743670848016 0.7453714649635363 0.017006245604867968
0.5934823352473529 0.904285424580502 0.9375534961695431 0.22383684427903233
0.30003899755174573 0.9704298824011568 1.078249716355867 0.01546704530311866
0.31060897526573367 0.9983400402659424 1.0721035263359002 0.06480994855030821
0.32516396078772664 0.9985006381198873 1.0730807147539214 0.06706963276414395
0.2958903840304419 0.9956872810794523 1.0718225184156098 0.04557760986165203
0.3450906634018188 0.9974540138781687 1.0767663921962367 0.03297954915200035
0.490565830251938 0.9717543492916944 1.0754602428916102 0.06667220016029661
0.44784886021746984 0.996708434399188 1.0765699616744684 0.06899098413223467
0.49848918849079166 0.9979957422793502 1.0729309472605586 0.10219295077085673
0.519240916685184 0.9962486854479234 1.069474147272757 0.12860115978655423
0.4657671372065398 0.7400736723701722 0.36898919869172186 
0.39141808461613986 0.7489608030567821 0.3651547211051062 
0.2635754910296106 0.6924545475716577 0.36443938913584045 7.333115136440152e-05
0.7051667825472597 0.465832823711153 0.6082145771148744 0.005707476386954884
0.7064333632478533 0.4496826357352905 0.5989561089965215 0.05980969039158647
0.6474082920016985 0.9077021196606452 0.9895088165383741 0.021755114632628917
0.6909750655185302 0.4072369412726659 0.5017583685135255 
0.6845344187778394 0.8123497871906108 0.8242262490813693 0.09667951654736956
0.6958371483124088 0.6834266396131288 0.7430731928461097 0.006416855531481294
0.6990114382484139 0.6507845622823919 0.7190532816132422 0.01755276787400636
0.6843534940503397 0.7636242360029181 0.7716274503011993 0.0287499526197353
0.6946035312165939 0.7839089544825082 0.7868748417681279 0.03333507620050644
0.7155285771647656 0.6412680631425206 0.723002206845558 0.0005525885088403662
0.6904080464937509 0.7068068762989234 0.7440633262994425 0.015342363730377551
0.7231919475843134 0.4683768935925837 0.6372067884630899 0.03058944690150928
0.6714041416257872 0.7838694173882045 0.7997936918824426 0.026522786126535355
0.7172100979727617 0.4365819646178086 0.6054121057401847 0.0759678469678479
0.7112878268231841 0.4675553281829418 0.6158357002858482 0.005757042867571515
0.729494676647854 0.4813711775491486 0.6480014582200166 0.04070273952133445
0.7213159880747556 0.5190004279398099 0.6656608003776031 0.05987524835313578
0.7267541851514009 0.5184434055574729 0.668440621744016 0.046763782644201835
0.6573801862103207 0.8533324550037127 0.8714139325230772 0.20328429877326032
0.7218261869393591 0.5887718723115636 0.7082769546062069 0.05101059975346778
0.7259745421165011 0.5453995068592241 0.681783453599985 0.06683435134296771
0.7107032597335893 0.5946099141491096 0.7096568123160539 0.08373023158161247
0.7294741025932939 0.42528481575736554 0.5850880316084135 0.05714885545583695
0.7341391158935076 0.4108553063255693 0.5538452751739424 -4.2854833809318273e-14
0.7222874451327577 0.39818418382239185 0.5491470498051535 
0.7075856977036232 0.40965300364241475 0.5033258152526939 
0.7019421645471166 0.43155058910919386 0.5738584316080989 0.08339057076553039
0.7152696036267049 0.6621736220271757 0.7296710742858404 0.00221401124245584
0.7243253050885807 0.4376713362978614 0.6111036213144632 0.07499403701009698
0.7064779099229871 0.4165647031573163 0.5624707818747554 0.023409834417557056
0.7184414552337736 0.5024607470184569 0.6552574712605114 0.006696940335798058
0.7154262798793936 0.5123928437080643 0.6593256011351715 0.006847464219452362
0.7007527645113314 0.4448173495821869 0.592658953162856 0.07276155624356336
0.7232812630526342 0.6157590462984143 0.7117653776537999 0.03695686599048588
0.7044233328385131 0.5491218399570242 0.6802609012436065 0.0157477677318172
0.725733834667108 0.5535473211436818 0.6877354604367656 0.057225983714945576
0.7123611690018462 0.5397179667062911 0.6771082100634267 0.019706471516083485
0.7532944928922044 0.5372243848047858 0.6643688364722459 0.0006220810558894055
0.6585367443018733 0.8881263388753159 0.9377490925989242 0.09773531453971833
0.6690859968811037 0.9077869648617763 0.9293085447639682 0.07055563650215073
0.7359112151806414 0.4431926707862521 0.5842930073573609 0.01838288175032522
0.6975386343063031 0.42141599714626177 0.4828094791554825 
0.7303068182513238 0.5513109684622451 0.6135857022551277 
0.7298457725783777 0.6254884676908481 0.6678349885648522 
0.7162819363109788 0.702755705124264 0.6996174261249091 
0.706944991279459 0.7183427135919191 0.749473831473854 0.00533897022516855
0.7369255055463323 0.6113570401249961 0.7016314973241731 0.07060101380161168
0.7546004703489574 0.4675026228645867 0.6208358950884615 
0.7367276247488689 0.568774158072593 0.6892449815604824 0.013827783817369236
0.7240895111391893 0.65078420496025 0.6759872790486563 
0.6906020182984078 0.8555084766810372 0.842000926480149 0.12439399523065808
0.6793114642966888 0.8752008617683097 0.8856587939502863 0.11708894825269239
0.6784166247849075 0.8898604110011497 0.8907076253836644 0.12149600871380196
0.6903950877078382 0.8313298649607462 0.8010946925450486 0.15517325140611074
0.703434601309748 0.8238741915811636 0.789397210113357 0.025282351944625633
0.6989009073851619 0.8159765084039935 0.8076508506013274 0.10546397240948643
0.6688633840257613 0.897880134950206 0.9022519296397287 0.2013430402220917
0.6925209065415816 0.8005834991179231 0.7998276836483952 0.13243574149113474
0.6679682279320864 0.9093213572240852 0.9206464025023008 0.1491728426299628
0.5298484585179872 0.9927563008350029 1.0529417798579759 0.039837281904954024
0.5422242182314876 0.978363910547197 1.0139952641041357 0.09950525329508582
0.549772797920344 0.9833113286319307 1.0365543262509869 0.07450742980999864
0.5584121761211307 0.9903859526048289 1.0490688647111301 0.07888237951769746
0.5830400301485938 0.9779051826705127 1.0059807007810848 0.021740586584502126
0.5719601804826052 0.9753314089227816 1.0142832600417169 0.02736194125004163
0.5612102285490564 0.9828782115693855 1.0329038042640888 0.02081581460308481
0.5672428374263007 0.974637011759435 1.0006347925664647 0.015836583575002932
0.5870293713169182 0.9638414030788165 0.9853854707438063 0.09729597467117684
0.5999663124030781 0.9772778847851503 1.025900722167571 0.044278542620046
0.6117999481128334 0.9717557078003617 1.0148715143501834 0.04302784264921964
0.5851851526261843 0.982088932549224 1.0328479207642227 0.03588451407259041
0.5891645256239709 0.9590274754942812 0.9737664966428192 0.15447434842298327
0.5747876753997692 0.9682179318500556 0.9730666826584379 0.01463789866427181
0.5764401486881475 0.9673330086405201 0.9864015109065157 0.022699344743095425
0.5512930868434306 0.9730518094806968 1.015632886141775 0.07589660102304178
0.5368397326712626 0.9845926596782931 1.033912232419728 0.12064642432460126
0.5981495407526601 0.9469818886198802 0.9443649468563915 0.18584142861839795
0.5786653594555429 0.9469595530256377 0.9504173834045866 0.23217025113546913
0.5968226195683506 0.9393779167477134 0.9339655349491683 0.22411527052763391
0.6095445688670764 0.9364422607111164 0.9530210021467639 0.2272227013703883
0.6147059179061072 0.9251310646295403 0.9046051377658662 0.1506516373796441
0.6423567017976148 0.8787490718116384 0.8389187918098276 0.16150011301669376
0.6353891517452052 0.8938127909967988 0.8515144428481066 0.0326537490117907
0.6238822902758054 0.8904308609643938 0.8488278432369143 0.1844316937066115
0.659678698148916 0.8631393705087665 0.8190286959484844 0.18497638117020923
0.6686620294537877 0.8455740803293307 0.7970862100925914 0.001384670812756893
0.666216946542492 0.8575176282670837 0.8129694674724197 0.16972293621320808
0.6549867669586971 0.8537901339342744 0.7911565220870813 0.00510937572717802
0.6076518844194588 0.909428382730962 0.8742061560802987 0.19862555855414843
0.616331526026867 0.9178414411755608 0.8829401538101188 0.11638663427737182
0.5989807783490952 0.9285535388597571 0.8975115414588206 0.09773288328780988
0.643436739441242 0.9114298163754313 0.883033886174616 0.061704598273458706
0.6534099080139311 0.9303933845999509 0.9574513704354678 0.1157617099902837
0.6525994744548261 0.9232525079721283 0.9300957586300344 0.14078322030391072
0.6446705797510377 0.9341029382196379 0.9457813289214122 0.13414691575266835
0.6224605160560568 0.9398459411150532 0.9441089380781073 0.16792738125552611
0.5957719374287935 0.9405855379530905 0.9140663127065549 0.1061086247834194
0.5886026865291986 0.9371895647021633 0.9276549296551875 0.1548778258264867
0.5955036303682718 0.9655690309550292 0.9988836829022469 0.03396839903193023
0.6356843020381587 0.9563069196722658 0.9886326379663333 0.06444184686865516
0.6213846758789652 0.9593636315524413 1.0072035649104716 0.16548569670832433
0.5732251582789646 0.9534144427275872 0.9555859815094047 0.22637952919128768
0.5796331912091464 0.9443548251668689 0.9356271779818871 0.15131082570525387
0.6303121314577217 0.9544050334419505 0.9757125355702062 0.04827090099630498
0.5626452197501857 0.9740354724151198 0.9970527079992548 0.017331113761299553
0.5500413666460681 0.976499640086747 1.005519637415077 0.0960550219555757
0.6593975046262551 0.8731897212993058 0.8317777921442924 0.1215146093876302
0.666165156833868 0.8189393095145338 0.7477236156114452 0.0057576875065078635
0.7097655455110389 0.792700957750256 0.7587921968559764 7.27174999212931e-14
0.6818639072855295 0.8246697371658328 0.775263776392535 0.050051672748095945
0.6756622723838499 0.8428716165570113 0.8029970740746623 0.13622616551424185
0.6832302054987919 0.860961275947251 0.8327406229902754 0.09856846591790179
0.6854312560829982 0.8456724391647605 0.8176928448783077 0.1578392382724867
0.6793220482694301 0.8710615706425391 0.8464353170424909 0.08418324679857914
0.6720222458432981 0.7763901075390368 0.7095410322380065 0.0004668412097675299
0.6960248379782406 0.7405216657801187 0.700212657160476 
0.689471891035865 0.7376333680448426 0.6920527553079552 
0.6884866486604043 0.7140000139262207 0.6673047040162925 9.862605180109671e-05
0.6596973555463778 0.9033225006799888 0.901130485709119 0.1636463016940926
0.654219515902251 0.9093053670419133 0.9080862851549508 0.22109933311149604
0.6490748109414974 0.908137887976551 0.9067830343732676 0.26504637152737637
0.6452212790225087 0.9053952084657217 0.9013805157174637 0.22057301638494226
0.693087464937664 0.8415799747185718 0.8295673104379345 0.07697545546727694
0.6571777341304625 0.9003245086722386 0.8837158563047016 0.14604426718728614
0.6022843881638206 0.9353679279503269 0.9236710480954476 0.18847766098955115
0.6571666978447187 0.8130599476603583 0.7398656452940008 0.0015934322678940061
0.657754062129441 0.8420059167391183 0.7670648099478526 0.0026650608188962944
0.6387887078378874 0.8601168840506206 0.782680405437534 0.007635378084097233
0.6593590522259943 0.7938426510606443 0.7213118487612369 0.004446028347453379
0.6449135990448872 0.8321164684121616 0.7547835968811402 0.003779432620159534
0.6222195448889253 0.8895193161786984 0.8449598225809237 0.17317010981002948
0.6079628229116327 0.9069788417053866 0.866618494311774 0.1950155826932293
0.6457320271892875 0.8176624846178463 0.737483756089696 0.0054571789156930076
0.6597377397506211 0.8062137623588177 0.7322342272609392 0.0010250437985962625
0.6754262504485448 0.7226290742093082 0.6569643519140489 0.0005104774010215959
0.670677499463413 0.7205767017708271 0.6463916910780171 0.00029216167003077667
0.6663355426410831 0.7106947282922694 0.6304547151502025 0.0005245089875342194
0.6731372885221384 0.6659299836764506 0.5710429479469502 0.0013827776354597154
0.6813880599755783 0.6717233972151548 0.6022758470455786 0.0014203730047566247
0.6684866742509966 0.6453735355797448 0.5285915701214385 
0.6839245976549723 0.6603133456780924 0.5890816096144194 9.813446125791263e-06
0.6897577379512622 0.6449068100427247 0.590625933996655 -2.0368361099993735e-13
0.6866260940848039 0.7023356308887582 0.6532284044132608 7.062693263831775e-05
0.7044533462770279 0.6886849362330714 0.6653628515071556 -1.256213732834528e-13
0.6895805872911959 0.8120108035800343 0.7563770273552262 0.0017813075598219156
0.7030378817145543 0.7865112268922458 0.742188752376113 
0.6072592120869552 0.65876725784457 0.41913834531345806 -1.5541729519927446e-16
0.5883789487100097 0.6847596572820736 0.4184323977195432 
0.6364394829716212 0.6676937525447169 0.482586399733762 0.002447126239904972
0.6693311267975066 0.6749076085189183 0.5726867377182773 0.0011028723772819795
0.6349302999419814 0.8677226236914566 0.8091314537663465 0.19574116543003442
0.6143250521487248 0.9530839701145369 0.9799562751164469 0.11541850232735892
0.6325043534245591 0.9224005486086737 0.9217210922736316 0.21891153475846215
0.6533894083330912 0.8878865658103174 0.8587968826177768 0.15403708423066573
0.6628831933760962 0.6993091237979062 0.6010301573517788 0.0015144362295915978
0.6397897553047062 0.7944441140396438 0.6982862206755279 0.006159263178408494
0.6582734469417901 0.7626947872990228 0.6843593409165019 0.0023070751159537783
0.6492555348487936 0.7664407871694819 0.6710899459598093 -1.7655203353907313e-13
0.6576218338731085 0.7494216381643405 0.6621543087055682 0.00010337960274613226
0.6000354305339675 0.6899885817185181 0.43740789590622947 0.0002664986122792419
0.4314079753099711 0.7663669691093006 0.3754354374030561 -1.7006017915274177e-12
0.5917624801175274 0.7227666168819673 0.463778983018911 7.262260023724924e-07
0.5845241059950027 0.7153946322321908 0.4453427218590932 0.00037440064537718203
0.4049341905524347 1.0136155474772646 1.0616692490989867 0.043205142706195326
0.37817299018934564 1.0166305911306746 1.0666275590292136 0.04041684848382936
0.3694664170379994 1.002183485116065 1.0292121709545865 0.024139871464075816
0.5325825349407113 0.7193711422466122 0.3818685879614661 
0.23987339293643054 0.6988388237170073 0.39352823084705807 -5.3704450535823434e-14
0.221499726522506 0.721628294201539 0.43578335902030907 1.4306135608564536e-14
0.2055735328404227 0.7069759151688438 0.45185116315254154 0.0019423802167600175
0.2030194458846978 0.6847472645952203 0.42030738297921755 2.6392794894888636e-14
0.18482820176644882 0.6946028569261702 0.4729550567887178 0.006033851482544184
0.19882147888765808 0.711970551342274 0.47157692871775936 0.0007679492524565538
0.20387176904776944 0.7132931656915551 0.4711030534617278 0.003395559264986032
0.5423508923308559 0.74526212602675 0.42371072271142446 0.0038234103588011144
0.5047446260163949 0.7498161153300783 0.3968799966154331 2.629242646078264e-14
0.4793383265909999 0.7623992091736486 0.394013397726092 0.005296856816388331
0.4776446745656107 0.7713868150607862 0.40688425370245906 0.021061113370968776
0.5032395068990551 0.7771713571833965 0.4211159916322781 0.00653338394315904
0.4831373159899766 0.7777177378038509 0.4237499273726463 0.010323230155079867
0.5539990130380026 0.718848284048992 0.3978413556924311 0.001486765464964677
0.36236674539364955 0.7593997235756604 0.3793018541091908 0.003882757992900951
0.3524166566423189 0.7710213974646062 0.3873982768643138 0.013668267805988291
0.33409306001738676 0.7489059037850124 0.37799487831324613 0.002654877105327569
0.31581828894847436 0.7396896811631634 0.3809503813053405 0.00294741354271884
0.2752018865919042 0.7156653252092481 0.37979687711742444 0.00044175620587534706
0.25086330062661305 0.7166999011240404 0.40355347412842857 0.005233983036284926
0.29211042047679187 0.7582620618424709 0.41463500386224217 0.0020517295846724185
0.30662886295366254 0.750139499361796 0.39441225203348373 0.00322720927537799
0.2900301002132982 0.7666544851234118 0.44843260494376685 0.015801504640331896
0.27114075031308543 0.7444144167306924 0.4263998008898111 0.006679386212600125
0.31308084933318414 0.7764813548795194 0.4271750769094752 0.004780430320041099
0.2861873843383807 0.7356254451706918 0.3950050773326699 0.006277521904099571
0.2993298561868362 0.7440656428720622 0.39040670679060097 0.0008292560364224918
0.33969633668329413 0.7775081960171865 0.40700259206174966 0.014961840295796188
0.34919366831494836 0.7692047757643885 0.385387283332911 0.008972147979127161
0.31607760499929954 0.7508750567703242 0.38943217501662647 0.0027572508723351266
0.3497658371876578 0.784100136909475 0.40097170165370344 0.01880294285456993
0.382238104441598 0.7808522371826363 0.3943570424273359 0.024412632544802134
0.3435792178544871 0.784768330664261 0.42529941290211376 0.01366253953825909
0.37214481957021944 0.7881172050403561 0.4300413720325054 0.004044633111151067
0.3628558391379485 0.7943901718422752 0.4405342312550837 0.012140184552410732
0.38450538432104353 0.7903855335332608 0.43536878445727534 0.006513723625622509
0.35761993340087633 0.7990237666721847 0.45207313266147864 0.017601100217810285
0.4010919471088096 0.7956597148501898 0.43822337926690047 0.008645620287711615
0.3985902571435809 0.7976890276501448 0.44645416838854207 0.009070431992886971
0.399163438608056 0.8017397206233098 0.46779924046798393 0.006075074930867085
0.418764604305331 0.7931750713714545 0.4478680822371155 0.01046582237544723
0.40858008691219516 0.8001797239038744 0.46932985791873827 0.005215007247578358
0.43389162623604455 0.7972959840291878 0.46639217799887117 0.004893817551512741
0.3777502522104147 0.8012432183919634 0.45633718912720866 0.0038585118799262337
0.41511494671516724 0.7947534941310215 0.42867137442763276 0.003858241510928029
0.44329471380120133 0.7929496014473958 0.46061352137734096 0.004968140234121979
0.4482476347456496 0.7941192628699738 0.46294138145623837 0.005447630869381047
0.44973675850466177 0.7884880124569136 0.4527910372282451 0.003086205446277247
0.4649115540180524 0.7832518032428256 0.4419064970155325 0.0011693981032555743
0.42779016270803294 0.7909833989705919 0.4476856347981495 0.005966170887868414
0.32022056177040076 0.7809488038350423 0.44294573602662457 0.006957871220994931
0.33829069063679296 0.7879336468481818 0.46218976249734045 0.004051716097108898
0.310520444551092 0.7804086430354075 0.47074226601005337 0.014500446320301247
0.3307611830333664 0.7764263802801926 0.4302490526326118 0.004445234883944468
0.3251850985146841 0.7800590212342955 0.458610711931255 0.007256699181906543
0.31593900750541165 0.8000780680653253 0.5096614255583086 0.005170988175415458
0.33088563500058144 0.7931721237137868 0.4869932818619523 0.006996977547894506
0.31104589618817374 0.7828964184213819 0.47462034688492644 0.014585976233348723
0.3160428498318315 0.790976086718825 0.49302535244021123 0.008050807871152562
0.3328580753154698 0.8010296971469716 0.49778642313456684 0.007749842424205854
0.3014070090782788 0.7890486582629774 0.4868524838863501 0.013993828091701127
0.29887352069765194 0.794291865920605 0.5187862684955035 0.005884741931697127
0.3043887831508763 0.8001932878654874 0.5269496441686121 0.002974009445816475
0.32149476812002525 0.8029385446639316 0.5189197781271937 0.00543869053032269
0.2792895732947492 0.7942770786876312 0.5283059967455779 0.003652881015888297
0.2867773016226975 0.7807698288466758 0.4989317972772975 0.013432582015074962
0.31579303041484735 0.8136284336481889 0.5539189817915222 0.008348338656868844
0.2990323485514533 0.8039270050811141 0.5423517058417301 0.0022704693780506964
0.2945193951788598 0.8059952374760384 0.5584624597461743 0.0031061517684227483
0.3697307128532632 0.812316527038245 0.4930872033785104 0.008316217520809677
0.35355537404393467 0.807943359255878 0.4827924261171016 0.010722348076283483
0.3494853108289667 0.8044374839563728 0.5020559873701941 0.010269696954335883
0.3329398778293291 0.8093165448939801 0.5235214936196974 0.004672412003487534
0.3662494302122119 0.815713402584328 0.5202221425547329 0.014963690600404818
0.35515595875275274 0.8115482718655372 0.5179814306822325 0.012258678890659116
0.42930525090780336 0.8065966468134096 0.47825076918134835 0.002843206930682755
0.3928189206977957 0.8058305647403118 0.48207930367424123 0.0032505270235515873
0.3954861626451196 0.8055033031751044 0.4892958585628306 0.003325303844178529
0.3927676126408968 0.8100811983791257 0.5058115559714087 0.003917694091796582
0.4119947102812001 0.8071787797172132 0.48634006128673074 0.0037700464080327833
0.49681412056523727 0.7830607666441405 0.46256199144483173 0.005086703891793843
0.4598269170051947 0.7908924634846957 0.457810371932598 0.005947070734615179
0.4605851561079416 0.8028894652293813 0.4899234591916992 0.008384313920906087
0.4887929415195957 0.7967083422282999 0.4975340772254866 0.00471417243795211
0.44980821057595965 0.7972012206510265 0.4752236080613902 0.006249773590470969
0.49541831951060317 0.7887464117731338 0.48705032613084187 0.004832270532374193
0.4651104757380987 0.8121915420066028 0.518538405592698 0.009804352305643301
0.4669989046673202 0.8064998425659663 0.4854262541539488 0.002900280138324493
0.24886045547647576 0.7616927724870551 0.4757539234457446 0.007292062639105315
0.26658700424665804 0.7651437100327823 0.4785802642767024 0.01559619610936947
0.2701316157014701 0.7770190002560246 0.5088344534895052 0.020713771969945706
0.27807699416175374 0.7714154234257713 0.4878305345261169 0.012762810253440008
0.2896106844316067 0.7871538845774309 0.47842008779896267 0.006211122402602188
0.3396391010486668 0.8115496661726246 0.5331955718090025 0.005771785933101959
0.3432105587401984 0.8148716334214289 0.543816627534909 0.005233195267257674
0.37041563653762444 0.8295328834620801 0.5569436354073682 0.012511642587552505
0.3843024800687731 0.8211753455009665 0.5328136683190947 0.011343202096093331
0.39695821218506033 0.8202102037778828 0.5400948961188279 0.007976058074930566
0.34148912883397653 0.8163474031865945 0.5228369606371975 0.0015403368448290281
0.3195521298318295 0.8347346489042853 0.5773230429838279 0.003628173578499856
0.3490676361282469 0.8318820800612138 0.574451961836504 0.017430977890333224
0.4196411897755008 0.8103194272382097 0.5039787722524574 0.004241486227199692
0.4452152905007126 0.81150704403171 0.5162754353568484 0.012693970682277268
0.458632752561153 0.8194063802375772 0.5263064310583869 0.005231544371463737
0.3943191607434374 0.8191508865537155 0.522557348347899 0.006650572577587751
0.42478965932742846 0.814507917272588 0.5147572267542494 0.004854220710563871
0.43939490053284164 0.8107180328425726 0.5059311891448918 0.0077843372860915035
0.4612652582875585 0.8146841830949724 0.5414174709639326 0.011309033812956577
0.42334397390890544 0.8262066129267114 0.5416515660643176 0.010044669361060922
0.4079881557090033 0.8271153122089882 0.556661993892868 0.015704113686095755
0.40158540533419207 0.8307950231614937 0.5732327571459899 0.010876930858954336
0.36377891924694267 0.8313923278361608 0.556554749692599 0.0103939334565819
0.3839804383684505 0.8200238429936954 0.5533458118603423 0.002800209359198784
0.37488187211735946 0.8408999735088623 0.5862259304344802 0.01588305745911551
0.4009572930250514 0.8446868254967554 0.6000089984798481 0.017113205883340914
0.38000145823878345 0.8366727264329683 0.5800077594701043 0.015220970597365189
0.3870727813452586 0.8568718226146186 0.6152936476729561 0.007952579385062929
0.369833855370857 0.8508630559043281 0.6236956994166859 0.015113920192123764
0.3478918489933772 0.8430957433313528 0.5920654862271095 0.010532052455897304
0.3633765380393083 0.8382776469053309 0.6061233860889866 0.006756314073855352
0.4179931114414014 0.8408329870708732 0.5768126875744414 0.012588825691343135
0.4276405479033328 0.837406584522078 0.5910692905980648 0.010806324698712136
0.4443230502006678 0.8539290827819562 0.6202176071440902 0.011952557202186739
0.41602510328912173 0.8534232525197726 0.6056430926962014 0.010197886536513025
0.43351911742498045 0.846067605121883 0.6085518304336148 0.018910209766743267
0.6160604904556126 0.6972105191431897 0.4750938712844287 0.0003069325463582174
0.6082303256752122 0.6957566334509361 0.4547475011313966 0.0002908249501355466
0.550602727630718 0.7394887079998788 0.43100587033074805 0.009249067284454232
0.5691571917291817 0.7247794044595914 0.42878616534860176 0.00023877326719422845
0.5384540170285873 0.7497140553126047 0.44789413424058167 0.012144834828336686
0.5543519708642656 0.7516816197598079 0.45803328338555405 0.008311463285763116
0.5303995703498221 0.7612492274212564 0.46659765599272746 0.015091034897086528
0.5416376514287848 0.7735834787384169 0.49132948283510136 0.005673919200747523
0.5184608568857173 0.7775060717405384 0.48473096023160817 0.01044990231675141
0.5550418372385842 0.7666366786292862 0.5094481099274965 0.007055914225674239
0.4850949193090655 0.7985842194646723 0.5082961319812066 0.007750089227439496
0.529041799109396 0.7821340805789334 0.5106699117019629 0.012526694760009236
0.5275090961663396 0.7744753268572675 0.4954564009073632 0.006268774784417604
0.5083071222621615 0.7997413936745144 0.5315988055794609 0.00414396411350967
0.5363768564103071 0.7907453842816726 0.5317627135163322 0.006499913339784998
0.5317267788821645 0.7958900680611831 0.5369829222639501 0.007939756627985458
0.4684785075604769 0.8104665090417623 0.5366268378316169 0.011335290524606644
0.4948005585800044 0.8036746859610172 0.5402076928479624 0.004900376979780777
0.47537769967090326 0.8090571738129327 0.5467258483554466 0.008475759373013507
0.49457834422895436 0.8097322717754636 0.5616122870904001 0.00404919217700449
0.4718595505150046 0.8235094882202032 0.5739651248379791 0.00777251648690375
0.5148502250080765 0.8036690274785381 0.5558149526796312 0.007318190850651262
0.5127000624038692 0.8013797844835564 0.5489692691704355 0.002657870343296947
0.5334734961337123 0.7968424944956459 0.5561400001975626 0.009807680291065645
0.5240081877090579 0.7994098828307317 0.5608641045739448 0.010400516885120451
0.4766302297203631 0.821034299004416 0.5659626775674428 0.008301918612340834
0.4703163641822291 0.81404275413039 0.554922185831625 0.015504742322579089
0.4341380306566319 0.8248465596746329 0.5599602447347931 0.01287008389651711
0.4440990149664226 0.8302053357304156 0.5833629985398028 0.00619374443223414
0.23773875572992903 0.7357884732432374 0.4601150401536574 0.013980603841908407
0.23670094194357383 0.7446320264080193 0.4805871946309581 0.009438577421642322
0.2558940994826207 0.7373608930597045 0.4188344068690042 2.3139550058782398e-07
0.24501237722597172 0.7323064305208932 0.4359370168287807 0.010618571540514937
0.22656689902829524 0.7346796066031068 0.4791096674835434 0.004962050581408268
0.22933307782702522 0.7547495890620572 0.5090446961665992 0.007814478670374185
0.19987533005547728 0.7336134209338536 0.5061535681704367 0.003724775755282973
0.2199790280242596 0.758338003137663 0.5188283915798052 0.0033098551460459817
0.27295279045448284 0.7699756662411086 0.4667773918190621 0.017462082213129504
0.2563556323375361 0.7514943580849623 0.4578299408959651 0.008110374582178897
0.2717742322923832 0.7631988139846595 0.45535576167929204 0.016418542120434216
0.2812091526076488 0.7641062804787346 0.4523598264520045 0.015798947831180004
0.604169921174667 0.7903595536405663 0.6570529117250969 0.002698733831223753
0.6149337842783609 0.7800402182393178 0.6534621622077019 0.008706376752779533
0.5972617992609927 0.7983547536545685 0.6558137512875294 0.0001345028816476062
0.6064057443586057 0.7714782595545535 0.6213072605692576 0.0043115891698319786
0.6251202116116185 0.7695576547798647 0.6163024741948708 4.2463803563075364e-14
0.645322099844976 0.730985458675009 0.6163282024239919 6.882737892892009e-14
0.5536392434449766 0.843317189526601 0.6951450519852808 0.0050918214684635196
0.5652858473966316 0.8243822244364418 0.6736651558834841 0.0001719285731517599
0.543258416569603 0.8382681661954691 0.668927526226919 0.009944546786838338
0.5140862102607967 0.8501221334173028 0.6803034929473023 0.010150948475973058
0.5274703798169492 0.8416611375702409 0.6649822084246086 0.013050671795156574
0.5381963100593998 0.8426765491425582 0.6751626486986467 0.0070067003826574294
0.5443343350019064 0.82815101929872 0.6505766811898173 0.001651466426238203
0.5334572385371812 0.8270066085917384 0.6398468696573828 0.004180034361387443
0.516523617519989 0.8509525607909334 0.6644205470891135 0.007912278506164315
0.5243485900992422 0.8422871223165784 0.6537744930673193 0.011419287755745041
0.49753317833009925 0.8394381053072636 0.6199825927194568 0.0076653123695624775
0.4920723093927322 0.8442073267021541 0.6479346249902124 0.013503322542798237
0.5101984362125215 0.8297118568072024 0.6205111233590496 0.012128762049853666
0.4918714232183863 0.8346945478370357 0.597579601564703 0.006646442700585252
0.5362597104462943 0.8151525549416332 0.6069295987556602 0.004943809639426046
0.4900023389542075 0.844748879260589 0.6614015491975914 0.010841437292049809
0.4980590857355137 0.8431880103909594 0.6640096647203023 0.0097190021582969
0.4904048399748 0.8536753315196636 0.6793489266868251 0.015438416272135533
0.47850494218149625 0.8636977263634106 0.6863019775667545 0.005564753881988726
0.4669113003965655 0.858264617910617 0.672268016081481 0.007939855121338124
0.47164373926513636 0.8626967140585323 0.6799218507116157 0.006962114300777586
0.47787074130348 0.8527033800780532 0.6506162960357978 0.00940328004566015
0.4464914675226979 0.8507961083683697 0.6332907497921436 0.00725046222686039
0.4480964709437266 0.8645548787461547 0.6674178680854997 0.004538761644512044
0.48060226657475497 0.839208272729853 0.6313449658492098 0.0057750159648537564
0.520260883924869 0.8494152639049036 0.6865615286486123 0.012200087808009732
0.49262654704705905 0.866714287215394 0.7002498668644802 0.0063929311670594645
0.4918269122703034 0.8737108821898062 0.7297482952559763 0.15850144928159451
0.5085117658288176 0.860363432565936 0.694133251542263 0.007921638096862853
0.5306180841460404 0.8638431396735868 0.7104747906248355 0.0026971186295543926
0.47695172053831464 0.8755318803040106 0.7130576743071851 0.004103684950991415
0.4802533787004218 0.8775239482362059 0.7285894507746336 0.14632478218570402
0.4587919145544552 0.8840452884239738 0.72349656763225 0.009245228141025071
0.4628337561988193 0.8888935520863788 0.7400169799671654 0.010963461779547753
0.4850920549950385 0.8796603078769358 0.7438335944158272 0.17808675119854153
0.5044224537523756 0.8820811218736676 0.740593392159444 0.1284803340646512
0.5149205892730823 0.8762090942978661 0.7277691101874034 0.005832341674599381
0.5742767902802446 0.8024228863258903 0.6406373621995345 0.009824875568481007
0.5933262030010238 0.818882497887402 0.68680240949775 0.0006782764977033623
0.6077655164770336 0.8091074482934111 0.686715059681586 0.002406028496604053
0.5084390786101332 0.8802914946702198 0.7579494360446462 0.15405115278605205
0.5084855830197044 0.8812386130946055 0.7446198228750698 0.16668032031400473
0.46883920592099165 0.8900350432110492 0.7437165161285524 0.09719761557305263
0.5298951890480664 0.8760424515795114 0.7408016515985549 0.012421759147140998
0.5184783902745258 0.875724603427321 0.7371777485984661 0.11230384662224473
0.5532998387397065 0.8675588971835343 0.7398586933310636 0.006106280820581899
0.5743278864201489 0.86608855510192 0.7321736269964018 0.00040674911027193696
0.581461538421712 0.8734183055218904 0.7610916634526248 0.0098379470665932
0.45541312533275946 0.887978983004873 0.7522685104716104 0.07542452959056603
0.4558033238682496 0.8889467205138886 0.7468057080842174 0.012467232744057208
0.6228238227984272 0.866715851783691 0.7919551295972748 0.13069875119351873
0.45081534993191447 1.0095522252182751 1.059893342522829 0.048796611316163405
0.43067663012110136 1.0048549521939087 1.0299812895785736 0.013557151234429932
0.45268163446611476 0.9919251431190564 1.025439629954682 0.13671216884648676
0.49926407227246744 1.0001030381288678 1.0528025985705205 0.06030154907435256
0.49851310472514565 1.0040164710915498 1.0687247746881312 0.10372370099740473
0.49382081495444935 0.9994292282877906 1.0626967794249433 0.10032938877844491
0.5597507265373851 0.9548201563243756 0.9321304461696923 0.009784079693856279
0.5519454651735234 0.9487991150768551 0.9341349158061366 0.1930991178980168
