x y z curv
0.10385084454376621 0.5497138078017464 0.59302602978405 0.009600981136069804
0.40754927822939724 0.5468181156233163 0.5552862902200828 0.02356703907872359
0.3648123962148321 0.5533666045080692 0.556934498262084 0.006933668305037977
0.3477658210272484 0.5434193473380431 0.5508798398292682 0.005396703408433158
0.40813512471614133 0.4952422359028751 0.5785646670862828 0.0062032097431696815
0.37668611415723036 0.5842540118384829 0.833381497985803 0.040657943496490136
0.355950352134322 0.5919023730254129 0.83118350049343 0.08854249086040912
0.33023023812255353 0.5987819667470974 0.8462576404381693 0.02046350663059214
0.3118405637662668 0.6030896195761472 0.8338020175936809 0.13142491883947438
0.27558602489268763 0.6070601063554397 0.8349125278169793 0.07116365893005933
0.18244551923839275 0.6034290397512418 0.8413726662295219 0.07622617220050851
0.20941818474876012 0.5915842746612834 0.836748403141451 0.10720537998231916
0.21332011173030585 0.6018801761752035 0.8348534105353043 0.10993314126310673
0.2536252176813611 0.5852172765942466 0.8375178375916316 0.03261763966949945
0.11504588690696275 0.6049830212164962 0.8389829856569067 0.02666758697066536
0.15360804689237248 0.5741636761874613 0.830834189049042 0.043732277652084255
0.261651538433097 0.6173737758522125 0.8311862162346538 0.08422958187854333
0.21832237285218423 0.6151114263053518 0.8296408171384927 0.07490737956431044
0.3324084405760398 0.6099029642696255 0.8331011030114195 0.07344147954631755
0.3065013833060313 0.6222565747390516 0.8235645418401957 0.012794458353891302
0.44265965077895236 0.6201101302878581 0.8208943105530514 0.08332631161626951
0.4294737000106119 0.6198554791379104 0.8318035141106832 0.05520012035627046
0.1638221396663236 0.6202058241102016 0.8290577593375131 0.030961365544659905
0.19444756893327245 0.6169773032121536 0.835764261105566 0.07267350250568116
0.4582446807111556 0.6132385084313595 0.8199897534966628 0.058807055129879604
0.421461738444361 0.6122245382158503 0.8320480283097851 0.05299909725605597
0.4032664404525519 0.6134681040571992 0.8319884917858722 0.06176663524442058
0.39492829989365097 0.6140775157166383 0.8227879489315488 0.07705044039268998
0.07596526343419764 0.5672951360765064 0.8357699008599853 0.007844059749712352
0.02611317021135015 0.5727082948091882 0.8364558409851441 0.006295343859713563
0.007260010924089867 0.6115339696008975 0.8111939846734658 0.04323321552088858
-0.008744103973623343 0.5885685211967527 0.8186127192138282 0.06286990354360525
-0.0016301720464350382 0.5542059673844343 0.8142612880868435 0.0368779326194957
0.08292723840024374 0.550102201967868 0.8097723619156951 0.011661238983918742
0.002510720510128717 0.5434863813511647 0.8053228959474241 0.03572649944610398
0.041629464556426445 0.5943252510370745 0.8306646427672064 0.06638609889162926
0.023715495233026147 0.596490922394774 0.8305597716360503 0.08413018762579035
0.08596991272251482 0.6121482712707897 0.802058842491697 0.03798943527867769
0.12975313713074985 0.6176940412824281 0.8157778567047864 0.033694722264240945
0.10522062349800276 0.6139964567251545 0.8144832813819395 0.12961226619164146
0.1443876424132264 0.6089146243407015 0.821433660933295 0.1366074347803509
0.04117217975588548 0.5402223994851441 0.8017448096260609 0.015247353395003799
0.00739557067296296 0.6032754553022713 0.8298472746897838 0.051084752867094047
0.09807562817185772 0.58202353384245 0.8308140201353695 0.08634678386061455
0.024240271964754603 0.5614005719708225 0.8264281242223399 0.03022836040945257
0.06284003356109602 0.5549079372591836 0.8080171986879461 0.007185621120824125
0.14056723322570996 0.5613218641798984 0.8145936317524566 0.014775407763120451
0.13085348766916782 0.5519602758352007 0.8094179337950302 0.014369139933427824
0.1172293572029781 0.5502149068553837 0.8144519639388201 0.001895007673018897
0.1996939969636321 0.5563784955713078 0.8233171254927862 0.006039513060051634
0.16572340616143139 0.5581170998005182 0.8220626327999927 0.012395885465417098
0.23374850326885477 0.5459226955013335 0.8145092954060884 0.007100612651702818
0.1578275042366243 0.5418903054366898 0.8055646162392978 0.011043365820534638
0.017866802566376922 0.6117243998114966 0.8278853833033518 0.03719060443190101
0.03751892021129811 0.6090531162049319 0.8308767674190134 0.0543775082740176
0.027113604548876607 0.6118131595865209 0.8244875339147875 0.02807130606317699
0.05643542561296691 0.611545543424049 0.8268762184648091 0.0769216081308669
0.10487135945257398 0.6066964136114125 0.823910452497458 0.11666054797380082
0.1264731546114206 0.5956185743443059 0.8335821307442758 0.06337277551446449
0.3820046709983937 0.6078650996186732 0.8310815287199738 0.08546848222489144
0.2967550870916541 0.5809391964692249 0.8346166665279618 0.029405074443447757
0.4153687729629217 0.5017799627247245 0.6131597641652785 0.003079357680829
0.3993710416408561 0.5010256139916127 0.619526934467112 0.002559337283997949
0.32386288920665574 0.5012098337889553 0.6362579799830409 0.013440952858253122
0.441322246094308 0.4953361975365897 0.6189183964335547 0.04460379791643174
0.46419574889369725 0.49795496054249944 0.6052096386135413 0.04586272865586976
0.21990652273933262 0.5037590734964891 0.6249426394878898 0.012330954804942654
0.23564023329542225 0.5005683610763206 0.6141532160928461 0.01380609591277979
0.2465664171785403 0.4991462706956515 0.6000318053500969 0.006140063817281708
0.21689435292320774 0.49656419924934164 0.607129869174032 0.008837097262522752
0.09587912979783396 0.4947590368433387 0.5977127494963437 0.01279258977646811
0.10855838008445962 0.49802585129755433 0.5951546718996527 0.008565728023607277
0.07438911487313825 0.4883702204777968 0.5907779345773055 0.016679892922049414
0.11207702093379156 0.49414717293038907 0.5844958819187122 0.005307723707587954
0.09307098701913843 0.48758135477820463 0.6211143877882557 0.006326315046148492
0.04497993279004145 0.5012196258615595 0.6160940413814168 0.02023791456784326
0.13436320077783429 0.4926450814201825 0.577183206161173 0.015086180760338618
0.06157815479543646 0.49447404815251406 0.5663393986116546 0.012225261379650675
0.16421783558798866 0.48999167667495863 0.5837988631184797 0.007045525702874999
0.24203043134233806 0.4965050992417109 0.5744659730812263 0.012760123453470391
0.2246715153369117 0.49536763309019155 0.573970275592557 0.012581876377645127
0.12658958208220594 0.49170660465729926 0.560400899923531 0.008020006926205187
0.10173803316892809 0.4852499644644696 0.5685877227335024 0.014552309896196651
0.04626517464261778 0.500621918918898 0.5595429784430037 0.001169049753623035
0.08181092323277399 0.49713299429709024 0.5533892170575645 0.003983137326854222
0.07509114131421062 0.498017817396904 0.5444202777222591 0.011829478974626266
0.042903997994600186 0.491971123029416 0.5413593196394174 0.008291743195108302
0.10863755568612368 0.4873408223872509 0.5380260274064552 0.009336483335125646
0.16087379617750622 0.49964132436000386 0.5451522100597166 0.009693722325648864
0.07959066714783139 0.4947742864552622 0.5343932508508422 0.008768921073021596
0.057522256067391336 0.4959706932038279 0.5337173680390203 0.006492407124889752
0.08464884787474643 0.49345252186439137 0.5246764302796417 0.010854316138747586
0.16649299583212315 0.5011495329159183 0.5302066640051657 0.003038979137487531
0.14754087358864 0.49591888931881506 0.5245284835142716 0.010012213026165315
0.1845882858121501 0.4930087918592023 0.5253507706468072 0.006236650648271309
0.18397178172461776 0.4942555909096158 0.5569895349117487 0.017399084986428663
0.165106133859669 0.4972092541911739 0.5592931866954798 0.009061803631737227
0.17951598123816173 0.4966052996202262 0.5723752424650833 0.013552191680925377
0.2599950870384387 0.4988149992707898 0.5815419159019348 0.010326089357133701
0.1260049045861266 0.4922492066828219 0.5204863821212589 0.008261157047803981
0.04376650872890453 0.48879350076326683 0.502302131358854 0.006200143520701312
0.08329410911349114 0.4905844697419946 0.506457970744448 0.0036235500423672804
0.0462098831291424 0.4939884742684035 0.5146874388278572 0.005841100826913184
0.06360201197308572 0.4938322395476928 0.5012680858561293 0.0017277803866033443
0.11196847269369026 0.4960418333381737 0.5035189158452845 0.006139941849458875
0.15463967256882769 0.4888379271149958 0.49065936415915135 
0.11890576045996112 0.48951786635442934 0.48135935100322674 -1.449749676588918e-13
0.19176274452437023 0.4963600824780558 0.6049133242078315 0.01061912470144857
0.16936985527443418 0.49214523701290674 0.5978709411968172 0.0070614499513162515
0.1488980910504748 0.4987970389799002 0.6065557415924584 0.006694561879191903
0.18294658753007764 0.4984086384471003 0.585688456587447 0.009668136797118402
0.2283616094387299 0.5423707204296989 0.8035164862329203 0.03597115301374372
0.1670121933935341 0.5462776781216702 0.7998114565119094 0.016803374733910564
0.27626006931412156 0.5430439302197959 0.8071385959076373 0.016177804146088208
0.30739610549568697 0.5479122808637403 0.8015994432702281 0.02853720746571645
0.25404369462985177 0.5488016888189781 0.8144832443420664 0.02221186455656476
0.4197393425042259 0.5466308040383941 0.48911154860199313 0.011827239177689438
0.4286485999781311 0.5444379211533862 0.47234531330568286 0.0044328971225329914
0.35724192324905013 0.5409068797994362 0.4814232516116481 0.009792104885478551
0.39413063032203494 0.549797707204763 0.48039176343123385 0.013459476507852206
0.37526667479656123 0.5427319109464812 0.4784166545779467 0.004471876730474044
0.37063582391038324 0.5465912036967521 0.46454242375876076 0.01707478164738677
0.41706994604179976 0.5465722851828699 0.46083011893792886 0.011787510173064434
0.4045710486090819 0.5481215304700077 0.46071682415866505 0.014070749727128228
0.42154581233039523 0.5517159702610452 0.4481684631000713 0.007334243591339302
0.33635052836667 0.552471047682183 0.47781735161472233 0.007883567070218457
0.31558714625877293 0.5484506947090809 0.4524655992315458 0.01625766327233011
0.3266134542150526 0.5481043822380807 0.45771102358861476 0.010150166086290805
0.359880186562219 0.5465407495902088 0.46402241832467694 0.013783746649080685
0.2869843685682522 0.5447655773225882 0.4519221976639257 0.01119131982379274
0.25907610290133315 0.54550690082071 0.454343788844109 0.006376766652456534
0.23957287763615848 0.5501342794593593 0.46970505320479156 0.005691659055461971
0.0962905763018484 0.5575663591869101 0.4584301053467314 0.0020356680200752284
0.17373345964200526 0.5468865371246218 0.4763996688406577 0.015172897009988263
0.13885410404770043 0.5488120176322759 0.4440647469254792 0.01677724740428962
0.05558973226709682 0.5520892982739061 0.431572655810011 0.006685222306116141
0.11743554443277762 0.5519644373793035 0.4425364713224992 0.004438826134605263
0.1539016857168649 0.5566393136848321 0.45120121811248154 0.008288547703729587
0.08055304649884878 0.5505331626744894 0.46547703545583763 0.013414774765552046
0.15338060512672239 0.5418608254122483 0.4859621079547353 0.01901206217895619
0.1448694808986449 0.546708588526664 0.4727622303883026 0.019159685896475435
0.07423694916760468 0.5472271371287655 0.4858041198326911 0.006919033022124112
0.08830071457780207 0.5479751894447641 0.4767988596370799 0.00401977944568401
0.07722461351403993 0.5455341381282762 0.43168459866844744 0.018052034606216488
0.19916116548603724 0.5580748927310053 0.46390689130516427 0.007571025358158172
0.1647667914480183 0.5480547755932736 0.46267534877845273 0.019996843383538018
0.3059637369946709 0.5512372715135686 0.4768788415464314 0.005532208120554973
0.27015421549006713 0.546244992768495 0.46822792977585426 0.012616309525854264
0.0995486521886185 0.548801379807736 0.4876781252244631 0.0052670537538481955
0.12516606983661258 0.5512426433911841 0.4833790877012247 0.007129277689053506
0.14045251753270838 0.5432262423313295 0.49015991321877084 0.005542654728901915
0.11101534950768563 0.5496101794577398 0.5032096698261201 0.004721644261824041
0.08458949247413482 0.5464159584927819 0.5143658270632387 0.00632508464641348
0.24916237636616348 0.552581324510267 0.4956836292736923 0.00889073361837725
0.21591677013202085 0.5480189792672239 0.4866880106343379 0.010289782362793511
0.2704873558574997 0.5426644100398216 0.4967608295556654 0.008107954886677428
0.24640265643498946 0.5497737219633783 0.5000072765282576 0.012690114907900368
0.2853406725783561 0.5398631909764059 0.4999968425209158 0.020493885716111417
0.31123803307468073 0.5431993995227697 0.5143839905949527 0.01241840509032269
0.25593018601145967 0.5501821148371165 0.5071230613831662 0.014443346081828226
0.29653348790934064 0.5420392900787491 0.5086835580062518 0.014949439166326791
0.3231347143708836 0.5426037996436923 0.5183990686910647 0.0078249936274733
0.28677505311354085 0.5475460604831596 0.5177356114909939 0.005446265125535727
0.22530818502380046 0.5520156907784316 0.5224700233570632 0.007767229821429321
0.16912625093856232 0.5526077878863027 0.5176044570946792 0.004985339965838496
0.19781371225287864 0.5454362202979324 0.5126372720699776 0.005647133446353563
0.23371522187729524 0.5529552531941777 0.4806524905864268 0.0073613960452238855
0.3135920542555805 0.5494165858644439 0.4840507795247696 0.006399758941524375
0.29933255542575027 0.5436278279599808 0.4851840885012342 0.008527421523111863
0.2861722816570642 0.5399705641728412 0.47301522654478245 0.007009014646395519
0.36587388045007957 0.5035078313986641 0.6641102949966494 0.018946285072311598
0.3776985101690837 0.5125910619806275 0.6735628790514874 0.009109665136877767
0.35091303953370817 0.5047644828776389 0.680846863708877 0.012878265434088421
0.3316149238002315 0.5089129529821441 0.6693540988758724 0.006144661385395311
0.32524115120709707 0.5086732972410991 0.672142501536034 0.007795265885574676
0.3019794084867382 0.5076151300798964 0.6725187084610746 0.0030426096736565775
0.26091227956618124 0.5009255725651008 0.6814425873607982 0.006187552802957118
0.4316701058286641 0.49446664014486313 0.5048528852012631 0.07868406184701508
0.369428891340193 0.48817701019348875 0.5141335132152121 0.0035963351450759274
0.3327478656699373 0.4906342296740439 0.4994239848773007 0.012169192386588023
0.3129734923643151 0.4883218283946266 0.5216920315321673 0.012424728948245142
0.3446752413850118 0.49647770391466634 0.5158369622095786 0.007025293189282832
0.30808064391274237 0.4868259775696597 0.500520928415646 1.6900059602153184e-13
0.2955286572104695 0.4833496179255624 0.5000329903095632 0.004102816590193836
0.22935558062029854 0.49167008107910354 0.5242361679454519 0.01766560392515219
0.20834964023642985 0.48745542775322426 0.5139752681793597 0.00937606014040527
0.2524533238167648 0.4902027958337836 0.5252620985203429 0.013158018562620484
0.4463871248002317 0.48930252752089853 0.49951285080121327 0.0635244723247638
0.385757339503592 0.4884915352843729 0.49430355524576747 3.7566268408762344e-05
0.2937770780744856 0.49186021154507453 0.5401399576592096 0.006162317602884893
0.2717613166450602 0.49576138462773345 0.533627267910789 0.009750076074559166
0.3222133720537996 0.4873674481496743 0.5462613400202166 0.00828016603402758
0.3070274939362763 0.49145982447851816 0.554813666913305 0.0037268173394457427
0.28743862287343863 0.4947504016516599 0.5465443204081805 0.004002137598707856
0.27765775682077054 0.4940367244526736 0.5521152596389384 0.012267474709252615
0.25506965071980775 0.4963525759252904 0.567105130142762 0.0067484801802776325
0.3405511890351581 0.4925953459565975 0.5593214834619946 0.007031141036518355
0.3989261745039122 0.4893845117720516 0.5288796798561496 0.0072590462963801
0.2754879602788149 0.5662104376049072 0.8261520413277567 0.0033314381176289738
0.22985066150736583 0.5696889273015296 0.8261889899505369 0.015029644180489968
0.11939582783128981 0.5613466957052089 0.8204080492024115 0.013131235704531745
0.0502844243711824 0.5607848759819407 0.8197036972349891 0.04645354354149041
0.1300227761249158 0.5708198565529696 0.8295141026672634 0.010475800922061657
0.27079497113761597 0.5571169790782434 0.6485687780388163 0.0058328809077989605
0.3524288047253174 0.5543152683249146 0.6339499021140501 0.01090837359333705
0.4342148573746003 0.5603400088672256 0.656838166480474 0.014311392789755331
0.3614720539215995 0.5611974370950633 0.6543767745571987 0.010893602272144847
0.4045850769956727 0.5571641296574922 0.6510455092788253 0.007147885048619566
0.3870150738061692 0.5626330772978301 0.6526066626366058 0.010437421406509204
0.4135888556540437 0.5538896240543731 0.660509633328157 0.011027469611194135
0.3445238224817414 0.5608180599175723 0.6540344067907299 0.011556099336443859
0.33050525693467464 0.557461569251941 0.6624577407975752 0.010385003228242198
0.3658806397184472 0.526696747403168 0.7842605271136557 0.012568720462646649
0.30049092259931426 0.5392167445966631 0.7813018440146314 0.022083083405368357
0.34397967295136167 0.5281413784755521 0.7764184668552149 0.018098774229982264
0.28748476718712157 0.5356067246993553 0.7738512054101137 0.014157222374107707
0.2613266778964939 0.5346607047890181 0.7794389927695948 0.0058898996956400175
0.4433459364557216 0.5354490461061938 0.7809026465555857 0.010654818813043827
0.4319680341406347 0.5362956497461873 0.7889121830307847 0.005626917698749102
0.2951493678316674 0.5042855186910947 0.6473942792323205 0.0030890432166408564
0.340813137008732 0.4943391069956364 0.6440058724676003 0.017875501586279145
0.2699460893612216 0.5076824454278992 0.6519797366398911 0.011109803888783442
0.3270329244604038 0.5034754262657417 0.6468261226263006 0.015666268307192067
0.21106160093875234 0.5038242877814182 0.6407240819409882 0.009643571547805202
0.179882685308694 0.5049166742604889 0.6403659706629441 0.004419579293266074
0.23212150855923186 0.4991759231463105 0.6318268086518315 0.009961761265861712
0.24528304599782114 0.49549624642557216 0.6371692163190971 0.0025286823731131714
0.16211399066947765 0.4998237927495042 0.6302392736781585 0.003951726440275238
0.1531337940612937 0.5040628915189422 0.632749654297612 0.0032927284723174234
0.11356893225894843 0.5015763868993836 0.6320229339452831 0.019772682993450245
0.08430305867891436 0.5056263909671725 0.6427024530422878 0.016479166773728553
0.18466842661202093 0.4986148368601015 0.6266197098978418 0.004257364266177262
0.16818429817043987 0.5001406586327958 0.6304210282077276 0.0043100193753380115
0.17023777582266295 0.49776847360253 0.6106186512812248 0.010799971193750103
0.04590148067481343 0.5012556882042631 0.6506060697463382 0.010279281311771487
0.025674434807955074 0.507905901984673 0.6493390095559081 0.023411745433158892
0.23605476326564415 0.6054954910850465 0.8001073512887432 0.032104122875999584
0.3895022115956445 0.5189528398717552 0.7085405835683498 0.00906533088983943
0.3379159141460908 0.5106411133973644 0.6990714609534525 0.01572182684321123
0.3821508634483912 0.5199359809318868 0.7023758375321357 0.010023391229773533
0.40642916622871594 0.5149607846843139 0.7041514925140655 0.005801375174090009
0.2376887579880599 0.5179273275477408 0.6998816286171217 0.009258526798423428
0.2893886039748555 0.517093387591415 0.701772814280439 0.019171424574975268
0.32330057343069746 0.5195665087931074 0.7077245979800766 0.017193289438043845
0.2708030087435304 0.5159638336070455 0.698311828827337 0.01396467207972786
0.2105253518271383 0.5192823334096482 0.7007120928467817 0.004546659491747478
0.1776655311823851 0.5103078577022728 0.6974062246679956 0.01628410355664896
0.11605820996646778 0.5139956415927291 0.6985694745295815 0.0032503117632732134
0.09348560639898758 0.5126998170902134 0.6975885908018467 0.004138347413737767
0.04081350891729386 0.5067076186325336 0.710343835004497 0.006048153293226528
0.017090150412225873 0.5172928693771269 0.6983323117232393 0.0018018228653237918
0.11369454700380985 0.5128873653363749 0.7127503786686722 0.0024457464512598385
0.07957010805420821 0.5095414680810468 0.6845427420955583 0.002494896019263348
0.03288120134865123 0.5122362265346797 0.6885729461788213 0.034874915186047656
0.01589427337574645 0.5202146637934036 0.6834355235387283 0.00416039333850153
0.09196878107307724 0.5110012760769664 0.6886546130322975 0.0025701008951592263
0.13097651353506273 0.5106308265031343 0.6800732975371674 0.009427481853772882
0.06225920201858315 0.5133465709929426 0.6825794639105168 0.010674339172656052
0.03922084959666113 0.5008686039404663 0.6667314706415286 0.01067612611606954
0.08036871206974285 0.5102761109852454 0.6815481816185949 0.002702353440429715
0.06114563931365445 0.5099282914725461 0.6656201145286185 0.008518416894287876
0.027246697504713712 0.5123835221476887 0.678404718047026 0.03588006465161295
0.07953154651250743 0.5190032258262547 0.7145175665315486 0.003179351606165626
0.08413035647711692 0.5221393104592545 0.7304777767474347 0.009414391511628865
0.11670914370993953 0.5214140412449267 0.7271008278974427 0.009627542896859402
0.09122554883317471 0.5189771039379424 0.7268334221062502 0.004965447513436245
0.1519979431295833 0.5197959939771651 0.7230382846506334 0.01836686905594786
0.21445779395991935 0.52391048069792 0.7245689929723304 0.007175595830710555
0.20272928743592308 0.5276770296716239 0.7337302369632693 0.01622475700307839
0.16715025265762298 0.5100399819761701 0.7165995153951933 0.009233220759477995
0.13302306765897728 0.5188866651644651 0.7412930081783954 0.012691934225141779
0.055958724923564594 0.5216942240339139 0.7365660675636467 0.009100372590593386
0.15445913286958823 0.5279109374482089 0.7332165483388731 0.01921610555384011
0.03725029544997415 0.5193138949359315 0.7337872981605148 0.01359779996439136
0.11493856762086772 0.5324766025688756 0.7483165713719795 0.004010687120133539
0.0493023889448121 0.5248627992538542 0.7512831089670547 0.018804482225356918
0.022505550156169354 0.5308723217430931 0.7527570569598575 0.012526618593552516
0.08501948737571141 0.5316860368779353 0.7540350093460947 0.004177639917212825
0.133548789588864 0.5268359970772786 0.7576814431892437 0.02403703163240981
0.20698659245014445 0.5269350443119856 0.77073983813776 0.0044098253988753945
0.17281869172135794 0.5333776812168449 0.770350037148496 0.024688389796227835
0.21454831532357518 0.5294763238581289 0.7720580639033691 0.016770783296360583
0.2556100416435026 0.5342115320630394 0.7673067915439383 0.005347972571985487
0.22383942361827872 0.5309517676398758 0.7696162346963581 0.011919588184410683
0.1836875343562066 0.5389362433058882 0.7761865602255391 0.00518713041507638
0.02875665200227864 0.5272313659511071 0.7596976140750685 0.010516320999916206
0.012332070709693287 0.5380529572763393 0.7691426633923975 0.01546252579026217
0.06999741914399084 0.5263289650638697 0.7644856293743383 0.0069452471201198775
0.03785452755565263 0.5332579692962932 0.7696506831956395 0.00812720194357276
0.3552124218421885 0.5255004322594047 0.7309093969614325 0.017352593456996142
0.32353948107454245 0.5264957739338613 0.7166464226350749 0.016595700730080584
0.26370865129048243 0.527764805511672 0.7450328131196717 0.00934951134475
0.25760750845064545 0.5226749026120913 0.7378661709849403 0.0021436177095831704
0.30020597512570035 0.5204992287887725 0.7458520144351984 0.0066970067667757125
0.3536358485456557 0.525498633150836 0.7517807431747001 0.009098662455668618
0.3375014330609287 0.5312140472061401 0.7410844903228662 0.02273875296834542
0.2868569826199607 0.5317850243040909 0.7509020628513282 0.012693407868816491
0.18468517189525405 0.5670862159123485 0.8271297300217446 0.025588039358616803
0.197780797415861 0.5766172013771679 0.8339032271362081 0.030382529931292583
0.29799936539473765 0.5702882784231937 0.8242064521717501 0.013017634287599469
0.2622065232275955 0.5599480918078905 0.8235578381797476 0.018950623789228876
0.4386170732242422 0.5844515054826867 0.7575257770604009 0.005692077592048546
0.3366929617420952 0.5809075676461307 0.7472015933709013 0.014580213552276185
0.3778800521386746 0.5829816599027468 0.7546473839117117 0.028853060213967385
0.36402573882014944 0.5827619632797586 0.7625164950024168 0.0022217724662608115
0.3907481598121916 0.5893528895094186 0.7720344850142444 0.012624487584132175
0.19532163414487427 0.6144323171077449 0.8251121776280641 0.14922286081213765
0.22587038799730197 0.6109310388604741 0.8256601255188843 0.09745421423550044
0.3610069226551426 0.6130875191329067 0.8260780816614699 0.08637825584809919
0.34443989117607066 0.6175343030775458 0.8213490537937681 0.05228799756695148
0.2684551723583551 0.6141334063849347 0.8146449063499018 0.10186348967566525
0.2843571590716015 0.6068548764429293 0.8063538280099818 0.02945487260421363
0.30271493732703836 0.6135012104571127 0.8064247308384457 0.03576053432878042
0.2738370214368451 0.6124651792698902 0.8259084526039231 0.109596286796562
0.2552778626632021 0.6212082793131951 0.8120792045349985 0.025342252903520643
0.24246898929285077 0.6196505838268495 0.8170401457763762 0.03076775100647231
0.1790036018125713 0.6068880980675654 0.8001675745343958 0.02674354566459065
0.18589898683477912 0.6079261904023558 0.8099825593964705 0.07122425789174226
0.21638109777027104 0.6129113765979726 0.8086635422480072 0.07055018682949689
0.1993983722261463 0.6176342797283859 0.7958103658099156 0.004367259687173421
0.09760974985247017 0.6115671380386947 0.7911647611231891 0.04912979924345314
0.1176492928875676 0.6117024677575769 0.7969947137412149 0.011849377447072375
0.24059378963666117 0.5213569428823249 0.7184063781547101 0.007521030465581842
0.17749211392170633 0.510633287138091 0.7099268592231774 0.01124151150158811
0.13972094867253904 0.5139234357770864 0.700482259283879 0.009208672615505792
0.2408961136768064 0.5212409501355746 0.7156336718412765 0.007471737139397842
0.19701310990114634 0.51557217459156 0.7020573824648807 0.006273816903669181
0.29656692977833415 0.5146401640939147 0.7151815286012573 0.019426122874991476
0.34724529073527594 0.5118439040638163 0.7112633301818951 0.010681139221142869
0.25552226113650167 0.5230729273918953 0.7057352734724145 0.012900066263484316
0.27940993757644056 0.5149712906123743 0.6858457149529512 0.01945987241967056
0.3288085652243315 0.5099904519987358 0.6862312791259406 0.013395506108021435
0.32941832840447466 0.5093172579579773 0.697174656350679 0.017222415175522296
0.24320027208602155 0.5080765381834834 0.6723926222186997 0.01784917378003383
0.15577699112292007 0.5087343232545408 0.695413515436045 0.008140744623700595
0.19312430800294908 0.5045036074135955 0.6857504385102324 0.006795863412854659
0.3823917393038118 0.5682425922047474 0.6899746697502931 0.014074318422551748
0.4428433828585555 0.569866311005942 0.6916235795486885 0.015461098420768858
0.3471721258480122 0.5681364251821981 0.7037684963496883 0.008801195669134298
0.289649925087278 0.5696141548691263 0.6988650294004722 0.01184612781972247
0.3156335053808895 0.5704858843744259 0.6874198269176075 0.01347340703755022
0.3494697180807884 0.5648513035270075 0.6879795070826645 0.005409161447003158
0.3015726263048497 0.5719808908483022 0.6857696262466493 0.019119779871445093
0.33264056387129626 0.5669188992204052 0.691060334069245 0.007691516129834739
0.28475962413226624 0.5633137305515953 0.6882601688712459 0.014192605953191368
0.21266367558891539 0.5653224474909452 0.6904326531600232 0.0053654389293930314
0.2334779659992915 0.5718035098227555 0.695813316500817 0.00432381043739114
0.24714811589730049 0.5655402291578469 0.6779159074575172 0.006727432376292997
0.25543870888177755 0.570256855739286 0.6973090812559006 0.009191635169413702
0.18407871045931443 0.5727114470130471 0.6975951668294184 0.00688063185448045
0.17548434411554692 0.5687659523501115 0.69584788002797 0.007054207097730201
0.18661522391667099 0.5693345474579468 0.6925905292455541 0.00802990254483408
0.13061260908637864 0.5700355024902499 0.680386939219725 0.008399683248646057
0.11867911090761651 0.5643404740353779 0.686045025722479 0.007624186465086266
0.07155401087056437 0.5652438597937354 0.6891521633250007 0.01507297693622605
0.1324989613182111 0.5700605647154217 0.6926823353855437 0.005362611974105296
0.09390845662938785 0.5707705289959323 0.6938958306830577 0.013106125975807504
0.27726960213039803 0.5667696112348944 0.7042984957439938 0.008301187312691726
0.1606479166751479 0.5725155161281158 0.7056268236471128 0.006825687009248371
0.12037107817147455 0.570032640352461 0.7078604425669687 0.007335477431289946
0.12929094779863579 0.5706645156132691 0.697239542916708 0.00828012814471946
0.30630292817177 0.5730158022881788 0.6683315683473815 0.01570452872038225
0.27021309045624037 0.5585816525738589 0.6756192381415449 0.014443925319632896
0.07488532302323411 0.6265894718987753 0.8305604853271984 0.02738370170545811
0.4274381941446512 0.5207141615464806 0.7462497217752396 0.009793289614643895
0.36405677469554604 0.5230812610571987 0.7368502664297959 0.016423985524381405
0.4880391336070008 0.5195768555055417 0.7366039851546813 0.08166332952209097
0.3827091465867599 0.5278207093286421 0.7343929752595189 0.005165691441592881
0.40097531870560027 0.48796079845814067 0.5457528262653388 0.004634322709834366
0.37219743763262536 0.4933716174670903 0.5720196548520056 0.006265905507033107
0.38281416685202224 0.4908114865120033 0.5591378476302538 0.004407191659129201
0.2725403821527341 0.49951713216053667 0.5775490952182367 0.009479788874218572
0.32988840138904396 0.49907592580053045 0.5760500708881876 0.012294768658965186
0.3118912491450633 0.4972770986683157 0.5758917250512964 0.02108287814192801
0.32807030391542036 0.560165340290159 0.5945350410110916 0.002593116728744103
0.3081583649453727 0.5525495085536114 0.5930065807962607 0.01527693753970085
0.29144513527668714 0.548335762011908 0.5931411221157414 0.009352878334899646
0.22468479218009982 0.5524544185689693 0.6001510990509963 0.013635635542639519
0.1946697061766513 0.5530145994204784 0.5926080951868565 0.011161081781288577
0.16374558329596614 0.5479933743340087 0.5920932423556288 0.010369843542096451
0.16536915810009784 0.5494402843360909 0.5996969258524906 0.01567679247310394
0.14387944315010695 0.559357882903952 0.6138675043178107 0.006425881749513746
0.1912597798829151 0.5611028002316122 0.6142548469646204 0.012603319156782148
0.18737195598324632 0.5622486109156302 0.6255503089394573 0.015659036909984048
0.2105216485620405 0.5521066789189802 0.622028346141736 0.010939444436697199
0.1735611352263797 0.5570448175441891 0.6156580247147194 0.019151612134461836
0.23058530295956647 0.5534761005518112 0.6254469039226909 0.0036649491890359564
0.2018711757456489 0.5536384051032794 0.6341767428452744 0.012838961133498751
0.16120351461643148 0.552415273675705 0.6323736478707428 0.02106673882944317
0.1437865099102778 0.557818908776756 0.6304768103368528 0.019850693149639824
0.08004377845589442 0.561309988553013 0.6310550144900985 0.006384759303931436
0.08462322660627368 0.5586052721967891 0.6304439399659005 0.006654956531805953
0.11824860708015192 0.5588081304674423 0.6328009724765007 0.012278551993993211
0.20689999525849817 0.5039259830286701 0.6175993793851035 0.007387128886820191
0.28574785559192384 0.5002661013922427 0.6294151441791563 0.009218929233913084
0.33456212591977535 0.4944701542493786 0.6286229576954878 0.019276573845245438
0.3358868299961013 0.5498363748618673 0.49954062412897593 0.014962732142717443
0.3644928541898954 0.5423915745375762 0.5026455662702447 0.017678261502642133
0.39905264820494724 0.5562080062598567 0.5084812278307334 0.007607614331324847
0.370266277884908 0.5448791062268683 0.5157244471962034 0.015972841059720688
0.2580175909333684 0.49476693771908226 0.49539871943453806 0.00017732964489888223
0.1967305786257535 0.4835008084413558 0.48965447505416354 -2.5716449943372833e-14
0.22948874324328847 0.4931470112128935 0.4998437062260973 0.003781357102655874
0.3425472701168883 0.6131029436024497 0.8280755974777898 0.06922266070887889
0.4468561961153778 0.5917345853717112 0.8352314372254704 0.05900228959435007
0.4237470435947043 0.5980027164227506 0.8389319568860784 0.09898029140791002
0.12427107255167966 0.5432475757872122 0.8009839454238465 0.030185685842438886
0.10710748961061316 0.5437492806924652 0.803235931327429 0.024293452235933197
0.06705971049381614 0.5445066785879136 0.7979717257613554 0.024002855370314772
0.11026464996684379 0.5595602762811263 0.6162327391064453 0.008174312837233052
0.0884803026417488 0.5507791112402958 0.6059976192463877 0.006379550468497971
0.11910572756206493 0.5558722143880468 0.5910537075780127 0.004758777596592756
0.09326322554489275 0.5498199847253589 0.5932441185073719 0.010082011344204122
0.05156131524584451 0.5783615022764333 0.7006770916182221 
0.10684502363397615 0.581298534464875 0.727176993604274 0.004674426315912707
0.10318140126920126 0.5836833123478435 0.7284861249115648 0.003934174981188934
0.08493877144766913 0.5815727776602555 0.7246960825374156 0.004408417601017359
0.15210945982355265 0.583013997954454 0.7349179133904901 0.0024708430637644715
0.2122251867717773 0.5822780135752388 0.7413787077091374 0.009032247371555719
0.23048790056903914 0.5848041934507746 0.7546898680095273 0.005345453298170541
0.07821376440552334 0.5864504569900312 0.7456283716767204 0.0018529364424844242
0.10896125866185337 0.5876728127288063 0.761244748242502 0.006878440579655057
0.08449458944619385 0.584529565108026 0.7522963756841693 0.0015702890260534397
0.13112323863864633 0.5958527337370132 0.7574370744412533 7.779838781837834e-14
0.21068976303911646 0.5940745077134121 0.7655247591581626 0.00219850508139693
0.14306954370160116 0.5959900919351587 0.7622512286242885 1.5575067743490536e-14
0.22755768479021826 0.581955636646805 0.7405175720294306 0.0054659003173871965
0.16697551086900597 0.573307760410215 0.7180464589385949 0.008365598273466847
0.19919780177482926 0.5739380618556296 0.7258488804722817 0.004231452149177663
0.2157771818128354 0.5774914469429139 0.7223986765207706 0.004678521031763225
0.19719827569851875 0.599586678758428 0.7639775777276288 0.01015176090966069
0.2985229985569946 0.5817229251156151 0.7579510925025835 0.0042502701135245504
0.25749648294975747 0.5873236353863565 0.7634048532007238 0.0033076451177079026
0.3365546279157047 0.5714074405373208 0.7213661968524939 0.00937514611280172
0.2696444678319111 0.5789383707732884 0.7247540516084102 0.0065150793418737
0.34747530246628544 0.593273745393148 0.7721509829191112 0.007279029527911763
0.3375155224973956 0.6014119638528861 0.7764163567022768 0.007013546505325619
0.3539785067684902 0.550763737029957 0.5216544403118567 0.014854708323656594
0.3335422567796733 0.5473971517246715 0.5346045550162687 0.011661977669777937
0.2645462787998979 0.5497436059351007 0.5481205746810462 0.00812496773145707
0.2108781136279175 0.5479348720713793 0.5367480747063911 0.014342013586885034
0.2466884807847059 0.5429318593467468 0.5296120480494978 0.001911268143538439
0.18400324391005046 0.554836186463263 0.5400306472226164 0.005068844753812069
0.16410904865558434 0.5497076068600026 0.5323120712899864 0.010974589678437723
0.14153106303887025 0.548234403803706 0.5494648240467785 0.007199539883134005
0.2334597524988223 0.5470927579272425 0.5507009471039196 0.011060929608712713
0.2196796498200756 0.5526343287561722 0.5606959453068253 0.008369644753584633
0.19529522028202642 0.5495144207894412 0.5538053767053952 0.008373503865393416
0.22802996871479347 0.5455453278994815 0.574896120666839 0.006788050008377724
0.23093433829001137 0.5488694959291006 0.556859734425612 0.011098820939936879
0.061737622485991905 0.5562452078637559 0.5626230225384642 0.026824751247576512
0.11328942021598196 0.5474003912944692 0.563924894592128 0.005358118612518158
0.07331594826024097 0.5521548204113214 0.5493345639218651 0.008560422184562618
0.06220499752955359 0.5482852441002745 0.5342306666592549 0.002832984209230056
0.08963230609115917 0.5523968083443336 0.5625039723710568 0.006994272489333268
0.1295650715619598 0.5467719507770205 0.5368039690149718 0.008958533972347232
0.14156247071165978 0.5444748008571525 0.5279420181942166 0.011130020642164317
0.10037570011009632 0.5430206009937261 0.5274076087513879 0.004719890332502272
0.11193398597527764 0.544660542172288 0.5331841778376861 0.006286660738517774
0.05595766072679178 0.5476803111171995 0.5206865672860586 0.004354773035624443
0.3695656479934875 0.5473654099159818 0.4362050373113687 0.008023284121242326
0.3478180372583347 0.5449682108297194 0.4470019504184774 0.012082775654141802
0.33601312789047416 0.5439821171185809 0.43706392243194997 0.011998615837419372
0.2994503604764194 0.5470080246226267 0.4337102821835256 0.014959942368040607
0.2750378600023588 0.5474254154570333 0.4320714156537314 0.008125544539814495
0.27324559493238354 0.5435620070203374 0.4453327508507278 0.012879968557696178
0.4465589599008949 0.5488604769008046 0.44030659753712253 0.030874117662927622
0.3671281079154611 0.5478955639214969 0.4213063003451613 0.02381771235486943
0.41288090418220785 0.5415904486004878 0.4202329272947049 0.013532099859842515
0.3900735836450269 0.5397893346988478 0.43442778335989674 0.00761672680165362
0.430695186773207 0.5472251928604973 0.42381123103945406 0.0066192033966936785
0.337354806201881 0.5421512663010573 0.4201936506345649 0.03187468773869547
0.382771008822837 0.5471920849067925 0.416301335092236 0.026913629326956685
0.39693202352822615 0.5419513066420127 0.41617567624510454 0.032635424105341995
0.2956671806903734 0.5385679480543525 0.41258798835573873 0.008171560191106573
0.2578603016650536 0.5367767113407251 0.40854480943813604 0.0008588575368372621
0.3427319697473799 0.5416126055631652 0.41840643714132425 0.04675872016784646
0.18886615465812848 0.5423297937261592 0.41880046125824355 0.008345229662659052
0.1149877839578741 0.5414411595335724 0.41333160230988025 0.0047862770592339
0.08915323685615019 0.5392044955248398 0.41263348842913505 0.002507596863575284
0.2716927475173179 0.5382110174245989 0.41174166218023467 0.012413320712103007
0.3061840309317884 0.5415927130237661 0.3991812279647735 0.03070517566396639
0.21692141856458383 0.5366321179321539 0.40748863946959235 0.0036902051378349056
0.40716050318092856 0.5414336120673847 0.407069468400231 0.018163199287351276
0.11181851195249007 0.5326787491714968 0.3966060196869806 0.001946937234257551
0.16063422614708184 0.543244712843304 0.41190632648581743 0.005690975273288941
0.1237394156180811 0.5408835715351983 0.419029278281469 0.004587585034884928
0.06862261070110409 0.5459323355119104 0.4245961527196156 0.008206655907693497
0.1753225109210907 0.546665197155373 0.4259663411690546 0.020289593517849678
0.23821115167361176 0.5462600038983382 0.4452785338780334 0.005810824638580059
0.06712256638495373 0.5488990771524977 0.5813706222874433 0.011175260443193452
0.16973681030973792 0.547746324132272 0.5776375518885908 0.010584965003040002
0.20851455219503529 0.5460202431183571 0.5628049544711686 0.01166923565556959
0.1632552478333385 0.5528553297590044 0.5685770152185872 0.011402406210559242
0.23419474919900038 0.5093093931438953 0.6824194424656055 0.013448249122189743
0.17683342323284668 0.5054986064739816 0.6767872328179819 0.007745330033175025
0.14172476870312137 0.5004376407364914 0.6648799291652981 0.006723580752038923
0.1365382458358579 0.500945840553674 0.6662981392505682 0.007639868729424385
0.32139389448843153 0.5517125972381691 0.5472298816228063 0.006924773007805723
0.2963931641339947 0.5440976988250814 0.547768948013096 0.005183758454826495
0.3084916416129453 0.5466629004508724 0.5712625274326427 0.016218071535623883
0.25933431959646325 0.5462037299997862 0.5638882196295105 0.0042048585188593016
0.28974555760932946 0.5519717083378642 0.5605742041259206 0.014486148827503924
0.2786432543089402 0.5533117700180286 0.5615142071503643 0.014945438465891027
0.3708208414642254 0.6077435544800496 0.795846505126844 0.01535796823698657
0.322143528393918 0.6105808963049021 0.8036331344543066 0.02879432751767954
0.28990480017428244 0.6106129651930658 0.7922582253506346 0.020957837981585858
0.27136800935825467 0.6128701793841076 0.7936910283193436 0.020339436533353704
0.1759399678187305 0.6063076900768664 0.7921300789038319 0.03263260999610452
0.41816142423842856 0.5921344540961884 0.7738992045382997 0.01601327956540594
0.06593469991708593 0.5609358917024969 0.6560166329123085 0.002546063706374748
0.13405237254033436 0.5738048787726241 0.6504001251178649 0.009751149632989044
0.141715671732973 0.5665559085316951 0.6643177103420429 0.019233628251151335
0.09815175768483887 0.5705432922651726 0.6617363545798779 0.009465031903587178
0.1106969285422662 0.5654482607254194 0.6640636347520511 0.016948703526730332
0.17808657447639184 0.562107131254178 0.6585082592539836 0.015617901766960726
0.19031070576156897 0.5606008866432832 0.670365795563194 0.012220551276805955
0.20111151144273728 0.5561694337946136 0.6646485047420226 0.011279872686575102
0.22321098461718009 0.5629764947240289 0.6556026164702704 0.0024771537188471395
0.21699913351495267 0.5591251527671032 0.6411260093819751 0.014255318147739468
0.24374923065767207 0.5610490502370605 0.6354712415151578 0.003363439176810816
0.2908325098958129 0.5565796885408595 0.643647341635971 0.012009372756231143
0.30637862338499827 0.5569702368263716 0.6392121193186511 0.017779462501215034
0.3262382436167649 0.5642170836708355 0.6370284933536762 0.0153856010673606
0.299217544200728 0.5663342543257615 0.6638103818753166 0.020070269714064733
0.2859311933588997 0.5619332879251469 0.6645978849344042 0.014709886925185248
0.3420076280005655 0.5598958277225234 0.6734961067163775 0.009911244864604724
0.2589475686216038 0.5648732338259471 0.66628928892441 0.003354991116565457
0.19872222490362537 0.5617401489031999 0.6751029325771157 0.01508776334132921
0.14473660490177148 0.5497800026558041 0.42919566698029743 0.012504985444505096
0.21065193773639754 0.5428642456001544 0.4324920290872278 0.001644402284836699
0.18304698404951553 0.5459682853352272 0.43046792765652075 0.01905813039847809
0.17713569036496166 0.5520177573607512 0.441791371699567 0.01623068200839187
0.15415512008722584 0.5454326128452217 0.42644826815031034 0.019024949453921074
0.16709966106820284 0.5498841637135603 0.45792381345710953 0.023644893633555458
0.0872006853619055 0.5467984780352784 0.42766650869736283 0.010421279864014369
0.318237395347058 0.553431266997726 0.4188905376724832 0.004571936363868631
0.25417673544542313 0.5469595254546876 0.42588310236463617 0.009530578368569836
0.23106242084141762 0.5438976220540229 0.423987986831915 0.006313933675165119
0.2814474215652271 0.5565315692230758 0.6269197379245791 0.003787671096824297
0.2721106109425749 0.5568639067511013 0.618687757479638 0.0034764581232087917
0.34054625029417995 0.5527296650438608 0.6001160172946999 0.010206473623593983
0.25861851065521085 0.5574703241699149 0.6278821458637468 0.00654114292733268
0.3049665013073671 0.5570556748282702 0.6217624701094825 0.009980408118232763
0.26992610840935327 0.555606619164622 0.6253529254145459 0.004836293962545356
0.25432865288426415 0.5588638103100962 0.6301673123828939 0.00475862307657094
0.08309891233767541 0.5668865243023238 0.6706875548006934 0.01624701372032341
0.18466712079746436 0.565206558845385 0.6801107014416959 0.01145444975476096
0.1697408475486929 0.5717510924422927 0.6771274380748771 0.0038629800760909476
0.2404389108610202 0.5654891291408435 0.6729829069762038 0.009220797924548146
0.0736957585909023 0.5455043543317639 0.5107004839270584 0.006108858119993758
0.13647886806997586 0.5424588922162905 0.5149022209776813 0.011842366853026105
0.08721540968210398 0.5477549928937289 0.5210439920876287 0.007682013516670037
0.26635897490507554 0.5420291878580801 0.7903286191303854 0.017871820014956453
0.2853779789450223 0.5359152409649536 0.7936381554921276 0.020749443426875812
0.1005368151764163 0.5311564156517387 0.7925238027110761 0.008533571940904431
0.13989516044660497 0.5298507532477049 0.7813197432191629 0.009658623659622265
0.028829505833722235 0.5305268664998969 0.7805873285692624 0.010501386375808488
0.01491620089033842 0.5364039834216191 0.7815839340324491 0.03690054412812075
0.06779825629662972 0.5317035589631538 0.785862650534281 0.02144786014166295
0.2093362800295664 0.5322916953885154 0.7998345414717615 0.004351534061229804
0.10641741810250653 0.5332659886845734 0.768063041708399 0.01864544532421639
0.08487373801682913 0.5352376190210224 0.7762414270928266 0.029714673252823346
0.020417720684740626 0.5413685018405011 0.7984875841054656 0.052464045432567205
0.15521476837922968 0.5422086884084037 0.7879438269635591 0.023483297366252848
0.3268289997309203 0.5357868633934694 0.7603041628268715 0.02114912173558031
0.28622197317888143 0.5353125215935005 0.758059976681031 0.011841082425532867
0.15958702503452432 0.5350199244066626 0.7561911215084672 0.01088565720884146
0.1745972137284322 0.5341734822862859 0.7566318056965902 0.010011486378485488
0.23424457097463033 0.5239067176624717 0.7478593190634465 0.006478326423320005
0.3907593378751906 0.5272013934278376 0.7688875712116198 0.023792945200878445
0.3694707907921688 0.5269983689516554 0.7660243452354007 0.015022159384143217
0.3434694940902034 0.5276280816648526 0.7522666117336299 0.005013813546690257
0.4120384884818978 0.5300391391144958 0.7809227268827688 0.011224944276982495
0.46002934965153885 0.5287400510371733 0.7740191137482291 0.015644839042241173
0.317570404564032 0.5761303216844413 0.7198402536566565 0.006781938471581824
0.3603281036337207 0.5717358067307683 0.7186436993051141 0.015087674551398096
0.2759116742561989 0.5821807579454876 0.744104579559823 0.008675588250068473
0.40735450403104195 0.5828462921827858 0.7376721736681653 0.005789246550351403
0.3649947574312916 0.5737863758753916 0.7372658736682618 0.011723249169457748
0.31309339661108115 0.586432267134878 0.7635500408594261 0.011618320997359223
0.32661714361434196 0.5869423383635958 0.7504435366858012 0.01618649675701214
0.17937943181121252 0.5892738545480947 0.7459229282031474 0.0019702865587857233
0.25368343749269556 0.5842315451204879 0.7398671008886865 0.002773734147569978
0.2771315354301096 0.5794797726258154 0.7358576468032153 0.010627424726900264
0.4215602000997497 0.5802860681782147 0.7314983027599277 0.004693630141498073
0.37901892130303994 0.5853557944239424 0.7233188145835433 0.005572329947405922
0.25283710870006987 0.5933767165834547 0.7722864259975759 0.008991217911299755
0.44139214591131054 0.5814765488508049 0.7258216024984081 0.0359111911127999
0.24044740801722245 0.5972767557931452 0.7774966299436799 0.012813848038747995
0.22739958452413092 0.49376309537213864 0.555652016391227 0.009360066369169608
0.23983254247981897 0.4846466498523944 0.5475196529233632 0.001828189042775255
0.19681204511524675 0.4931987931793002 0.5541502271391355 0.004847936795477937
0.253981853491261 0.5713286478901617 0.7147438780149796 0.0026888686506488096
0.30008475068618745 0.5716110924558744 0.7036254331699793 0.01953751190787328
0.294130668952594 0.5803295231007634 0.7268631747821825 0.006915724647505907
0.33241246224417526 0.5723606525309815 0.7194205874787913 0.00767739507924904
0.32199889761443934 0.5781091244726572 0.7175861477682353 0.005175463693097603
0.16319396390608287 0.5313617068835829 0.7394639193307789 0.015371764855702654
0.24399947136093492 0.5225806154241219 0.7251011494910778 0.006000485098426036
0.17364242035856298 0.5229092543936066 0.7300293674979371 0.01104989286869775
0.2509229603592477 0.5226658531320786 0.7235628155538711 0.006003320258125134
0.20251320910527773 0.5293045296000657 0.7391813084166361 0.006585503185609259
0.22641187220160006 0.5230579469758841 0.7436613309683094 0.0063386722844663585
0.229201050126283 0.49635599526363283 0.590688991786983 0.006207645652368786
0.20290076103358545 0.4991141337057628 0.5797674353772648 0.007480768015187961
0.21915320134237812 0.49326731106868504 0.5993559143098482 0.005862079652101237
0.31630901637915715 0.4987344754354835 0.5891991573842874 0.011395039809095972
0.3551563977968079 0.500415970169793 0.5803978074937224 0.0058109424703369226
0.45760573279612676 0.4743989020234262 0.446249268967384 0.01795020038026113
0.443886952335513 0.4467346903213367 0.44192035199596574 0.022344403332545157
0.4580635475402751 0.4491391392158901 0.4367958660495598 0.03116487832565539
0.3282526527394062 0.4030926139649472 0.449919355251357 -5.650682930449044e-14
