x y z curv
95.03566042296782 0.5592751256068406 0.7997521148508248 0.014441041389800024
95.0164780545617 0.5646908807101838 0.7850734048976414 0.015049791172257852
95.00273888293113 0.5699017008153581 0.798252173768676 0.009171310744680918
95.01915465926677 0.5596329253956435 0.7567956139526558 0.0007675540485289383
94.98068545997248 0.5530130074839652 0.7622779775305886 0.028315080273718044
95.16191369393742 0.6281991132305431 0.9695757371284723 0.059682978813210386
95.13679608123608 0.6252979034426462 0.9640571975459479 0.020676949225129797
95.21307529848772 0.6274657963552177 0.9650487399806686 0.02993149141973196
95.23993323092054 0.6389475875691244 0.9620228289697281 0.01973283341497337
95.31829651385071 0.6193920528852696 0.9578632265609983 0.01131552625005505
95.33590810324048 0.6198707889814857 0.9593147605222263 0.017965915281207487
95.3193546217107 0.6029801910462049 0.9037980579021241 0.006887198926958962
95.34921997021301 0.5948675765045179 0.9144238168600435 0.007017515581365364
95.33668399948446 0.593019791186332 0.9045714818598293 0.006639842013375367
95.35432237750389 0.5999772284451719 0.9338245065497929 0.002630387546475631
95.37629336378508 0.5962291791022327 0.9228008992731557 0.020335031841592563
95.34394709726104 0.6070842740692631 0.9415022559561143 0.008035122501925257
95.38147983640982 0.6017086715295391 0.9369359113418343 0.02385735735358943
95.30029286803033 0.608281209720061 0.9141111136643694 0.0074192873900462
95.2540542910938 0.6182855056601007 0.9344937312339044 0.011699892460673279
95.28928646074534 0.6210661096998215 0.947880773588091 0.011564196490792614
95.27302161665234 0.6198802925019204 0.9128251705125546 0.004668181644903952
95.2908813885338 0.6068392925691253 0.9024596365142111 0.008766946386402685
95.22690235415303 0.6260961151516314 0.941083568185008 0.01715836443316063
95.26550909020894 0.6287958319307531 0.9634141830954263 0.016967427257427187
95.24829582277823 0.6260413883804052 0.947498403465783 0.018276619196184608
95.38190685215531 0.577542235552998 0.8802005623680962 0.03415776068936231
95.3557999959528 0.5916483844267653 0.8923557014424259 0.00749746751452798
95.3737875246217 0.5925494622379706 0.9087771197607664 0.006670693597543218
95.36392697184309 0.5910530968621541 0.9066648848189863 0.0086596155834091
95.34544266656256 0.5876965744601647 0.8652430247840546 0.007293780178776119
95.30293328021017 0.5934152416026988 0.867847703894283 0.004686455143740524
95.29256472100295 0.5862783293027449 0.8449343114114327 0.02244796010385409
95.33757129895918 0.5948026482516184 0.8887086541203136 0.008592431406497436
95.33029110069768 0.5862200856951956 0.8721011997781164 0.00801101029557672
95.32261858113087 0.5866702313405834 0.8633934929982586 0.005885988684454539
95.28189453214821 0.5874072378561651 0.8300422053903435 0.016606061499282492
95.30042185723792 0.5879960905809707 0.8369279329334627 0.021570553276267824
95.32972760833117 0.5826301478958242 0.8516288926553898 0.006210245728378175
95.32314109637493 0.5791200849937 0.8296443851140995 0.01809242669957412
95.37676053917865 0.5684424285966443 0.8343163469905043 0.01504485136105672
95.36120432416888 0.5823584234543926 0.8551747698648285 0.005934869476831242
95.31551186793014 0.5780294568613263 0.8105289700050057 0.010834575302536696
95.30192764959763 0.5929642248316477 0.8177701543951421 0.006660245847971736
95.3145519618557 0.5966851238063788 0.8894471792342579 0.008010020307580542
95.27010987790857 0.5897587312546624 0.8473932166460812 0.025483338703838475
95.33841203678308 0.5677131372172814 0.8007274478713402 0.009832241603525941
95.3564052981266 0.5657474268706355 0.8073928840734859 0.009153208928371475
95.33188052551445 0.5652479692948554 0.776672083771584 0.014120348274291948
95.36671440130375 0.5653834648476425 0.7832224033864084 0.009617781590185441
95.39070349894277 0.554082556619518 0.7988060282472996 0.028073281964755396
95.37962604168612 0.5590107270905281 0.7811710702121113 0.026484500225018758
95.39948531999833 0.5597874666707986 0.8034568787729769 0.011976102320628568
95.38140684255225 0.5453765562814794 0.754678047271374 0.014039585514645913
95.35309846510228 0.6162131494690841 0.9581905730183764 0.015969895198361134
95.12888152850014 0.6004195161360015 0.8407681780007918 0.014041535369213525
95.07157314677362 0.5800039544927238 0.7954892746713267 0.014593601896879275
95.06807008244152 0.581487964188632 0.770079706832736 0.006382305566447182
95.12323410834179 0.5984955832048812 0.8268499019926759 0.014248835286832238
95.12037695619163 0.591223054939682 0.8056560910112266 0.007334474905657023
95.11739610991386 0.5882372731178224 0.7937286674303563 0.004669088041799068
95.13408342719408 0.5974474721035082 0.7741150394495501 0.01957481757680132
95.10470327485612 0.5934471499489952 0.7760881996197353 0.0065084175127319895
95.11376536978662 0.5906651087163615 0.7611061887571878 0.011267948827653829
95.07601081223748 0.5857111885544708 0.8061131635397507 0.01469344611739261
95.09708149788317 0.5841617017339303 0.6819621639316787 0.013931578236845621
95.07724679221954 0.5821499173462787 0.7462011653966265 0.009294585631182595
95.12455977771599 0.5857672467228536 0.7067909087423163 0.013315834270595696
95.10521024701069 0.5845757049654405 0.6822858808768257 0.015663719483911185
95.11801539908114 0.5827671115038751 0.7037729936186865 0.012136464094677961
95.12968570814355 0.5865067651674443 0.7192988452544791 0.013968993134043784
95.10127823824327 0.5823029905616477 0.7548521845690848 0.007197539440424311
95.09538306665945 0.5851710277127647 0.7709850289643931 0.010649441809254503
95.1263247978743 0.588161404259919 0.6905938144983937 0.016976768879774146
95.09272689973827 0.5836873314229726 0.7913925306206776 0.007961011723280363
95.09113415212832 0.5800018439390634 0.7099092509756559 0.012018301255959223
95.0734129319256 0.5706775880613159 0.6852259678264844 0.009946964047243646
95.07611629847291 0.5810405763015096 0.7068833823896566 0.01162033711488601
95.09621545941943 0.5845324803939295 0.6960996870211472 0.007567663819164488
95.07851452456235 0.5778529121716879 0.7107791392804617 0.012872647061124794
95.0915778333279 0.5796304430116836 0.7259081565051699 0.010515912319978357
95.10392261185122 0.5875886239542172 0.7260405022111699 0.006734157004181626
95.104672947398 0.5920119221890144 0.6572483341533655 0.008128186244539927
95.04440811623196 0.5682945240409436 0.7779892699197192 0.01101015623744743
95.06164225504901 0.5750147546425118 0.7089523741739637 0.01523651059690357
95.04079070224667 0.5672835391409498 0.759114455395408 0.005334495785536213
95.05858266459337 0.5735116600514567 0.7482435419262938 0.01133143482247505
95.06196346330204 0.5691184027373719 0.7255917225745128 0.007756153296182525
95.04054175368742 0.5596329470541239 0.6693006910073126 0.019564020809837993
95.03128266036812 0.5639396655702792 0.7338184743416889 0.011791470127086513
95.04624295821684 0.5639664261369088 0.726170481018819 0.014933538759813242
95.05229236982937 0.5760289616104305 0.7131228110807013 0.011786574852498856
95.0245667406458 0.5598687659770683 0.6495142170038639 0.011501809837461496
95.06960890146466 0.571096499346606 0.6528938744546796 0.010380074083523724
95.05676536001984 0.5657906948765018 0.6580734977931103 0.0107671460822174
95.04765495266949 0.5607501088530167 0.647750902909829 0.00715494436688576
95.06041054892462 0.5710034130022568 0.6695703959008164 0.017264212913421548
95.05888096192491 0.5731880989392165 0.6876905561410609 0.013621804197200939
95.04024740438628 0.5555367411562885 0.6878227888301361 0.012831101063363123
95.04171760046 0.5652799828308689 0.6061663642049921 0.011753545456540884
95.06635028267482 0.5765516139775545 0.6260003184280951 0.009805339871899778
95.03043818735797 0.569637559342352 0.5776130925689977 0.00405168140001843
95.04359219768129 0.5683452573198249 0.5775249646430493 0.012666949851285194
95.05722179205843 0.5688519603329703 0.6184537491785295 0.009994446181549026
95.05841229498951 0.5700408276535333 0.6118096753998506 0.013518240646495079
95.05244608923013 0.5717817533718146 0.6371724995742285 0.008618383397088878
95.02521638649557 0.5670846606519299 0.5240189823513308 0.01589188328002917
95.05024751469942 0.5698966074312364 0.5677567683845292 0.011250248226940757
95.02465642125098 0.5585937997615398 0.6107379322545539 0.011130804156046522
95.02352095885678 0.5600819467834298 0.5609756585394193 0.008895595687897839
95.03251758489368 0.5663494053642789 0.5317768225543147 0.012948852202870842
95.05639580385723 0.5681143391405603 0.5876115943570277 0.01140280352141148
95.05741771942323 0.5756785310350274 0.5733703929916604 0.008821942091002951
95.05773943138594 0.5698406473343661 0.5437521436076397 0.0030039803874652845
95.03441585195593 0.5675721666395737 0.5155782888700281 0.022520962598717872
95.06925225616561 0.5695026013409573 0.5951128281046263 0.009684088984395246
95.04422719156332 0.571890382397443 0.5360394190074399 0.007206834605690511
95.05442636613004 0.5819816811115376 0.5071911518834648 0.015444126106317043
95.06478920414959 0.5787279870990661 0.5379580685860034 0.006565714485637907
95.09916956004542 0.5822592614899176 0.4857269997146309 0.019661986687860736
95.09236760677739 0.5827086299990106 0.4879194069016922 0.019539856143299148
95.08444991270201 0.5802895873735903 0.48707249435375655 0.013099667348642053
95.27705134613235 0.5983253037718795 0.484869282002264 0.005814196291213622
95.39346970919753 0.5506438201383701 0.4965730436139876 0.02893277236826932
95.0942070444816 0.5935048002672497 0.5387720487472459 0.010361755328324531
95.05618945051239 0.5829177464708876 0.5091974010773143 0.015047640240782197
95.07684947853018 0.581396302072203 0.5836808317474811 0.013785716719344655
95.08400712304999 0.5890338443942996 0.5087991799664637 0.01742184161202798
95.08552185230369 0.5924822674456646 0.5225515028752576 0.013728508927970435
95.06416341189052 0.5794097346516885 0.48958302587894303 0.006288090605869848
95.0674123284663 0.5818512950507214 0.5051887434528701 0.019687264719792267
95.07758376682342 0.572759642826633 0.6114898757336774 0.007974957653878708
95.07605264455955 0.5827250538115658 0.5499362533888454 0.011273299408944032
95.09894771834037 0.5941985331312374 0.4979487306136291 0.02273869479122089
95.08770197439902 0.5853860175016345 0.5846461764469205 0.01822179553569865
95.07738481423694 0.5844212397557955 0.5788437681848004 0.013859138290078751
95.12801174087794 0.5937006100759027 0.5708518113164768 0.015835314291832762
95.12256849126881 0.5960913068695868 0.5646222532628943 0.01783515036790563
95.10436048119165 0.5851735116177889 0.5702352550752658 0.009349261814439406
95.09944828031463 0.5909024589868253 0.5108838946612174 0.022156759212005474
95.10483970017829 0.5887979274241029 0.5159723756807519 0.01989236138841261
95.10586291057875 0.5945662114369897 0.5976300992881364 0.009128672947494334
95.09331127706822 0.5877115901979549 0.5675480382892378 0.012834878864657465
95.1307428823733 0.6042311590953473 0.5465787926520879 0.011543251207294752
95.1201618810744 0.593910360363006 0.5286129826972668 0.009938714736869268
95.11706051280633 0.5966467856930537 0.5023974382695011 0.030317973036118863
94.98833532267818 0.5433364392218782 0.546755792489029 0.016129031807425045
94.99297272989199 0.5565005769590782 0.5254517803211258 0.0024384933580563154
95.0039156033796 0.5509506612726871 0.6544970105714163 0.008537835768578163
95.00456216836172 0.5521519219410813 0.7136214988698909 0.005619097493830444
94.9840860650979 0.5409888152052938 0.6889937863239952 0.0020839768287242598
95.01985300889491 0.552959447089807 0.6663782955165762 0.02747992415795788
94.99531583984603 0.5395671385796693 0.6389036909571529 0.0054434041240458125
94.98829343377844 0.5356740854428396 0.6625341743452566 0.01589498908498311
94.97988260214251 0.5384325652418408 0.5995002463763456 0.006657893950517654
94.99066233002505 0.5360215508310441 0.6234105436127271 0.005689106907968214
95.02908706929188 0.5608627694497325 0.7126079666224929 0.022037744064596198
95.02447857943724 0.5630788710908138 0.7363498937111896 0.009282283479735734
95.00882277695602 0.5587801381729782 0.6895855664136898 0.006317749841182037
94.99601406634429 0.5460602408687631 0.7191817226535484 0.006186863004195674
95.01162171114278 0.5544055743125458 0.613094037691704 0.00667173091563461
95.02546027768379 0.5637820807416607 0.6286643636592285 0.008430413223144934
95.00515701117304 0.5553620515577677 0.5518562047777316 0.00847932070309306
95.02286112299181 0.567451907643438 0.5233067180726624 0.012206728073542386
95.01731312424754 0.5588199919746747 0.5655337900009001 0.006514203275405416
95.00463733213 0.5481947126342841 0.5854713534638477 0.004904705999169815
95.02376801246837 0.5578573528249088 0.5841615435699831 0.0076414940913424306
94.99365344633608 0.5461870787096016 0.5692894073435835 0.01784346871577134
94.99523233187925 0.5460190620975232 0.557730849039807 0.018411918156805613
95.40628010641579 0.5507475498611452 0.7753963390084703 0.02183617744773093
95.37737477109367 0.6103451216970512 0.9614560512251852 0.034995843626760725
95.40713316121095 0.5235871330268309 0.671802514089002 0.012899312260425096
95.40503974642755 0.527244628994522 0.6092486427078084 0.03802120532118574
95.38810673277695 0.5798199105288133 0.8764108470070552 0.03286525384008149
95.40243237420358 0.529796981240412 0.6320025854501148 0.024911688794767208
95.40681947433232 0.5403826039238901 0.5754075560479709 0.03921885767240495
95.39231567186482 0.5831811233558668 0.8918178691374576 0.035881073910903574
94.97844809999948 0.5319455352573509 0.7016924830351043 0.01853782478097104
94.97838042936515 0.5324884679119457 0.7100782517827073 0.01852858330967714
94.98269204577069 0.5322449143646544 0.6306080786352566 0.006416685300132069
94.98561681183251 0.5399930046638661 0.567602850379314 0.014810609050730662
94.97554353882002 0.5296777417143193 0.7334307579677805 0.007900320428654484
94.98528092906392 0.5653987255747511 0.8240628544557022 0.02426914880074838
95.2436045185658 0.5962303873294242 0.8351677220541115 0.020625990144262824
95.24800520741951 0.5963452117559123 0.7843649503293134 0.017793177666620794
95.24858179076656 0.6054573027076366 0.5693060044217944 0.003058053241400938
95.237263666707 0.6111544181427737 0.516331230108092 0.010874144779272555
95.24535445810132 0.6061662750724172 0.5390913398730328 0.007776911128001601
95.16436112378054 0.6198698724082767 0.48426664749153303 0.005784058337893861
95.23286548022874 0.6133897528958187 0.5045042947167622 0.01039899295911348
95.24048335598754 0.6095637385189031 0.5329013307498813 0.00948488018944342
95.23328223211234 0.6159781167047468 0.5291543226975638 0.006348816201459554
95.23985596694837 0.614356926468419 0.8890397801756434 0.01449728703873848
95.22626730513257 0.6113754596732742 0.5322245560137956 0.004375481356657827
95.23683891908189 0.6003226243691655 0.8212962318660191 0.020107678301540137
95.24104578236398 0.6114669847569499 0.8580534904511231 0.007559920951347777
95.22935508737491 0.6093378140666228 0.8146783308546831 0.007839025287935
95.22244865210178 0.6160683096728682 0.5068998237277024 0.014678199245349991
95.22019160573616 0.614517077232525 0.5630226853731883 0.010570642184333259
95.23159220344473 0.6238922457019899 0.9076810281910243 0.01766575463373278
95.22392057765681 0.6264892867204919 0.9234193084830759 0.015559527009611062
95.22768110635289 0.6167461492872657 0.8802363177220589 0.018862312325615978
95.22694814634261 0.6244773488171578 0.8960348259910494 0.026435123756926603
95.22674182121209 0.6094729857188983 0.8123773526956186 0.009869315251671458
95.22284771791018 0.613760382769304 0.7925996926290271 0.0108087858717864
95.23347045185707 0.6061771221817678 0.6096285645929812 0.016293223970593712
95.22162779615266 0.609461407030567 0.6327352640664575 0.03890948519868684
95.2334423441481 0.604757638222063 0.631554488609183 0.027804441211310323
95.21601908172397 0.6086109728887634 0.6982700113680974 0.005594794066402423
95.22770133056878 0.6083692910951182 0.7101432593417125 0.0074428114451912
95.23563968159641 0.6033958601296011 0.6723143057029326 0.010768734714695234
95.23710411011072 0.598868897160909 0.5846820553703882 0.004491348679419894
95.23192561480656 0.5979822129138679 0.6462001504456159 0.02128764773407431
95.22038676000061 0.6276645463835316 0.9166913587990391 0.01323096074601103
95.23470709164545 0.6088438887640333 0.7642775323856639 0.020260769802902447
95.22990344027875 0.6111084170422398 0.7373212506092074 0.030471919309126055
95.2186044818889 0.6077762414036056 0.8372727678681802 0.022753283625680944
95.24022971565307 0.6021364255448428 0.7054901722444386 0.010028508271511324
95.23678851317165 0.6078349076464812 0.6951262098480393 0.02311211069879691
95.1966635934077 0.6087016234571139 0.7227842830321147 0.007201468754496121
95.21716531452775 0.612129945825381 0.7198597411248173 0.00867445289640498
95.20320888462899 0.6110300308380581 0.7333355554869739 0.008104275473169713
95.20836968627557 0.6108556354361899 0.7718533094399278 0.018719984945967983
95.22112609820535 0.6058125243745172 0.746357532104873 0.03593314444201412
95.20637180910063 0.6075903042921622 0.7460387236894812 0.023843531176967303
95.21621349332727 0.6039297013692797 0.7575559959407522 0.03617883144780948
95.21298155578741 0.6177454775695144 0.6196873772977806 0.01770654815114012
95.22137590636501 0.6064181454079457 0.6628695561374749 0.026665756610960097
95.21225356217346 0.6078763165773566 0.6459238102042302 0.01729356499506115
95.22233433463344 0.6145165653833475 0.557660586362374 0.010882268752066488
95.2145855426894 0.6090698732808942 0.5872829470351575 0.02499877857987037
95.20641213122413 0.6158625345568085 0.5482643965967631 0.0071869775158216785
95.2150282371989 0.6123055012251211 0.5794461935794815 0.01224520836905043
95.20106261650943 0.621226518303094 0.5162168369091769 0.0031780300348500314
95.19167577264653 0.611027878824414 0.5772730312879341 0.00452114973807522
95.18612004022386 0.6071060146083224 0.6013343378710764 0.006377146987028108
95.19054243593902 0.6198243766985435 0.5163899318708743 0.02605591986692677
95.19759301566302 0.6107935122331435 0.5900880005894832 0.007513628462381366
95.19618058911585 0.6086096514865603 0.5647206212441511 0.006211410078161261
95.19454942949848 0.608153689052946 0.6230131123438906 0.015104496734419708
95.19080029930184 0.6121025405166054 0.6679700722262762 0.01305549099293752
95.19958961852059 0.6126624094971702 0.7791959081609018 0.016464976173701504
95.1920941294236 0.6049114784383526 0.7423841688814625 0.022387373200537575
95.19230074741645 0.6174021500384348 0.8296069833656624 0.013646697495030188
95.2005153581392 0.6142306781260363 0.8097876807077679 0.013744677052709077
95.20400978353197 0.6150597056477857 0.7967511960757879 0.009283412425375911
95.22223597852349 0.6288921092596775 0.8959911123673436 0.014552931939069645
95.21278780915117 0.6190583831350807 0.8826649341596005 0.015574598290386026
95.19894145459244 0.6211148457774249 0.857646762684915 0.017076369694916677
95.21325452852079 0.6202785496908604 0.8739144728145892 0.01735547976517614
95.20261066568217 0.6203001328840663 0.8392985114756034 0.009783989985675727
95.20663791389528 0.6215464693725451 0.9045556852430026 0.017699780890766164
95.21388877278136 0.6143078382205499 0.8539812453170146 0.0223577128381975
95.2157156581754 0.6120856797187726 0.8308263146005863 0.02118867519110471
95.20956755348013 0.6046949894238186 0.677349574346006 0.011340454814032406
95.20014363324202 0.6167155930111929 0.6440978986201895 0.019432413242442895
95.19752558256862 0.6094806320480168 0.6970841029069151 0.0056713659459100355
95.19409556439741 0.6073793041412957 0.6761464349010786 0.009860866593627287
95.2080915765796 0.6183045651065902 0.5233650272058564 0.0031233211484842124
95.20700129701952 0.6213926384535851 0.4987820704365902 0.004561811623876409
95.17777455469367 0.612968033282136 0.6439902044018039 0.01895291966562175
95.1769121469894 0.6088367799055829 0.7203875176376702 0.007095034388700593
95.18411874835364 0.611586583076596 0.6807843502386597 0.009815396799699458
95.18781638301827 0.6139942897318785 0.7014320216055472 0.005272942258135308
95.17884043114861 0.609818436213947 0.7322421090023716 0.00559825833734314
95.16201224335178 0.6053106867315932 0.7623786550662911 0.03883276654253826
95.16210463369984 0.6083211079466879 0.6440095186814101 0.01633739583128777
95.1766234789306 0.6167702457399635 0.6562998842415204 0.019900970166255232
95.16379808424543 0.6134822956414573 0.7074717859414084 0.024087994930847786
95.16419157957648 0.6148273261417351 0.7254256702412405 0.015661028210173338
95.18816702931998 0.6179930686160128 0.8627891848580429 0.0160323661327884
95.19952932165488 0.6232348489779839 0.9405889737292488 0.013628868351998991
95.1983606153058 0.6304006244703642 0.952613139871489 0.007133514960005873
95.19809700985134 0.6148922086257508 0.8840893636218798 0.014065225655126362
95.18816073749953 0.6284168750285151 0.910256418743862 0.020102550981181994
95.18372689576404 0.630674464750564 0.9312370833059121 0.011956387106630842
95.17685684107322 0.6225070401504671 0.863169234052885 0.016686892191363205
95.18434162272142 0.6243921837864105 0.9050688052802218 0.02154535402735305
95.17823275374509 0.613525159524536 0.5698478479724529 0.011352399687317001
95.17484902908177 0.6266166919669584 0.5102955746055923 0.016306687236732047
95.1727282008925 0.6226784980838431 0.5407150471700415 0.011070605738645609
95.18286692699662 0.6225895946356531 0.5219585224974331 0.0237301289816916
95.16659616015988 0.6078443661997188 0.570601273436525 0.014173493008824764
95.17381042095916 0.6088427102766119 0.6081879912696598 0.013692072594902627
95.16559588012038 0.6267079933104757 0.8848327134300669 0.01951963113727255
95.17102962259752 0.6190927686915753 0.9035664049294884 0.030909593448983336
95.1896230902537 0.6238096736365594 0.7744393574631803 0.005794227621052558
95.18302274114268 0.6126782773017053 0.8477522109797557 0.01421414438041825
95.18652001246643 0.6174125477594005 0.809731004147074 0.01914981791761474
95.18508700688126 0.6207007640270852 0.8955622958182031 0.02331736240678992
95.1754159235511 0.6211425472134215 0.9036000292313241 0.03523402006376875
95.16744482294295 0.6147020612427329 0.8228622556124192 0.027643785070271643
95.18532362817227 0.6081806100375327 0.6145151559317948 0.0054724047001203716
95.16581406742559 0.6059199696053372 0.6085405597716477 0.015163139780088436
95.1574439919414 0.621467771346108 0.5123024213349182 0.015591671673825396
95.1589676052925 0.6080708586549192 0.6295538055195876 0.01774882586828198
95.15530346280096 0.6083114318820737 0.7536338098562956 0.026696096066979303
95.15925650173415 0.6055358451215913 0.5801450297767126 0.012521581967213199
95.15103079257091 0.6202198233749149 0.4820477298154651 0.024659695158494817
95.154719494587 0.6106829488487611 0.5453317313515845 0.010275276639591583
95.15658871019173 0.6197080998193748 0.793087738191245 0.006950093285498442
95.14717507932919 0.6122798123261821 0.8283332654860162 0.01601878661028523
95.16057391762058 0.6079712609044204 0.6158885555237776 0.01598360267233203
95.15663729757453 0.6073771345043861 0.8080424078364324 0.027246816188063096
95.15213702202205 0.6150970786252687 0.8684616629427007 0.03134261416652466
95.15800719379052 0.6207213988140576 0.8589779484097213 0.024309790736869032
95.15792934361036 0.610403639194221 0.7058851156867693 0.02397718296398692
95.13443687716426 0.6017518321438163 0.5233873989342689 0.009618101698416455
95.14747847485609 0.610188081761401 0.5514754576292584 0.008435483605948667
95.14667361807463 0.5953472866539375 0.597530854996845 0.006120912580064985
95.14892119943194 0.5958392304553559 0.6398694135976584 0.007824954151199283
95.15526536119839 0.6084399653912519 0.6946841340724021 0.027438105645590495
95.14602272495848 0.6074863982645927 0.6690367619903699 0.001960976621198935
95.15969333940926 0.6113687934268269 0.6799985311751174 0.020137983745520338
95.14757627834484 0.6192654211711467 0.8922366213859758 0.014410495851517154
95.15438890474955 0.6087675982116626 0.526906128067835 0.01828777737962807
95.14805736736696 0.6049796897696471 0.7584899290708492 0.017873846386634147
95.14953420222963 0.6082581708458792 0.7470504989652369 0.015813329320529923
95.14111696223361 0.6015604296835757 0.5693867609405266 0.003259234076317335
95.13580656557963 0.5998136922356092 0.8176441265311685 0.01569973718875987
95.1379161412954 0.5954636830812063 0.7040939719472982 0.002742669826791381
95.13834820494125 0.5908692079695305 0.6224777950945252 0.017361099249692386
95.152132235377 0.6026670376501273 0.580239632251229 0.00740762913474295
95.13972487557724 0.5930281319608566 0.6207702509663893 0.016128141918577865
95.12131186375382 0.5839675681883313 0.6303197708242296 0.013376391249044614
95.14192977226539 0.601441901151515 0.6939274823820679 0.0022488424867214444
95.3948265544411 0.5507548366613658 0.5305465887721762 0.018563964170858194
95.37168897009072 0.554980812370776 0.5055478218781493 0.007674326595213439
95.3554409342778 0.5658640407768952 0.5358125203363785 0.00898806247597478
95.37527542209843 0.5542734431010233 0.5653634043459385 0.007207889637346621
95.3456485027708 0.5637062612162853 0.6028342595306999 0.016879571538882098
95.36199828944451 0.5620660006755748 0.5719957118413443 0.004718516791449045
95.35445917815865 0.5569664545284699 0.6011993967644337 0.017292568242697964
95.35487930181574 0.5542918009096679 0.6181403301119006 0.004410790869185011
95.33953810253769 0.5658938181164408 0.5834340645719956 0.016144834429703436
95.36066351118961 0.5634521433790987 0.49818508707230624 0.015845138789798964
95.37003746388133 0.560872200817031 0.5299804145267707 0.0035444103658636462
95.39886868441987 0.5376179142532754 0.5629167924602244 0.05240722779623916
95.33979161455012 0.5803649764888509 0.5068534727144072 0.015811182370050247
95.3374171431784 0.5850573559178919 0.4895591030448142 0.01574356114095774
95.33710121076601 0.5675321531388086 0.5720719953289638 0.010802737228799132
95.3347868283293 0.5703235162867913 0.5344831598154792 0.008242827108513382
95.34581431989164 0.5667906879967655 0.5299454654791509 0.014897502367245904
95.34021430276093 0.5713273903363492 0.5200526760041452 0.016228444250740895
95.32675310486398 0.5701643596080698 0.5659953624643865 0.010808749059402614
95.39688803835372 0.5400021904842528 0.7027501207667075 0.0090072728566287
95.40593598718863 0.5325525618023138 0.7312268951782165 0.016591499477333668
95.37518518240799 0.5523168419949879 0.6241989964663422 0.011209891841817645
95.40007034124987 0.5448659362578077 0.6434472278051546 0.021724815196767194
95.39385872266199 0.5498259145678174 0.660581877724344 0.040493008205325254
95.36634453087233 0.5531854309057029 0.6438299434362852 0.0073352371687591695
95.37661013301343 0.5494694824488352 0.7226631476263887 0.012156358663317601
95.33839161578855 0.5617867226152878 0.6433280508479411 0.002262494001433018
95.37326078351161 0.547348921361513 0.705634790469279 0.009469037160701682
95.36185375869647 0.5565580822604475 0.6899587106187577 0.008107359781477088
95.35287075089767 0.5617810179493382 0.6763222209920661 0.005086377844252236
95.3885879537749 0.5422408594270576 0.7306810032912762 0.00915123948349642
95.39096800376703 0.5406482584877499 0.7123588174411412 0.009100604360712368
95.37284923901491 0.5462703033665962 0.6567308467636466 0.003258694165414238
95.39113211035642 0.5448363720676681 0.681581583781543 0.024927685530499462
95.34173851521852 0.5625281534867662 0.6340872338275416 0.01566925536807858
95.3371231744841 0.5679901956666686 0.6971843519325643 0.004767515925352937
95.33936721817237 0.5650217004915605 0.662848147478006 0.0033653148218840607
95.35309064297665 0.5631769786238154 0.7314734321684571 0.010176258421135662
95.37315146631306 0.5538463941582252 0.5864997947993505 0.008628229367942336
95.3979804292961 0.5423933343789875 0.5961631570513155 0.019885382269272472
95.37623138500636 0.5457673518795563 0.6006508430102548 0.011683800620527051
95.3580236343623 0.5554652331596547 0.6034366586881474 0.008549040306657159
95.31096236457321 0.5753501015813618 0.6740304087153933 0.008566426795743947
95.32091398057129 0.5678870674952071 0.6943495140140546 0.004013363465599178
95.3148961616865 0.5717317739775593 0.7100082859587775 0.018456556292449907
95.31098001596906 0.575755977096637 0.6719081253236743 0.008525999192809367
95.32386908652092 0.5675099484265026 0.6642299514804498 0.0031829373535010143
95.3306080798028 0.5670435009335794 0.7327931008370199 0.021571859078599473
95.30380373787553 0.5766158671278452 0.657638408087921 0.011688438534885113
95.26451775350073 0.5879807571679831 0.661032567302032 0.039092353951201086
95.28183375395542 0.5900024897615462 0.6633493906665531 0.02572285497302069
95.24658594917973 0.5971373144453557 0.6665851777174997 0.025108878773450905
95.26592007025843 0.5912016815034489 0.4934766697871899 0.006201732698898268
95.2528495184614 0.5950245707060421 0.5006695566466538 0.013645940284053045
95.25920925539825 0.5950651681732367 0.6136642010239088 0.0407568470255756
95.28609933408443 0.591294339751529 0.5007992714208189 0.013772959967222219
95.2975146048918 0.5809400507216697 0.5926294771251464 0.004065225632431093
95.28915445827263 0.5920703634319092 0.5340721973381004 0.009100919252027091
95.30472477629816 0.5782430411711157 0.6485469857118372 0.007238515834329999
95.30316584117307 0.5861231623074111 0.5699690639287824 0.004959202440559515
95.32096425882098 0.5693460078497187 0.6288897946584654 0.010574053712965091
95.30788760213893 0.5821926238905067 0.6221665667591184 0.02868501835228606
95.30708171422467 0.5795110365032825 0.5992472961330514 0.018863889056567263
95.24833001559968 0.5855207865625731 0.6465830738979318 0.030794781705251496
95.25558521231771 0.5820424805470883 0.6270455689574572 0.03729003362714012
95.25809428240989 0.5803003549904175 0.6416551883555704 0.0387531118376973
95.32836134454173 0.5659115311295659 0.7462517301284526 0.019871930435042214
95.32125955346832 0.5681003830821248 0.7637162928410567 0.013590764222140771
95.30814886770207 0.5713517114988443 0.7633985472928003 0.017489519255548227
95.36722026963177 0.5586738157229184 0.7339873445839311 0.008801956995392908
95.36978395398039 0.5564327651666309 0.7268727402895191 0.0119633411660525
95.37427972552221 0.5557621075982361 0.7415279576206594 0.010241791534736325
95.35477667387565 0.5586268747127053 0.6804527754696327 0.006248216110125207
95.35167935489213 0.55571197295902 0.7085623758262599 0.008518870528446883
95.3403002573994 0.5609549243386104 0.7141855035175597 0.00823892513339478
95.29413693278165 0.5858736654175326 0.7817715208768201 0.012851585083439268
95.30770562867072 0.5825069055102421 0.7962754807119943 0.006013899618473429
95.28058482850754 0.5942475199192672 0.8213154934991326 0.013014794631784125
95.29689493971564 0.5813682827569285 0.7522590904715833 0.03223146386824647
95.29848937955451 0.5812750295071515 0.7061823767275851 0.02138537289560395
95.28659219300764 0.5888250740734007 0.7715256201066815 0.0130850916428561
95.25842892306632 0.5869052174333264 0.8281373852439556 0.011536496986705254
95.2777687890466 0.5810562563727684 0.6828801026465054 0.01549583601364126
95.2631607795517 0.5809326140617876 0.7078057737951595 0.026745172718496083
95.27022894591938 0.5954077980254759 0.7931494780862752 0.010281623672845524
95.258986245479 0.5878585970307567 0.7630195706190587 0.014046287518528239
95.31552248605453 0.5800399748308991 0.7441309865961254 0.01988374546211
95.31159399450144 0.5779320786410467 0.7844847191109707 0.00881879108350637
95.30586399706762 0.5874480210895009 0.7300113025535033 0.015518307822814067
95.25082784092227 0.5936419402046759 0.8112089064490698 0.01615154958627334
95.27979378428134 0.5876804676668796 0.7995364633420808 0.01741442222002794
95.27132455315878 0.5765576023523559 0.6940542710612772 0.011749711650652857
95.28287915042088 0.5817437862799076 0.7482520139066516 0.01747232523867365
95.27846081688146 0.5904041005946237 0.7730574507088842 0.011647412663788137
95.26041844667273 0.5868037313160906 0.7683858251435801 0.019861483396614487
95.27804507768852 0.580780913341095 0.7142341098928452 0.01886213495739298
95.25904589832032 0.5886027246878939 0.727988643668674 0.015604558613719594
95.26339299737171 0.5848808633306097 0.725604477996684 0.01603400246910086
95.24987283733489 0.5887164161242504 0.7436096766353687 0.018601360593940425
95.32157928003576 0.5775300489492319 0.551392187211677 0.0048081533781118135
95.30950402357091 0.5823794972606747 0.5087123122164857 0.011513815531134725
95.32780725159839 0.5821147605950451 0.6040717204786407 0.0037059395800832485
95.31645808760406 0.5756354971649772 0.540250321392671 0.0037148269468582984
95.32337942927705 0.579994639947198 0.4940971517067697 0.014064388339872776
95.29855300890583 0.5901091749106193 0.5489198694606013 0.009795061094168323
95.29906850327382 0.588819658268204 0.4960946086472763 0.015251315437527752
95.28718101207976 0.5953171754302707 0.49470394837975706 0.012926808437890219
95.30366150386315 0.589851637576373 0.5271798498345649 0.006970838092896131
95.29637094243931 0.5924984462983843 0.4922344234088848 0.01683485764631861
95.27225553762575 0.5870529260711178 0.617298889605689 0.0246535353546851
95.26984273980217 0.5930671256952935 0.5139367855865604 0.012562167357863
95.29154466597441 0.5925770013982111 0.6312913061316945 0.02356288832542079
95.27764773036132 0.5972244230113247 0.548743337818635 0.007809004220276279
95.26554669905505 0.5922198489584869 0.5885375539552056 0.007407775631977437
95.28465020237593 0.5927170868003637 0.5363504741024049 0.009754948917069862
95.27178881435988 0.5903191224820793 0.5972932388374058 0.02477468738290226
95.259842088143 0.5965601451272234 0.5582335747580892 0.004933581462197074
95.26617220859788 0.593347513805147 0.5690557799860926 0.004042641730765852
95.27603710630343 0.5903025432115885 0.5828031268616841 0.005416395627726155
95.2532687327648 0.5935037924615596 0.6064715328587518 0.0186580677030701
95.35699393983515 0.5798965694081459 0.868541374511298 0.006506490854250627
95.39272548572144 0.5717021640162312 0.8683923453695575 0.037721814828598474
95.3936878034935 0.5571271827571016 0.8262581284824064 0.05019053905162623
95.31000664493067 0.5823090704198101 0.8366943144265092 0.02415651423505969
95.35401631897301 0.57656236073261 0.8402041323698461 0.007338851603431075
95.32769421602322 0.5758469641241666 0.8287665427658172 0.014392589697729162
95.27890514995823 0.5964395865354878 0.8767739834934244 0.01066751816362637
95.25568271059687 0.6102719876900378 0.8699033802211702 0.005002696775331781
95.13213070696693 0.6082056371272232 0.5050741177688638 0.0052162970913338606
95.12528529077217 0.5872295699903799 0.6689190880943645 0.022949733186574606
95.07794057011714 0.576250416874457 0.6493991470764776 0.009117767605032618
95.12521173656333 0.5854193504972175 0.6424374059156386 0.015082870061998724
95.12868124947234 0.5907025619263134 0.7410267381022695 0.00811267798154103
95.1233461776331 0.5944612838494348 0.7554450559815007 0.015201592151157964
95.12626167026619 0.594157524321705 0.8141678413215612 0.005003584150634323
95.13241325475646 0.5965083033119912 0.8019283590279207 0.021092549936813747
95.09303734393679 0.5830132427567314 0.6277127268202788 0.021122656702264094
95.10793478722212 0.5909523809266283 0.6233618176735319 0.02949002832526238
95.11973767560814 0.5881734352347292 0.6202405701903344 0.012789677353415466
95.13691694584953 0.5961664128898984 0.5896696699272291 0.011569770168973348
95.1264821186327 0.5897984037458394 0.59692007489 0.013608901799211436
95.12326038281246 0.5892830662658117 0.5788558762794686 0.011358550920408916
95.11459914888623 0.5895593707491188 0.6105887329242187 0.011062419824348772
95.26272529725671 0.5950001691702789 0.5129235726743144 0.015030193065895502
95.22443207458186 0.5356025083637166 0.8173747780246912 0.0041296416467434365
95.25461816778014 0.5343092285527785 0.8229072815296956 0.005550669681483803
95.2701234217131 0.5297025693481321 0.8203429198002706 0.005681255931496203
95.18319738321902 0.5358500309096663 0.8196797648648079 0.00713187297956013
95.1977932565091 0.5382949678049233 0.8335397404293668 0.007378364516470599
95.19877595214432 0.54430206307364 0.8498327593104819 0.011192295412745136
95.17443359678278 0.5390381968205854 0.8497602361502357 0.01018611959292301
95.26779236041305 0.5387226898300012 0.8342846392763051 0.005323178190674128
95.30398706944007 0.5246450958868608 0.8352017870486416 0.008196983939126018
95.3103259746902 0.5210558640684011 0.8380713312416568 0.007488408522362963
95.28748537039665 0.5336229229917321 0.82907759755966 0.007783922363578791
95.27607601779108 0.5392662766651658 0.8440618623908324 0.00970325544782061
95.36590906142602 0.505689338330224 0.8280180091714251 0.006802968511890497
95.33665425027999 0.516380937816086 0.822672562141601 0.01242223501827245
95.34321952924478 0.5201906102274568 0.8306474179316616 0.00997197349490999
95.3809039327196 0.5074607494924994 0.8342939612376111 0.054365473657776976
95.34008533652633 0.5241191171813661 0.8403587933584343 0.012924901899806052
95.39914173748487 0.5056435025905803 0.8398713254511068 0.08067751603107684
95.39427317860022 0.4965472508089367 0.8173966024185431 0.03480520795546122
95.3718959894231 0.49940951686482615 0.8148650036487166 0.028905392585652723
95.39502544010058 0.49398519264685326 0.8108724962990311 0.03634073066267045
95.36102446327926 0.5010725541021493 0.8104582324334525 0.0075681815577351985
95.32661848970304 0.5172782472592231 0.8055049160933611 0.009153135355459951
95.33626393029121 0.5266259006238125 0.8490569535433835 0.006656690874338419
95.3186175765806 0.5306784941712384 0.856218927058006 0.016049846898035836
95.34682814714306 0.5234811631363839 0.8554252577610278 0.019812418660482046
95.37075777001286 0.5171324945703195 0.8423529662266609 0.04290666169512235
95.36018446574408 0.5240785021789764 0.8545302574407921 0.016951666524514915
95.384811124581 0.5153754496943286 0.8599747466785154 0.06159941477069466
95.39552659461745 0.502003670053506 0.8485365712865689 0.08294415256189135
95.40282079876887 0.510979537082804 0.8476110501814323 0.2162905000335617
95.37420806895203 0.5221575690645323 0.8632085108140792 0.038774934227557054
95.26522714084587 0.5297855010107737 0.8058760866489425 0.0025784274135865837
95.28825609970525 0.5288399664473274 0.8168686781967459 0.005877724097297049
95.25197125002241 0.5294714859892147 0.802424995283083 0.0018176688492222482
95.30549847272566 0.5156787478412299 0.810750276932487 0.007285062656981251
95.27999420685963 0.5200341277768822 0.7844062388938636 0.005713583843665103
95.26377035129529 0.5228164591276784 0.7900100930643101 0.001661520455051586
95.25203190580099 0.5269917694043394 0.7873346857652738 0.00129056595069533
95.22476516429624 0.5288116516140193 0.7922083694879234 0.004075725886234118
95.22990122601925 0.5268633973085741 0.7817706141921321 0.003279311062787228
95.17633084237595 0.5234470100239424 0.7908951782063385 0.007907810169563184
95.29329792283355 0.513503678793132 0.775812933495788 0.004007697446024287
95.30338809519604 0.5106767945859191 0.7880249635292423 0.008715747776722446
95.25833269596359 0.5185719106158232 0.7702036213494367 0.0039217944384428985
95.31984710275633 0.5052883947159698 0.7780391504394404 0.00994680638351114
95.33909024154174 0.5058867505484501 0.7998356259220524 0.008490313176560923
95.38059415100892 0.4905570944078588 0.7836359115976534 0.0520682037516603
95.39903257009588 0.48838494244060227 0.7805729022127136 0.09585047822352487
95.332514236397 0.5043376029014964 0.772056355646869 0.011364770655507311
95.2017309804448 0.5234532998871471 0.7881601617524733 0.0027719319436013547
95.20871364329791 0.530081000314038 0.8142229441018078 0.005946273431273821
95.1474789719752 0.5248576906783717 0.7975941615113755 0.010174151339068856
95.13699985962343 0.5186152208697248 0.7879243861984481 0.008763471381116062
95.14686874976927 0.5229785391171862 0.7750934386508781 0.009380827908848283
95.10164263942347 0.517745029413882 0.7700474235530985 0.007432063426380234
95.07972560996663 0.5141091264044535 0.7767893452656663 0.004817676623791264
95.14766551880467 0.5192581156056484 0.7653539490923199 0.007192501861329034
95.0564401932784 0.5062105850958503 0.7732115577310646 0.007314400133903801
95.08962919127364 0.5209264019437642 0.793240624972245 0.005648285116442678
95.04973925638313 0.5098705366750566 0.7946834924011701 0.010129931243155924
95.0652068451296 0.4992197896890318 0.7503625424170584 0.011487652982076232
95.0891342202377 0.5162442470278111 0.769846120362768 0.006808499044000046
95.08740115305422 0.5082420914715409 0.7399874409159798 0.007831100262258176
95.09878870482633 0.5105212095526258 0.7605063747281943 0.007475624818397202
95.11234652660859 0.5101640739752139 0.753127544758796 0.006153969175697974
95.02108388289786 0.4877706845842123 0.7540852305023935 0.005858527447797469
95.03892056060211 0.49138127714820107 0.7445652058217757 0.019976182495906884
95.0272670705849 0.48233818581486565 0.7395733377393838 0.010758261213420023
94.99774916215596 0.4853796885391847 0.7518334345054599 0.018957504705620902
94.96748151078695 0.4658861954047303 0.7335907137231438 0.01589635328782166
94.98282583425782 0.48640671565707644 0.7654353941753124 0.026013253190911044
94.99629550894127 0.48677920806506836 0.7554275508754242 0.017663148222324225
94.97317478533047 0.47897892760971317 0.7772261362738968 0.016252011784570888
95.05834060371488 0.5013244078693041 0.739377255656966 0.01995609655868977
95.04906148631073 0.49996785389636517 0.7251173663540396 0.007927028897817396
94.9747338798258 0.46489113820794226 0.713184517230281 0.027504776562353457
94.99421617823235 0.4756477151201571 0.7194624479824429 0.010372400254915553
95.004020829707 0.4736709792581476 0.7213142874204079 0.007784750030027188
95.00113489245135 0.4752300950360548 0.7068292749351958 0.00735733856595125
95.12005286487214 0.49481727480768145 0.7195290582661797 0.006456152754991267
95.07384347164304 0.49940310384685815 0.7211070747279187 0.01602922407584027
95.06237708191978 0.49665177964872276 0.7081145930332428 0.009906983244217526
95.07328147249466 0.49586567700745204 0.708253152457057 0.0126351700036976
95.08846165678474 0.49657733029402773 0.6936170136057171 0.01716019775004015
95.03613769390756 0.47940529033397916 0.7069167064482731 0.00925836399104771
95.00972208960769 0.476239605310983 0.7005268304359356 0.005231581078041423
94.98169456036406 0.4649322310986345 0.6873348879257738 0.008305287798870197
95.01135630379144 0.47192669016347566 0.6878183866501952 0.0059637733937437905
94.99291515968329 0.46637457561079565 0.6958390963583951 0.00714534180993864
95.1476874969088 0.5049750817964183 0.6788598767552163 0.008072878389088168
95.10871669377654 0.49113261206084363 0.6864763529428176 0.005905884297004748
95.13863324302919 0.5102303610277287 0.7509701361555866 0.008391792008264252
95.15708563864678 0.5199985726482457 0.7547712921034879 0.006415618181227921
95.16536482029453 0.5138201475778958 0.740454020048122 0.007652988531961981
95.13154043395798 0.5098885390192758 0.7518377625897539 0.008499216047886901
95.21144634870498 0.517068848006339 0.7615919790091505 0.003536625377028973
95.17989062230872 0.51789994169507 0.7617644288434233 0.0026545516463822665
95.19197829092617 0.513828436682951 0.7452058366743332 0.006240725637363313
95.2337872638078 0.5186043274228174 0.7615317919869743 0.003157324117199019
95.2029839757004 0.5155010853300069 0.7264862380886744 0.010677057084090724
95.21305057253436 0.5161004834828494 0.7423712508633531 0.0037934352821266917
95.32345650036474 0.49984804325556026 0.7487236048750946 0.006972026938979304
95.14858576019199 0.5134378945586976 0.7387463210869911 0.006813913047904886
95.16379761272452 0.5126309774292207 0.7439731004381078 0.008701420487827316
95.0958273474543 0.5001244631787105 0.731632880813339 0.011100876122047262
95.12833789076515 0.5086751566228553 0.7394892877953757 0.0046799036507455625
95.20874383608091 0.49869045012441165 0.6954403547322886 0.010239342147688058
95.1551478475289 0.5039188572852484 0.7056327301995863 0.007767529649605576
95.20787850504283 0.5063679170879791 0.7134732901373754 0.012285868065594771
95.16792607759761 0.5108530714392668 0.6885554346930487 0.014525757280399617
95.1867942617286 0.5142414720765068 0.7051261936341592 0.02105626483871535
95.17195599897404 0.5119961045456519 0.6899069902864733 0.0168172926177696
95.16825997934951 0.5100423329189767 0.719359368400864 0.009302338982201123
95.23113959405389 0.5031703921647251 0.7010332715133896 0.021053732274206226
95.18168590229992 0.5144498926556949 0.7142196485695531 0.019689665168864386
95.19062245681366 0.5078409054640032 0.6873986161537906 0.01533192910183635
95.20603712924608 0.5025167343463569 0.6828123846086839 0.016834753791138284
95.22406187787202 0.5057987026996842 0.6829183971081407 0.012927135391241119
95.24004529576341 0.5012541399776439 0.7068021784251798 0.022744388810431594
95.2988800245845 0.49264150340294915 0.6971911251262779 0.0033992755809890396
95.24672673555797 0.49926213307425177 0.695240960859392 0.008175520611896645
95.281622414197 0.5018460870445731 0.7003187557874551 0.01535106753014783
95.31258556514008 0.49388556599777095 0.712737916498356 0.004089437488947328
95.19680619094572 0.4969504309857696 0.6764720251309267 0.012987122274374555
95.141040962493 0.5033339294615126 0.6719587969223253 0.010858271138989132
95.17271124044451 0.5054369275862434 0.6709933460370111 0.01747507867437437
95.23508236586825 0.4991521156998261 0.6607269537815951 0.019169033057811403
95.19411552130154 0.5049949087563614 0.6442864918427262 0.011864306148510934
95.2139599123003 0.5040277330146709 0.6615049691667885 0.011775140286039258
95.17566398479772 0.5018832432416311 0.6524623414009296 0.011705136116034421
95.184903804258 0.5005892887723613 0.6583362654154886 0.012019788448384309
95.18441648884505 0.5035006852918276 0.6405983535431566 0.011353008104367904
95.21301271640684 0.501136373902062 0.6270371633232993 0.012468550913367214
95.19720171442091 0.4974886352372655 0.6265589954511724 0.012723716939934133
95.17690465577328 0.49678086822822154 0.6270484779439697 0.007063492741263487
95.22268465411214 0.5066158337281936 0.6109750515167596 0.0109122590713026
95.22565213770109 0.5042678966382769 0.6292781422112863 0.012636657533827833
95.21953989890208 0.49865958171902974 0.639883047715365 0.0081385383248761
95.27822333198164 0.498887720913987 0.6246698628766353 0.025413139890993957
95.2556936049873 0.5000409327623623 0.6244285876798419 0.020559069382963525
95.2812665060922 0.4968872846577712 0.628546774331985 0.025957023939808883
95.25070304025586 0.5000174182172811 0.6204339853803658 0.016591723729643536
95.20170379788064 0.4940857209607158 0.6025138914129171 0.004559142336564899
95.319364395893 0.49356953233492085 0.6216424875537342 0.0033394591958156436
95.34143571223626 0.47964116442167587 0.6279562096256613 0.01769372530699166
95.33537687411003 0.4822344888566652 0.6167727166791394 0.01756415223276193
95.34817167145523 0.4781788605837854 0.632067881653691 0.01023073638722759
95.37622250254063 0.46316807747854294 0.6472107649990008 0.015567649514096673
95.32956531054037 0.48381132112523967 0.5606785609453382 2.3056100546645904e-06
95.30611202392448 0.4866605419448401 0.5679666323433077 0.0012447754307525678
95.2980457473882 0.4893999018026073 0.5518098401901756 0.0025154048567160767
95.25868383527092 0.49088964289327786 0.5694480844148564 0.010752923970073427
95.26279373782357 0.4950052145039542 0.5636301297533902 0.012827844328153083
95.32766410524214 0.4855389071045701 0.5465766236221978 2.31039022728581e-10
95.27581859298242 0.4989446815442282 0.5346774664001442 2.3842307991030942e-11
95.19124561278149 0.5057236546264562 0.5277222469067046 0.0027247345551797758
