x y z curv
0.4754251039413211 0.23926793678463876 0.678294210695606 0.015188728744057415
0.47642777597464564 0.2820972393272493 0.6810373211263376 0.005585430430074024
0.4747463319819317 0.26560597748280573 0.6766156145337252 0.014698104745114448
0.4809058760940947 0.1203796234740418 0.6525328847783325 0.008421830799287924
0.48337430801353637 0.23845356196062265 0.6584601697338096 0.0068343952113909335
0.4807384191222956 0.3143579302318725 0.652811346951265 0.023760572383970818
0.4695536846208165 0.2597308361401085 0.6502310466512077 0.025643507617733752
0.4759911910230983 0.17430052307074279 0.6604418320679876 0.01567430915144361
0.47550106730209346 0.33034741394261674 0.6908062789034632 0.006783033307307048
0.4773271494678834 0.24364080074805428 0.682532976025908 0.012913793457980313
0.47504748891288373 0.32614987635774756 0.6672752780347261 0.007431651213772632
0.47405651442959207 0.1918710063317291 0.65035255038349 0.018464140457880935
0.4733895095882272 0.17282712580812418 0.648425578293591 0.011558821507345683
0.48643286881833153 0.3360994177925574 0.6486654428702373 0.01773489155806826
0.47854086387948075 0.16153675516374197 0.6737492783060227 0.014260882822929971
0.47780173077645166 0.21853392704055238 0.6683888490000324 0.02104712489985983
0.4820305348212708 0.2271864923585384 0.6627538901914778 0.014483529442152131
0.4809122129852773 0.13108932222549888 0.6516396411427735 0.009707403839986839
0.4739007719410392 0.21556419625183634 0.6919230588183153 0.019389870479308603
0.4735618021740991 0.2622174550037242 0.6671892138817459 0.02617743731915932
0.4767111479561071 0.3557652967924251 0.7123127126389969 0.00693465301557475
0.47569355825221554 0.35781479023447155 0.6595115289229163 0.0252913509284782
0.4742606829293888 0.36769437334431304 0.7038726896535277 0.010243832629074856
0.47651620024709834 0.36596464190144723 0.6662115978367744 0.018345111810516117
0.48275051871799407 0.35510968561869294 0.6468755066885409 0.03561713009720099
0.46596667124968116 0.3827903743049368 0.7167757458708702 0.019405631013586156
0.47049299292800517 0.3961629885538166 0.7240374133300315 0.014357010512004338
0.4691075457441553 0.3781246116778111 0.6532416612729108 0.015257921918496616
0.46336239125951795 0.3949680027905589 0.697692265305762 0.06677931426238495
0.4723324933311761 0.3997705278645131 0.6785407280273854 0.0292315521232358
0.4643206421340756 0.4033529208639296 0.6485950895754954 0.02296941023787456
0.4588675256510801 0.402999905447368 0.7159655100458557 0.06591933430950042
0.4327561756956438 0.41191696500890834 0.6892195503073772 0.026975521245857524
0.4506762542987245 0.41810816313272947 0.674200641469797 0.024940561542900738
0.4596136219127453 0.41111238377772674 0.7015881761025448 0.060109402169400535
0.37058874602891834 0.4330240322917954 0.6775188318703497 0.008397323717560738
0.3816645010071291 0.4245647773855863 0.6780280133269256 0.009026858176504607
0.4069877021026635 0.4166056543267796 0.6348212111252894 0.010094236573091856
0.38009015292998743 0.42895981677496037 0.6401650438697541 0.013997860174357174
0.40677127390563195 0.42240386028034255 0.6480937479334751 0.024223175713398114
0.3756615115793604 0.4342507705492516 0.6593885677443875 0.015563763718083146
0.3905382786950247 0.4257579448240276 0.654952802330728 0.027610051626737
0.3704195913256969 0.42670743237607184 0.6981667146412479 0.005621973711942565
0.3932415981829904 0.4286586448417131 0.6700443828276946 0.020163840950267124
0.4371479565871508 0.41475155063595537 0.6833920932542386 0.030356494282059925
0.40884132545492613 0.41710772145059327 0.6824591620266808 0.014406525558032594
0.4278678365111422 0.4268044939176466 0.6556743797477804 0.015675929761874298
0.4211942912377088 0.41993451516369246 0.7140997544953523 0.008660287861900606
0.42271041696182765 0.42191763732082266 0.644604135622879 0.006265584490576814
0.4015105696913277 0.42244620147038325 0.6945102866743397 0.00901050729781056
0.4087587626326713 0.4225786428995406 0.7129411510392376 0.009069709663791965
0.41221447597527805 0.41615351790169136 0.6930269231063706 0.01091001789289997
0.30985754766223494 0.4459126057563381 0.6906131795093788 0.010628983102429813
0.29007037219699777 0.4443851484226042 0.6675880944898279 0.01209733922926601
0.3081961049151047 0.445215106166657 0.6389744527752741 0.0070586766266137625
0.29162203200181325 0.4449938724133574 0.6493768591189437 0.008912371120581507
0.322957305934658 0.44990181590032324 0.6696518891536267 0.0064327243712756586
0.33866003180300835 0.4434321187264808 0.6466346621294263 0.012103894443263508
0.3396877729696571 0.4405610089237887 0.6435963204799703 0.011060708055160379
0.3006791813380489 0.4490753335799024 0.6647326269810884 0.00987214545296758
0.28596326926599214 0.44323470483324934 0.7018657150214632 0.010152842059728875
0.3511082666629563 0.4371399119292302 0.6363120806013614 0.004527004241935668
0.3150027495303591 0.4476303943017727 0.6605420018001322 0.008378311227219182
0.297789968046173 0.4416621229097299 0.68692221698483 0.006676847037571456
0.3060706102723668 0.44898322903584353 0.7090719910071844 0.006882753504380708
0.3526942146706499 0.4391959793902216 0.7112746740508697 0.019505402728809008
0.32162227658509696 0.44401331644241243 0.6994511935623181 0.011342542328174299
0.35258820641757393 0.4454902486428184 0.6589537011347076 0.006281396447783731
0.33024680201618506 0.44204840256458405 0.6773389618552064 0.010614382246217875
0.3477607951566529 0.44596153472637523 0.6807879431718771 0.009207777102246646
0.333594732174917 0.43890417824010336 0.7085654021964016 0.010139547995313093
0.3614720393161814 0.44031702442214904 0.6878941704298335 0.015058512701496784
0.24380865517700773 0.44797080673924766 0.6549900879149404 0.018694727933283358
0.2461408002763472 0.4589890407652247 0.6342351993938017 0.014536188676349855
0.2676805835880375 0.4442515567068107 0.6941910761111766 0.008022049093734076
0.26050730592016486 0.45161090660504616 0.6391644099831829 0.012596217028348936
0.2565209678163079 0.448646654148735 0.6463098773041319 0.018754730652292204
0.27445398464239024 0.4460355730981696 0.6648369711395601 0.009759463496708731
0.20745225594898523 0.44660614302397683 0.6401972899673265 0.008427881490745942
0.24714214315541044 0.4483984610214844 0.6666311530666031 0.01584711277239821
0.2316154970939126 0.4499238231384527 0.6826984990098102 0.009602003598290007
0.2351270423440859 0.44917675636770815 0.676087516541685 0.00859597589119956
0.2496483003655242 0.4458334946451776 0.6966137933666139 0.0118215708152408
0.22012606601402493 0.4470048163020671 0.6539398205225518 0.015505712327890228
0.2615447374807885 0.44342389543111754 0.7124387185966816 0.01892218930507844
0.23169432089816058 0.4495644083509782 0.7099236608808255 0.009315264074765335
0.25952024563200066 0.4547381246106682 0.6803748776506309 0.0005687797154062254
0.16270292520103968 0.4493712108903064 0.6988065114188694 0.010131780788421377
0.19226070718826155 0.44353030229117674 0.7169774816578759 0.009887906583655641
0.15138959276339103 0.44151031728763973 0.6719064458904379 0.01579714868283708
0.20558762845487047 0.44778371750489543 0.7214527314257423 0.010218314286451516
0.14171058243169005 0.4439366961587558 0.7070781842715801 0.010382325695521541
0.1812375778501359 0.44151028812133253 0.6953485021505111 0.010604720464289364
0.17559788265110307 0.4425786685148778 0.7083108936922637 0.009835966275180897
0.13736217657747332 0.43565776682681706 0.6638508829471959 0.01860397779495677
0.15043445659294374 0.4417953344750269 0.6810579266417942 0.013410159336723054
0.15297327203299285 0.4420709530127524 0.6438673058026543 0.027357507812050003
0.21184234956891512 0.4488320709778219 0.6531524801401634 0.00812773912133213
0.16318268564808325 0.45028408435657047 0.6611996600025527 0.011245483225318069
0.17331502674046398 0.44308374872251327 0.6702110704961486 0.014856035480446656
0.21165070793401103 0.449950806713625 0.6946005212563352 0.005695855023092021
0.2009415250756647 0.4442806322222529 0.6402418287686352 0.0061426383343262565
0.20856926916499363 0.4477196672115059 0.6795613294084286 0.004812777187056544
0.190811092041443 0.44152324016759625 0.6933618643535858 0.01181349323642801
0.20009559231009766 0.4499359225819609 0.6662575684701014 0.008554046390085342
0.17197734585375601 0.44290165379990376 0.6399343539214556 0.009342337812456789
0.07250504375355979 0.41249376108207364 0.7044012547410222 0.029039606358585913
0.08308846352683232 0.4163984407489676 0.6994128493326178 0.02864073191627314
0.11666808803500099 0.43423740776764236 0.6995061306326027 0.012110578707117022
0.08675338883748966 0.43051096616351997 0.6693141185943735 0.018966166383221628
0.056085037256464625 0.4220786963286872 0.687043996795775 0.0037996991127198848
0.11770281326917931 0.4282542238319155 0.7179262384206924 0.012634859414295695
0.09291197998008674 0.42704142586572946 0.6899362876447768 0.02472433719754803
0.12157975741449265 0.43350248788349804 0.6910812698337498 0.009538880131850787
0.0724182594199176 0.4215286173332673 0.6480497501577472 0.012427335231639393
0.10082624595761353 0.4265602858664533 0.666496929901045 0.016377256392525918
0.11987889570529708 0.4441073917981378 0.6503331828880091 0.0008470735379843435
0.12751697375567422 0.43981512841504716 0.69640408738997 0.009094584105442676
0.13300971482399002 0.43848967481669965 0.7063897525464597 0.010483498842954178
0.060590722611283516 0.41568461929382383 0.6586670635911469 0.0065938562979638736
0.05647687185217476 0.413154661679842 0.6496187056141228 0.003915325796503549
0.04992180032054986 0.4023499625152066 0.7063463681995014 0.04868827588803739
0.033025929907906725 0.3958083942110662 0.6600810267837631 0.0190434612220011
0.036470885139073615 0.4018446344175565 0.6875631447980021 0.01161955017269938
0.04353626055460406 0.4042107291937272 0.6923610644824765 0.03776396276117331
0.035867452588457444 0.3976548474481062 0.6564978419118959 0.014151042154722099
0.043242056802939736 0.3975610085468443 0.7110836477390023 0.04453234113229155
0.028244848204512844 0.3707717203624727 0.642296759609864 0.01047837726952436
0.0335275303261804 0.38042490064121515 0.6747535666472305 0.009061210793761583
0.02513433469599357 0.37835769462160734 0.7058798463564704 0.017172835434569555
0.025369203041877782 0.3579417872164131 0.6533772716294772 0.017951759256696627
0.026521308678841816 0.3633756717206668 0.6810437950422933 0.005583068361721185
0.017245942651629327 0.3586692600059971 0.6993020727673679 0.012500011610871923
0.17143862521055608 0.47811323588061494 0.27660288470989886 0.022564877140141496
0.0754203191622855 0.4461636955759991 0.2786821528002214 0.034752206182248904
0.16531236910219207 0.477801101840836 0.27112108619249226 0.03517081956862243
0.24738093089025393 0.4783755211028553 0.28370550044246656 0.09103630918740545
0.29015737742782133 0.47803039978314477 0.29023635521421565 0.03501579816884469
0.177530216427979 0.4696969514165467 0.28747397684690906 0.017571080454752627
0.2067686053297068 0.47527326194346975 0.29805098490674964 0.012747116828283295
0.09547574771664019 0.4454548632525485 0.29303501542177207 0.013044161891201283
0.4045701637119978 0.4520623699209595 0.2887514511596272 1.659971234326328e-13
0.34632225542501793 0.47013478773056355 0.28258845997330173 0.00800217480171399
0.3779125588516422 0.4670795685455929 0.2734143542535773 0.0009475214932718703
0.13554304743556275 0.4674618195870299 0.288612992425886 0.021980796514951512
0.1538282735198057 0.48034206402662577 0.2787765471224789 0.017356562729983812
0.1124096081879978 0.4642284077515355 0.27303138274292554 0.018851510960366146
0.23230175240867174 0.48633289701534876 0.2783394559364494 0.05955746839942411
0.07736465569370844 0.45336464225904755 0.2604056113016284 0.04927462274637158
0.10133617896496694 0.4624538118473535 0.2704532876592498 0.017464308644331697
0.14004361972570745 0.4698006335182417 0.266339728985369 0.02523016416864541
0.1288412915777401 0.46451325208869154 0.26438123051347096 0.03102149604054382
0.21380858218455648 0.4773866050794648 0.26349066329236054 0.03766575589386223
0.2442302811364236 0.47877691300039016 0.2654199214515652 0.09046595795116273
0.2683804496562661 0.4796196394432161 0.26885108947784186 0.08542232023724887
0.32455098399323934 0.4802724629347517 0.2636815355687126 0.01662359703194043
0.3436444769350119 0.480404333044772 0.2689572714300778 0.014967441665782425
0.40864995173851004 0.4623437935445977 0.26697259437835413 -6.650562411564179e-14
0.30552970613180463 0.47001215493771153 0.26446081820243944 0.020386563428834256
0.22163944808195615 0.47786056414525113 0.2652956988187778 0.09450969344090979
0.1785880826353189 0.48249855910126743 0.2615864894427519 0.04288095735556094
0.26157982816816683 0.48308965112724495 0.28785136139449996 0.07507829641623974
0.28229117373777535 0.4801084489128988 0.28164634572392283 0.06912422425290392
0.30947594780073084 0.47273332505639193 0.275845669905615 0.03425342141188978
0.33624176715950477 0.4738426723755106 0.27830148227170537 0.017873643682784022
0.2070457152317592 0.4858659692307073 0.28257729344972937 0.02158740432866794
0.25144861832255727 0.4833966717270414 0.28428557959854034 0.09377096856547955
0.3293199717387903 0.47744769192339664 0.26749388455361445 0.01886736648368693
0.26460752807699073 0.4804551184629081 0.27177416854293046 0.11505326525400719
0.10085360026635413 0.45667628393171483 0.2503535122516637 0.017672043499789195
0.24899447633256544 0.4626749405043756 0.28775708728374966 0.06767609352509613
0.26565895496423053 0.47349805220502733 0.28848305771761035 0.09241512810112101
0.16079676320015254 0.46734918350569754 0.2885732076774395 0.038290264259258064
0.10035285252239087 0.44819697728495134 0.29433595239834676 0.0028937386172420638
0.2784313480239107 0.4628240761382296 0.2884474290800021 0.06332750218974927
0.1328443181707308 0.4549357482502996 0.2888336438146742 0.019386616127104718
0.2433770153862285 0.46514767049349603 0.25049727266814076 0.07896541208202637
0.36385671559729243 0.46251627005655843 0.29440115519813603 0.001371920293852094
0.3224944075658518 0.46854635687332524 0.29167526084008044 0.03448520869538215
0.06932862024077373 0.4545952882996118 0.2706380990925877 0.03310992491955546
0.0380354619079631 0.352066290664099 0.29253490292554035 0.01852665916153675
0.023062267300321952 0.22219476355590337 0.2760720688635476 0.04066033709852036
0.030738445970821364 0.22830284898358674 0.27823622303464735 0.058167401140789686
0.025947654000041537 0.18177025922320228 0.2878006532574737 0.01948356081653705
0.022875060736960204 0.2945977803707001 0.2790905540047315 0.03612904046485552
0.029109801840867578 0.26730082397237237 0.2881899146080753 0.015886520097130215
0.02926235385624509 0.30930143201326377 0.2777960488922776 0.0646209735942456
0.029771395715630915 0.20827590898683784 0.2773668183777383 0.04146990289565632
0.022066369363880293 0.14848088096619924 0.27142274136677536 0.016891658900457376
0.023229287956542475 0.14212266358631587 0.28089060904517016 0.014334787859292005
0.029904287877046125 0.12729778074190184 0.2757441024014704 0.04639954530713632
0.023981337854094963 0.3261959207169501 0.27889626936629724 0.03760998826260119
0.030718503476341627 0.37619242621632637 0.27372098444886994 0.018086573253245652
0.021821485455936117 0.2577430004582034 0.2773468363423826 0.03865899846609677
0.02803699647868159 0.2174152375466093 0.2660946863669213 0.06334987353740681
0.0216884386236304 0.28084532959103814 0.2753530799543814 0.033884619630838074
0.021093975210461195 0.23174510005489965 0.263700511930101 0.07751796783086089
0.020049862545820942 0.2875905076648067 0.26299873774840615 0.016044591317521475
0.023326880673885955 0.3032166698441701 0.27565936431100335 0.0475019483463863
0.02956857428276599 0.3816561086115299 0.2672138042201545 0.018154897222243938
0.014328084263266799 0.3273046227938041 0.2680885005782884 0.005405081469126441
0.027739884996308722 0.1898870405213478 0.27363307481422555 0.02422304018820046
0.029949162925828852 0.1386839404441944 0.2627560160222733 0.04027996804778134
0.02751296014588842 0.15272626951202248 0.26131429355335806 0.02079786125470842
0.02213800996973631 0.17431751305538018 0.25959216528507095 0.022758589910997697
0.026098045119309514 0.18728648567726822 0.2639308380295789 0.02166510177753533
0.027056030854170268 0.17190104811738444 0.2889704758608359 0.018737093755039742
0.028536279844792414 0.300378531516704 0.2530224590871336 0.01980115961583295
0.03333718228513136 0.22015136005828848 0.2585107696520912 0.04264764756793356
0.028568979538481837 0.25764081454574383 0.24543782248112775 0.015272901608194122
0.02284822380389554 0.23898191572165098 0.2633333451786013 0.06733459744896285
0.03581484167227415 0.21360800672994767 0.26604561911749786 0.049309054375498027
0.033809258223900185 0.11723846720339073 0.25643095576935404 0.027031592085335877
0.03625002857961477 0.19966952305884855 0.2851822778369057 0.030418233045617464
0.037590028013325755 0.254588237696436 0.28634350811097176 0.026037903635232874
0.04088726597828628 0.32201644072170427 0.29814620218043647 0.007268866379413893
0.04496222528155192 0.23530966966742484 0.28514251628969534 0.04054483129571409
0.037755613432399145 0.109942854244634 0.2917384859086694 0.04746718814632847
0.025101537589522334 0.35714250047164076 0.2763487867106567 0.014977678937167836
0.03629391189301774 0.15807877882509688 0.2928968531844296 0.014869508193960037
0.035955765435015 0.22378031055680586 0.28260253064208746 0.05935076344023123
0.02680792636470432 0.3563285017696053 0.266144633304651 0.014181242490101647
0.02559299772524059 0.39900698223051495 0.2639143301750107 0.015641373755938087
0.029828023280844093 0.39895919270775065 0.28603320469539634 0.003879821564969861
0.029515865055846954 0.3775143094686956 0.2628707928812326 0.009256284988994796
0.0292854914083561 0.36827236070389036 0.28668811882958867 0.017044028475344707
0.4265938533274629 0.45521212810748574 0.2813958530644788 0.0014075183130288567
0.4626960169623902 0.35145269705129945 0.2863510374467323 0.06347122609475236
0.4660109258991509 0.32351666198023876 0.2800943048615389 0.0710433609789503
0.47279643610537625 0.2136500749591449 0.28941854063469163 0.06624758519053917
0.4736903698795186 0.2613730930543523 0.2747191250480491 0.07458017778161984
0.4706668868888581 0.2339586088229254 0.2907180069900254 0.11979702955330446
0.45929044612452063 0.25488601676300643 0.2902035822817531 0.06913650518630678
0.48189631833103086 0.19519955484793175 0.27065634077623923 0.05700643889841118
0.4758919591522761 0.1466641440847682 0.28371058270644167 0.029891967690697553
0.4660522205001445 0.1334188135572569 0.2838612587885611 0.05090719750266743
0.47485576723615447 0.2959291133993919 0.2755084328227922 0.0541794071708491
0.4742934740251576 0.323168027055218 0.27611066570618725 0.049313298893029656
0.47553438630265477 0.3319330802581495 0.2815449554041197 0.05294555196404544
0.4748170655661788 0.34432179514319255 0.28531864690729375 0.05019899144991519
0.4839641617253404 0.3384720589935632 0.27519726469829686 0.05527420121686764
0.47217835260657004 0.3629469795989495 0.28768893431202713 0.11125284572528361
0.47823039941698114 0.2697607328945088 0.2749159411289287 0.07565033208438433
0.47665540674675766 0.25282853109687425 0.26381748879949773 0.09178511354153593
0.47720163494840256 0.21817387332107954 0.26913721352075837 0.08278640074272921
0.47113180014016204 0.2264275834940322 0.2750612860587311 0.07774758969426965
0.46701449157393776 0.1580757919609005 0.26758662151841284 0.02264930533919121
0.4712277009049107 0.18285340947837736 0.2713307563919271 0.026729522543590664
0.46927184514417025 0.13790776516773576 0.2624525078250288 0.05027565431522758
0.48172583826361354 0.3157619717500007 0.26458397811292633 0.06480436948677226
0.47649655105500405 0.36064237490094675 0.26369716308642094 0.057204718867982486
0.4715627038010326 0.30566434335422393 0.28196941696213557 0.055024619012379934
0.4741251687796817 0.28502984816547666 0.27213775415392916 0.04206263182865636
0.4779088264475595 0.11428979301592676 0.28253866496876007 0.032877956961600424
0.46942793493467816 0.11423789843157006 0.28470065860445726 0.042548906958968055
0.4684129387478747 0.2858980337802962 0.258481550370227 0.021686418681016777
0.47427510159687947 0.33043104070203194 0.25600296678316004 0.045015668659081964
0.45802074365862394 0.22624579243569648 0.26736933414674297 0.058990741757607705
0.45249539557304935 0.28072028027247103 0.2850022353114939 0.08611358218877145
0.46557322574255067 0.1515783172442506 0.2641333191905148 0.027438892316408867
0.4530738511147897 0.24657191154290428 0.2736949289643217 0.07779312862639835
0.4599705161740715 0.1365565055854345 0.28847637566268547 0.03155771325124073
0.4701316208299976 0.1771839351767854 0.2899006700299308 0.036802665740233075
0.46800089206515166 0.18966044450514413 0.28980203480363415 0.023729435880618325
0.46019495828133355 0.3379701395630373 0.2810825123550235 0.04984097433577792
0.457287655613515 0.29398459162518503 0.28300117160214694 0.040871149537580684
0.46347016923070544 0.12623347602365906 0.2527377356176084 0.042252682170952426
0.46912609093050434 0.3809869366690468 0.2892026127041497 0.0804490837961619
0.4787436346988172 0.370071529199559 0.2854893152612466 0.09665535784720941
0.46306220910344975 0.39352712607279566 0.2566425870498196 0.021846697719169122
0.4676302335607727 0.3713188495368587 0.24912828096640208 0.024889206942731067
0.47036184646925827 0.08772888572469148 0.2809935985035349 0.01634531615121544
0.4714099982806756 0.1046096137163978 0.2669130892044918 0.026799885196593293
0.4767648292459046 0.10654382389694973 0.2554513003890978 0.011402914848251915
0.2911848625557426 0.026439828420708234 0.2663871088379031 
0.32732819511650946 0.028684755825256807 0.25475657539791446 
0.21850719097598725 0.028766793155588007 0.2783565026048391 
0.24745185610088427 0.027165828723904353 0.2738953693543667 
0.32715161936971154 0.040161613593940784 0.28783069072074247 
0.2674962556527902 0.027144568036097997 0.28132250866286596 
0.18817202513759304 0.04483590522773824 0.26730725564518515 
0.46850512491363727 0.07384605345412337 0.26513476539419656 0.01082029741009563
0.4730732856994903 0.07905784748724903 0.2799109540377495 0.020611360749976625
0.02444953736879894 0.09983971203668231 0.277957885944079 0.025251179648443492
0.030375544516266898 0.08479010313804598 0.27849056255317506 0.03574662777077708
0.029395173040635176 0.0689579615222892 0.2729796964197302 0.03796611544539167
0.04328175679306229 0.08458708673691094 0.29166764000430045 2.987779258099061e-06
0.46934072749417005 0.0588407651867045 0.6394622768988809 0.009780744171673739
0.46642278525574027 0.049778946726068175 0.6326603097097219 0.010865350141449612
0.46941580468760186 0.0439640693908899 0.5672379102880649 0.041674554141711395
0.46959945896697813 0.03484377918770517 0.5162352339709486 0.024563846447695124
0.47589502951589524 0.03129724152570249 0.45076070174203603 0.041815894386081076
0.47445983975326095 0.039666724050903684 0.4405138117046733 0.020914529539354545
0.46308936956568425 0.030079864547738457 0.48178026407926566 0.07483274639674227
0.4732674246503496 0.03850002421465777 0.4344871572301174 0.018174689399210974
0.47597453849300253 0.029986350635624173 0.4146664597575004 0.05689401621104589
0.47483449895900404 0.035860418366314685 0.3399713094276572 0.06033414039324491
0.477370198024069 0.02290645839734238 0.29752584233421453 0.027839523995269528
0.48928859722494933 0.01758264328377368 0.2323686090890793 0.05481325752417569
0.49388465664216447 0.01843140489600546 0.15876387829813957 0.001804671645768629
0.48950538640024993 0.016563018326136728 0.178119705674709 0.01818745221759026
0.4931263433592594 0.013973146475803382 0.04555641406320257 0.005681172124823338
0.49208224739598383 0.0002953780138690437 0.0007361296246017792 -1.1689759733869278e-13
0.488253825632902 0.0010232221644007151 0.01410536202956411 0.008835531345629333
0.4844710117870234 0.0014387679544435577 0.1434865024902854 0.007688443005265066
0.48697512336362536 0.022520361825461556 0.20206146450318518 0.020326882265793253
0.4822568067521754 0.022766548695087374 0.26260888511688235 0.06891627835035932
0.47189300853831306 0.024993955494746742 0.3465487621639082 0.04609801477865064
0.47675148959662456 0.03148901957031159 0.39870082139333424 0.05221001463542489
0.4814726400626946 0.02493834961629823 0.2914725698626636 0.02952008590343575
0.47500328568272293 0.05364184309537608 0.6018467850083487 0.015285814707517657
0.4629689293527739 0.0396432524114795 0.6297957649470742 0.015071420107714591
0.4964863274290005 0.004540162287816545 0.05150151526941697 0.00526426575305259
0.4560983611625184 0.03356195679713174 0.5345520571156995 0.009889258400517504
0.4642477060964837 0.021344308848125368 0.37405235343713167 0.012331918402538746
0.47282850911228597 0.0267291168684739 0.35288815784658656 0.038460789481661324
0.4756790439788098 0.022399860667913944 0.30129275971636116 0.036795807039922024
0.4671629216738868 0.014768179442521664 0.26073071976072415 0.054544173133345204
0.455123462782948 0.014564331526422628 0.30124113203922137 0.047229719464379497
0.47596091460386325 0.026988938155372243 0.3216433633638837 0.054949861480248864
0.45992589318025356 0.03326272625408964 0.6050927923618067 0.001999677398079157
0.46164509481014077 0.04084589322515852 0.6610862323758576 0.022348417461143917
0.47056371518255447 0.08002928974050955 0.46332844457057054 0.021203251191027887
0.4824483452634799 0.04329838088050962 0.05411493364917732 0.018534263441349702
0.4534127870110073 0.081015699099995 0.5246893643304958 0.012080595460184298
0.4807398418306833 0.04263611067901808 0.07409180505689796 0.013768290649937164
0.4616627832198179 0.050741915886302974 0.13385999712559235 2.58543253588795e-13
0.48137111368493707 0.04642188603867188 0.2085834728213777 0.014470771841830937
0.4719542406033977 0.05388726789948892 0.2162057535324861 0.005415536421861081
0.4658581895934986 0.06740607921331018 0.3552445931421968 0.028419724842485828
0.4954928062616138 0.031037748398819235 0.06539948640107406 0.005397214176857944
0.46732972391716315 0.0758078660894631 0.436651553656684 0.023953059214263595
0.4686114937046138 0.06929714320450614 0.4566101465377815 0.02544202152619042
0.4764258983565922 0.05709009903396954 0.33779945399434513 0.03641651490583569
0.47169197085049674 0.07765634700758352 0.5483488882450012 0.0339441806984793
0.4926199572099892 0.04194095731446746 0.10479213349453462 0.013615411794026297
0.4871649062971299 0.05155435925523164 0.294430819598577 0.01306002995725903
0.47736091357028304 0.05812106823312012 0.2664431076988381 0.010767533798417175
0.475920359438838 0.06256712773742984 0.30803151628345876 0.015592386251191723
0.47952545098836985 0.06525817527686613 0.4316805513852638 0.013194297143223807
0.4787888072081423 0.08318313107173926 0.6199303569978493 0.0051186836605506825
0.46434665479831766 0.08677080347804264 0.55212598199411 0.03782713622674415
0.46562480276849616 0.08059113488798116 0.5778058291781687 0.015306009840487104
0.4763351483117287 0.07729536176656467 0.5899188126817636 0.019550102344699803
0.4690888028679536 0.06778017614434319 0.4960027026317114 0.0368058425681983
0.4756407134995474 0.060107817847376684 0.3725691503935362 0.043192782774885294
0.4707235289905154 0.07220947167460606 0.39510136211184166 0.028320177700398512
0.4769046274316848 0.05810724035220027 0.24899081274421647 0.008160338299963182
0.4814288714457054 0.044297316917272414 0.19434702030297707 0.02277444004666316
0.49180996518747333 0.04281564752007322 0.17667487554072955 0.01017501854085934
0.48611364523231543 0.03892292765675774 0.12400230117761807 0.12391898943776802
0.47361286800650676 0.04902214487614161 0.43173926801424745 0.018248313648168247
0.4969080385757652 0.014239215624827798 0.005411226091097999 0.00286188997213393
0.47922470625496 0.04976511836448522 0.44793036408781367 0.017680052307965245
0.49556755509148154 0.030823988719782678 0.00847301254106193 0.000436143227840067
0.482576882828888 0.060693297985450305 0.4862995854852497 0.051442768521497116
0.49129380556642593 0.017416358062305792 0.03730209380909595 0.02185652713244243
0.4726729614280385 0.059413908142442816 0.4628264111771219 0.044257050179912875
0.47206680897664277 0.0611306076212112 0.5129969004536677 0.09737102637335007
0.48316686317438945 0.04547268162933391 0.4791454943551764 0.04217819785983724
0.4768989825295566 0.055237799550207134 0.5308768300911824 0.05797140418751095
0.4716844682063856 0.06750323565941824 0.5274559979361944 0.07463112834605547
0.4906933865282966 0.032849893341282146 0.073698563321621 0.011451206689703057
0.49939252629049685 0.01488118248511069 0.07574166751385 0.013695997476190689
0.4717609101003784 0.053167685932889105 0.54705568716195 0.03420125839248335
0.489966156396807 0.03249303923807757 0.10137247979296406 0.025803944700085884
0.48489241783618453 0.005079319489673963 0.11448770114636284 0.008765563339958296
0.470750000785556 0.06618096269666023 0.5730461336439764 0.020470779744255974
0.47507373990463536 0.06924682206971067 0.5615339437727228 0.019147629877469163
0.48744374914035293 0.034373349175856265 0.13325329820968307 0.09683607065492492
0.4904697149710691 0.028503805428920146 0.1407176219865589 0.06699439394007266
0.47308661083921244 0.05033237111689297 0.579696127859501 0.03105040341351869
0.49249642405264193 0.03531135613872486 0.18485078628362825 0.012318047869558028
0.48737131415036566 0.03595809452381224 0.2065819591624576 0.017149707878057908
0.4796840635936828 0.045159048438775905 0.22584500537987623 0.011040486088166334
0.4847170831210907 0.037641758546867604 0.23832330861346632 0.07247868712154314
0.4816534208161179 0.032442525199316175 0.2434948838565039 0.07943907358296175
0.483556825840029 0.042530270072434435 0.27852527223076395 0.027576580747496877
0.4822611681728357 0.03998573191587581 0.30951989190968787 0.05880225734434016
0.4770266735873954 0.04885238589904213 0.32841092685170736 0.04043286917987997
0.4812823562990855 0.04392834629251637 0.30544152277538594 0.06081767311299412
0.47834696578545044 0.030305491730833328 0.3203918046685651 0.053954477534143654
0.48194146339954813 0.04032179141400575 0.32848477575899643 0.028195082211409556
0.4767432388102924 0.060384421347412155 0.3542990008964028 0.07009007350550614
0.48831891491962487 0.04548027847828677 0.3740528884926585 0.023281694164916683
0.48285602201750666 0.05831892416085204 0.40174363451591105 0.024101728208507988
0.47759411058797274 0.041567614701367626 0.41009040845433836 0.026995948873547764
0.4485107435385383 0.026884461206866078 0.48955114297429386 
0.4572779872811689 0.011781663641077036 0.24657175868660486 0.07487219071150915
0.46017640120613373 0.016950948333871046 0.31598087760029925 0.047558629062040385
0.4445190454614321 0.018199332141086197 0.4075528838587142 4.670394822025335e-14
0.4501656698566774 0.08203025815542939 0.5025020197896695 0.009209506291163646
0.4769434477706367 0.3801515692970327 0.5498396946579204 0.08307501544790453
0.4735831326543684 0.38672936034938293 0.567410290921578 0.05660373153860382
0.4931562935214614 0.4864258962570058 0.02693636388941099 0.09247025832759326
0.4921633066244364 0.4707970425426062 0.09220031165485022 0.06301085867404892
0.4910488585773375 0.46765175687687416 0.07507483767897877 0.06578389998716141
0.49319646003966694 0.47277996684924833 0.11434698456612447 0.07537391522596287
0.4864000181855362 0.4591988301662875 0.13753213916384519 0.09225855601967316
0.48628711741556085 0.45770374096954924 0.16698318128383102 0.11343335871902552
0.48903417995671145 0.45436417018955116 0.19277574522167903 0.1629692227352836
0.49559874819194893 0.44693702011714365 0.20651827133859457 0.039843656765644
0.49473060047912926 0.43245085824024176 0.27601243461083536 0.016554313640613497
0.4878249635993994 0.4244876081546266 0.32566245182660924 0.05632274702705273
0.480771513243507 0.41016842770384837 0.3551858190691912 0.01828605199170567
0.47633885745935456 0.42517268413438714 0.3660062508358258 0.13376626789797647
0.47710228010747285 0.41206696264358766 0.38511311553952365 0.018434382529063417
0.4789370567372451 0.41611183648565564 0.40033846815800783 0.030733022724442782
0.4750747151852402 0.4177521551992277 0.43161949084339096 0.1337478160568622
0.47852988357756493 0.39193007372368427 0.46167356732171294 0.015744114245478155
0.47047684920086086 0.3943869928732764 0.5076299769204894 0.07843791150090901
0.49818340123407373 0.4867876727459015 -0.008062069814028426 0.07434451587572999
0.47703185728549496 0.4983418438507097 -0.007192441355828454 0.20145715410666665
0.4839500383328426 0.42203707484311154 0.3096221104186607 0.07155227896838273
0.47883691995437433 0.37931625962144444 0.5003845340035334 0.0326153891144276
0.47309751945453354 0.393813816753494 0.4179784395733934 0.1478776567133042
0.48360229119229137 0.3947536483556602 0.3949968349198038 0.0008881370778093503
0.4886080074808104 0.4648536140462657 0.08037643769562156 0.0645162376476317
0.4920543766451509 0.4784646887122068 0.027923282442713093 0.09171673340998315
0.47787660509854185 0.36317819758234327 0.5964293275128659 0.007448193843192353
0.49856855246295223 0.4758462828328199 0.012275732489058203 0.0663939677782732
0.4750157370715195 0.400774192898171 0.3675427519372619 0.006400455086821113
0.4856687819793026 0.4296166409422236 0.24896987720051925 0.0324354073019467
0.4863439627835443 0.4359927438151911 0.23951688625246875 0.053626608028605534
0.48554612577308576 0.4422645787283222 0.2028135016475533 0.1756890451389304
0.4869367475546733 0.44895471461803316 0.10244604007780583 0.015278770723895135
0.4726056341526163 0.38603332188307987 0.4787597244736261 0.05909300880933459
0.47813019860586525 0.420464457512107 0.27134696298825 0.03055469927115839
0.47886474861367045 0.43837304089353607 0.21391915563889344 0.1266561532780776
0.4722731525153992 0.4329578645964836 0.18949864528812854 0.04749807938827487
0.46017941248146604 0.37354504460177673 0.5556886895260087 0.041485341446973946
0.4810055268913286 0.44472180541601997 0.1553036889902872 0.126695670255972
0.46997094683489593 0.3775082431393511 0.5203125657576402 0.04529428129528905
0.4768962814721833 0.44663920099023846 0.12706743784919822 0.13531800234325922
0.4849220238060924 0.453361914603011 0.11052334624061576 0.027569028783932314
0.4614507618613038 0.37729409978841405 0.4875795198857057 0.14069208636269023
0.4740631850841481 0.3816858152898612 0.4861183189368085 0.04001622060020946
0.4745061925374379 0.3994112969019463 0.4401917438559524 0.21964475418380539
0.4890229400574563 0.4707191647824873 0.05721334300057905 0.049325813829998226
0.4760722520786137 0.4573627385652045 0.03259458787291043 0.03622164136662479
0.4838389880511575 0.4712498344490579 0.00453305760228125 0.15376608859228696
0.46197532706854294 0.47953912715958125 0.19311271332613106 0.11806527324450214
0.44973738420137926 0.4535867115966802 0.1942978399415834 0.13080127167012298
0.4501743261212776 0.4620570698170734 0.21588389981115663 0.167168302293896
0.46445273928487285 0.48300540875975717 0.18308069480070063 0.18365075397748146
0.4554140067294652 0.4596179273903665 0.17155407735736158 0.13221503125944295
0.43685743782910696 0.4062113207868259 0.5693143677689441 0.016120844847394362
0.4581938468005659 0.4764025646711505 0.1364572498368293 0.1343841942980139
0.458388711640606 0.48780803307916515 0.1245083968272723 0.1276012142006273
0.43654528981435636 0.41613055377450403 0.5463281219328051 0.017739854989983338
0.4348186998873724 0.42273094899917163 0.5275920422505848 0.022472628755082623
0.4303133962431002 0.40197841575680404 0.4879007584004386 0.08732501604544719
0.4344314192611907 0.4198541898500092 0.4906823092333138 0.038155687411250895
0.4312590129863447 0.4010939830569041 0.4539256034664983 0.022879459942236523
0.4565170773978183 0.5033174875393395 0.013364657835623408 0.00043087343969156193
0.4385114649955494 0.4069091407542012 0.4279567632028265 0.17583241195894544
0.44241817070794787 0.43369425535620526 0.411210107878848 0.0534998989241427
0.4419906045980534 0.43660885649741266 0.38138717281324236 0.0995818068728801
0.4409970346177473 0.4350100316962904 0.36516415252519957 0.09764028280816305
0.439290484947388 0.44958667478449693 0.3279183663375396 0.009038207520054733
0.4578595514108222 0.5051729787915793 0.0564007692230547 0.03832848131307985
0.46258478735739295 0.4914170914129313 0.08273035268381873 0.027049437623773546
0.4716552190608123 0.5047064545232919 0.020528727926952248 0.1384005784407099
0.466648293504677 0.5091163400160708 0.05102044488736275 0.05237453022856584
0.46384781234129074 0.48697864449767464 0.13567376734600345 0.11970527499502881
0.4364431190783028 0.4154222413547395 0.6028329102542163 0.025586112829980526
0.44881165009212176 0.46079747486818057 0.2913930338918104 0.015817861585261224
0.4562331276537982 0.46781720610207866 0.2528720250467741 0.023239826835532933
0.4544389472820212 0.4497644533276278 0.35952207939494263 0.07950498143427144
0.4484832567663659 0.4539404737710859 0.33084197166053825 0.046832246729698365
0.4341847603141194 0.4233884839267834 0.6307423586687039 0.021448288874211404
0.4370216505086082 0.4120541166895961 0.588186415306959 0.04075448037172613
0.4371571094958523 0.4272365158179318 0.512421533083158 0.026054293513918098
0.4470797444739116 0.42495393610593163 0.5107535455774067 0.08783248582172269
0.4396290736400809 0.42745907798394117 0.47470601537180773 0.037168210264905785
0.45400443295572773 0.42612679469824694 0.4934104827143886 0.106747984870631
0.4461049791997071 0.43661597697677224 0.45246012046485834 0.03594652161249632
0.4749307368331406 0.4563319646975143 0.2924426989712852 0.04359405671628066
0.47772061607109806 0.5006678688904548 0.1177272596110718 0.057194594726238626
0.4778507566625495 0.5027166872765424 0.05816591033954456 0.08767713333591876
0.48310796149603524 0.4915213167697908 0.13323501523240033 0.10286795850052013
0.4958267335321482 0.513731989643739 0.038145161236259204 0.06894009605852054
0.44171407313112676 0.4227047734395804 0.5388415186950144 0.014100660284508714
0.4577458064840123 0.4404474415374797 0.4100126766092039 0.09959035037399733
0.47188063712159295 0.47192504851606676 0.2632946615303557 0.0004142945565042241
0.4577250268636969 0.47383722748907825 0.21010344233035433 0.05304384046322998
0.477568339976545 0.4791273297008461 0.17086743979069413 0.09311301714639883
0.4682627782483216 0.46944535611082333 0.2312834048642371 0.10192826657703566
0.46050564345171857 0.45556390799395996 0.3693499491334916 0.07092077611222757
0.45439945714056434 0.45155139700353697 0.3557673497887633 0.07801624865547531
0.4834756792039383 0.46422703748516314 0.24404727464359183 0.03624798665759913
0.45734306523293156 0.460693974782646 0.30522651719577576 0.023855155339193655
0.4642103233344709 0.4444804004058854 0.3311887171502007 0.04237612256860969
0.46818394332543317 0.44951154598582604 0.3134180702480799 0.03922495106064763
0.4740661951217523 0.4366643025582014 0.399609418782241 0.11063061501430144
0.4716689371649205 0.4458509333406706 0.41380229482393766 0.05618474691988617
0.4843826655699982 0.49644029253324257 0.06432908778209602 0.06708929084938421
0.4687068100523043 0.4857864940511412 0.1549771523119859 0.10610372269203425
0.4676485661928311 0.44179523447437735 0.39011428829087463 0.10678338898833921
0.4535989363153898 0.42826449282323736 0.45726392221055756 0.10328750612516965
0.4545392988708019 0.42730980505505894 0.4856712144225823 0.10766354438293582
0.45159605274276876 0.42622572431937433 0.5067883291562887 0.11046878826718276
0.4583348587306431 0.4162981469961 0.545364125164447 0.024414495508022247
0.4560150226761097 0.40587370989432686 0.5713167466912321 0.06638052620977689
0.4607640840272239 0.4016881899526244 0.610221152304555 0.014571652555361218
0.4495261800573195 0.4174971454065868 0.5651375334439557 0.02715307728698373
0.45803916812917644 0.40280862079719837 0.5820887451041683 0.08366447750700999
0.47230165651714456 0.49821294634714125 0.08521365093237922 0.05583769857804868
0.49889245695708245 0.49736569186483237 0.01571775309798641 0.10747717780503448
0.458613211064339 0.4087216953231669 0.5540895726096625 0.09349301750950867
0.4863400386409799 0.4581232895957993 0.27893192770670544 0.0744883531715802
0.4738756491388326 0.43888394695052907 0.37789969465361606 0.09614435799506814
0.47366860238867703 0.43025564032178226 0.41524999416462793 0.08631432757687818
0.4735293877908907 0.4220050012351079 0.4412481904934376 0.05451600750065512
0.4719662958825438 0.3944662361029431 0.5814436635709269 0.06866084511945116
0.46975762739669336 0.3834396964514643 0.591564760752836 0.034653453926170225
0.4693718196940483 0.37741170911768385 0.6871929717101861 0.0075441094805059755
0.46564170118226295 0.38925933882522834 0.6294446745436456 0.016632867287080005
0.4749321568984749 0.38883796282707506 0.6195276223251388 0.0055811432481015135
0.4786801668955387 0.3977985257648427 0.5475238859296153 0.06816463393947744
0.4713681843716044 0.40991031429937047 0.5286483848832882 0.07044427489824012
0.467927869665393 0.41025945061774244 0.5412562228114062 0.04906804768464593
0.4813194460184082 0.42038911095541465 0.39121574575515744 0.026018790103957645
0.48334747351415946 0.44187354932862966 0.3017312977186671 0.07852827828398959
0.4770684761329494 0.41001690867348417 0.4655166004640598 0.04887323827237602
0.48024192092200024 0.43834145112515316 0.3525630390784424 0.03736913455267982
0.4833039876739605 0.4090952049036296 0.494642761271805 0.055879268838875645
0.481974929629392 0.47766559942183817 0.20114428598234346 0.04347141111657577
0.4923193027910068 0.4793414980291403 0.12363992051951114 0.09614504059345672
0.482067718314386 0.47220961821132035 0.15696403215594543 0.14617705732081704
0.48198421006737674 0.47375648733580084 0.16936515801156468 0.1198373262223002
0.48336861316895524 0.4877449382333726 0.1146490251607119 0.11687104578610108
0.4867404957299035 0.4821334386634112 0.09123742855353378 0.05142536303872362
0.4853090762960777 0.4831838565101479 0.07201940017606505 0.060842672825525926
0.4837820291848931 0.4595729036939209 0.26412864454340046 0.05425651826393969
0.4868066959953622 0.4370480737846172 0.323699434738662 0.03866271978317732
0.49430797950715993 0.5041072507147765 0.0021028679137919354 0.13637704214678584
0.4924437841245497 0.4906963908909472 0.05313426484258774 0.06665838071739148
0.4985119065670767 0.5017783159511313 0.03687357637476215 0.08162182554090783
0.025849497557259866 0.06067991207474034 0.6709784894875842 0.01918845965704914
0.025955774561077567 0.05010963559568469 0.6244486299270902 0.07913894066750457
0.017014998149437063 0.04651950704976055 0.5109677923538579 0.062285979417509726
0.017136525018927668 0.04888300653528838 0.4734595767008325 0.05759960422642072
0.01537717439351237 0.02640619591651321 0.3725824943460011 0.06772234475239355
0.024298736242135632 0.03228719171592855 0.3282492481522043 0.053833129102495325
0.01083028947809011 0.018246816013988396 0.17767269445692133 0.09267709013140772
0.010260033753475024 0.009768966837874404 0.07874658263029455 0.10377320477742638
0.005153788598957895 0.005054657744894711 0.059356529982612274 0.05284049498733775
0.012482674360858984 0.0205815956689178 -0.0036451350877108307 0.03370156573783396
0.008931211418691921 -0.0015790412195964354 0.006930187677069043 0.030328773887963602
0.020319577591584734 0.026608884564089642 0.28788428135038857 0.02999387974835942
0.022507522207460738 0.033014601131408396 0.4110633982112673 0.022276201866657633
0.022968007026455572 0.02479612693163631 0.2704590507710276 0.03192756638550337
0.019311731493117216 0.01902919601308145 0.22507552817842374 0.05198979516542481
0.009943828373251891 0.012453349781837361 0.09750881208335639 0.1304169308741108
0.018556508306621346 -0.0031016435422662973 0.05984231622846837 0.014039315844395458
0.02207831790138405 0.0058514068616015505 0.10661669108909896 0.04063591381173015
0.022720043397343542 0.015744800413615898 0.238487931761241 0.04670172146336631
0.023809419032717723 0.023324507184659095 0.4330019428367045 0.027094138549023886
0.03503435355648296 0.017196938427772583 0.3683934509775019 
0.025886948109900727 0.028166903315420738 0.29970280056749843 0.017576676312730577
0.03833834614472603 0.021588100718200606 0.3173444625555026 0.009916642171336714
0.039106275115164235 0.028657671410421644 0.4915891186069355 0.0060914725529727974
0.033274168697453387 0.04128431090243225 0.5518405896689162 0.07886420760110822
0.04605693759146676 0.04126581713918685 0.5866956740426778 0.048809783637172456
0.03225867782088768 0.04439010320472962 0.5719491380010987 0.08336434289748863
0.04127400527278021 0.08641283069237016 0.47518245927336655 0.004280424179888494
0.043589533722042516 0.08381617070047279 0.4973365259279324 0.002477378714026698
0.017397957244275467 0.038611472597331276 0.009751726019950476 0.027157909028378825
0.01578559447249104 0.04354303068345516 0.028176914658452814 0.014947805828568006
0.01636433568295595 0.04151016408802505 0.05309669290523505 0.0316837312964414
0.026677735779009448 0.04352376630184701 0.07017087035903169 0.01841321275793234
0.03821910722432813 0.07871801209630572 0.5667477445353347 0.06081311705998851
0.0407429262506244 0.08069154220843067 0.5530711817621423 0.06964268377140005
0.01601191714893854 0.04077825709905214 0.07803380890029249 0.08223346371086178
0.020954836910922106 0.04724882451062805 0.2026473450855318 0.010819715852780864
0.024719811502916588 0.0559502210077272 0.2367680714629183 0.017336639070369288
0.01628488925671987 0.05646310948055926 0.30386334601503723 0.03169127937905992
0.02612872742521515 0.06088431926460492 0.34258285421765333 0.06325429363705383
0.012365429036686889 0.04047892390785568 0.1665879017966401 0.020898497532408012
0.008957986625263259 0.029472328334091146 0.014228024896996413 0.02438820749641483
0.005807328315837767 0.02704332868255962 -0.00019189340725442859 0.017539162372801616
0.008502797924510329 0.030970319978814057 0.027264119888104524 0.02383654204686156
0.0060867023054128255 0.024327599083951296 0.050485140087472506 0.041417665507508306
0.009662734070525545 0.032205023953607866 0.054108479130312984 0.04949852283552336
0.014772779436087062 0.04630391674649455 0.18196166172215225 0.009787897876981352
0.015205098037851611 0.051455304218859944 0.3337388486475783 0.0383840040445567
0.03192192460557068 0.06936582896238865 0.3776557164286821 0.0020878712554237506
0.014491772902912967 0.045069717673081724 0.2872223684860893 0.03582093866938435
0.019680417344034043 0.053283892401936775 0.26782191741545247 0.024870491624587914
0.028611865544144032 0.07870930054762956 0.4282998672034498 0.0006080439899664748
0.030098120502575456 0.07055181358862458 0.46034137496111466 0.015341938010556947
0.03306852741037074 0.0749161537203588 0.4603807654765955 0.017621611678312363
0.030460074061090258 0.0728866676445812 0.49582176664256267 0.02014646631306692
0.025887120284012993 0.06694836963361087 0.4771041646176797 0.023216065507568752
0.025365990961563077 0.07920212981350731 0.5249619465830868 0.018306658056809956
0.031916642317707265 0.07121844242587044 0.5612703482327035 0.09203213475933847
0.031601975589075626 0.07946171034127156 0.5366552522207287 0.05333554438724957
0.03037837317089963 0.07880231938696451 0.5053843569140766 0.022382800047140983
0.03193771159806151 0.07964616827321656 0.6289695770549361 0.024797777103906658
0.02677252994150693 0.0732105755079105 0.5927919241972506 0.05531485527309132
0.017728636127998288 0.04918389536669199 0.24871360172636656 0.0295703535481199
0.02232978866302007 0.061830699452022526 0.3571178148808358 0.010007929623366057
0.019913602500969067 0.05417642460505822 0.22331550297541822 0.025389413491854362
0.031760122185368916 0.08435908908641856 0.6050947215359539 0.026845248198514627
0.026009067247231194 0.06944168659716787 0.39648719716201425 0.020958600304197432
0.020429282590888245 0.057548110002527984 0.41594434217558574 0.024088048317085744
