x y z curv
0.4241099778624346 0.6393519936460392 0.9692832908550915 0.015138922056795371
0.434349872218882 0.6442891053216939 0.99055591558255 0.0083113635763393
0.42539993992326347 0.6439189069241823 0.981221285830474 0.02012008663423613
0.3991563537256755 0.5818832704954803 1.1280661417365487 0.04017726559658614
0.5258700501727511 0.5979496894649533 1.047611063097011 0.08984391852461773
0.5151332873525271 0.603125688510125 1.0444662121667678 0.006125251266192502
0.5101286491538909 0.6138076605522074 1.024386918249391 0.009293932360437124
0.5074797239287361 0.6164018768293336 1.0048393094551287 0.005376925037773782
0.5079778063092036 0.6137832495656967 0.9860853220089658 0.08364630127927206
0.5241313886465648 0.6042709834526605 1.013705599591878 0.1026765702968885
0.4923940498795409 0.621157268944626 0.970721719934054 0.07823243640486359
0.48784240123430306 0.6263397386413536 0.9448528900721125 0.03437505229309598
0.46768562983097756 0.5619220328673731 1.1503231576640796 0.0074129075834773045
0.45987731042368235 0.5608332026519248 1.1279567929383107 0.0021014345957150824
0.43187270554100565 0.5706839159335154 1.1508503077011758 0.024347259343834565
0.4418198845047527 0.5721142813278939 1.137640217856084 0.01356801273938519
0.4528407867704416 0.6306085000147079 1.0747707582543655 0.01585440305019644
0.4580313250624151 0.6381638434828748 1.0450999075141372 0.005752310591450055
0.4733160709507991 0.6284567420706639 1.0510829285546004 0.009513449477171174
0.48235815577928814 0.6252318226569421 1.1273410561612296 0.021130156628095618
0.46826341064156085 0.6271586432323931 1.093328780118112 0.01270653956766949
0.4728845662759779 0.6325697189080584 1.1391816387857616 0.01903275423533799
0.42579998063425994 0.5834535131094143 1.023514103517932 0.00840578407811662
0.42897305368271604 0.5701051037745238 1.054149520898844 0.01066008969497223
0.4634040990303076 0.5690159058077322 1.0984141693775162 0.004148051230030272
0.4102034908481253 0.5823470159240036 1.063729295375266 0.021320333502545565
0.4010946308996839 0.5891239277284779 1.0304689165994034 0.009267423604241183
0.3844637991614779 0.5848316756924009 1.0237365255678659 0.013432431620314614
0.3827945440675914 0.5959333836626 0.9782405583586584 0.003409475690888656
0.3654758185095014 0.5892465355766189 0.9715270410257955 0.016395400142359132
0.34960091470740456 0.587250159243987 0.964904241771906 0.016736852021442462
0.3536410314627082 0.5910190810536109 0.9980472775777448 0.0049165370301774095
0.3776863722590459 0.5948507853872216 1.0087232857309936 0.01195851214804185
0.36259005386973997 0.5962402304809443 1.0213968346761158 0.013569856440927727
0.340435388493726 0.5817148363979278 0.9777773684175156 0.006071597978451798
0.3502614044071341 0.5946972252569025 1.0268461432055096 0.017918955106453003
0.345850356776668 0.5941687279961563 1.0171721915125158 0.022230981264265773
0.42346648228595274 0.5764389460319795 1.0797365109871793 0.009402877378028982
0.42070915828135846 0.575002376220607 1.1070827159170575 0.0013495310689482483
0.4226053202564834 0.5770012195502123 1.0934871348483486 0.002230002747905342
0.39828597206168853 0.5836189310358002 1.0712978616848645 0.008010335445678684
0.4008737650959847 0.5835563159858098 1.0930200657963038 0.013317649523035872
0.48952014126391474 0.6232328447163599 1.004038589536854 0.0050359172455878174
0.3625447128812187 0.587199104772565 1.039812535996767 0.01758585239177577
0.38741658039339927 0.5781793107798888 1.051801305089262 0.008132120390737947
0.522619367121622 0.5450959194709147 1.0976590073138772 0.011310081102638769
0.519957717711609 0.5451819070849339 1.1063418734018233 0.009160626953085216
0.512858700693512 0.5461532188879851 1.108976621525015 0.010368419531300214
0.5043259838131046 0.5519034373347856 1.083793847430981 0.010784046719431499
0.4797961423814495 0.5573207574700577 1.0712356699498393 0.01660748226472143
0.527682010456789 0.53349535205337 1.1559495583475312 0.01774465489536035
0.5031749602975022 0.53457197765072 1.1380635825043333 0.014540081894325355
0.5381451223230181 0.5241428865741548 1.129951877372112 0.013552558353463813
0.5433802214653621 0.5392288141302812 1.0900598351199484 0.019906322572989913
0.5518301695367054 0.5296634611171201 1.1041988327270573 0.018048092758905704
0.5264950375487929 0.5499147886245245 1.0732164664626394 0.013551015050106193
0.33023035147132224 0.6509699441063738 1.1145541730423216 0.015105139607057167
0.328803716951086 0.6522415539460558 1.087559548404426 0.010529978394932965
0.34053485671216266 0.6459788806361068 1.0972812238498446 0.011560521934392597
0.41646697801441257 0.645376927735441 1.1587995156274749 0.016861361100986513
0.40951540158201144 0.6471104437615968 1.1405790419037136 0.017656032800529593
0.4077943030941629 0.6462995406426836 1.1339036127790176 0.020530457597708947
0.42193000941464076 0.6433604108113328 1.1069097026090098 0.011810213825785534
0.41095404679991276 0.6456637737155645 1.101008613193527 0.008565961826273612
0.4169623952570777 0.6405600122218436 1.1196085999955958 0.010430332279965569
0.3915568300027556 0.6547310494955918 1.0723171108983716 0.006109603556263057
0.36754823591437863 0.6494106949727925 1.0369323085823998 0.0230714701938718
0.3848813595164149 0.6517268712568679 1.0964102503634003 0.015504675994177103
0.4449026075788194 0.6437652389124804 1.132990342696164 0.011362888701421634
0.4121381725427249 0.6479169847100794 1.0854202137633173 0.010246692667555282
0.44940379869549457 0.6314705352592541 1.147456964791353 0.01586976526143447
0.43905282057147366 0.6420185032056107 1.1041658164732113 0.017965159826589652
0.4509809909117555 0.6394435669329627 1.1291371084653794 0.015700226160426628
0.4546354898851669 0.6380761022992113 1.1049029331024203 0.010875321369819066
0.43523023913929276 0.6382644949898744 1.08868298384742 0.011301274517667617
0.40423497859071067 0.64283386866566 1.0633779011793647 0.013108553177546984
0.39159653996026667 0.6460043171560039 1.0532336056566873 0.021278743566346403
0.38192497248836166 0.6411032431157959 1.0393171936474184 0.026802593665800845
0.4402021998996204 0.6318755055712292 1.0754916925215654 0.019344566976590424
0.42517093016766294 0.6448643256264354 1.0711878570776352 0.016064808314317905
0.41547156455635953 0.6314400138778621 1.0454733246772394 0.01632434252919027
0.41524497053039217 0.642645988041959 1.0621392004195116 0.01609454936579206
0.494658145875295 0.6229722601656619 1.1331670015381765 0.021938131794471027
0.47147088594171505 0.6274247600221627 1.1506198971762913 0.016394020371590375
0.4925654217337002 0.6186133997593204 1.1454991118683728 0.019629771070105544
0.5356157228753342 0.5908981264771687 1.1265961136660716 0.006327197660125428
0.5172910204327495 0.5389076130515251 1.1657887987231494 0.013126952121589508
0.49772528660655097 0.54704958137491 1.1496291718343647 0.007341872576714315
0.46927881731265847 0.5624419863335354 1.1461855784999626 0.008061353242112027
0.49149725867823724 0.547202846808864 1.1490224835642948 0.007903862858604893
0.4678819481433694 0.5640417787191216 1.1098529112560505 0.006708575365859152
0.40034707955313 0.6478641207131937 1.0946127046210072 0.010112241228783589
0.4984264433635963 0.6207322891291635 0.9816342690124 0.06116331365174429
0.4980667922377239 0.6165737047978789 0.9500910916218333 0.16030838930229835
0.5838476932464945 0.5411800468480396 1.105428442509874 0.05853835829819392
0.5633870313240918 0.5392720207697638 1.0975667435050425 0.09777425694764354
0.5629569545922628 0.547257382073736 1.0788067425061951 0.1339189269642237
0.5662252576700285 0.5639052153263695 1.0514120537200684 0.0911165577314444
0.5769071185866225 0.5670729000905438 1.0876900355094696 0.10611801377628984
0.5639736357698621 0.5808995399853237 1.0768055503495264 0.04729661436638069
0.41578358748168504 0.6415312475353984 1.0224256886205254 0.01945430626470933
0.395686130555432 0.6520982272754859 1.0035107620294172 0.01666546369042916
0.5644328185367599 0.5696811618752919 1.1092471932836707 0.11324886904559844
0.5562204424013936 0.5811158576361424 1.0947599457299695 0.04723641911373149
0.5791715127023636 0.563677485219406 1.1393040631883495 0.00425195679910183
0.3986522186535423 0.5925159084935662 1.0151335477659973 0.008658686599319808
0.4675688788114497 0.6412676104928281 1.1169415387982906 0.013416485108073164
0.4208513934950332 0.588112486219033 1.0008530688027826 0.004984121061146073
0.38958563498297955 0.5916980285984368 0.9488491198390986 0.010857612991125015
0.3323604890282921 0.6484097312926276 1.026478755520312 0.014873643304308572
0.35017742182390676 0.6435416545058898 1.103969965324692 0.012895119633549413
0.34729437669242935 0.6465739425045509 1.0777703794392384 0.014911176347490179
0.34416898035018506 0.650157935120613 1.0667499539285183 0.012903378460881187
0.3418825591476697 0.6454698832611722 1.0418785681343907 0.013863561578080774
0.3614624021555933 0.5798294092108963 1.1175532747526582 0.01927541331301339
0.37014963199881423 0.5881482609588082 1.1297615416573183 0.02279504865903461
0.3641202101429079 0.5929891185377602 1.08107691492874 0.009104214298188636
0.347051928168949 0.5937609311503292 1.0618602107431363 0.012619614339408433
0.3741882382689767 0.5737329369282205 1.1114771830368297 0.015163732636872543
0.3848371521346635 0.5879022708182625 1.1369688575541954 0.03354503950728069
0.45393064534235017 0.578990289084106 1.0113609272742252 0.0038004136811956306
0.47050666694535015 0.5739789666777582 1.0253712684056862 0.00408197019403951
0.38122010530567463 0.6524747523583736 1.0924277258471244 0.01431499446308893
0.3480498087940567 0.6539277354178841 1.0609854667586076 0.012296633959921302
0.37110956124377403 0.6522294820026296 1.0655603054472735 0.013468746051222311
0.37811865035001374 0.6503092900302885 1.0649034137277182 0.01149761567940553
0.3966385197128787 0.5915570794927802 0.9932882402229769 0.012890953606960225
0.4912234188429535 0.5523270404927252 1.0953686744630031 0.013668164989002711
0.4627192870506878 0.5685775638719079 1.0683736212420627 0.02559405074202304
0.4420133806619878 0.5824540833684936 1.009823876065296 0.0012216558404886885
0.4575830122452027 0.5756980601444535 1.0495728181764277 0.018379296711516585
0.44378967107879314 0.5672734301584482 1.0604861676480504 0.019849602508474826
0.498740942400189 0.5433851265328804 1.104383982667953 0.019417586330296797
0.5512126951632029 0.5874214634839611 1.062229188377903 0.03960180333057581
0.5332983681122083 0.5977570114914798 1.0398829036907284 0.09299909338828018
0.5471639707695286 0.5959876982360858 1.0878051401849793 0.009124038720752506
0.5360663028472185 0.5951051157337607 1.0596634507470384 0.007255139641367241
0.5358634279537009 0.5971511486725459 1.0441200285345602 0.09930255822160815
0.5237175359060849 0.6121469897235715 0.9935292280206336 0.062421469241589825
0.545847439406276 0.6021203944067207 1.0157958330462729 0.059120828310994876
0.5395626516575818 0.5805759979582217 1.0050238405055927 0.10013961587065867
0.5515192695990362 0.5725652495941799 1.0299842373763564 0.1060650010082761
0.5483271180849778 0.564266789852911 1.037083872578293 0.16863527467825234
0.5211628746300022 0.6081226468383911 0.9651423181108255 0.1587303803485335
0.5241763209442699 0.6034332805832531 0.972348028516567 0.13904904242799748
0.5012789579744797 0.6206971678860842 0.9607171735045584 0.10173490281172054
0.3877420979641946 0.5844319865521805 1.1038514857282138 0.020959426757625108
0.3718761171843932 0.5897228868213498 1.0814989200633898 0.020524059373636227
0.42476208265559395 0.5752447775458084 1.1168159322325806 0.0025216137045621836
0.36011040152394225 0.5925675869618087 1.0517637154596906 0.02072911065059221
0.37929184911278657 0.5896658777319413 1.0642376469410793 0.0071088696339660215
0.4244154492723878 0.6382313364535462 1.1346249232953431 0.011962875139284034
0.42902565280892374 0.6466039317372263 1.157732904043428 0.010604724526423229
0.4374345188653941 0.6386750823038 1.156823858571955 0.013796573196359328
0.4085355798946488 0.6501001903626135 1.1238659537582143 0.010950273853338252
0.388610733640834 0.6452127715046294 1.1169516084017779 0.02103634303397063
0.5342956161606365 0.5675830630101208 1.0105853501096016 0.11316200361298152
0.5246238002586238 0.5772153907620537 0.9905737773110932 0.14185514552153528
0.4648019286430275 0.5718082726446151 1.0324251189339986 0.007325753471621619
0.4405746037526045 0.5804748071032905 1.0378869332293144 0.011772931000058776
0.44608508268065716 0.6372013192609626 1.059167767166997 0.03055764217344432
0.44742161629423016 0.6401065049238067 1.0444897039747227 0.0161230812892352
0.4620104689130719 0.6337068011026732 1.013164124478836 0.012899924535860642
0.5235518340343188 0.6115054714350486 1.0742546555721513 0.00421438548322684
0.5125989894580066 0.6116066349985331 1.072288342590089 0.012527760719095095
0.508852967703361 0.6219246865618141 1.1210681566768816 0.022221140671482027
0.4753450982791993 0.6332575828645677 0.9539879544184265 0.015461991053988487
0.4503618207457229 0.5738773578310497 1.085111548253164 0.014592918654717154
0.48496564204045883 0.5716781804763277 1.0238983118970548 0.01110064459968594
0.45400474257139956 0.5672426543229095 1.1558287419760176 0.008801469795215051
0.5734683695083261 0.5607115175662508 1.1528437551420163 0.11196740853673055
0.49033061685617146 0.5840759838955292 0.9386657001484107 0.14097602099289763
0.49459244575878286 0.5908526285964796 0.9511689582510277 0.2026446185041103
0.4218687263662759 0.5904978210246872 0.9397560893525426 0.011025338494150699
0.42648149101677607 0.63967649295531 0.942915334213645 0.01160261345303447
0.42276371700134363 0.6350528892109493 0.9225178357795856 0.01613587012145022
0.41216746511318675 0.5873330631671142 0.9349357881900817 0.01177232700282488
0.47614536310310585 0.5884126697269452 0.950161308543428 0.20514035308604497
0.4366392487699781 0.5845602914333118 0.9370615162575103 0.010913236004259115
0.529968354289982 0.5932326839869295 0.9240363751262397 0.08074883293196296
0.34640711925086587 0.5941996568076566 0.9485592738969029 0.020781228707724676
0.34827260446205055 0.5948311611659695 0.9288131552029032 0.01636067837173396
0.3779839046094442 0.5871511675385496 0.9288864318413534 0.01095997105654118
0.43769804501307563 0.5815042037136231 0.9316612864994419 0.012343863304996164
0.3645843311252783 0.589591635815259 0.9276831600155765 0.011884276963239137
0.3728249904003485 0.5852037367638405 0.912280988852782 0.012773764613578539
0.38393595660649715 0.5727787579300906 0.8858269925160489 0.025478539421731616
0.36310774343187124 0.5795227668609914 0.9042135123038066 0.014533440357855993
0.48938588653687665 0.5744871322759578 0.9198085828102075 0.10293548491860462
0.46819608346607133 0.581014065124016 0.9268774280520586 0.004706066554002071
0.5122985690137062 0.6081491644352783 0.9475599280038276 0.1200518353464568
0.40681771088895685 0.5815550780093853 0.9230580423334834 0.008016507932586252
0.4658059950699503 0.5694016215042123 0.9033458434553892 0.004643140022758599
0.49706718294652663 0.5724517039182974 0.9053176754074032 0.16780183544988872
0.5222419809952048 0.5826123755366396 0.9195354359275041 0.15958251588896505
0.5392279908981379 0.5796538653236416 0.9053074323103215 0.09621772994792357
0.5450645967202707 0.5669985288940982 0.8836402724313359 0.1676959732754357
0.43536719585915584 0.5796036491730053 0.9102917398202425 0.010800109855333398
0.44596562456529687 0.5641928899981716 0.8923292265497185 0.0031837166919875875
0.39417326615206216 0.5905015312592388 0.9296429484593799 0.009570560947490826
0.4127846412649195 0.584235280971689 0.90600349764387 0.004328008967462344
0.3529783358563543 0.5762830996631774 0.906158228724323 0.00863123620267406
0.3368820877691047 0.5857594825999682 0.9164701874542603 0.008754259381702703
0.46547651240897536 0.5609715677365792 0.8785015275525345 0.003902471554661913
0.45366509177219333 0.5809244791428352 0.9172768162912968 0.005668471916598092
0.5241433612680818 0.5421594157349986 0.8526491658222063 0.009337767904006608
0.5304964833925702 0.5383341860864725 0.8604126830688984 0.026837293895641438
0.5229746646443717 0.561698650522678 0.8972561634740837 0.0997684480318975
0.5338654941162086 0.5575880845379864 0.8936594321110612 0.06429667357808998
0.5290465927424837 0.5472824290891708 0.8762349032852169 0.034052344075476686
0.5210997194784576 0.5702398135497669 0.9099574538180972 0.12312495027377114
0.5174047907691101 0.6026103935532353 0.9363417206148383 0.12923815652189222
0.5322835771424702 0.594533005156929 0.9223130372613344 0.07844601251565407
0.47342835783908005 0.551018657461629 0.855258393692773 0.004148452986856285
0.4424670268430503 0.5587148543537257 0.8646649953187029 0.012388192061873702
0.49038287058638586 0.5430805523174547 0.8448696695531084 0.004155738046846895
0.5054875199869836 0.5358993804467922 0.8301565811867657 0.005763303861004601
0.3684661334875771 0.5759733693211876 0.8801700592544459 0.009539878138845036
0.3916726782514518 0.5631050660090875 0.8607654211471375 0.011273647044805343
0.5284772814802202 0.5525181595192395 0.8866500175296216 0.05815879025542598
0.5151974350986993 0.5557842377536999 0.8775595432215896 0.12481467228967605
0.5524792624788939 0.5334081309888131 0.8346804707569713 0.1573865716804597
0.5594545741561955 0.5282977386229132 0.8280904660999382 0.02700796735644409
0.5713000181407724 0.5317084303569267 0.8438511713082971 0.025793679618417407
0.5475060181582606 0.5655103725813113 0.8801687812302529 0.19626219597076291
0.5728705074878923 0.5513056350372446 0.8483511753400205 0.07780753785614519
0.5665365526955275 0.5652643952007465 0.8605145270638306 0.07764730747786674
0.5097884426092275 0.5271403405554695 0.8124579238627138 0.007988401131334626
0.5225388686178228 0.5041923478917093 0.7645524162255205 0.011426716618010655
0.5406032943656691 0.5130734203753949 0.7776367361426306 0.005871729008295929
0.5800460172943197 0.5308842890536494 0.8295074779135765 0.07068568435142422
0.5144208813486453 0.5297721672766219 0.8301480460471959 0.008623293315880397
0.5117072389668161 0.5106937613304403 0.7854404077425634 0.01119680751812414
0.5560857084984109 0.5400045293180162 0.8605225475681401 0.037025501309095314
0.42400772455595515 0.5680247676364526 0.8836569801484118 0.023916694026427026
0.378315343678317 0.5613409265734983 0.8486568727509434 0.011822970109893284
0.37646086213930646 0.5648167499987233 0.8651042678331804 0.015299899077678116
0.3501056820172151 0.5693515125337018 0.8847067344126524 0.0072149721111501915
0.38206920730782223 0.549686118253093 0.8369022779249957 0.013574919294286704
0.4008395026559674 0.5560662733443951 0.815139949388114 0.02441599859906991
0.4196691624099746 0.5376953174640774 0.7967119144027676 0.007627096606351903
0.43430938750674203 0.5243447185158339 0.7557367723862785 0.007328970573327557
0.4022300560830074 0.5514641552742343 0.8066283187887153 0.02111972899437513
0.4173341742816702 0.5330555013874666 0.7919777516264237 0.008319059434044457
0.5623022686508333 0.4984778418794162 0.7846183823117433 0.027284128472717842
0.582607652604001 0.5619787099961231 0.8186185984635381 0.07229282604544993
0.5692128013379513 0.5756009532316179 0.8261552080348387 0.02465102167786145
0.6051741128497007 0.5277170630513631 0.7569673852338388 0.08680036617540873
0.6179799955591155 0.519799819877856 0.7384640908198862 0.014961988559339494
0.6146924527560719 0.5234550576019074 0.7460379752681852 0.09730210053669423
0.592207027553276 0.5388218982018187 0.7663591722355491 0.020088232647377278
0.542057758386215 0.4879745649383852 0.7464479483221313 0.008397139984067539
0.49855807340910807 0.5257908939900948 0.8026014133195333 0.008041996549845339
0.5015929408821005 0.5163833488796894 0.7802538203868599 0.013528910376281705
0.5009164674631061 0.5138162003321088 0.7698889996682882 0.008732034237388909
0.48848908466550167 0.5287617592211866 0.8004423194358785 0.007960158628273942
0.5246516458843162 0.4897980550791321 0.7385428528967306 0.004662963469088849
0.5065743656954428 0.5111216778595142 0.7724647916190348 0.010976992188542178
0.5336832503407057 0.49436239819106537 0.749925378272245 0.014151389807696285
0.576645459832245 0.5574533650012177 0.7822007322224466 0.019915385365501338
0.5694464010566705 0.5544853450867664 0.7648975294021804 0.014487267564625955
0.5936523548897753 0.5411075928663407 0.7455613033361745 0.005331824101287205
0.5473937047533204 0.5712200514234552 0.8236177944385373 0.11675818522362978
0.5353191009681394 0.5817976041347186 0.8378085944176779 0.012420080706147462
0.5184353521292233 0.5916419959833996 0.8566256329812312 0.003270411824698074
0.5330459006224402 0.586157597856609 0.8513079914865527 0.023631106449043742
0.5564999565272097 0.559915806028862 0.7966842320485993 0.006756425384830622
0.4736002807591274 0.6252143617011042 0.9347465729372002 0.09884806231379749
0.33731034957757305 0.5713411468486879 0.8691701985819759 0.013105871344920056
0.3899094035984456 0.548106058896789 0.8101995634939181 0.02031575946322495
0.533917229630118 0.5299154313625858 0.8385032759534512 0.014163990276791754
0.5166261263956268 0.5358047738963009 0.8403690079093525 0.009630027452319653
0.5383187213413279 0.5193057012615107 0.8197494205764749 0.014758785662965
0.5571608775533344 0.5118977055144699 0.8164704871157684 0.023183844459539926
0.5086800485644878 0.552649169200409 0.8614736247773525 0.00379261566779866
0.4927811851030797 0.5527708790901219 0.872317172606198 0.00611090537895364
0.4962042418855453 0.5573376055608421 0.8839074467545879 0.006132441292397045
0.5311472431925789 0.5201232156522174 0.7990496103867536 0.0074158100501551544
0.6005527916457868 0.530966013431627 0.8128939697743925 0.0372791537559497
0.604205000587649 0.5239586518709383 0.789161942162326 0.15824561422179775
0.6315245567069563 0.505607616553321 0.7626490403005747 0.10908981973597194
0.6179474343730582 0.510257082219202 0.7761217045207769 0.10561713519906217
0.4992623561592209 0.6106541007548066 0.91245500155298 0.141756285926856
0.5171592416905189 0.6017512672966002 0.8892147485216587 0.1578912006353877
0.5382703678160655 0.5824918260342878 0.8460656012977431 0.024642933070011197
0.5083101508764786 0.6082745562566749 0.9029344766072016 0.09013847521174213
0.5955150864818354 0.5013656628943349 0.786181505055983 0.08496991068114762
0.5815740636353608 0.5071042830158295 0.8025338102161137 0.046269524109575175
0.5911495732632558 0.4902696965149558 0.7725013736635808 0.026173987966926313
0.6048940370063834 0.4878706684606641 0.759760414290319 0.11504513344332641
0.6012589802107629 0.4708773774514961 0.7411113933691884 0.015778073445325582
0.6110650039672183 0.4592636329512608 0.7305168287128231 0.012014316170236619
0.5548313251882526 0.5065124463167194 0.7866984105917632 0.018999386835135204
0.5668598384061938 0.4895369068892838 0.7682609379410203 0.011868042850835848
0.5539413618756786 0.5022895359046734 0.7786467617602822 0.01555349745586278
0.5661781215295456 0.48705721090267173 0.7555526022701754 0.009845330468248344
0.587496818717874 0.47760060364686185 0.7399419273939618 0.01782558394961087
0.5597063420316502 0.47476370354289366 0.7435232478612539 0.016803100354378857
0.3785666651831723 0.583573801668216 0.8995730025267211 0.008684244989514511
0.42014563322802323 0.5471656795497908 0.8436193490583466 0.02249788068192081
0.4104802508983845 0.5531909046419659 0.8728653380301663 0.003913279889291994
0.42028727845200575 0.5536352808787472 0.8298612897649288 0.02857068637922669
0.4314595837614291 0.5484198152124844 0.8429452030825592 0.025067699986139176
0.45038923432496253 0.5418158761550793 0.814235883835314 0.008656643998613505
0.3942819257472126 0.575455011146912 0.8941921337682548 0.016434074939076015
0.47652760659463184 0.5592659276396111 0.8740648288010521 0.005239604288326374
0.48899334335391936 0.55212268705697 0.8598408687424396 0.0038023578012773445
0.4460921594092234 0.5868703674965265 0.9327666766394721 0.0171732702707217
0.47317467354450365 0.5672366725124406 0.8986310537252421 0.005607142317474874
0.5350990345223162 0.5978952504798117 0.8940458889380405 0.11147074592302658
0.5439296050534571 0.5841441149051902 0.8879440057030005 0.10970771288701127
0.5516703843393026 0.5808541708461012 0.8671502973107547 0.08503269027280856
0.5655911813595418 0.5630965264560793 0.8655838567147388 0.07767739827750261
0.46857685805718197 0.5345427481547529 0.820024672970923 0.004560183030821229
0.4426657189633752 0.5587747915152369 0.8548674689221774 0.01449830346839305
0.4698315037471016 0.5441451035759988 0.8384859244292814 0.004378926957073266
0.4619014115971967 0.5309045027114295 0.8045416507619157 0.0058408818705261755
0.4877205619967491 0.5206334168983173 0.779628991704444 0.008551419490567319
0.4856709851515579 0.5193738740892481 0.7680421090210444 0.009356088144949565
0.4900913395260627 0.5123490077210033 0.7489169696140616 0.0028132872525828863
0.4346957615909962 0.5296402218822865 0.7722453935907762 0.005146516044123015
0.45041344196574346 0.5160961857444287 0.7466005971562677 0.007602387714847364
0.4723796757838461 0.5048786756498888 0.7296009881248603 0.0034331030494919985
0.46658122342819175 0.5144021161972849 0.7503126301787241 0.004668681777646894
0.44916859330587644 0.5245671599854249 0.7760825354247173 0.003375494270707699
0.4660908893327951 0.51551031706637 0.755320326334903 0.0037851148867171346
0.4826907259108397 0.5145630109483263 0.7536923998367611 0.0040056430790084115
0.44081033111692053 0.5332850278695083 0.8025914135471373 0.007968505795404052
0.48486357892700016 0.5028730906464032 0.7301532171241681 0.0034407021898024293
0.6306016619783334 0.4928592139229086 0.7553949952810195 0.11468936823433709
0.6095568635667443 0.4949760423391207 0.7695339715030254 0.10274604046964841
0.6278239911656323 0.47426807433501705 0.7408857944032647 0.02921743134296146
0.615967162626341 0.5194449955942932 0.7252329259829081 0.0045958248536278916
0.48232567300075724 0.5349286042656992 0.8201655915952768 0.005152046234476632
0.4767202204813548 0.6245326010987937 0.9157517061671037 0.008380329122378006
0.49797994797199296 0.6139463115432934 0.8770582981566495 0.007315479512988795
0.48159691996851295 0.6159428655880579 0.9068418312264278 0.007670421513297917
0.46810158962185533 0.6269450500900073 0.9082724094979856 0.02254970291489948
0.46541365206364815 0.6271776524502183 0.89857098356384 0.020275832756509755
0.4626872518788269 0.6381839247208073 0.9243413853886683 0.012046750039634482
0.3862558504334898 0.6498462359683573 0.9393505981284029 0.006296228238728241
0.3959363081083271 0.6322599669644207 0.8829488129308847 0.018583219315139725
0.4131602384530723 0.6429720540479157 0.9328710687371875 0.009543679697705353
0.43043833512010454 0.6351562674064846 0.9003394472468382 0.024257812930658366
0.4173142933658204 0.6296298737817374 0.8973292971613441 0.021788080034832853
0.5170277119582538 0.5945786494694585 0.8449501779005346 0.0051697942180768605
0.5185564531828818 0.5932449377913566 0.8211861333605314 0.009909008485233498
0.38592092136030803 0.6448381138970337 0.9186159950446317 0.007373285307174442
0.363816047943204 0.6476309236733958 0.9317751686022101 0.005956201921089068
0.38153209039234715 0.6314254181924884 0.8805352935989673 0.0186699741007258
0.3824119831837609 0.636619150918426 0.9071366601040337 0.007808510480764922
0.37380435215474306 0.6450176534227104 0.9285511784370969 0.0041384760878685955
0.5574146588533406 0.5547486705773388 0.7578588040645163 0.013241566920187846
0.5901790378410866 0.5338291758858146 0.7207950981912984 0.006999606808958807
0.578849943924475 0.5515199489218757 0.7512932752286775 0.012374783588275368
0.5634955649438605 0.5493898662872073 0.7377950356255113 0.009442434786601976
0.5435821561676335 0.5567655078530942 0.7565066447236019 0.010699423337731674
0.5433492106143726 0.5599753502634577 0.7698946436031356 0.008178239787847257
0.5375439500898079 0.5652203095319422 0.7458529655821762 0.0066407998682695615
0.5558304975318964 0.5521206122206408 0.7323046520372779 0.013201962356035251
0.5204904729245373 0.5834539924131289 0.7905028198658098 0.004599350761150381
0.41925723774351037 0.6199133851081554 0.8309520678908865 0.0074720380978277575
0.41845999190670624 0.6182622645449465 0.8229538605418059 0.008192575888653075
0.5024444566175597 0.6066265336577892 0.843810956882831 0.00809853368826187
0.5188781958761132 0.4987483148540666 0.7510182008373925 0.009468375086283872
0.44059840019285407 0.5448386657391627 0.8208174853487391 0.01671117475211049
0.47474297497120027 0.5214036313555878 0.795518014880352 0.006146213457177721
0.5038935440573896 0.6127134098999591 0.9293002611052821 0.10552705463038385
0.5270393355893269 0.6025243917268313 0.9132859889835172 0.0683573847414998
0.3646867432292624 0.6416047948846964 0.9081982860031985 0.007914016151083152
0.36871515217332956 0.6368746105755617 0.8842693544972452 0.019437751844950443
0.35182638544464806 0.6504270027016159 0.9425160809588743 0.014902390713344775
0.3446002449413987 0.6480254505726126 0.9116406732974568 0.014332822094505879
0.3932997261012059 0.6274869223672116 0.8537831655839361 0.019324000160488974
0.3821613047842613 0.629963547309881 0.8334718776557941 0.018310003733895144
0.40143061902055244 0.616503122503475 0.8181670995981292 0.009985301561666018
0.3978333389960973 0.6199270530765024 0.8375946796889178 0.0075910179750580346
0.42511657560340055 0.6051174279774401 0.7685661480945973 0.005497241037182037
0.4154659508647331 0.6048969275590196 0.7805431974904872 0.004181158133176677
0.40074155308343173 0.612218032704695 0.7972998914330061 0.00302043860970852
0.37203594792310574 0.6223981407722722 0.8167604678487721 0.013912532758180818
0.3920941739192713 0.6094434000807867 0.7897311010810378 0.003625819236906902
0.4016434739473392 0.6014906920477459 0.7655488797536948 0.0049348267928036975
0.38122398983472666 0.6111279006285332 0.7994418022989137 0.005568884984261619
0.35400080078743446 0.631821732940461 0.8585239009385864 0.017956736699900507
0.3527988673645479 0.6333789865898098 0.8682497640982944 0.01875460514519601
0.34610058761932366 0.6415809855455845 0.8905978450499481 0.03198177053685061
0.4420463180220357 0.5967225162554718 0.7477454417685838 0.017276753979377356
0.44652624735567165 0.5928320870597165 0.7359010787609247 0.007393908746831573
0.4673669708682271 0.5886389592005491 0.7353719037335311 0.00782490904877063
0.36263507246253723 0.6443137986227059 0.8589246807834455 0.008794821762743325
0.3328456025309401 0.648188067509948 0.9417051297574944 0.015848571208005723
0.3387026762905749 0.6462184586223758 0.9239263890930337 0.010295934835284445
0.3940427751090846 0.6197106520822337 0.8162227220415017 0.009956450237894638
0.4331208948346873 0.5926377532933886 0.7325633506742613 0.004413229482614396
0.39871930215709894 0.6026713096587438 0.7594232715503202 0.004954741252364478
0.4089961912666697 0.5862106474066604 0.7139640534868209 0.010676615207088938
0.42221872086764045 0.5789850231340495 0.7117993391024293 0.007090395532361244
0.3530011236428744 0.6210870980500038 0.832451132688135 0.01911547196507962
0.3641218877862298 0.6285193958190357 0.8142951073294541 0.011205819916588545
0.35139333035612297 0.6157543060031421 0.800297296438649 0.010879999654616746
0.37779304701351996 0.6073357822572467 0.7715995924796976 0.00436167443696108
0.38330347219637395 0.6071817352182547 0.7639026405182402 0.002526790713287669
0.39012160443353433 0.5956384249323543 0.7452830173417115 0.004139214033005747
0.35409629651275254 0.6142820321953961 0.7898251525752218 0.010112728925457493
0.3646598997339039 0.6172210818834472 0.7953219650391821 0.008660551278055848
0.3472161907049218 0.6217125262833898 0.81334052540935 0.014302182759158953
0.3370612029217505 0.6255136038426855 0.8342980444080429 0.011077073333221171
0.32502672135376287 0.6266168071163342 0.8125131910224357 0.010131445393089194
0.35925435160032415 0.6090688057347324 0.7662819221537682 0.008660045545072327
0.36509630390981146 0.6015301504715852 0.7583960663104965 0.0033491533057268316
0.3752749638851242 0.596516001953897 0.7223835471406101 0.0020570911880105625
0.39862547566936624 0.583961879373235 0.706747615387941 0.013400813746983016
0.3605330294765183 0.5973531481819141 0.736720339184125 0.012581862849310987
0.3354482668361469 0.6135240405954838 0.7692489722117808 0.011376301712748439
0.3566783331992393 0.5985541245653868 0.7381635436485902 0.012648646358835003
0.33836975196522057 0.6160046691659203 0.7785109807464559 0.01136337276194839
0.35174735724291056 0.6109818189729777 0.7789388245115901 0.01036296268505093
0.4291191743153403 0.5291806504681345 0.7822433948376817 0.006965084019474887
0.42546328705036046 0.5523397048436909 0.8201783107380718 0.020563219427896056
0.578268101580777 0.47990584846417844 0.7460772223906561 0.020939645669171128
0.3360548647896087 0.608805410392876 0.7545833256136083 0.012462688131422778
0.3522620260648894 0.5938857943656599 0.7150071303653217 0.013966861906974607
0.33323108014331343 0.5982582890915094 0.7268495860848737 0.013240877542122683
0.33930415493032334 0.6030601026972313 0.732369771761483 0.010759141026958387
0.6204159820616102 0.5214441611400693 0.767893534318234 0.09617165455578838
0.5719149502318938 0.5005543675752387 0.807622538756116 0.017431952318577405
0.5807283758519465 0.5029935191031689 0.7849919256224863 0.10689864747426941
0.543931357800531 0.5818170669720516 0.8520212773448091 0.03275738295052383
0.5707732426379016 0.5644548277873337 0.8030725739438082 0.013567917439744642
0.580585603994803 0.5626615650006478 0.8010182666004155 0.04493615058178511
0.6011311652612719 0.5352673595534965 0.7749360376785266 0.11200314812461644
0.37802034454648503 0.5524172954812826 0.8184560815508398 0.01319549967441783
0.4104810477180335 0.523869840535413 0.7606980741907765 0.006496436770723829
0.41094136211009613 0.5188334032787222 0.75230035244437 0.006660791858463822
0.3929129887660498 0.5375177741118442 0.7849416733345771 0.014741751871418445
0.4000071862200698 0.526864892779306 0.7675949500481813 0.007190452702398054
0.4230792695668594 0.504892402721 0.7209683855881351 0.009122722647169127
0.3767347581827636 0.5319262473403469 0.7824461929126015 0.009481130087676147
0.3889759532477334 0.5222982756576355 0.7462903671044294 0.007721443630211936
0.3703424994285364 0.5322824040849051 0.7616289777865003 0.004575650252636739
0.3540670581153403 0.5379115285407171 0.7738843284959549 0.008187949697038987
0.39493000185850247 0.511727843411645 0.7310444668194369 0.00740307647161606
0.3533875793434548 0.5396186284008636 0.7859963861382815 0.009967742790777103
0.3334045210486232 0.5442154568168751 0.8134855021094027 0.016076358409950687
0.3388786006235758 0.5476023599725441 0.7981557946673958 0.02320061252752014
0.35876128268821905 0.5388439521000992 0.8047667477346632 0.01002558393441661
0.3710168330642364 0.5542885353066618 0.8261758877088438 0.01238301044708466
0.35076613408483254 0.5552022598944716 0.8451994780753067 0.009149263405400789
0.3391752643609348 0.5652666728250882 0.85264876890896 0.008330030193471043
0.4042455601097325 0.5392919481944497 0.7957987489194989 0.012050661049942808
0.354835959109783 0.5616195279057485 0.8565540375262168 0.009620612131689915
0.4255725791711889 0.5232636940686273 0.7495228524207398 0.007191410306995259
0.4499757777584721 0.5165137296654795 0.7335849277012758 0.002744239868040135
0.49747992598224433 0.4983322491713329 0.722064831895244 0.004862978814144635
0.5349520731557218 0.4979594274976791 0.7646226822019614 0.010690341763901235
0.5483293613983481 0.4845278658885974 0.736796143821019 0.009528231365147886
0.5910854910241385 0.5376808437358744 0.7360220861941259 0.006325489723099852
0.5473370305702079 0.5706047421039696 0.8069072103247291 0.017584502009534927
0.5211425023377039 0.5929763872621192 0.8692911308835436 0.09378884699404452
0.5332001994505952 0.5797375078415163 0.8127554965675045 0.019307243024071188
0.5086238335941923 0.6062461931812559 0.8888242970053644 0.12882494351622373
0.487076570685623 0.6165626395157531 0.9143574348102238 0.008714177251703049
0.4859371518094972 0.6223457852061345 0.9241537646734034 0.0058552996109760835
0.43347535675088145 0.5796587692112559 0.6997327850486583 0.010646548890287778
0.4153628564100598 0.5934125392847385 0.7396465395337317 0.0037733859259253383
0.5628371052012648 0.5730993419755396 0.8591480018458265 0.08334785292625858
0.6309728706636709 0.5071396839048069 0.7414506419143241 0.08418205425824948
0.33703418728812146 0.5380225029298282 0.7775958350204705 0.013367232485054751
0.3744453609624057 0.5165626095567163 0.7262716273758733 0.01706981430192108
0.36399457203865315 0.5188583043494068 0.741640923947493 0.008169454602476013
0.36028771134859494 0.5195756682732059 0.7424906745693375 0.007210333882767399
0.3413599529228506 0.5292107104240542 0.7530596410426805 0.004351000695220818
0.34221881841843926 0.529058028452935 0.7582251970951926 0.004006979406941748
0.44122393814808564 0.6095909523156559 0.7707258621963322 0.005477923784488808
0.4560573417750591 0.596712887780023 0.7641535002380053 0.008961846271478925
0.48386738189357953 0.5811169304281627 0.7358691012662119 0.008888735327095321
0.4909156385917906 0.5770261061239793 0.7394104178066009 0.005761269191434545
0.4995220954713338 0.5733975656146865 0.7276403601717096 0.007550303480536197
0.4958592099345515 0.577306684118753 0.7596074984843513 0.005259648552080257
0.5062168848078609 0.5755349365473131 0.744202221044435 0.006517984420445644
0.5212274752945096 0.5720902610908543 0.7335132995323971 0.004562498182163331
0.5209705449817466 0.5660370511764472 0.7170541977940255 0.007673079190336824
0.47336203093676077 0.5880402348611782 0.7658421383406075 0.003683655037058048
0.49616388953970314 0.5785212916188092 0.7197492479621452 0.006010625926249881
0.46174875101187346 0.6026586614109148 0.7935729453190606 0.00492333141532921
0.46389467106282845 0.6034135059379737 0.8185461958135292 0.005503221683488966
0.4460951739025026 0.6177456606157964 0.8205080314920893 0.005545514943094698
0.4164846189515981 0.6355084954691443 0.8730817644608257 0.01541699297003347
0.39807223145875487 0.6410485104295247 0.9170827127067599 0.008509219410138137
0.44794427234603346 0.6184432970496422 0.8388176587260221 0.007954257289173932
0.41871024438597987 0.6121150559115558 0.8027444038061955 0.003822983521423477
0.4771869242998906 0.5881348233311631 0.7456999332078825 0.004687926955666082
0.48451282152778685 0.5781477753622415 0.7235906823747391 0.008562992028027377
0.4651701999444853 0.5770663287056952 0.7046669602568878 0.0040210519288167886
0.47510735956246275 0.6225187518853439 0.8870226327231973 0.008721965444209322
0.47392007930993996 0.6146652752247797 0.8653636120415517 0.003275424940720107
0.4796240630765812 0.6095733458563539 0.8474373155886858 0.006698196896990464
0.46681189807417905 0.6257879066706484 0.8727045368562507 0.00875035301241742
0.45607889157119813 0.6274196695836661 0.8930367130267818 0.029986607913892346
0.43443983884444326 0.629575193951735 0.9120535910941808 0.02025376464231439
0.4962921796374113 0.6000320660868975 0.814021271521656 0.005769694764508983
0.48309285435037247 0.6102761528091848 0.8377645481474527 0.008542683163546637
0.48531897483173814 0.5923955057136733 0.8022011536994305 0.004231025170037208
0.456977068314203 0.6169988099957442 0.8450896255451864 0.009817076228659988
0.4823771747755378 0.5917429063188876 0.7892437591865121 0.007691178070639727
0.5361640902292969 0.5594597826285298 0.7330379683035079 0.008224654180396848
0.47910714889387424 0.5910040683006474 0.7740116184440045 0.0030461413176039237
0.5170344280513652 0.5729798127670499 0.7625180146910565 0.013611223052867261
0.49952643566279276 0.5827077881091672 0.7798899441598521 0.006318155249091496
0.4064737149308577 0.6262211558151958 0.8939043157410388 0.020098070841386675
0.4376781731329422 0.6378788172501842 0.8765387178676489 0.012093731161342151
0.41001439065167256 0.6464521270440946 0.9286355031444573 0.009411671136888386
0.41237792432093767 0.6420028395556625 0.9395336807962285 0.007926531227730509
0.5369622797808864 0.5563960637267125 0.7226833011853917 0.016102046054647982
0.4260128040816099 0.6273921306494332 0.8469750361210998 0.007072544724541685
0.3908787034563237 0.6414402168637111 0.9110562088135257 0.006789476479656043
0.4372387381065036 0.6119114730982134 0.8041110585055667 0.011692392759079894
0.38947390009328303 0.6323489696681144 0.8705141274336552 0.021504150963643005
0.347108767226643 0.6262262887964649 0.842402456136199 0.020707292667976378
0.4543297446959124 0.5798397181957825 0.7114804748536565 0.009823939366923098
0.35256102563325237 0.5151535117256534 0.7246520461441468 0.007706057780373484
0.0049626599628584235 0.48799240288406254 0.727835671157314 0.04377998154669692
0.378840376988184 0.5845645072589368 0.7027993225471036 0.00239440500537111
0.563912039332631 0.552209379873448 0.7069299341630212 0.0014656281196284667
0.3133499989685362 0.588683315036121 0.705704359235418 0.013789481393666992
0.32459389198994054 0.5920395732366484 0.728024641386542 0.010431226648438211
0.3137180999304829 0.5873421236688341 0.7195551946083539 0.007449776066571618
0.3122079729036117 0.5171488467953596 0.7351126903093871 0.006864646233131622
0.31582164702746124 0.5128177950292713 0.7118139879172682 0.00653942328120602
0.3035545878015522 0.588842178383951 0.7117842585162701 0.011643559844366677
0.29723572144063415 0.5205668119565984 0.7263131808733921 0.03356394292697276
0.3281638741014866 0.6188692347884845 0.7974561670482784 0.010234265215553692
0.3207420135985745 0.6052795910984249 0.770556265352584 0.006961077583806578
0.3158463325372927 0.5993389269630377 0.7468344894414758 0.015153882931091222
0.31707692738927024 0.6030899209027618 0.7541028849764255 0.009189927229571904
0.2941801965272439 0.6072180258042702 0.7799688828771325 0.0076807045490904025
0.2775901825377213 0.6007948294167067 0.751643490006054 0.0060360874130491035
0.2595935532342616 0.5944056815688799 0.7281375078779253 0.011588949466376397
0.2530989631217935 0.5911954545868999 0.7164194973936917 0.007484491360317453
0.32589908729156625 0.6314972022736974 0.8328490382283865 0.004875890446759153
0.29255882089270907 0.6147011971560294 0.7960276793811841 0.006771437477285251
0.321401169554953 0.6266767265255186 0.8507729762200373 0.005359860117638416
0.3090337684407179 0.6262839333792712 0.8370415551082733 0.005189836893884345
0.2366197545023644 0.594989342438593 0.7280947692466162 0.00695795194247531
0.26344613058022526 0.6014835641740155 0.7484934134946248 0.014490899069379053
0.27325697891121825 0.6054122763841289 0.7692883556378267 0.007920393080162912
0.29081067093967095 0.5968561974296058 0.7495192614639091 0.005305159215879575
0.2027105836925409 0.5808669259039144 0.7229537925392231 0.01856515012183238
0.21730274049990495 0.5846479214222037 0.7413206684254073 0.015998798394296073
0.0654044772079687 0.5397325797892674 0.7511686947037577 0.007256822764759378
0.0902329570125014 0.5644097305820786 0.8138765948154876 0.03788578782270584
0.11016374335887483 0.5769507651676791 0.8128090142746933 0.004469842093883978
0.11557313155064011 0.5730447854392412 0.7957873674290916 0.002611431554246861
0.09057040701170656 0.5579292052210245 0.778269232541258 0.01939866482678913
0.09812874456334165 0.5629374725861732 0.7717691467277649 0.011133690149019387
0.1270274609760762 0.5884439691509914 0.8209393793609738 0.01034104662941411
0.09332275259984649 0.546611641755751 0.7394902337749605 0.014555916657354367
0.10931002066760823 0.5737792097049026 0.7822815412604897 0.006283874208801262
0.12668470142065577 0.5808001526678528 0.7938131523536942 0.006161430186139305
0.15934906981712105 0.5976448369583903 0.8631340077325697 0.007817137867708256
0.1027867312055025 0.5593645040735066 0.756820515836805 0.005669609280435731
0.09014463611112404 0.5469310734776577 0.7427009581083147 0.013535190619502833
0.07427800546081405 0.5420866382445374 0.7319710848235969 0.009375610830577799
0.13596044374209218 0.589939615806354 0.8247171614573527 0.008732209876872286
0.17503071290959002 0.6137710456872251 0.8801088772912508 0.008696414688166575
0.19536395726588723 0.6316656883915579 0.9288358300325037 0.006696516300550865
0.19992715785632156 0.6265903853213817 0.9108866761403019 0.007928300480005002
0.1425507939640802 0.6010529172052492 0.8954372087594017 0.16480179590310068
0.15503019469469564 0.6144758129732878 0.9101211249346263 0.15125155945074772
0.17091127237501447 0.6202980716754904 0.9327148122244364 0.2399750957150384
0.12373115659539181 0.5942541276361486 0.8835221046220681 0.17141527894333822
0.14969378418168375 0.6282019521746078 0.9379354129738185 0.010773229780696711
0.14357567945624036 0.6139003338465369 0.9123580051035993 0.09974418143200829
0.15246698731648137 0.6191186067943687 0.9246013669163659 0.11534306155652002
0.10726692632215554 0.572250561903414 0.8510962252844314 0.2373069466377938
0.04143966535568576 0.5192249641604689 0.7291076342210219 0.08410323640763306
0.20084839387681067 0.631007394333308 0.9360723126146419 0.007207690859997043
0.16547290820035368 0.5920772446721476 0.7670922540027934 0.008952436892395874
0.17207069810801193 0.5887588577563202 0.7892604742689985 0.007482926574666302
0.1341527424151899 0.5659275796897488 0.7280794435932113 0.014202862029571888
0.14445144041298222 0.5807996997117247 0.7481112448455142 0.012300524537483839
0.1675232947211893 0.5858874642841025 0.7944547829030264 0.006166997729372999
0.17452642712643698 0.6047013768391841 0.8313693333073383 0.010039753818306274
0.15394667123245034 0.5909429150892743 0.7842061446716959 0.00893240952446813
0.199371404053759 0.594954759455959 0.758079441988585 0.005984633024382922
0.1756515522979873 0.5856384404607392 0.7606693105453314 0.008486908888196917
0.227239310917374 0.6218535548873653 0.8605999747937554 0.006489709844613672
0.2548094847439809 0.6338190096229415 0.8932706106675784 0.014958075514747097
0.2002957022956738 0.6160451824347546 0.8331407049779302 0.004381233588570243
0.18102815588880838 0.5976090078515597 0.8025898880682014 0.01309462048317443
0.22958390436853188 0.6324235560635603 0.8896919666743166 0.012780744479914891
0.20246248672755338 0.6013425275828893 0.8063304896980428 0.006872814502677304
0.22972714956182583 0.6196219523847585 0.8513922577570951 0.005605957449140018
0.18631602119516721 0.5947250579038637 0.7824827910549713 0.01125566584658577
0.2026935498190754 0.5968148399646577 0.7914813352096925 0.00563721987690387
0.259372320562687 0.6434338228162025 0.9273264613388469 0.020581205197207658
0.11327573656762031 0.5754094900765813 0.8602312785488738 0.22257235881700757
0.09379565872699719 0.566443731862405 0.8440013385801738 0.2379381899639827
0.29807708287325485 0.5214166777933322 0.7295837222387404 0.02641255120670361
0.28831089606940363 0.5175647504385237 0.7257195813719115 0.03198701805788425
0.33113176699596497 0.5453326263444037 0.790346318175202 0.011963197741495289
0.3097175880920884 0.5339533059947696 0.7565888041932944 0.009849363433679445
0.13339494292249526 0.5675159403941376 0.713003747595458 0.014308116315250363
0.3229975551859028 0.5537394650679961 0.8350350319389066 0.012546557999389845
0.296537468799953 0.543907784847262 0.7915942963713405 0.011195974154841167
0.272811720815199 0.5331558196299581 0.7566162816270294 0.01394470320142131
0.3129258005461334 0.5739994806620997 0.8791028022432515 0.010541186434339725
0.3231565095474824 0.5700010234483404 0.8687620930437633 0.008907933448131448
0.32897366279338736 0.591542869125393 0.9336376606913841 0.017435030942903395
0.280749489209977 0.5486388205309698 0.8223430473262633 0.008776299640657065
0.2677043766041052 0.5401372159958374 0.7976728674852908 0.007086079546310935
0.2426298769389766 0.5222716221464451 0.7670326097603127 0.020963652423923253
0.15528226178479382 0.4945742566585913 0.7410293173241866 0.0033086014990486913
0.2770043066366908 0.5329774365797021 0.7646451986231223 0.012109817659546015
0.2612211408599157 0.5095065612777869 0.7348784872455909 0.01193123095121688
0.29324838709848877 0.5565466351847745 0.8303098189699045 0.0110479255633309
