x y z curv
1.2901409842765723 8.09807538986206 0.4149842192606885 0.09645933787516267
1.2834943500691387 8.098075389862062 0.49646234739772227 -1.5373375310683152e-17
1.254386880322034 8.09807538986206 0.7445409788085802 0.05673819034156497
1.2568100415153647 8.09807538986206 0.6539812945940112 9.909890342111059e-18
1.2731974727641537 8.09807538986206 0.590795013094165 1.0838222270563561e-17
1.307558595376365 8.09807538986206 0.3613643533552662 0.04759887336115938
1.225511102409785 8.09807538986206 0.43934039230878563 0.01151436334601229
1.2420240082746914 8.09807538986206 0.34886856790570303 0.04999766155684357
1.2512338968668573 8.09807538986206 0.5341611828691437 1.2944060673307147e-17
1.244500472474952 8.09807538986206 0.5649499241811522 -3.495829837434973e-18
1.283928473513568 8.09807538986206 0.3473184800836445 0.029421525748030246
1.2759676113635974 8.09807538986206 0.4373456127724713 0.03208836330567275
1.2324476457620033 8.09807538986206 0.49442277828880365 -2.6175550427146223e-24
1.2285462418640025 8.09807538986206 0.5147809042525961 1.0687446593691557e-17
1.259860713037761 8.09807538986206 0.4306440791985024 0.04438942709566653
1.2577818534005905 8.09807538986206 0.5852729111523134 -8.881543506658691e-18
1.2541204252155977 8.09807538986206 0.49706169266274425 7.129645814304636e-18
1.234893546206809 8.09807538986206 0.5972526676073544 1.4645869783448372e-18
1.2638419660268316 8.09807538986206 0.6099654908861336 7.154483023090483e-18
1.2571911784444634 8.09807538986206 0.6387830425829364 1.368198955074715e-17
1.2452907766276535 8.09807538986206 0.6033624918570587 -1.512686459172497e-17
1.301547808042216 8.09807538986206 0.41768892486147724 0.08751890612556094
1.2574926092532879 8.09807538986206 0.567772551522621 -7.094044731335524e-24
1.2790014066299484 8.098075389862059 0.5802206558111266 -2.6636570876433084e-24
1.2741440179215793 8.09807538986206 0.6036713420192497 7.237099499466867e-20
1.259244850362177 8.09807538986206 0.3455599086839496 0.03856157930064783
1.2258859787088294 8.09807538986206 0.3741811885072566 0.11775757209776817
1.2533956879229469 8.09807538986206 0.555013260327088 -1.7469948737660308e-17
1.2440325248654842 8.09807538986206 0.4859562949108148 -5.670450580022201e-25
1.2434159616432998 8.09807538986206 0.5788939364768763 7.066952974742064e-18
1.2496355545464208 8.09807538986206 0.7621078660269187 0.10855319026653759
1.246213693953072 8.09807538986206 0.5228670105936619 4.273363009200372e-18
1.2689188265856484 8.09807538986206 0.6229624162010922 -1.8945011964058372e-24
1.2332859363245852 8.09807538986206 0.4804167525369689 0.0
1.3081751976305833 8.09807538986206 0.3484016938819492 0.04581106245491807
1.2875015128273235 8.09807538986206 0.43034203634577667 0.045898986687595573
1.2982681733299088 8.09807538986206 0.34264575243774137 0.06862127498899981
1.2763277281711758 8.09807538986206 0.53640986507419 2.395052899272543e-18
1.2697763772716602 8.09807538986206 0.4552129620585655 -1.27549136905443e-17
1.2819421195878244 8.09807538986206 0.3757795049728074 0.09017766693055884
1.2384507170177672 8.09807538986206 0.4222033772922331 0.07543871825140618
1.2500188814709672 8.09807538986206 0.6750176867305382 -3.7563983699477636e-18
1.2726228691301404 8.09807538986206 0.34968517042382075 0.041161981555323954
1.2769082976858603 8.09807538986206 0.5092890849009325 -2.419730715682644e-24
1.2675976694773965 8.09807538986206 0.4716939546451005 -9.12626289189263e-18
1.2311930474830306 8.09807538986206 0.3398669094681983 0.1121213406548363
1.2387781960805955 8.09807538986206 0.5494876095703894 -4.797480646613455e-18
1.2648643246397668 8.09807538986206 0.4840620257274528 0.0
1.2700387417609171 8.09807538986206 0.651517686621239 -5.188996593054957e-18
1.2697318051165105 8.09807538986206 0.40988272119870195 0.08678876791099399
1.2432069400842292 8.09807538986206 0.6864251321164286 -6.948534828230876e-18
1.237133564986857 8.09807538986206 0.6468166044023659 -1.0635613037063894e-17
1.283073676512077 8.09807538986206 0.4767587650560898 -1.6734667808802317e-17
1.2738020580917933 8.09807538986206 0.5513627799047879 -6.769045429822065e-18
1.2403091305703018 8.09807538986206 0.37759068661247897 0.09550117241751235
1.2496122259908868 8.09807538986206 0.358689794815112 0.03559168418779636
1.2671573771634246 8.09807538986206 0.3664239958597748 0.06505739968663046
1.2419379680055025 8.09807538986206 0.46661617527345145 1.910684430966165e-18
1.2288629605874406 8.09807538986206 0.46734302823596585 -7.748726187911748e-18
1.24197454502976 8.09807538986206 0.507719052392132 0.0
1.2813612043474611 8.09807538986206 0.4553149417661415 -2.848953378204714e-24
1.2490224842117026 8.09807538986206 0.7259174994480438 0.01545268525236934
1.2692616896593014 8.09807538986206 0.5216096101300511 -6.694313255590845e-18
1.2552667084595854 8.09807538986206 0.4165995748323794 0.0778624395250356
1.247494389543413 8.09807538986206 0.7127324105371385 1.1362603935182565e-17
1.2698881291624318 8.09807538986206 0.4229316471420266 0.052349932332272614
1.2795058352323907 8.09807538986206 0.5689056889453603 -1.3177432372296198e-19
1.2414226517992573 8.09807538986206 0.43321907906645624 0.017616157147735633
1.3007809369399663 8.09807538986206 0.4045285401614837 0.11154867910048387
1.302321301766622 8.09807538986206 0.376922722383795 0.10320247409262466
1.2576216937147102 8.09807538986206 0.518894771676574 -8.486253999951954e-24
1.2335035666506313 8.09807538986206 0.5360797380483099 -1.0770759430605926e-17
1.2835749018174334 8.09807538986206 0.521033352774109 5.908714918154122e-18
1.1997905544027012 8.09807538986206 0.4773707776937598 1.1021018591677627e-17
1.2088233298291398 8.09807538986206 0.5584331754065923 -6.84751416518852e-18
1.1923129613758716 8.09807538986206 0.822740057221063 0.04160991917691868
1.1692847197724894 8.09807538986206 0.715442538953716 -1.0145209704196508e-17
1.1888759974739376 8.09807538986206 0.5836650842591882 -1.7622712858022615e-18
1.2161653344764005 8.09807538986206 0.7399516008640908 0.07011738693074976
1.198014984194552 8.09807538986206 0.5432232570720015 0.0
1.2182650818698844 8.09807538986206 0.7991051107116459 0.06395672767237903
1.2096106114278733 8.09807538986206 0.6795267943863187 -2.729679322903586e-24
1.174022788501301 8.09807538986206 0.7461719178211286 0.08669401914872141
1.2102066326041692 8.09807538986206 0.4426104745582345 1.4717421839824132e-17
1.143206737891764 8.09807538986206 0.7957455109598494 0.07509057545308914
1.1759434265520308 8.09807538986206 0.6402837275191894 1.1062854969529137e-17
1.1817111087656573 8.09807538986206 0.7945055993411909 0.09477549375103564
1.2240495672347016 8.09807538986206 0.5776542950337407 -3.781019991011873e-18
1.2080965590080015 8.09807538986206 0.42584631752128443 0.0666787760511527
1.175807353594592 8.09807538986206 0.7050649340034767 -2.8319711996207208e-24
1.1912735537648893 8.09807538986206 0.7335372076506371 0.05323909696155053
1.223555333403894 8.09807538986206 0.5431075605884521 -7.115215513737629e-18
1.1857307252570644 8.09807538986206 0.5719701548571264 -2.1688343365496492e-24
1.1806197944840373 8.09807538986206 0.6259519803168471 -2.733209992937326e-18
1.221585533856361 8.098075389862059 0.41981304601375935 0.07862837679143
1.1569006935397677 8.09807538986206 0.7960288055714375 0.07506428270562952
1.2244443190089453 8.09807538986206 0.6535391051547856 -1.161303103441963e-17
1.1940204959978913 8.09807538986206 0.6148197348842499 1.4225840698716062e-17
1.2065565968765282 8.09807538986206 0.5295243468230044 -2.9204815085324676e-18
1.1810710836066522 8.09807538986206 0.5567355542183886 -7.127120140998828e-18
1.2108577259102629 8.09807538986206 0.37499109337544906 0.12144982760095556
1.1652337251357379 8.09807538986206 0.7595547905910671 0.11596322859398857
1.2066936896016303 8.09807538986206 0.6940506289273022 -5.310254187781334e-18
1.1746948765182426 8.09807538986206 0.7284847325614985 0.031990028968255396
1.1980684369389727 8.09807538986206 0.7525281312509118 0.1134069822138438
1.2329878079374512 8.09807538986206 0.6296423005341596 7.015202333511948e-18
1.231470680275039 8.09807538986206 0.7353767456975999 0.03407903013175118
1.2153656873352825 8.09807538986206 0.7572515022394338 0.12669181836371218
1.1963561667699032 8.09807538986206 0.5175811714293868 -1.4337812564130415e-17
1.2253267500090048 8.09807538986206 0.6055348607716914 -1.3261589376153095e-17
1.1699714815074544 8.09807538986206 0.6741749515911972 1.7468876019699734e-17
1.1638167055928494 8.09807538986206 0.6594494542995966 -3.3316679145012063e-18
1.2191245825202657 8.09807538986206 0.49490412114932625 -2.206081530142561e-24
1.218658106274881 8.09807538986206 0.6872466204763935 -9.311650579361486e-24
1.23512034152142 8.09807538986206 0.7186847695986566 -2.4453590957252047e-24
1.1874955565615324 8.09807538986206 0.6856638600737509 1.3511797211756554e-17
1.1765755058898126 8.09807538986206 0.581213123132742 -2.4023564870036388e-18
1.182189107755526 8.09807538986206 0.7691515329203047 0.14297038267798864
1.206057040911373 8.09807538986206 0.6265409634024276 -9.465029639504926e-24
1.2180321443876503 8.09807538986206 0.6325394900406651 -2.2210781676195794e-24
1.2395928225423931 8.09807538986206 0.7684448144456918 0.14065608048486763
1.2297624853221363 8.09807538986206 0.8035683132509223 0.055903848343315785
1.1912180128100505 8.09807538986206 0.6586848143867542 -1.9656192270370132e-24
1.2053590990858996 8.09807538986206 0.6521320446105962 -6.108758936182575e-18
1.1678931453693058 8.09807538986206 0.7977579257483899 0.07143315233964632
1.2187126079822346 8.09807538986206 0.7168370914039544 5.821404433025886e-18
1.20323699330283 8.09807538986206 0.4946243823468309 7.161976954709344e-18
1.197234504952065 8.09807538986206 0.6398664296045142 -1.479667407654389e-17
1.1558821046063774 8.09807538986206 0.715390183320805 0.0
1.212275612150144 8.09807538986206 0.6676849202420905 -7.648309436527434e-18
1.1737113297519233 8.09807538986206 0.6887953558613725 0.0
1.2163716814653154 8.09807538986206 0.5217536560111402 1.972532627088884e-19
1.1875787496124077 8.09807538986206 0.7448331618034671 0.1055064198298101
1.2047889434143375 8.09807538986206 0.6074179284178753 1.2871763613254027e-17
1.2317749713825588 8.09807538986206 0.8150424843133701 0.05282554134678569
1.2203589754986355 8.098075389862062 0.5546193066046516 1.5813095371314023e-17
1.2169779561783212 8.09807538986206 0.6174578275570664 -1.2345179321834764e-18
1.202446398430604 8.09807538986206 0.7809519560845568 0.1291518396528462
1.1702843315216105 8.09807538986206 0.813166210469721 0.039965894601985845
1.2290242811282917 8.09807538986206 0.7911247411952447 0.0871207801993932
1.1521679657105142 8.09807538986206 0.7743514846951185 0.1449191816883265
1.2249310418640635 8.09807538986206 0.6678118719871411 -4.488374571184459e-18
1.2030390575946361 8.09807538986206 0.726500652042556 0.027135582394166084
1.1693975981625793 8.09807538986206 0.7841098090251436 0.1397338389027916
1.220467682721861 8.09807538986206 0.5893758090980381 -1.4587406181503268e-17
1.1922708002883695 8.09807538986206 0.6719370187960059 -5.286356680656613e-18
1.2055801738589134 8.09807538986206 0.40481517738688233 0.11894573157753882
1.227056774848695 8.09807538986206 0.7530028448182977 0.10535061980945978
1.1649602473987162 8.09807538986206 0.6986823431768387 -8.327097671469698e-24
1.2092295027406161 8.09807538986206 0.45797122394608647 -5.616437699692001e-25
1.20449622577431 8.09807538986206 0.5877436154281312 0.0
1.194000975790366 8.09807538986206 0.7994877373599708 0.07362184906077321
1.1931756909393303 8.09807538986206 0.6282219734695719 4.735368719708786e-18
1.1933221777855203 8.09807538986206 0.554984103366343 4.943613135739038e-18
1.1813158532309873 8.09807538986206 0.6648386980428431 1.1929176101917568e-17
1.1690433666786677 8.09807538986206 0.7720571222207213 0.13782607200792343
1.2194271823042087 8.09807538986206 0.7035289037126238 -9.666247935568235e-24
1.215108058902614 8.09807538986206 0.6451791675049308 -5.409154846440935e-18
1.1584423487363331 8.09807538986206 0.6889207798216337 -2.2664501957820548e-18
1.20426996608966 8.09807538986206 0.5755284098643285 0.0
1.1602856969576685 8.09807538986206 0.7272773984222517 0.016879469170872356
1.2201998212156835 8.09807538986206 0.8156965336767794 0.04868231679660634
1.194562164223218 8.09807538986206 0.717757034413087 1.3692901654230569e-17
1.2317580266871855 8.098075389862062 0.6840450706617912 0.0
1.2183869731147006 8.098075389862059 0.47527612260778157 -1.7927548990629906e-18
1.201279520934422 8.098075389862062 0.810312635465555 0.04532600052177446
1.1952436198812175 8.09807538986206 0.7666269442902368 0.14140243614535897
1.1977979931572367 8.09807538986206 0.45408557407782946 -2.7364087272862913e-24
1.1815325594779456 8.09807538986206 0.7575227212009212 0.1162794787373666
1.1614168134645002 8.09807538986206 0.7455423912315882 0.0846877988433718
1.2136106143664218 8.09807538986206 0.5104460429181555 -1.1095564960197641e-17
1.195985331929765 8.09807538986206 0.5969321810948467 -4.663959090440541e-18
1.2304120912915248 8.098075389862062 0.6172436231366367 7.939039192117294e-18
1.1467915830917037 8.09807538986206 0.7494702328946409 0.10037346365211659
1.234350485564117 8.09807538986206 0.6963300932019639 1.4151613234848334e-17
1.1946671326272524 8.09807538986206 0.7010754970889241 5.7034230898806626e-18
1.2136843841771063 8.09807538986206 0.7875743483688354 0.11136111874778543
1.1552382730005069 8.09807538986206 0.8147312362772239 0.051319399288822856
1.1388604131194744 8.09807538986206 0.8181804012922497 0.0481188345560299
1.2396212771360604 8.09807538986206 0.7977598531694604 0.07312951500481857
1.2086964170721004 8.09807538986206 0.7077680179153514 -2.3933421470140967e-24
1.1813925276780797 8.09807538986206 0.8060329942821347 0.04999013343733728
1.1809289303177077 8.09807538986206 0.607268266379067 -8.201816397292801e-18
0.04004792504085639 8.09807538986206 0.8166503353540465 0.03791309764935184
0.054318099534400435 8.09807538986206 0.8219459910533748 0.04696796513413968
0.025012460357917564 8.09807538986206 0.7658827082834724 0.12840177729459168
0.0684820157265174 8.098075389862059 0.8116758858868488 0.06454250692677274
0.03270598103312879 8.098075389862059 0.775361029557116 0.13848822431104132
0.04425466571268744 8.09807538986206 0.8017993333047682 0.04809797786789311
0.06382462581779798 8.09807538986206 0.8007684825512135 0.06617939030873823
0.02569412114932043 8.09807538986206 0.8108853797656383 0.07556549081716504
0.03125477427551915 8.09807538986206 0.7910434756438818 0.10230517879206863
0.05326357877848608 8.09807538986206 0.7936482862036885 0.10034709087228388
0.04263284647453469 8.09807538986206 0.7835721399324116 0.11723920953031372
0.018327782637980985 8.09807538986206 0.8000572771831262 0.08029219215829723
0.05627585495339783 8.09807538986206 0.810099622078357 0.046206642240923614
0.04030512450789642 8.098075389862059 0.7294392210779701 0.13310168618503776
0.11483623587766678 8.09807538986206 0.7945258669593842 0.0879188007641082
0.12294621971945227 8.09807538986206 0.8055096053836737 0.0623812389751043
0.0809497330717622 8.09807538986206 0.7624720799078162 0.12402425677034534
0.054969341469148246 8.09807538986206 0.754848616253128 0.12017584161911438
0.06085390925837843 8.09807538986206 0.7381692617672011 0.07870003992680308
0.04295548781691278 8.09807538986206 0.7532651463750654 0.1478797009148761
0.0846969343199005 8.09807538986206 0.7800946165336625 0.12910593229186795
0.028073109947586317 8.09807538986206 0.7085559681536353 0.14642190747868702
0.06719335379421727 8.09807538986206 0.7484637585278415 0.10584950040389533
0.109700670304994 8.09807538986206 0.8078292835583565 0.05428638275300988
0.08676273564239075 8.09807538986206 0.795329772584098 0.07253170825076405
0.05594733761288011 8.09807538986206 0.7811889308089084 0.1253797584712845
0.07783575511294524 8.09807538986206 0.8043186317893412 0.042579090113104366
0.09905074535437844 8.09807538986206 0.8014794830687534 0.06354096693114741
0.10902201713458295 8.09807538986206 0.8200656049390984 0.04362131242509115
0.06713297806479528 8.09807538986206 0.7882931302452172 0.10797887225821144
0.13003528042323048 8.09807538986206 0.8198406546943258 0.0462732068090104
1.7944937382470163 8.09807538986206 0.34148506203690665 0.17173986915294362
0.1487344588151926 8.098075389862059 0.7509104531481745 0.0721727877635367
0.04765886341523376 8.09807538986206 0.6285426330610708 0.13003266519722262
0.06389718975742954 8.09807538986206 0.7026702343116844 0.052784938211602156
0.12036187474355411 8.09807538986206 0.7552016734665219 0.10771917808778599
0.06364430117840518 8.09807538986206 0.6777327376285414 0.063288500313411
0.15790239855964597 8.098075389862059 0.7719051470498337 0.13729390948325737
0.04122634371957778 8.09807538986206 0.6746157186994196 0.15219592332766946
0.12399493654399076 8.09807538986206 0.744246224619922 0.048945164231495086
0.0771914532452439 8.09807538986206 0.6664938820765107 0.023339015343506957
0.08569908861376697 8.09807538986206 0.7072242408785181 0.01723565225580557
0.057024045492385676 8.09807538986206 0.6452704219418003 0.0900893829556411
0.09446867299598895 8.09807538986206 0.7145733903749523 4.365185226488587e-18
0.08872340308295276 8.09807538986206 0.7263754003698351 0.028711682690722322
0.04382799939792186 8.09807538986206 0.6633723345188008 0.14799364035069543
0.11217122461973192 8.09807538986206 0.7436684521960782 0.05449229064048742
0.09213619217335317 8.09807538986206 0.6905911207731043 2.0316933393290897e-19
0.13697200781669192 8.09807538986206 0.7502383000627729 0.06993331778161438
0.06562417627977976 8.09807538986206 0.6629073473119304 0.06428364354077332
0.08054984346250238 8.09807538986206 0.6942269463546554 0.01993596460993073
0.08927854709768189 8.09807538986206 0.6770580082569979 -1.4543648526654577e-17
0.050793740305666066 8.09807538986206 0.6967172527216954 0.11843569918159964
0.10667876004799337 8.09807538986206 0.7114748684267136 -1.2809664554010072e-17
0.03190199043919068 8.09807538986206 0.6087881764550213 0.17050750278092358
0.1360920232853998 8.09807538986206 0.7329853649892776 0.01440184323376705
0.1082882398105638 8.09807538986206 0.731939984101534 0.027488351211038396
0.1850643921051122 8.09807538986206 0.8013237540823734 0.06060731600634148
0.07372916924635838 8.09807538986206 0.7155384621749536 0.03818768056220693
0.07694978895771576 8.09807538986206 0.6799542208961711 0.026725986814231165
0.019283451669586237 8.09807538986206 0.6765197788096551 0.11509008872204021
0.0987370907711474 8.09807538986206 0.7408541919946972 0.031688818083145005
0.069118873894178 8.09807538986206 0.6507563293518933 0.06576798244821438
0.12647668257811098 8.09807538986206 0.7661419850517304 0.10686186625021314
0.12475036254839118 8.09807538986206 0.7310121623306289 0.016369996081196568
0.10138362912011896 8.09807538986206 0.7015957983159037 -1.6239952493738114e-17
0.018699488247461562 8.09807538986206 0.5934380883667987 0.092890235860341
0.1707641939527135 8.09807538986206 0.7936777860173595 0.06357728847981241
0.02064871698508939 8.09807538986206 0.6239178291821701 0.1091794008757198
0.19573768776609482 8.09807538986206 0.8210459342349186 0.05038589869495329
0.0916284875252398 8.09807538986206 0.7517292880395238 0.08043586824033008
0.10411082730783479 8.09807538986206 0.7524120123192822 0.08454591886541098
0.07293416359852181 8.09807538986206 0.7324708612616987 0.05874962323665992
0.16233994149917702 8.09807538986206 0.8163563216187584 0.04417564170821457
0.1657075763858112 8.09807538986206 0.8038367112161804 0.053697441872365755
0.13123719072601106 8.09807538986206 0.7881545929536673 0.09351648383877981
0.0781194271352108 8.09807538986206 0.7447996332553946 0.0631497731206205
0.14686069672094515 8.09807538986206 0.8132407779225715 0.03840874388501672
0.06355581274819315 8.09807538986206 0.7237788161753951 0.0701277443716016
0.18805449591487622 8.098075389862062 0.8126830469847615 0.05613339087397888
0.15106324487642414 8.09807538986206 0.7932012003861604 0.06740869987592046
0.13590781944480043 8.09807538986206 0.8079196841312419 0.043689313888567005
0.04809777640114042 8.09807538986206 0.7192667771322069 0.11169606340096072
0.14245458693076107 8.09807538986206 0.7810494614415651 0.10386060465324276
0.17587963839509796 8.09807538986206 0.8139836036958318 0.04996868480454148
0.18290546268931007 8.09807538986206 0.7121068877321503 2.1490732206235613e-18
0.2023684104051575 8.09807538986206 0.5485911830158625 7.209948169279631e-18
0.2625513838057519 8.098075389862059 0.6895147285420474 0.0
0.2658428099787589 8.09807538986206 0.7685466332203943 0.12443507125306252
0.23367932644474282 8.098075389862062 0.6714460927057934 4.297659390037608e-18
0.2655624677041362 8.09807538986206 0.8190704491473587 0.06062784995256618
0.08103231531895598 8.09807538986206 0.5966772196403405 0.01943376159168798
0.07952146552622433 8.09807538986206 0.6092952968071252 0.03470726428552469
0.16301602454961167 8.09807538986206 0.4871431838828404 -4.174559103943962e-18
0.2533087042013773 8.09807538986206 0.5962740733866597 -2.2248840306381255e-24
0.19794313205519987 8.09807538986206 0.5941574942713646 1.3789302405669616e-17
0.14096465783099799 8.09807538986206 0.5067977540558647 -3.895854873625696e-18
0.07231045743467047 8.09807538986206 0.5380097041001725 0.03053541851097552
0.22990815031135575 8.09807538986206 0.7286137477832177 0.025099017083897664
0.20526251635839113 8.09807538986206 0.7452188985053996 0.06430517455282288
0.260767915085283 8.09807538986206 0.41532540828202186 0.07999069045794072
0.1618476770325824 8.09807538986206 0.5367241593094897 -2.4234312701443364e-19
0.15569069096311744 8.09807538986206 0.6777595100280204 0.0
0.25073686156070835 8.09807538986206 0.6921154054436041 1.1713088757751081e-17
0.20485711051370065 8.09807538986206 0.6975607882618822 5.695943054225163e-20
0.23551659060861468 8.09807538986206 0.479295791968945 0.0
0.14255857705994907 8.09807538986206 0.4767731919442983 0.0
0.22162139567335024 8.09807538986206 0.5735827870044463 1.2368257487176896e-17
0.18324320728820429 8.09807538986206 0.5336571736472092 -1.2741628761262677e-23
0.225068707236451 8.09807538986206 0.623633792836411 -1.3852763979284364e-18
0.1508647623687524 8.09807538986206 0.6348199924501636 0.0
0.10637739050610248 8.09807538986206 0.5070376842182824 1.132426675196218e-17
0.25421168396561655 8.09807538986206 0.4527437637942255 4.056496144017186e-18
0.058691852180023096 8.09807538986206 0.5740103171234308 0.07836434517281585
0.13635764666694508 8.09807538986206 0.48586251324169716 -9.992034714429596e-18
0.13302213337667532 8.09807538986206 0.6003719281013999 8.567426667749649e-18
0.16046125097850383 8.09807538986206 0.518121395112217 3.4596264850780183e-18
0.06647460425252674 8.09807538986206 0.5641554679559508 0.051186907780963554
0.23668706265333656 8.09807538986206 0.5035473755321359 -1.568749407822928e-17
0.2623621324556038 8.09807538986206 0.5204245959154616 2.715040810113517e-18
0.26212285105708916 8.09807538986206 0.4769915418061836 -6.878725276334611e-24
0.23510899112656994 8.09807538986206 0.4012509631848711 0.12136408498108804
0.087880716517758 8.09807538986206 0.5359975515650705 5.033055246545855e-18
0.250097099426869 8.09807538986206 0.49253712137218864 7.931590603514107e-18
0.0742388360506726 8.09807538986206 0.574746672399459 0.03235099700360404
0.0955809503387727 8.09807538986206 0.5136086273326307 -5.2838957391202186e-18
0.1846102954427244 8.09807538986206 0.4234821624100573 0.05676954464412554
0.14518152475932736 8.09807538986206 0.5780577014990069 -2.990471208036005e-17
0.2529359490106393 8.098075389862062 0.3487564055360689 0.030785796593731336
0.14581350250760838 8.09807538986206 0.5623193585789079 -3.581396356899444e-24
0.24313777374545212 8.09807538986206 0.5610669933155579 9.069976897779058e-18
0.1428301623251057 8.09807538986206 0.6541487866560771 -1.951237931042581e-24
0.15494873544863388 8.09807538986206 0.5462196728858769 -3.3989618749102764e-18
0.1926877786590056 8.09807538986206 0.5257114767895612 -8.392941183860498e-24
0.23999627100905016 8.09807538986206 0.7453555690506172 0.09134769926055306
0.06819213990583567 8.09807538986206 0.5511477078875197 0.037105552121244646
0.09671746404564804 8.09807538986206 0.6163021569350728 -3.096558617130283e-24
0.1693856462124345 8.09807538986206 0.5503457521035429 2.501427339175594e-18
0.17684945536981825 8.09807538986206 0.624574089800471 1.5793182526193008e-17
0.12701577001268674 8.09807538986206 0.5373131798393139 -5.09857722532838e-18
0.11221932930735531 8.09807538986206 0.6548462836458382 -1.615944869563469e-17
0.17417161083593433 8.09807538986206 0.7271586132382623 0.012090336588774212
0.2296355894420951 8.09807538986206 0.6042219920058072 1.5705700557059072e-17
0.2545412668792841 8.09807538986206 0.5809628100314308 1.725880049773474e-17
0.1594938661442811 8.09807538986206 0.4755655224039727 1.4419819096633263e-17
0.15180931553119062 8.09807538986206 0.5007028102380658 0.0
0.12643128012673385 8.09807538986206 0.6588687060280378 -2.329568550336363e-24
0.20173601101296174 8.09807538986206 0.4164026699905077 0.0528399160806535
0.17220209522701813 8.09807538986206 0.47427373916280957 8.89467317766514e-18
0.24027327247129754 8.09807538986206 0.6843179819971528 1.4654076664904284e-17
0.22623063154448672 8.09807538986206 0.45681117896584633 -5.531226832201417e-18
0.2185610686020463 8.09807538986206 0.4471144465780899 -8.332032359302617e-18
0.12903505185123604 8.09807538986206 0.470302289519993 -8.139138740707472e-24
0.2063359613357922 8.09807538986206 0.6571382785385586 -2.549210240965765e-24
0.19634994939602968 8.09807538986206 0.6448291944039921 -8.4019849736997205e-19
0.2165006078962564 8.09807538986206 0.6151729869887095 0.0
0.2421771742466247 8.09807538986206 0.5873625395978725 9.744342130095418e-18
0.21655063931580304 8.09807538986206 0.7486254718740009 0.08679149468996586
0.19637562214646126 8.09807538986206 0.45620938965791574 -1.303603821363876e-17
0.09200498390158501 8.09807538986206 0.6492251465950628 -1.058904819890087e-17
0.05844108259623982 8.09807538986206 0.5868317094339324 0.0763963873006916
0.2596985252103489 8.09807538986206 0.5316464309793555 1.1135402432305346e-17
0.23818626442879265 8.09807538986206 0.4595142331463604 -4.1673782797602916e-18
0.2620152324177906 8.09807538986206 0.6112206873103898 -1.1766513676755008e-17
0.2570681336838349 8.09807538986206 0.6471328182005406 1.03534816556861e-17
0.22510716971384048 8.09807538986206 0.4375372759962631 0.0240006726851464
0.18269197074491678 8.09807538986206 0.6440476219953306 1.210293289002219e-17
0.23017977758528604 8.09807538986206 0.531446824167403 -3.1018873337922076e-18
0.24111433397152707 8.09807538986206 0.4113895251729154 0.09976717746803332
0.192852515632865 8.09807538986206 0.699507220348373 -1.5878141076903112e-17
0.16881913915589056 8.09807538986206 0.603142684669417 1.1044277748659903e-17
0.2506261689380624 8.09807538986206 0.6364463903763463 -1.7249450126782126e-24
0.1455374790960133 8.09807538986206 0.6664511242067171 -2.263906424489038e-19
0.13101651346530296 8.09807538986206 0.5891848486042262 -9.956279797368475e-18
0.1959444546592296 8.09807538986206 0.5373004252462605 -2.482412806533156e-18
0.2665320366028677 8.098075389862059 0.49797331129996397 6.420946077319124e-18
0.16829161195593012 8.09807538986206 0.6488780646645583 -1.0855312702356293e-17
0.2118069384207378 8.09807538986206 0.5612598826736945 -1.0429262900605008e-17
0.24335871405946502 8.09807538986206 0.573927840881393 1.315861493245338e-17
0.09190630339762858 8.09807538986206 0.5885002962700197 -8.016325598158671e-18
0.23527533921688207 8.09807538986206 0.4306658409479073 0.02526885898872946
0.1455524376425599 8.09807538986206 0.6893208647479426 1.1494308491377922e-17
0.2224168142869979 8.09807538986206 0.7718020562690792 0.15129975887464164
0.07992063391195481 8.09807538986206 0.559845307424026 0.02454737764385422
0.1558896930245667 8.09807538986206 0.6555991173856601 -7.681838383407562e-18
0.09121743247967462 8.09807538986206 0.6317371248163458 2.4885923045479215e-19
0.2305870059251793 8.09807538986206 0.6939076772329051 -3.617944929538653e-18
0.14755613963344222 8.09807538986206 0.604748159255483 0.0
0.20444003748313158 8.09807538986206 0.47856807680912145 1.0870076610137962e-17
0.2019550424709036 8.09807538986206 0.7103292395841505 1.2642984000131869e-17
0.21716685317817067 8.09807538986206 0.6619779234257153 1.477278295914228e-17
0.17886638970985694 8.09807538986206 0.5574632504522097 3.9841700642435556e-18
0.18107737726516862 8.09807538986206 0.4930386510549033 1.561109590015223e-17
0.1896563030757355 8.09807538986206 0.43571321105985383 0.022262495842544593
0.190720146668628 8.09807538986206 0.7209318123237374 0.011160510671666053
0.206621298862305 8.09807538986206 0.6749369266261059 8.77558951053031e-18
0.20502844221902614 8.09807538986206 0.6185555484683586 7.04726178644091e-19
0.23075068030491283 8.09807538986206 0.6392105153251566 -7.484893220497053e-19
0.09558104443982544 8.09807538986206 0.6054657390004301 -1.5723580065115945e-18
0.24132374090123862 8.098075389862062 0.6024070732776481 4.1346117554174464e-18
0.13042946763356947 8.09807538986206 0.6884265644526937 0.0
0.25073972876181716 8.09807538986206 0.609694166528361 1.220634029160007e-17
0.15866143511679745 8.09807538986206 0.4510132132703602 0.0
0.15492423008613465 8.09807538986206 0.7090317240136615 -3.5815592414374915e-24
0.17305903638067457 8.09807538986206 0.4544151214390447 6.461683001304976e-18
0.04515964030246693 8.09807538986206 0.5859628027744733 0.1477042601441086
0.1870600704999204 8.09807538986206 0.6786385974062299 -6.964309102186635e-24
0.18197563790488058 8.09807538986206 0.5911252721768807 -2.24521352432173e-18
0.24594051959501517 8.09807538986206 0.7020754811567712 -1.0678678320530951e-23
0.20706889735403813 8.09807538986206 0.4443086784280871 -1.532296851673156e-17
0.11371674642876327 8.09807538986206 0.6670430587818117 -7.628658743396642e-18
0.18146036801909388 8.09807538986206 0.609820521776351 9.179207546853543e-18
0.14081819202076157 8.09807538986206 0.6272015488348679 -1.7563830790709833e-24
0.24385002175890796 8.09807538986206 0.35915158633645844 0.039080813983599354
0.20483879973148286 8.09807538986206 0.7242629700179467 0.015003733525853106
0.17561857707670953 8.09807538986206 0.5244020464670358 7.756365310064433e-18
0.16678596965839132 8.09807538986206 0.6180555261860772 4.910578815205114e-18
0.19011449076941922 8.09807538986206 0.4732916858776266 0.0
0.16960152086648211 8.09807538986206 0.5748322884077695 3.7396605411550207e-19
0.22077369313623824 8.09807538986206 0.6496152803842502 1.9948686319220932e-18
0.2437324546700945 8.09807538986206 0.8002218208228179 0.06559827757382743
0.17405166669949257 8.09807538986206 0.6731898413319369 -6.34754224920875e-24
0.2303084350337598 8.09807538986206 0.7545490016002585 0.11034245166611681
0.1985311124295593 8.09807538986206 0.6312091143007365 0.0
0.1668813436691522 8.09807538986206 0.703776181253372 2.3745970249903716e-18
0.21049499669242075 8.09807538986206 0.5788700219842258 1.49800152835417e-17
0.18717100886697574 8.09807538986206 0.5780070114960814 -7.225564796454146e-18
0.213403496355655 8.09807538986206 0.5342301069338249 0.0
0.12033211380879917 8.09807538986206 0.6452840327552732 -3.2571287565119775e-24
0.220964549970099 8.09807538986206 0.40842850449070445 0.0770587811503589
0.21584526870652793 8.09807538986206 0.633864883429314 0.0
0.19723316119179035 8.09807538986206 0.6097508998666304 1.7713655082912083e-17
0.19486318990398505 8.09807538986206 0.6576147976804534 -5.7468923256282e-18
0.18757786761329925 8.09807538986206 0.505946079251306 9.70556872508796e-18
0.1764073348362036 8.09807538986206 0.431253387345742 0.03368500614317671
0.21756050813138866 8.09807538986206 0.7080909735969146 -8.686029067614775e-18
0.2204679390629475 8.09807538986206 0.5862319084893133 -2.52783914636904e-24
0.11508342360418515 8.09807538986206 0.49214670416996625 3.6475214424393315e-18
0.14350594476220144 8.09807538986206 0.5190126176309786 -8.921033045483549e-18
0.19941180364377364 8.09807538986206 0.4292746648179908 0.030263633771165085
0.18258285241147323 8.09807538986206 0.5450826021201751 1.7860148011076464e-17
0.2179641216450501 8.09807538986206 0.7217160922825206 0.006089837094396654
0.2374139417771462 8.09807538986206 0.7166046471134929 -1.2224092227112946e-17
0.1955719487416339 8.09807538986206 0.5145076824875054 1.3641720603718448e-17
0.2585651296431783 8.09807538986206 0.7922002101444304 0.09078840433285672
0.16870348375396416 8.09807538986206 0.6908938866006453 -1.443080124629465e-17
0.21442890250344843 8.09807538986206 0.4845625152701042 -9.433601468026126e-18
0.11308389038879399 8.09807538986206 0.5354241061251446 1.3651254159332308e-17
0.054439437368228434 8.09807538986206 0.5977735474109492 0.09075306318946144
0.1658779631412826 8.09807538986206 0.6349246261064458 2.867760238541348e-18
0.22788874358588734 8.09807538986206 0.5437312570222723 -7.418608122401403e-18
0.23027584916186924 8.09807538986206 0.6589567698552304 -9.131800008481436e-24
0.2528693582764533 8.09807538986206 0.6600410988573979 1.504742206268555e-17
0.21619557311506077 8.09807538986206 0.6026669857391163 -1.9623975874613295e-18
0.06642509297275255 8.09807538986206 0.6154310015087525 0.07161837853446652
0.23714800881908135 8.09807538986206 0.629653490481699 3.000168418553407e-18
0.12516471515416744 8.09807538986206 0.5535558218301325 6.634822341320534e-18
0.2392685372575234 8.09807538986206 0.7858393672793214 0.09594972671352336
0.16432256391828615 8.09807538986206 0.4640240472674815 -2.636057359099452e-17
0.1318097105309296 8.09807538986206 0.5005713058140085 -4.134145549510609e-18
0.11991366686396435 8.09807538986206 0.632034739729286 -1.2347560149504367e-17
0.08666272293202393 8.09807538986206 0.5746224431153206 0.00975100943115341
0.24158359672672877 8.09807538986206 0.4410566200290188 0.012739364358015067
0.2404293722409672 8.09807538986206 0.5447995358366275 0.0
0.1414258906346796 8.09807538986206 0.543867761328551 -1.0122604130438705e-17
0.10457244729770773 8.09807538986206 0.5926392674499702 -2.222384290241951e-24
0.24504518111027174 8.09807538986206 0.5317133740855322 -1.361014383566358e-17
0.12386294925722538 8.09807538986206 0.5147693695310911 1.3592413689715024e-17
0.11801562394709861 8.09807538986206 0.5044552044296984 -1.5224443726662593e-17
0.09910086828405104 8.09807538986206 0.5268114665010357 1.673124348901324e-17
0.195629554376876 8.09807538986206 0.7327674611956292 0.03699297837317682
0.1078894834391092 8.09807538986206 0.625657241322948 0.0
0.25620634408805154 8.09807538986206 0.36495642564847935 0.057932404440625467
0.13184380405075025 8.09807538986206 0.569708624324792 0.0
0.13357308444852473 8.09807538986206 0.6716649323497335 -1.1992495348468613e-23
0.2088859870296994 8.09807538986206 0.46435429063866757 -2.5333653722103406e-18
0.12174633953982036 8.09807538986206 0.5785879847112376 -5.584671946337794e-18
0.1582996097743964 8.09807538986206 0.5575914922924337 -9.091176913666668e-18
0.10833515148899417 8.09807538986206 0.6426154094127331 0.0
0.26074268073175905 8.098075389862059 0.8053997325605275 0.051885994060736074
0.2505797653624146 8.09807538986206 0.7832563935422219 0.1268175522228642
0.12304758664114232 8.09807538986206 0.6177158258379384 -1.3607741165378203e-18
0.19820788447860696 8.09807538986206 0.5651772447980605 -4.925476576791694e-19
0.24297773908907627 8.09807538986206 0.7340147818838489 0.029273129524220728
0.21353833482631918 8.09807538986206 0.6851070780492639 -2.738517905737972e-18
0.2459135834619646 8.09807538986206 0.7696973089793269 0.14449586548441715
0.24867530979320443 8.09807538986206 0.5040600636022429 -1.1038515785757982e-17
0.15819047736790376 8.09807538986206 0.5953842801538662 8.417327179333962e-18
0.14802864064911353 8.09807538986206 0.6161491522473388 -1.3952730082386795e-17
0.25099877837786133 8.09807538986206 0.47399453875760916 -8.606631136372542e-18
0.18131933725298358 8.09807538986206 0.4444123346669557 0.0
0.2492382876521107 8.09807538986206 0.6725098131516022 -8.500949282031023e-24
0.25250284166201975 8.09807538986206 0.7257296526071421 0.012064798902374285
0.05541208210647815 8.09807538986206 0.5547579708361813 0.10114015801535223
0.08343429280701946 8.09807538986206 0.5469834091185967 0.01871302389269367
0.15760171899894498 8.09807538986206 0.5831863009655104 -7.418065804311335e-18
0.2323189583689638 8.09807538986206 0.5636174266416031 -1.5305170711595172e-17
0.22835333527799823 8.09807538986206 0.5149920592511777 -2.6567171870162843e-24
0.22470116070385424 8.09807538986206 0.46840817799710127 -1.0212579624458881e-17
0.20930417537840557 8.09807538986206 0.5020122642010532 8.23463490606963e-18
0.25346002034837034 8.09807538986206 0.7432623232620983 0.07640824785081743
0.26588801813901847 8.09807538986206 0.4588985822997971 -7.810431765920322e-18
0.057869784921725745 8.09807538986206 0.5430366839033905 0.08452605781615401
0.22188142647321596 8.09807538986206 0.4239158378855631 0.06449899489924366
0.21310100263863238 8.098075389862059 0.519336261110609 8.018769197313093e-18
0.1683637806598262 8.09807538986206 0.5007256778087622 3.509817775728637e-18
0.22472973081207023 8.09807538986206 0.49961235590697894 4.056203538471188e-18
0.11169192082602288 8.09807538986206 0.605635184117017 -1.7070114186015772e-18
0.10394755550425944 8.09807538986206 0.5675023332316843 -2.1180212806895678e-17
0.2571077393661898 8.09807538986206 0.7117476483345753 4.056665139456572e-18
0.11005399084113805 8.09807538986206 0.5220598923677141 0.0
0.13567964540391542 8.09807538986206 0.6150742930902788 3.6591758176614785e-18
0.15589974494387887 8.09807538986206 0.6966544670237447 -1.3452589362366745e-18
0.0992980123984834 8.09807538986206 0.5402576767470886 6.727081889368525e-18
0.08097937884743356 8.09807538986206 0.623114925055118 0.020723093003413132
0.25852815695789905 8.09807538986206 0.566037888355093 -6.096093221297428e-18
0.10601793214532113 8.09807538986206 0.5539352796920837 -3.14623958513878e-18
0.24894204392466493 8.09807538986206 0.515798990104859 -2.86146671304369e-24
0.16219831284033306 8.09807538986206 0.4375352645879033 0.01718804703251153
0.23407532332234035 8.09807538986206 0.49138800200088845 -9.350711780069892e-18
0.1908442588483342 8.09807538986206 0.6215030746971971 4.2751727380165465e-18
0.1937186146770261 8.09807538986206 0.4915050457145874 0.0
0.2533132933898412 8.09807538986206 0.4254947112317968 0.063144849814208
0.1311565504357742 8.09807538986206 0.5249451181225224 -7.193571679244675e-18
0.189919489652983 8.09807538986206 0.554827180740882 -2.9868096916904355e-24
0.06693702140898358 8.09807538986206 0.59665050019184 0.0417849598489352
0.20896278862347062 8.09807538986206 0.8045308617931773 0.04674173445903518
0.18051665629668828 8.09807538986206 0.7527748203747595 0.0918280684324455
0.07151383789703278 8.09807538986206 0.6380184688484315 0.054688341435647866
0.11798127410406875 8.09807538986206 0.6874545265368748 2.664967699471788e-18
0.1279388893999857 8.09807538986206 0.7012213119104654 2.064619652323779e-18
0.20710379458219794 8.09807538986206 0.7662725389461074 0.13592985981458558
0.18018700254087153 8.09807538986206 0.7666295505996261 0.12980971094927174
0.10223028882838534 8.09807538986206 0.6861397626684981 -4.175989863988513e-18
0.24914273216393104 8.09807538986206 0.8155503255559184 0.0537937905531792
0.19576089233683433 8.098075389862062 0.7552645999206611 0.12106560961546135
0.15070765373444442 8.09807538986206 0.7369431810097267 0.049332807340592776
0.23677566423250215 8.09807538986206 0.8157400690182952 0.044070649382087775
0.09755510617823389 8.09807538986206 0.6621920419814908 -6.1532121602466136e-18
0.20970563293255998 8.09807538986206 0.8201111303285648 0.042320059298553404
0.05924090956541747 8.09807538986206 0.6323819348102654 0.09217202277853027
0.19861610569808197 8.09807538986206 0.775127088565468 0.15399281745834664
0.1434397817043193 8.09807538986206 0.7229164563814061 0.006100479508812151
0.12403297160526869 8.09807538986206 0.715179048660812 6.368002573333354e-18
0.2246587812653814 8.09807538986206 0.8182539622524391 0.03806338312374352
0.18040303896468993 8.09807538986206 0.7401715163576695 0.06503175226873688
0.1682076913599412 8.09807538986206 0.7480319525366736 0.07558768348901145
0.2281117833032131 8.09807538986206 0.7934777070075615 0.09783815080845003
0.16194065279962133 8.098075389862059 0.7232351758346962 0.004462607142451226
0.20461192280813978 8.09807538986206 0.7930621563839446 0.0758286100161401
0.11651096027693443 8.09807538986206 0.6991954943953858 -1.0585306235332591e-23
0.14062634888977124 8.09807538986206 0.7029040088611802 1.4722385050117406e-17
1.344530638379235 8.09807538986206 0.44451534629426886 1.5619807071852571e-18
1.3657054691162207 8.09807538986206 0.5689096573300184 -8.312580267277725e-24
1.3548780259117243 8.09807538986206 0.6224117112339743 1.587499305085176e-17
1.3563121976898942 8.09807538986206 0.6889633491185899 -6.549997803020147e-18
1.3340116367570505 8.09807538986206 0.41172135538170856 0.1005377914750484
1.3717672111521833 8.09807538986206 0.4313788237909569 0.04153004525896358
1.359692203630697 8.09807538986206 0.5446813063535002 -1.1862245942563855e-17
1.3521928190726709 8.09807538986206 0.498171217053772 1.32410147670628e-19
1.3393148022724215 8.09807538986206 0.5003840082880535 0.0
1.3291173267891008 8.09807538986206 0.46094359061867546 -2.196366183311279e-18
1.3621825725194476 8.09807538986206 0.46256662410465776 1.379062212621702e-18
1.3544755639220118 8.09807538986206 0.35029109548188453 0.03507004035312546
1.353180916110282 8.09807538986206 0.5824224033221703 0.0
1.363360383758395 8.09807538986206 0.41488018308764607 0.08128073583512127
1.3369280248695488 8.09807538986206 0.37722479695350053 0.09917891928288308
1.329879593989448 8.09807538986206 0.42514866946271257 0.05349758253778175
1.3697199077198332 8.098075389862059 0.33890200463353204 0.08655272108232052
1.3467242047465326 8.09807538986206 0.54284765391182 -3.3006546713788723e-24
1.3391137150299484 8.09807538986206 0.3961609260958279 0.1511970965683179
1.3728547519158045 8.098075389862059 0.44505475633554775 1.205341993974026e-17
1.3556246170521185 8.09807538986206 0.7721387864882417 0.12450614457465561
1.3645086513962406 8.09807538986206 0.4820467199755833 -1.2468414877518516e-17
1.3299528115736639 8.09807538986206 0.3555222752132014 0.04017756695948303
1.3402553792112042 8.09807538986206 0.6097416099939723 8.826449740913679e-20
1.3622636068398573 8.09807538986206 0.3957367865461938 0.1278123871604571
1.3364613394284524 8.09807538986206 0.48282092717698044 -1.3325614477948863e-18
1.3431012179900472 8.09807538986206 0.3596812744303389 0.04151763942392071
1.3419692147972588 8.09807538986206 0.43036877117888317 0.03142153173681553
1.3542270471442766 8.09807538986206 0.5296635743618519 -1.5395274358475526e-17
1.3492555738357788 8.09807538986206 0.4653227003265664 -6.15341521124445e-25
1.3374237628285819 8.09807538986206 0.5531009799982001 -1.9001834625744052e-17
1.3208691047291798 8.09807538986206 0.34700570211638054 0.03271197977786776
1.3489242021873438 8.09807538986206 0.41738455010406245 0.08447473254520578
1.3676842484578453 8.09807538986206 0.3617863554288036 0.056523103800614594
1.3223771934808615 8.09807538986206 0.37414183866242323 0.09436052558286642
1.3464569195654108 8.09807538986206 0.6801700520168861 -1.8836532621291773e-24
1.352038202308212 8.09807538986206 0.6455505371210003 1.445375260442131e-17
1.36585792826943 8.09807538986206 0.49391269100737206 -2.05185550558572e-24
1.3419824483958664 8.09807538986206 0.531131571279696 -1.9033506504430564e-19
1.3523632932687366 8.09807538986206 0.7129928280112398 -2.377550942601693e-24
1.352936669178157 8.09807538986206 0.6678214936415048 -3.856588384677293e-19
1.3454357439773013 8.09807538986206 0.629516595148322 0.0
1.3615461240830737 8.09807538986206 0.6037992424728955 2.9488538892498175e-18
1.331612267439298 8.09807538986206 0.3390296373501713 0.08274602252281352
1.3556385228569838 8.09807538986206 0.7337629353949391 0.054300693041983074
1.357269059552467 8.09807538986206 0.5106800588962501 9.299021973322513e-19
1.3488912879910544 8.09807538986206 0.5563867424900499 -1.9825661326986653e-20
1.357591480397252 8.09807538986206 0.3762200630308232 0.10406681225050905
1.3588649242678823 8.098075389862059 0.7021672688139162 -4.670689714686442e-19
1.3601292956183715 8.09807538986206 0.44896634116064904 -2.0913539298792054e-24
1.3452556777452254 8.09807538986206 0.5704791975970015 9.823982676402792e-18
1.3591816754650718 8.09807538986206 0.6559831306438327 2.9142367190383616e-18
1.3526233732213866 8.09807538986206 0.3654487310397658 0.07671418245575654
1.3488681647135947 8.09807538986206 0.48435460535973235 -5.529446565107195e-25
1.337676006096421 8.09807538986206 0.516051037839329 1.1847299182368755e-17
1.3633348472467435 8.09807538986206 0.5212915691179076 1.1439170350734371e-17
1.3608448778379847 8.09807538986206 0.5922215167352242 -2.3156076462954966e-24
1.3473272461980164 8.09807538986206 0.5996563506596384 5.4705533317434026e-18
1.3111897812406172 8.09807538986206 0.6863413200962936 7.754574685025342e-18
1.3155541328774676 8.09807538986206 0.7421351228308593 0.07782140500394434
1.3046408217633574 8.09807538986206 0.7142958575811336 3.391211648292369e-18
1.3020147002189302 8.09807538986206 0.7622656333988636 0.11944990418065367
1.2876319326471986 8.09807538986206 0.590591112227125 -2.5952679644449734e-24
1.3412518590426263 8.09807538986206 0.7319963342273013 0.03391693237978534
1.279135535001199 8.09807538986206 0.6301252306050633 4.333281488934465e-18
1.2788544713381413 8.09807538986206 0.737999089542922 0.048758484414302194
1.3056544703366235 8.09807538986206 0.5404721660662677 -1.0805738862156746e-23
1.2777664915373832 8.09807538986206 0.7895188610403094 0.09500104797183807
1.3219410259147826 8.09807538986206 0.7575116863409984 0.1319421195887083
1.3296206241976194 8.09807538986206 0.6026672296776868 5.0030898352438996e-18
1.2810635046996937 8.09807538986206 0.6463682700906269 1.1457544723982026e-17
1.271489404500615 8.09807538986206 0.6711954092349488 -1.4011040377524226e-17
1.2920132661662205 8.09807538986206 0.5379924930211969 1.4903309658581125e-17
1.2836553373279957 8.09807538986206 0.6892544815926821 -3.207081266110634e-24
1.279814121828672 8.09807538986206 0.7520447134324054 0.10847866364735477
1.345532365346646 8.09807538986206 0.7573731319625755 0.14027507912194587
1.2900570451859559 8.09807538986206 0.7984085218312731 0.06395244438930822
1.317269758830728 8.09807538986206 0.4654940226982799 -6.048005270997683e-25
1.3365322623054068 8.09807538986206 0.7167799121803227 1.2620751281498665e-17
1.339173109566222 8.09807538986206 0.6461507149856147 1.4371507518626864e-18
1.2521880295975882 8.09807538986206 0.7968437195009817 0.06946231905470719
1.290146759640287 8.09807538986206 0.605304979460767 -1.05830631109141e-23
1.3027666253444097 8.09807538986206 0.5100826961419143 4.6280006021408334e-18
1.261398520517139 8.09807538986206 0.813385410356021 0.043496671814989285
1.2952367878787525 8.09807538986206 0.5575655096614727 0.0
1.2728826545293541 8.09807538986206 0.7770434459963435 0.123985697656956
1.339998359940032 8.09807538986206 0.7758550740643556 0.14251109673556642
1.3285284379336635 8.098075389862062 0.6658667481435067 1.5042188067551794e-17
1.3043772873451367 8.09807538986206 0.6542824737415467 -2.46548270665757e-23
1.3078026564913898 8.09807538986206 0.5886230316949591 4.784131785917738e-19
1.2961908476460724 8.09807538986206 0.5703031363271878 -2.031655908931619e-24
1.3309030334289909 8.09807538986206 0.797978805095089 0.06595519110347846
1.282638448718592 8.09807538986206 0.6739078192099908 -8.695181302517478e-24
1.340549524223882 8.09807538986206 0.6691589098700532 -2.6534801954416786e-18
1.303691986102626 8.09807538986206 0.4665832542003012 -1.5080713466245645e-17
1.3242208903511674 8.09807538986206 0.626110456965553 -2.1396860335971956e-24
