x y z curv
1.2487173080444336e-05 0.135916413796354 0.7016801429124111 -8.854940677130718e-36
1.2487173080444336e-05 0.02723916770002169 0.24959057591900446 0.045948401509044196
1.2487173080444336e-05 0.09183170111786372 0.4520815555444803 0.16848355600040907
1.2487173080444336e-05 0.017192922230444403 0.24154705081497896 0.07240371214867664
1.2487173080444334e-05 0.2995834564716492 0.22512445976478668 0.028427236663138088
1.2487173080444336e-05 0.2303650286717778 0.5124053617354875 -2.2842716140206692e-36
1.2487173080444336e-05 0.10900749745702717 0.6561104718578061 0.0
1.2487173080444336e-05 0.23691266857420443 0.3196008217133643 0.030431920986900566
1.2487173080444336e-05 0.2986245775896743 0.3438539812413327 0.029346384454803323
1.2487173080444336e-05 0.34751898506339124 0.2716216680716542 0.0277484725187872
1.2487173080444336e-05 0.15755605265088013 0.5175371441708975 -1.9907774685338246e-35
1.2487173080444336e-05 0.05225828925996688 0.44180345640953195 0.10096288717295338
1.2487173080444336e-05 0.12482310747933105 0.4758918233034003 0.00877192655103894
1.2487173080444336e-05 0.23095822001850738 0.5449360758821651 -3.9469252134881546e-36
1.2487173080444336e-05 0.0351755816978172 0.3752400247043598 0.031000015771970153
1.2487173080444336e-05 0.03269875166691563 0.2848314518596103 0.0351269420866362
1.2487173080444336e-05 0.357493878052884 0.13062247015858863 0.05717317630431018
1.2487173080444336e-05 0.0962935195553872 0.6776526787504649 0.0
1.2487173080444336e-05 0.17495891458136106 0.554714012943992 -2.188694416561615e-36
1.2487173080444336e-05 0.195964834133066 0.39159433145940326 0.027319764525353795
1.2487173080444336e-05 0.08266813486058094 0.5021432724160764 0.0
1.2487173080444336e-05 0.16145980743187094 0.39874879197833446 0.028266321191766152
1.2487173080444336e-05 0.035519407010159404 0.2574555705155145 0.033044473189093364
1.2487173080444336e-05 0.10144496171052149 0.7042291883409952 -9.607190245520729e-38
1.2487173080444336e-05 0.5556350811673731 0.1488356766736208 0.02774458414777529
1.2487173080444336e-05 0.4424292001519536 0.17339207796045186 0.031053444773962085
1.2487173080444336e-05 0.08770538871290683 0.7664800592963509 -1.0349499155012171e-35
1.2487173080444336e-05 0.2956914328189736 0.3205917466649333 0.029451033464689833
1.2487173080444336e-05 0.38110969530915606 0.1360486460747391 0.049378683669924595
1.2487173080444336e-05 0.08495526542845046 0.18413914476677823 0.028941186692776684
1.2487173080444336e-05 0.24438999225924152 0.3513360959103843 0.028436382532285413
1.2487173080444336e-05 0.11372271232959094 0.7439695878930077 -1.72560960880341e-35
1.2487173080444336e-05 0.2091125026922547 0.35487902905662944 0.02745972913365066
1.2487173080444336e-05 0.16712076933995415 0.49837539401941056 -9.429347089761051e-36
1.2487173080444336e-05 0.21229068963645528 0.44214451685802486 0.12256155859132173
1.2487173080444336e-05 0.3612603690762629 0.2470511768740653 0.027483436715908603
1.2487173080444336e-05 0.036417858755572 0.45692320190898233 0.16643996510768697
1.2487173080444336e-05 0.034044169722782396 0.5173921734413061 0.12537792289576769
1.2487173080444336e-05 0.5173377463982958 0.12362023604798038 0.07760764363803696
1.2487173080444336e-05 0.28202268428968935 0.27346521426007186 0.024798098836742187
1.2487173080444338e-05 0.1549638971798269 0.5960935305060211 -2.169223151007373e-36
1.2487173080444336e-05 0.043367188555323996 0.6648169140691949 0.13309733406473828
1.2487173080444336e-05 0.3510985554090128 0.36704664958498123 0.029767851145056177
1.2487173080444336e-05 0.029731438490802193 0.7790451512240034 0.12102916760477697
1.2487173080444336e-05 0.039946458443104786 0.3065733344350692 0.028743630959804416
1.2487173080444336e-05 0.2499355585757181 0.22139067090539793 0.027520032268851215
1.2487173080444334e-05 0.050876874688688296 0.30106690631520167 0.028635303252806398
1.2487173080444336e-05 0.09860359439569025 0.720479654604395 -1.2698238729565747e-36
1.2487173080444336e-05 0.2545737291905536 0.3672961448337537 0.028920012069710045
1.2487173080444336e-05 0.16446312500629015 0.6710133504325626 0.0
1.2487173080444336e-05 0.07654474872566873 0.7615433067294419 -9.943071655459902e-36
1.2487173080444336e-05 0.17464089090628784 0.30474791641860177 0.02907338638859976
1.2487173080444336e-05 0.08874509960779596 0.4904391622690507 -6.898948695364742e-36
1.2487173080444336e-05 0.12053214576322781 0.5704996957788407 -2.106794960888538e-36
1.2487173080444336e-05 0.10968202891501207 0.4070857906584294 0.03605824118889239
1.2487173080444336e-05 0.0936547659220908 0.501193065223692 -9.732517381227803e-36
1.2487173080444336e-05 0.13704229494393722 0.47915676536607843 -1.9092005362516464e-35
1.2487173080444336e-05 0.026059011409340645 0.7894949558236111 0.11305869729108732
1.2487173080444334e-05 0.03741279252402958 0.3530351184418998 0.03400948809757071
1.2487173080444336e-05 0.08606985023453881 0.30690714689408305 0.03007164039465724
1.2487173080444338e-05 0.06656881605449487 0.17942871018755607 0.02959211743632804
1.2487173080444336e-05 0.09451503281639256 0.7421834885508196 -7.538755005556686e-36
1.2487173080444336e-05 0.2764729681172564 0.1638673350792318 0.02936391157461443
1.2487173080444336e-05 0.1278712638365836 0.48625590119675505 -2.203797681997385e-35
1.2487173080444336e-05 0.3407755006195043 0.11720822873155966 0.07494600584070306
1.2487173080444334e-05 0.1987009913660247 0.19668392474180943 0.024995773606229187
1.2487173080444336e-05 0.14701086598556906 0.2498317504487677 0.030091030662470004
1.2487173080444336e-05 0.09737600578348725 0.34628834488719445 0.03213083052606659
1.2487173080444334e-05 0.5577255245501721 0.13175870874454956 0.05512402539120491
1.2487173080444336e-05 0.28187318211421536 0.46312079402907874 0.09377352169454951
1.2487173080444336e-05 0.3858036657911434 0.23854568994052322 0.026764887599086393
1.2487173080444338e-05 0.32008282547692984 0.34362595315528466 0.027784741795419215
1.2487173080444336e-05 0.24742215661660613 0.3795332460510452 0.028991313024636083
1.2487173080444338e-05 0.12266053140337763 0.32194289046034563 0.027393922669498704
1.2487173080444336e-05 0.05326209361396162 0.6092417584423587 0.04693378146781422
1.2487173080444338e-05 0.18001670926048166 0.21211219130178163 0.0253071090720908
1.2487173080444336e-05 0.06268383437908064 0.7465846419433082 -9.242927874409072e-36
1.2487173080444336e-05 0.408866527607828 0.16587406564987336 0.028455470615459756
1.2487173080444336e-05 0.5016939282908018 0.17773834620642298 0.027958867679371502
1.2487173080444336e-05 0.03360836083527276 0.48112108711950463 0.15099564781041527
1.2487173080444338e-05 0.31968657177403376 0.21005138691931644 0.030059038221899387
1.2487173080444336e-05 0.13528639805241333 0.2690367934143819 0.028606108799488352
1.2487173080444336e-05 0.2663221714088604 0.18508225405105405 0.026882094402477383
1.2487173080444336e-05 0.3551034500593791 0.39842147551363793 0.0288455392338882
1.2487173080444336e-05 0.31341836677174334 0.2580259211286292 0.027701187628104636
1.2487173080444336e-05 0.08628001507885728 0.35350852235025554 0.029658256834237905
1.2487173080444334e-05 0.11346180495574829 0.29495180059167947 0.02975749069467957
1.2487173080444336e-05 0.04984896258099113 0.48033506016515326 0.09913375110556175
1.2487173080444336e-05 0.23843241620205108 0.21484262875734747 0.029272760709919014
1.2487173080444336e-05 0.21053768391547312 0.12847667193473428 0.05616745376025434
1.2487173080444336e-05 0.1853932145779965 0.5499511999365062 -2.8229211329411993e-36
1.2487173080444336e-05 0.1907281661225314 0.568942716725267 0.0
1.2487173080444336e-05 0.13995620476557863 0.14177748538969354 0.03172534310030618
1.2487173080444336e-05 0.05304344946848683 0.2576998846108206 0.0309072401468071
1.2487173080444336e-05 0.4501702842387987 0.2557135421621527 0.03140684997904771
1.2487173080444336e-05 0.11863936630314166 0.1666766197240577 0.027955990793819715
1.2487173080444336e-05 0.3100104968148355 0.4291423812094133 0.07615624865285704
1.2487173080444336e-05 0.0779545055729962 0.36111399814525924 0.030224739515795438
1.2487173080444336e-05 0.1352116959219851 0.6887255902606222 0.0
1.2487173080444336e-05 0.27385571389375507 0.4935891056223726 -4.882077131546503e-37
1.2487173080444336e-05 0.06455197214916775 0.5405209754880063 -2.4286118448564893e-36
1.2487173080444338e-05 0.4751430662746359 0.1798031022712906 0.027977139644763945
1.2487173080444336e-05 0.14753387542205085 0.6625150093104712 -9.882804113112937e-36
1.2487173080444336e-05 0.14533250494001343 0.6144794955028258 -1.2664484278285448e-35
1.2487173080444336e-05 0.42098850262256077 0.13292232484700428 0.05311609175757448
1.2487173080444336e-05 0.13215835783395075 0.5018379857793496 -1.7190492858794746e-35
1.2487173080444336e-05 0.03321934591057242 0.38578804181094495 0.03393591703049046
1.2487173080444336e-05 0.03632851999938533 0.7710887697223167 0.10741983880451351
1.2487173080444336e-05 0.11145441086051885 0.15498851375018452 0.028293578096546795
1.2487173080444336e-05 0.07903982977804587 0.7147701019491 -8.1720942104594e-36
1.2487173080444336e-05 0.18842428527746077 0.5979195841894737 -2.7824902456715204e-36
1.2487173080444336e-05 0.25191809732915355 0.4534236273546065 0.12043916080563272
1.2487173080444336e-05 0.1497179769227515 0.4017328344183394 0.02954820534809403
1.2487173080444336e-05 0.40808781558192453 0.3331342488118011 0.029549884998708583
1.2487173080444336e-05 0.33901713373014103 0.3986899123947454 0.028159467912533466
1.2487173080444338e-05 0.026426948542165783 0.8176574923673898 0.14803893961706874
1.2487173080444336e-05 0.14989723219966658 0.4255854034908361 0.07747841235199805
1.2487173080444336e-05 0.18611428713764216 0.25403615230911414 0.02889155940599504
1.2487173080444336e-05 0.491877862464568 0.19423660779666455 0.0250756411049209
1.2487173080444336e-05 0.02822280342441345 0.8499304410220229 0.12296404339706841
1.2487173080444336e-05 0.07769934495275287 0.5341221646671829 -8.240138874798767e-36
1.2487173080444336e-05 0.24205947371687736 0.5157896574577489 -2.5168022866003285e-36
1.2487173080444336e-05 0.40279764430308157 0.27547044674269056 0.028463350971085974
1.2487173080444336e-05 0.17854800713784724 0.6573193668203683 -4.0331692794271915e-35
1.2487173080444336e-05 0.413500289448582 0.11692090583311385 0.07359844897582916
1.2487173080444336e-05 0.24868993545331194 0.184545262825769 0.028371909338085206
1.2487173080444336e-05 0.09146739057354344 0.3154342574108861 0.030641367253582075
1.2487173080444336e-05 0.10884359500870594 0.5337909411812827 -1.1154415168093672e-36
1.2487173080444336e-05 0.18247569664033195 0.5242261036128875 -9.781741331364923e-36
1.2487173080444336e-05 0.32617000291187714 0.2490961643287265 0.029397220886408764
1.2487173080444336e-05 0.4251294739934676 0.14945941802610338 0.0301930873431269
1.2487173080444338e-05 0.13016304794975248 0.5374345437657064 -2.2615855412963115e-36
1.2487173080444336e-05 0.37828735950875053 0.1709043591259737 0.026092219391835057
1.2487173080444334e-05 0.2041012065115419 0.22194880338876916 0.02496016966831566
1.2487173080444338e-05 0.3078393767486756 0.3060132335717028 0.028942665897560872
1.2487173080444336e-05 0.025409689545807364 0.695095309203642 0.11675713278092031
1.2487173080444336e-05 0.09680007261610489 0.2928622823632664 0.028772485468243077
1.2487173080444336e-05 0.4353593643016132 0.2569277709115157 0.03032503674144186
1.2487173080444336e-05 0.5413980152316803 0.15061626735556416 0.029193802197912795
1.2487173080444336e-05 0.11367222299579126 0.30690531190071707 0.029826927839936256
1.2487173080444336e-05 0.14901328600984254 0.12330771353602878 0.07453502859134782
1.2487173080444336e-05 0.10849882708717679 0.37307660216648103 0.030053799516918334
1.2487173080444336e-05 0.11657817595105728 0.6676196595016886 -1.4125222064345436e-37
1.2487173080444336e-05 0.03380813049596596 0.5674698942773805 0.13461502947723694
1.2487173080444334e-05 0.4161560663458176 0.20288134282091713 0.02819922790760386
1.2487173080444336e-05 0.02599367323626388 0.21496534130348782 0.04673427428907324
1.2487173080444336e-05 0.03261061728768164 0.8404939076691538 0.14051946147110408
1.2487173080444336e-05 0.14851335778878066 0.639269530248951 -4.824206674610015e-37
1.2487173080444336e-05 0.348049876133591 0.24158869030598498 0.03155833409661256
1.2487173080444336e-05 0.38216892754714177 0.2108373143838043 0.026735516811357142
1.2487173080444336e-05 0.055214886938527205 0.619594060035664 0.027874105360535178
1.2487173080444336e-05 0.24216357086068163 0.479831193478921 -2.496152268183274e-36
1.2487173080444334e-05 0.0727284596792886 0.2580595599167668 0.027226192452241362
1.2487173080444336e-05 0.1587507742453415 0.3637127307342975 0.02733882811115034
1.2487173080444336e-05 0.2578338954301773 0.23236295302136284 0.029737221449277363
1.2487173080444336e-05 0.16096434070277316 0.18792617214131083 0.029805937826531355
1.2487173080444336e-05 0.2622408319958736 0.47391233603396826 0.03307013297666136
1.2487173080444336e-05 0.08091014407009874 0.23237905148071863 0.02908643804632605
1.2487173080444336e-05 0.35147389308628274 0.1891075514918674 0.025313520291130626
1.2487173080444336e-05 0.1883545582877302 0.448029218402673 0.1278736082404795
1.2487173080444336e-05 0.16566517505641606 0.17674271828684035 0.0281697662603621
1.2487173080444336e-05 0.07454555204326538 0.43126154308763565 0.09496657048849919
1.2487173080444336e-05 0.20737485691164734 0.4548989226183974 0.12282363772668817
1.2487173080444336e-05 0.28709453391105033 0.3421632183430592 0.030485762536840356
1.2487173080444336e-05 0.08170566533460057 0.24945086065601302 0.0295177364142127
1.2487173080444334e-05 0.1342247361159425 0.31841063255280144 0.026675877899362484
1.2487173080444338e-05 0.2582063542860759 0.1326594877926139 0.05672682203921211
1.2487173080444336e-05 0.08421971164285244 0.40404444065335166 0.028660580520169412
1.2487173080444336e-05 0.15041068882729466 0.4133627665483888 0.03611789885942966
1.2487173080444336e-05 0.47756712717933 0.24216478286029194 0.02772854230270142
1.2487173080444336e-05 0.028854717290758947 0.7560950492724432 0.1370993410386002
1.2487173080444336e-05 0.5600608174926531 0.1190505727420552 0.0895461479345844
1.2487173080444336e-05 0.4943572344999301 0.13186684798336862 0.054528652118269925
1.2487173080444336e-05 0.040105024310916663 0.6352347462463037 0.08692016861960127
1.2487173080444336e-05 0.09725456291577213 0.22333656620088221 0.029304043680375716
1.2487173080444336e-05 0.04309311751651018 0.7571303173635866 0.11580569674820096
1.2487173080444338e-05 0.39202987365719344 0.16423257940139238 0.02828231322786562
1.2487173080444336e-05 0.30333102370324017 0.4852538971794834 -2.1139726079581988e-36
1.2487173080444336e-05 0.08853133935999812 0.7062545684893505 -8.078427428087837e-36
1.2487173080444336e-05 0.07653356054426672 0.14658840783570548 0.02776668679449502
1.2487173080444336e-05 0.017627475608223694 0.6796506512918381 0.12049479546339005
1.2487173080444336e-05 0.36324034946883915 0.3269930811779669 0.028647732977998133
1.2487173080444338e-05 0.2005190257622534 0.24081351428149914 0.02747474543715054
1.2487173080444338e-05 0.4220242085352903 0.2146245483636835 0.02944692420965393
1.2487173080444336e-05 0.028469070130644304 0.6833158883525802 0.1540583938465866
1.2487173080444336e-05 0.456420089235995 0.20468573620845246 0.027931572526707985
1.2487173080444336e-05 0.2626883404854934 0.41520146899713795 0.04268400405157151
1.2487173080444338e-05 0.4350475895762152 0.18678436062907178 0.03218498677904169
1.2487173080444336e-05 0.20702882647843773 0.18834323483503612 0.029954113385413948
1.2487173080444336e-05 0.11600142282650548 0.463578027757267 0.10727501165374555
1.2487173080444336e-05 0.23670212439416485 0.456179583985464 0.09980071443349489
1.2487173080444336e-05 0.04945979189872471 0.8190972646706948 0.07147574634334998
1.2487173080444336e-05 0.15874919444062063 0.6522500810695497 -1.0961207715439265e-35
1.2487173080444336e-05 0.3330185306369055 0.4244051582836583 0.055872829888932184
1.2487173080444338e-05 0.4506870402267999 0.22834136651172485 0.02932281316207305
1.2487173080444336e-05 0.061704787686442636 0.5530210606838591 -2.081130688872527e-36
1.2487173080444336e-05 0.39870241397483774 0.2863361593596952 0.028140250692942268
1.2487173080444336e-05 0.2345821683315321 0.5603458482507848 -2.6285864578042435e-36
1.2487173080444336e-05 0.15274587921733482 0.5799129447678025 -7.777050179161114e-36
1.2487173080444336e-05 0.08755324668871156 0.3376023863522704 0.032675151753725276
1.2487173080444336e-05 0.04436851012705616 0.7195143907696803 0.10694274561068812
1.2487173080444336e-05 0.14464264548084246 0.29752557081029346 0.03012174809670363
1.2487173080444336e-05 0.22545173910081956 0.3420996273170538 0.02540190297494029
1.2487173080444338e-05 0.32581122040840516 0.36657810293408843 0.029988796406742527
1.2487173080444336e-05 0.10707551231313243 0.4739457832489978 0.043496190100592656
1.2487173080444336e-05 0.08782561407881234 0.7781754949353754 -8.839274950274175e-36
1.2487173080444336e-05 0.17621906951519492 0.637657153257713 -7.764100862717479e-36
1.2487173080444336e-05 0.14577146084274362 0.6865127618383398 -1.3504366717894245e-37
1.2487173080444336e-05 0.06688306499011384 0.22334991565030704 0.032593871401855795
1.2487173080444336e-05 0.2506640147612418 0.5102167249502823 0.0
1.2487173080444336e-05 0.05677433925515696 0.6706650890560418 0.00024169448200580726
1.2487173080444338e-05 0.022380126895044705 0.1818293506546435 0.051243861495717025
1.2487173080444334e-05 0.04634790933836111 0.21041009116226564 0.032645977074862116
1.2487173080444338e-05 0.2222629325761779 0.20411510926442156 0.029453647245252047
1.2487173080444336e-05 0.20998230359303274 0.4135620248749865 0.0367929560538027
1.2487173080444336e-05 0.08031097148094872 0.4839301653362535 -2.3420718151731317e-36
1.2487173080444336e-05 0.23498260028776013 0.44327893351531183 0.10467331934705174
1.2487173080444336e-05 0.23379196782331074 0.5837232259343131 -4.574834324214371e-36
1.2487173080444336e-05 0.029629217484085472 0.11948410662442864 0.07829576365095382
1.2487173080444336e-05 0.24540704770572594 0.5000969033717682 -1.1271292469879923e-35
1.2487173080444336e-05 0.047749553381559125 0.6458860148230993 0.10706366793386389
1.2487173080444336e-05 0.2773813819136269 0.3347746606826131 0.02877072205277416
1.2487173080444334e-05 0.3710402184324156 0.251945820802136 0.02801016087161557
1.2487173080444336e-05 0.26320312975622573 0.3836420286320531 0.02730068759426933
1.2487173080444334e-05 0.18260942289242496 0.1278316032546884 0.05831256215162878
1.2487173080444334e-05 0.13428058798633938 0.15277836974246117 0.02910762776033138
1.2487173080444338e-05 0.2411536433544234 0.14461073825666015 0.027107202110957653
1.2487173080444336e-05 0.2476446043751343 0.44126015864904444 0.12582350585578858
1.2487173080444336e-05 0.5147321441017718 0.2044721288774674 0.02777115354855291
1.2487173080444336e-05 0.1998151908042241 0.44454126672051414 0.10211767977193201
1.2487173080444336e-05 0.20211632035918822 0.57475538129723 -2.5343505883605172e-36
1.2487173080444336e-05 0.3702838927383531 0.2750486898964005 0.02764782720282785
1.2487173080444336e-05 0.1071663758307603 0.3851920796093124 0.029146414013456058
1.2487173080444336e-05 0.1408193112852992 0.7106217108382389 -1.3762027842130739e-37
1.2487173080444336e-05 0.1249248789541226 0.23778643351088474 0.02769723924380925
1.2487173080444336e-05 0.06781777755255332 0.46875267364491857 0.04522381498711134
1.2487173080444336e-05 0.2941281311224719 0.1269750617262851 0.06758971678006521
1.2487173080444336e-05 0.26051811249218004 0.20724612388531738 0.02864437417555874
1.2487173080444336e-05 0.2369448181833599 0.387613497274476 0.028189154222765158
1.2487173080444336e-05 0.09817542645567337 0.3039522437972437 0.028026776943931072
1.2487173080444336e-05 0.08765461378200662 0.5128823749259283 -2.0139530372223917e-36
1.2487173080444334e-05 0.44463092491283085 0.23790741035487079 0.03134288148403225
1.2487173080444338e-05 0.015382916344213165 0.14312307098758376 0.07344413281581826
1.2487173080444336e-05 0.08803507299031492 0.47457566449930594 0.03515535951603751
1.2487173080444336e-05 0.31952248601368827 0.23551485193965932 0.030572708597691668
1.2487173080444334e-05 0.3732234125675002 0.14356564567526692 0.03468061457939934
1.2487173080444336e-05 0.23179784023292155 0.3063883289806554 0.02944813897650772
1.2487173080444336e-05 0.18593748438386518 0.3382044882744071 0.02514174677106949
1.2487173080444336e-05 0.2119356504935743 0.5678943779494813 -1.661712882895793e-35
1.2487173080444336e-05 0.19406172130147387 0.21310523596907877 0.026953173800267082
1.2487173080444336e-05 0.1402965137910829 0.39533437607055366 0.029624129407253747
1.2487173080444336e-05 0.43126998361445984 0.16619936655478093 0.028973476319142353
1.2487173080444338e-05 0.5208317003467793 0.1372507651904697 0.03500580755603696
1.2487173080444336e-05 0.42804432520535546 0.28666742045613713 0.02933060298995336
1.2487173080444336e-05 0.17329598786185785 0.3166035480191559 0.028701018567090883
1.2487173080444336e-05 0.03895894391692068 0.8274973464786465 0.12148588917762634
1.2487173080444336e-05 0.11051959386460816 0.13459428466212253 0.05076688717930241
1.2487173080444336e-05 0.342966577503028 0.43456883939250146 0.0967644235057049
1.2487173080444336e-05 0.34468265270184345 0.3878251419935905 0.028582420728987444
1.2487173080444336e-05 0.2718939305259939 0.30401150737550253 0.029344205282297725
1.2487173080444336e-05 0.39443764280926896 0.22906073994806847 0.028383771181099453
1.2487173080444336e-05 0.11185991592261212 0.5059979945252809 0.0
1.2487173080444336e-05 0.27309240832887355 0.40564064838399094 0.034314519992693165
1.2487173080444338e-05 0.055425786966671844 0.3348571475325481 0.02989227978359142
1.2487173080444336e-05 0.051613848934827664 0.275982679605173 0.0303291621267143
1.2487173080444336e-05 0.2095665600701569 0.6065519931015998 -2.1652308788678084e-36
1.2487173080444336e-05 0.11931983653048138 0.6811289463005741 -1.4458369548646357e-37
1.2487173080444336e-05 0.162631778124074 0.3244313673974558 0.02767780498441645
1.2487173080444336e-05 0.21894253103874584 0.37675621620661015 0.029748871644319563
1.2487173080444336e-05 0.036181422057281976 0.5017925093540295 0.13080730639734747
1.2487173080444336e-05 0.06418988627521383 0.7946257369321152 -7.673427181108127e-36
1.2487173080444336e-05 0.4155088063160519 0.27731327749062173 0.02962331997835812
1.2487173080444336e-05 0.16399946747229077 0.2091762525057126 0.027853834098714447
1.2487173080444336e-05 0.2224385687671394 0.5382620325450074 -2.7117151925096914e-36
1.2487173080444336e-05 0.07707267977479423 0.390472171726334 0.031022251315204346
1.2487173080444336e-05 0.13177907926447724 0.5748772947596074 -1.1933217531709054e-37
1.2487173080444336e-05 0.05968649625361283 0.5072979135895065 -2.097408736914559e-36
1.2487173080444334e-05 0.17879395398331502 0.17862919766898966 0.028474800629951065
1.2487173080444336e-05 0.21885182509912454 0.5491035042706808 -2.3100061223777844e-36
1.2487173080444336e-05 0.28064478867090525 0.21455209417820326 0.027593157818100036
1.2487173080444336e-05 0.3469229771127447 0.4214548376664532 0.06080153937211443
1.2487173080444338e-05 0.28037904267910996 0.22638952800846443 0.02683038601250392
1.2487173080444334e-05 0.26560395620123656 0.1688239703876176 0.028003195069765497
1.2487173080444336e-05 0.18354913193581424 0.3980152783042388 0.02913252575050368
1.2487173080444334e-05 0.031787427813799576 0.31309052545910976 0.03500020607299264
1.2487173080444336e-05 0.015017158670534974 0.7854333072956281 0.09684380844812347
1.2487173080444336e-05 0.13481134247235532 0.6479613787760802 -1.0384742024101953e-35
1.2487173080444336e-05 0.021834594445900576 0.43706041389329975 0.117169832561657
1.2487173080444336e-05 0.49671222574189755 0.14365765017819804 0.028478128445172307
1.2487173080444336e-05 0.2936638812838388 0.31000855728167204 0.030979573807735066
1.2487173080444336e-05 0.07511842815221682 0.45661879321039733 0.10887827201716382
1.2487173080444338e-05 0.13020792397439676 0.22518831080367174 0.0269584249992154
1.2487173080444336e-05 0.12858548196710864 0.5501787181245174 -2.4269819375003934e-36
1.2487173080444336e-05 0.31289277771711854 0.3188578107366165 0.028390247250929396
1.2487173080444336e-05 0.15072854022411014 0.5515289479494105 0.0
1.2487173080444336e-05 0.5052121407713511 0.2146341542610388 0.02558287860279115
1.2487173080444336e-05 0.11426886849814992 0.6355299607457792 -9.308704721386133e-36
1.2487173080444336e-05 0.14669997068441282 0.49099790004691896 -2.2221842481944413e-35
1.2487173080444336e-05 0.43319880382238884 0.26897042563343 0.030509104260745153
1.2487173080444336e-05 0.31559630226633023 0.1935310041298045 0.025442296432625865
1.2487173080444334e-05 0.1939042336672743 0.1587293860911564 0.02778344173435147
1.2487173080444336e-05 0.25425027398308064 0.3447219119557873 0.028344260622185147
1.2487173080444336e-05 0.4869328227192797 0.17754190158919053 0.026945210918752387
1.2487173080444336e-05 0.2053141708700668 0.6185325792416386 -7.91158866993958e-36
1.2487173080444336e-05 0.20157398137649662 0.42492732864614574 0.0613636610402322
1.2487173080444336e-05 0.2815508358307654 0.15418276614333465 0.029821274004417073
1.2487173080444336e-05 0.037616196745488224 0.606812365378025 0.133430825905292
1.2487173080444336e-05 0.0619880362068327 0.30401057459493497 0.031022223447386407
1.2487173080444336e-05 0.2620697922217768 0.43549638202698754 0.10766873720180084
1.2487173080444336e-05 0.2926955680534269 0.4490106677539088 0.11003402639230611
1.2487173080444336e-05 0.1410483260902996 0.5441657840238695 0.0
1.2487173080444336e-05 0.17161049894279296 0.4868151740243539 -3.788863508401663e-36
1.2487173080444336e-05 0.09981787218183216 0.5107715730638227 -7.966874178086921e-36
1.2487173080444336e-05 0.04388826937412179 0.8061530353793771 0.09244149388288943
1.2487173080444336e-05 0.2723860658538899 0.35462205532861996 0.028812216672681794
1.2487173080444336e-05 0.08775966310576042 0.6837692839067808 -1.2472636069137487e-37
1.2487173080444336e-05 0.13431901146986483 0.4475933719611115 0.10967247252359501
1.2487173080444336e-05 0.4150512356129626 0.28933735156334667 0.02759267551111265
1.2487173080444338e-05 0.14531697780944497 0.5294361738228697 -7.66908534020358e-36
1.2487173080444336e-05 0.30349177555378304 0.4457498565616013 0.103917841184691
1.2487173080444336e-05 0.16852351474880115 0.1195272157349938 0.07537626877490448
1.2487173080444336e-05 0.30125356913578477 0.35675578796869073 0.029638166940322754
1.2487173080444336e-05 0.2946068898935358 0.2842679252964886 0.026765617274573477
1.2487173080444336e-05 0.13860505938836262 0.25727672229098364 0.029275607041715522
1.2487173080444334e-05 0.35195515309229336 0.1502681883661772 0.027888527467056237
1.2487173080444336e-05 0.08293136696597234 0.20075295014453526 0.02834448555263616
1.2487173080444336e-05 0.35861478224261994 0.4177395936979319 0.04997656881914213
1.2487173080444336e-05 0.16347929684582205 0.2647811630559057 0.03003157904484838
1.2487173080444336e-05 0.23108328363803607 0.25294925368873916 0.027280334565001323
1.2487173080444334e-05 0.11982291266766804 0.35261042028408557 0.029436978496606463
1.2487173080444336e-05 0.15148863521803813 0.4619616924906723 0.10520217274643458
1.2487173080444334e-05 0.020638865258174394 0.2282600251707494 0.06656648546607163
1.2487173080444336e-05 0.2261708053680625 0.26636818092823555 0.02826839220276606
1.2487173080444338e-05 0.2228121364060877 0.3134678870141092 0.030613077997213738
1.2487173080444336e-05 0.11885967978653986 0.6950523687087781 0.0
1.2487173080444336e-05 0.34113559540207655 0.25474670782566256 0.027181507092440164
1.2487173080444334e-05 0.04325764567431573 0.3633133538345982 0.03051991515001791
1.2487173080444336e-05 0.056785401608790115 0.41069844192160304 0.0383170639401206
1.2487173080444336e-05 0.05441179556290299 0.5788027246097729 0.058740948149976394
1.2487173080444336e-05 0.0851327220448147 0.4273055051461397 0.07674256089296061
1.2487173080444336e-05 0.04115291390443878 0.5272689044828285 0.11277747841603945
1.2487173080444336e-05 0.19182210774199884 0.43664211292825594 0.12741915136612805
1.2487173080444336e-05 0.06059751342752632 0.42395410791819643 0.06279172218397779
1.2487173080444336e-05 0.29105336314207264 0.36734081002287006 0.030878603070412156
1.2487173080444336e-05 0.32764223371835943 0.3947958755864021 0.027589933423933923
1.2487173080444334e-05 0.07194710835290409 0.584899996533646 -7.592482612958595e-36
1.2487173080444338e-05 0.33968446330324753 0.21592209010851 0.026660192085113957
1.2487173080444336e-05 0.16862466037283153 0.527932790073328 -2.4495766410817103e-35
1.2487173080444334e-05 0.38109570496586864 0.32797013043053264 0.030425930918659565
1.2487173080444336e-05 0.44005286971912205 0.22444504259444553 0.02908515410370876
1.2487173080444336e-05 0.12269273287620892 0.6053418699537596 0.0
1.2487173080444336e-05 0.063172422800752 0.7051193831480659 -2.941840632950537e-38
1.2487173080444336e-05 0.3110431283321769 0.40314305369130443 0.02887240018879463
1.2487173080444336e-05 0.22675361770814573 0.47732998148168737 0.026733146992679285
1.2487173080444336e-05 0.05670787376954114 0.7326006815903241 -2.8368858564164004e-35
1.2487173080444336e-05 0.044442010830774814 0.1321544363586757 0.06451269525042015
1.2487173080444334e-05 0.10776976689326698 0.21117687797414583 0.028589328536386523
1.2487173080444336e-05 0.08052883717295216 0.7392715181278602 -8.340438054949313e-36
1.2487173080444336e-05 0.35079319553714094 0.3386800994940177 0.027200490807622917
1.2487173080444336e-05 0.07609582910921223 0.2169767354176304 0.028405801515345594
1.2487173080444336e-05 0.02085099876099023 0.4848920250536724 0.10827353232748596
1.2487173080444336e-05 0.030394467164892636 0.4458534339604847 0.13409211607882546
1.2487173080444334e-05 0.048453191679513244 0.16401122428280146 0.030613411339555054
1.2487173080444336e-05 0.17296468565397888 0.570510302218294 -9.23226372650165e-36
1.2487173080444336e-05 0.24482323037280515 0.13344334392977208 0.05734037342225968
1.2487173080444336e-05 0.3657827810174093 0.39712874996104064 0.028586682680729166
1.2487173080444336e-05 0.08743908963557587 0.3268202955463923 0.03270409594599327
1.2487173080444338e-05 0.36581143927736304 0.18630787675521102 0.02719060600824409
1.2487173080444336e-05 0.38479018427475276 0.26994708185052896 0.02939703806418249
1.2487173080444336e-05 0.24235056552860543 0.5344053858686705 -4.357234893773851e-37
1.2487173080444336e-05 0.24808629946309413 0.5651739266842416 -2.895052792843857e-36
1.2487173080444336e-05 0.050124385654659674 0.7409905791053403 0.052924357926646425
1.2487173080444336e-05 0.1674506881213833 0.6585338544481915 -7.873535719491941e-36
1.2487173080444336e-05 0.2530994994468941 0.30384707351378515 0.031141442959921425
1.2487173080444334e-05 0.07430820002528075 0.32786068462650264 0.030860260739766523
1.2487173080444336e-05 0.12526498098747868 0.7167987472429412 -3.1115610861707487e-35
1.2487173080444336e-05 0.3690226016586406 0.13102913792850102 0.056245437833513864
1.2487173080444338e-05 0.48280256689005424 0.1455290252318075 0.027831509202996547
1.2487173080444336e-05 0.3890090716537187 0.3567033387545816 0.027959719230020816
1.2487173080444334e-05 0.301614029196618 0.259140349832959 0.025425312009718613
1.2487173080444336e-05 0.15842322899300168 0.25139149970950453 0.02959033995636687
1.2487173080444336e-05 0.21075001142414723 0.5865483029412903 -9.495490495051176e-36
1.2487173080444336e-05 0.216560703956661 0.5134957313705159 -2.0413067208157233e-35
1.2487173080444336e-05 0.22229597180300634 0.3256785902622471 0.028317758180073874
1.2487173080444336e-05 0.1601854429113415 0.6322283731302911 0.0
1.2487173080444336e-05 0.25394105175641474 0.2805075352163424 0.02851294607503165
1.2487173080444336e-05 0.023577681925463813 0.3596604044638606 0.054641128282646036
1.2487173080444334e-05 0.32057416743717726 0.12584392508874162 0.0535054691278279
1.2487173080444336e-05 0.04222683991008033 0.17623612581328052 0.03080965690047379
1.2487173080444336e-05 0.11721157596100451 0.2822645291750089 0.028216974030075205
1.2487173080444336e-05 0.11965794153211434 0.399522277397224 0.027648885978976773
1.2487173080444336e-05 0.15773334334738354 0.6071204471345436 -2.3617487500868592e-36
1.2487173080444336e-05 0.44715169935438775 0.2153972870201888 0.028391167320864847
1.2487173080444336e-05 0.2923470019214745 0.4665798390117596 0.05303624720437337
1.2487173080444336e-05 0.04009214433960937 0.2244882493754907 0.03153091095883624
1.2487173080444336e-05 0.21076177041966057 0.5379635454715674 -7.231744770120716e-36
1.2487173080444336e-05 0.34843200708353267 0.4075860821639819 0.031578702606239094
1.2487173080444338e-05 0.1390677414625046 0.12856694964289553 0.06055313731150381
1.2487173080444336e-05 0.2563177829812689 0.26929826801622414 0.027074945488207103
1.2487173080444336e-05 0.4781240914077655 0.20043014728736724 0.02571293819497193
1.2487173080444336e-05 0.3494921263949199 0.22368325788038007 0.030531304898305335
1.2487173080444334e-05 0.040600639293313395 0.3360543823832983 0.03083393081766132
1.2487173080444336e-05 0.04436823148711691 0.28392311948003224 0.030479288068856646
1.2487173080444336e-05 0.12292165111618567 0.4427668572236335 0.1372861517927149
1.2487173080444336e-05 0.21252922157794615 0.31786226310547616 0.031691653435189
1.2487173080444338e-05 0.21854499769871083 0.2775726828731168 0.02779788984566393
1.2487173080444336e-05 0.14972499302543973 0.4788753959679401 -3.177688942800985e-36
1.2487173080444336e-05 0.29907060845651273 0.16593095774783448 0.026297529872956457
1.2487173080444336e-05 0.3691307807843326 0.20170121357795912 0.02728477978917559
1.2487173080444336e-05 0.07280140711866723 0.7718520081393708 -9.990429830086492e-36
1.2487173080444336e-05 0.08065985828065875 0.6294838377035913 -9.827502195210927e-36
1.2487173080444336e-05 0.3146454649706119 0.4441805209740238 0.12261780016282137
1.2487173080444336e-05 0.4222654760776983 0.1752333681354139 0.02952246054133514
1.2487173080444338e-05 0.41533040699326135 0.3236871750526611 0.025961762802877715
1.2487173080444336e-05 0.3391502839766395 0.20209037145841188 0.025731121735359505
1.2487173080444336e-05 0.0684112724489709 0.6715479450115256 -1.0215345757531619e-35
1.2487173080444336e-05 0.22083572526748918 0.3642309744378095 0.029449100340523334
1.2487173080444336e-05 0.09124079171333553 0.1304784502533381 0.06684199783703207
1.2487173080444336e-05 0.22330516196801053 0.43759267809514835 0.11301941073600079
1.2487173080444336e-05 0.05445250773059559 0.19954181062046175 0.031152363452005765
1.2487173080444336e-05 0.20760034496900992 0.15585314632796926 0.028541836640276003
1.2487173080444336e-05 0.18981429269413627 0.2955021207783042 0.028955945064121143
1.2487173080444336e-05 0.2381616718498322 0.20207534372393127 0.027839416658593144
1.2487173080444336e-05 0.04991476296618501 0.2472722817981326 0.03084431488424853
1.2487173080444334e-05 0.1264929366760799 0.25717484217056635 0.027921491833447113
1.2487173080444338e-05 0.4529288218249618 0.12328572628899134 0.07611669868799839
1.2487173080444336e-05 0.38261422677415324 0.3406175157825695 0.029393449754358553
1.2487173080444336e-05 0.11006920890771246 0.189276188529427 0.030559308807457927
1.2487173080444336e-05 0.17601329719221115 0.40738930077535573 0.03152324036157963
1.2487173080444336e-05 0.35842646052076593 0.1154276276480557 0.08022080339872995
1.2487173080444336e-05 0.12475727830742646 0.594856909005864 -2.375005568742905e-36
1.2487173080444336e-05 0.2647612119375541 0.5169462075369937 -1.3151863871022238e-35
1.2487173080444336e-05 0.08888547868089652 0.14951313972195232 0.027664386171569036
1.2487173080444336e-05 0.1696524591945104 0.228218823467713 0.030028090569473063
1.2487173080444336e-05 0.0605826668037822 0.8136330052082114 -7.46700740422755e-36
1.2487173080444338e-05 0.13853678641581715 0.5963753485701255 -2.033853571514343e-35
1.2487173080444336e-05 0.09332437393800828 0.16924377928498502 0.029864891678507647
1.2487173080444336e-05 0.2766383036907985 0.17520336490534633 0.028733919016035083
1.2487173080444336e-05 0.14196764440227613 0.2864510422121542 0.029941115988818955
1.2487173080444336e-05 0.04874838838621651 0.5941035139266557 0.09619625688827138
1.2487173080444334e-05 0.05824217769502194 0.28998255164202424 0.030628498280404436
1.2487173080444338e-05 0.07460270400570794 0.15998183142339156 0.028792251926205152
1.2487173080444334e-05 0.1375808943660048 0.36046740253478954 0.02704872127944304
1.2487173080444336e-05 0.5129163489836914 0.1621105784766416 0.030123071021800566
1.2487173080444336e-05 0.33156975160505114 0.1367242422345751 0.044549016717947844
1.2487173080444336e-05 0.059006055114369724 0.5941972350967857 0.0
1.2487173080444336e-05 0.5288276501277013 0.1653955870867637 0.030232466042612812
1.2487173080444336e-05 0.040555663075227705 0.6749488974970922 0.15642146828261938
1.2487173080444336e-05 0.10369039138354041 0.45128855250140576 0.1533732236837385
1.2487173080444336e-05 0.24367786467021355 0.46780552721354113 0.062124113873216286
1.2487173080444336e-05 0.20667025747311474 0.5012102021506187 -7.993954929581935e-36
1.2487173080444338e-05 0.058603644707084235 0.13451600881786166 0.0487408663798752
1.2487173080444336e-05 0.3893843104638053 0.12027527245944131 0.07504762509970735
1.2487173080444334e-05 0.17104391043165865 0.6007025323852784 -2.004196346388755e-35
1.2487173080444334e-05 0.07626020233236218 0.2967877744355091 0.02813258816356502
1.2487173080444336e-05 0.33218853874289894 0.34914199816260144 0.030469072826717843
1.2487173080444338e-05 0.024087463648232048 0.330991178943794 0.048921132299984786
1.2487173080444336e-05 0.3372922190712753 0.4446647641346968 0.12444924423989245
1.2487173080444334e-05 0.2621324266813427 0.19547080319575802 0.026390510732229578
1.2487173080444336e-05 0.09721989099754354 0.12036866006761555 0.08596647914679922
1.2487173080444336e-05 0.09245893393074264 0.6094398030178123 -1.936905475473025e-36
1.2487173080444336e-05 0.17936244744853466 0.290669174139113 0.028051713829892095
1.2487173080444338e-05 0.15177098592684707 0.26661000602516605 0.028839010202086013
1.2487173080444338e-05 0.02034180636908949 0.3182558826389187 0.05611096658929924
1.2487173080444336e-05 0.338356923292691 0.2936083942969875 0.028700723797451255
1.2487173080444336e-05 0.15902908136359042 0.2278917693271159 0.028727087713546446
1.2487173080444336e-05 0.11440376128934698 0.554969537221331 -2.420085102048812e-36
1.2487173080444336e-05 0.10043471880029914 0.6342824104223582 -8.980957004385194e-36
1.2487173080444336e-05 0.3314353457784259 0.3207879114146909 0.028518822851390034
1.2487173080444336e-05 0.19663416546110876 0.5019559468738336 -7.798766458296573e-36
1.2487173080444336e-05 0.18750786827302074 0.13949769049279404 0.030534141001217527
1.2487173080444336e-05 0.17521132015135035 0.538728129552147 -3.727346622132919e-36
1.2487173080444336e-05 0.06730139486623932 0.6946184085962578 0.0
1.2487173080444336e-05 0.20086362333143842 0.5296058698793831 -8.813906891010725e-36
1.2487173080444336e-05 0.030309769251394142 0.7212430134975345 0.15090641779662028
1.2487173080444336e-05 0.16315054625856423 0.4391662038160694 0.13207096180576974
1.2487173080444336e-05 0.4126118778342298 0.23467330307841816 0.027284222122027323
1.2487173080444336e-05 0.03572920881423386 0.7053807864262597 0.16233044497813542
1.2487173080444336e-05 0.028759353614447043 0.7451805607478377 0.1369112378205885
1.2487173080444336e-05 0.15640719529270097 0.3531641577583706 0.02833275436144542
1.2487173080444338e-05 0.5778681969730703 0.12168454986648082 0.09860714095682785
1.2487173080444336e-05 0.2988912475483522 0.2050782568875772 0.024471306418246876
1.2487173080444336e-05 0.23013814302622576 0.2777199521663791 0.026825251046343344
1.2487173080444336e-05 0.47155104544602877 0.2541854508035254 0.031211613150401905
1.2487173080444336e-05 0.17281949094420967 0.5162442283789399 -2.084146176812305e-35
1.2487173080444336e-05 0.1232504526134922 0.15403125041699745 0.03011709784173577
1.2487173080444336e-05 0.10650362955644002 0.3205730727844305 0.029055915576689063
1.2487173080444336e-05 0.23038255443076455 0.4090171223725664 0.036704848454076525
1.2487173080444336e-05 0.21212124914088784 0.16752188075697416 0.031065362492517092
1.2487173080444336e-05 0.10007705195428387 0.558892343381118 -3.406759373620992e-35
1.2487173080444336e-05 0.13414405223480283 0.5262029176708958 -5.951341196412189e-35
1.2487173080444336e-05 0.40402137055606246 0.1492588447130394 0.0299636651181236
1.2487173080444336e-05 0.02348253114958815 0.6348448016587666 0.11327921643052659
1.2487173080444336e-05 0.24311929474212382 0.41459664049788786 0.040443421592939705
1.2487173080444336e-05 0.3936047299409364 0.31760877629878664 0.0296247899432069
1.2487173080444336e-05 0.3015366226306937 0.38375888028508104 0.031046243946264103
1.2487173080444336e-05 0.41729376619512315 0.3072008232699402 0.02700099432554065
1.2487173080444336e-05 0.13719721808712768 0.6318422132092346 -7.506318308794497e-36
1.2487173080444336e-05 0.2442422554876977 0.4026386148220063 0.02844300291120138
1.2487173080444336e-05 0.04708156505574327 0.7945167758961452 0.12421252566172596
1.2487173080444336e-05 0.11947057232150936 0.5416132978783985 -1.9172043908827882e-36
1.2487173080444336e-05 0.2772272621537782 0.4166074861660794 0.04225644359627127
1.2487173080444336e-05 0.04351733155291498 0.5510188608127822 0.1456105040551416
1.2487173080444334e-05 0.46189483556916067 0.1406088335047755 0.03313273252073547
1.2487173080444336e-05 0.22694515903606904 0.4626086819467514 0.09583115510445527
1.2487173080444338e-05 0.25674933592031235 0.39669818686430375 0.030908761746793894
1.2487173080444336e-05 0.22993562292570616 0.13725466134528072 0.042677965490987284
1.2487173080444336e-05 0.11177563002071589 0.4314449593952935 0.09524758499782408
1.2487173080444336e-05 0.13849013979432478 0.30822756568747334 0.028584276604891247
1.2487173080444336e-05 0.06881876294934729 0.6382856181964066 -3.2214255521218477e-38
1.2487173080444334e-05 0.29090194128356045 0.14611781870058665 0.03003859262471268
1.2487173080444336e-05 0.0862486523474437 0.6719424898079406 0.0
1.2487173080444336e-05 0.1675586336609311 0.37209703721974546 0.026886819862135845
1.2487173080444336e-05 0.26910976080871524 0.4462394902975607 0.13477583099093013
1.2487173080444333e-05 0.019264810234823224 0.3955740552808156 0.062289645792745825
1.2487173080444336e-05 0.2652266879930452 0.2805514580866772 0.026181719684300588
1.2487173080444336e-05 0.29602795494548223 0.17775202602789159 0.025856000198420097
1.2487173080444336e-05 0.029717996648936054 0.8052003829891243 0.11208885374837446
1.2487173080444336e-05 0.28445497369689016 0.3581233733279553 0.03033877084621499
1.2487173080444336e-05 0.16460248424900745 0.589907407587184 -5.398064104237102e-37
1.2487173080444336e-05 0.23725739948188307 0.29043430824666383 0.029557098861810235
1.2487173080444334e-05 0.26936030771002706 0.22971298578931143 0.028241444777897813
1.2487173080444336e-05 0.5025252220891188 0.15675135721285507 0.028904359404289995
1.2487173080444336e-05 0.2125293273931193 0.42545535388225975 0.055670061158472284
1.2487173080444336e-05 0.30527641523296495 0.23612668121945052 0.02910945305336569
1.2487173080444336e-05 0.0688480743465796 0.2852319830428043 0.02826854820148344
1.2487173080444336e-05 0.25659369487371764 0.33128142456663057 0.029446798805972545
1.2487173080444336e-05 0.32493231475457224 0.4535001732473705 0.11402283676797759
1.2487173080444334e-05 0.030410878145466586 0.23915828548211748 0.047946320750841584
1.2487173080444336e-05 0.4760427004484249 0.22738014714966615 0.02671026655499621
1.2487173080444336e-05 0.018149060752892243 0.2992159340872849 0.05972786900059534
1.2487173080444336e-05 0.2695410133081995 0.2429582441605 0.02535282436755296
1.2487173080444336e-05 0.042181042124147694 0.4375038549659354 0.09183808248882266
1.2487173080444336e-05 0.3281277561315787 0.16979181150153566 0.024967259047352055
1.2487173080444336e-05 0.2673171635764719 0.3244947953713835 0.028573768811956664
1.2487173080444336e-05 0.09817845763999511 0.5955647658749894 -8.210724023639435e-36
1.2487173080444336e-05 0.04831459394541285 0.3985104805789141 0.030053443947778005
1.2487173080444336e-05 0.07029404750773575 0.4410499362018119 0.11442242273033754
1.2487173080444336e-05 0.2226299794722601 0.5912540810199357 -6.587128638947188e-37
1.2487173080444336e-05 0.2215795115625357 0.19221328638722746 0.029525090019716607
1.2487173080444334e-05 0.10145666612324658 0.25395317566773457 0.027109133413713103
1.2487173080444338e-05 0.3942115398437304 0.367328379451927 0.029225415723921212
1.2487173080444336e-05 0.4108195125037945 0.1827054222240057 0.030180252451164288
1.2487173080444336e-05 0.020794177155059455 0.7114369748747152 0.16460929237114652
1.2487173080444336e-05 0.0435080915433455 0.6932201840252229 0.15480768913707071
1.2487173080444336e-05 0.25727691966280847 0.4638278516037551 0.09201090657562293
1.2487173080444336e-05 0.131013639746901 0.20740115874301263 0.027761867053889305
1.2487173080444336e-05 0.11153148287759478 0.5925808637221928 -2.4400524163862413e-36
1.2487173080444336e-05 0.1984549141736667 0.2662525903714097 0.028451879737914233
1.2487173080444336e-05 0.21938429338259824 0.15623886160446848 0.03126214600980585
1.2487173080444336e-05 0.04283645316395394 0.7304637585470385 0.10744397480385749
1.2487173080444336e-05 0.4755176034091578 0.15735246400559477 0.029591663771343552
1.2487173080444336e-05 0.08219869268084638 0.37973193193406873 0.031341075054074484
1.2487173080444338e-05 0.39185416363265957 0.1491725817472165 0.02783031885409404
1.2487173080444334e-05 0.2645638032879168 0.15794742774512752 0.028568659023257816
1.2487173080444336e-05 0.1368362227574699 0.16517860489457992 0.02829851272993907
1.2487173080444336e-05 0.03726795837962077 0.5935009811008121 0.13193208400945397
1.2487173080444334e-05 0.10288131741000361 0.2678486018446703 0.029788944416377233
1.2487173080444336e-05 0.27548006158198796 0.19646554883380712 0.031189252942693844
1.2487173080444336e-05 0.09648565156016349 0.6629593052993948 0.0
1.2487173080444336e-05 0.1695234162675252 0.3828902179884666 0.02752377216797704
1.2487173080444336e-05 0.3189591904848885 0.3564080488473987 0.02894524398550757
1.2487173080444336e-05 0.17213593302048605 0.14515554768344094 0.027327935240933524
1.2487173080444336e-05 0.13348583730182978 0.6183090108028884 -1.0998628637712304e-35
1.2487173080444336e-05 0.16157865895069012 0.4750251722787596 0.008915737204217325
1.2487173080444336e-05 0.18206683637038576 0.16483767364840235 0.026533631251793095
1.2487173080444336e-05 0.04587704397150856 0.7818599646225305 0.08948641211356353
1.2487173080444336e-05 0.13619482415986725 0.6072980993675794 -8.141430997030879e-36
1.2487173080444336e-05 0.1982000668424906 0.6031139440966338 -7.3753487965722335e-37
1.2487173080444336e-05 0.15423130579507743 0.3809390119054539 0.026851456855601342
1.2487173080444336e-05 0.5698079047836492 0.12951587779295495 0.08535877366122985
1.2487173080444336e-05 0.222396635805057 0.5255162814803916 0.0
1.2487173080444336e-05 0.04351837696752203 0.26744267403677874 0.03011158719061702
1.2487173080444336e-05 0.26987127338947464 0.39540126289964134 0.030508902675359714
1.2487173080444336e-05 0.041662325382598966 0.23705050314826392 0.028824144516730894
1.2487173080444338e-05 0.32265680228245325 0.22439218459995516 0.03083706979659233
1.2487173080444336e-05 0.061843299139221125 0.26715214164958506 0.029379945717083945
1.2487173080444336e-05 0.12178540017413213 0.3874724991679723 0.03326817972952093
1.2487173080444336e-05 0.1083852495278959 0.3600609172418121 0.03077405408569328
1.2487173080444336e-05 0.4562819035069165 0.24121472292115997 0.031155353783784402
1.2487173080444334e-05 0.025771464473857995 0.17105742255575 0.042244421891630794
