x y z curv
0.14438191351643648 0.5845268540263164 0.5550293868952517 2.757720088263684e-05
0.14913082086997875 0.5906159267791934 0.546420907933016 4.816050737058726e-05
0.14357759017126387 0.5923285089684058 0.5797203757608431 3.452210976770785e-05
0.14432583785602704 0.5792480785643948 0.5414356127395678 4.707326413729977e-05
0.13213210466271924 0.5681132632121239 0.5753758314721038 3.3589379231285975e-05
0.15470884673200064 0.5848131388655307 0.502234574806275 4.084896665054901e-05
0.13743133666459043 0.5742578416583258 0.5640597714080547 2.5169886921723756e-05
0.1504005768765709 0.5818315533229363 0.5167317273982405 3.304570739843188e-05
0.13991932177880245 0.5824406068262467 0.572681709051936 3.899756697806014e-05
0.1491168836003081 0.5974133347275654 0.564372112323371 3.001259498213212e-05
0.15003818282593243 0.5858281517092274 0.5291229186512857 2.5625135827345163e-05
0.15417515817820535 0.6032252795776173 0.5549688734680502 4.8576153510203454e-05
0.15775725426997966 0.5972213074518741 0.5198196911237773 3.0243894557961508e-05
0.15840670380998584 0.617794475835334 0.574557220278664 4.8107685246433576e-05
0.16495803014157562 0.6252151565761251 0.5621850698730969 3.7265734245299635e-05
0.15969389722712699 0.6143376551687908 0.5582610702337099 3.4032434120160185e-05
0.15887880826198658 0.6043810680397236 0.5343162636492449 3.755566953917134e-05
0.16069310549267013 0.610884014369804 0.543437999341422 4.498756356725254e-05
0.16360267034752182 0.5921793482179875 0.47587780342056774 3.3097701756025053e-05
0.16447132882385224 0.6085487468062646 0.5176415553222086 1.937253513850316e-05
0.16827719775746974 0.6037079305624594 0.4846361089471569 3.4823455990044404e-05
0.16428687114051915 0.6008930953197177 0.49698184473778595 2.9352572469034653e-05
0.1699335007140383 0.6240086545735946 0.5334862260678599 4.459716899113768e-05
0.1704201749122753 0.6187642139356742 0.5162168066101385 4.491033229957563e-05
0.17495582261987574 0.6130089666248882 0.4769214671491292 3.8850087782135885e-05
0.1658465309451535 0.6217460688753678 0.5478812536764023 4.7737190995802236e-05
0.16908020113506797 0.612159682139314 0.5043970410250611 5.481352920286145e-05
0.18012251243319966 0.6232787363377519 0.4796263742678276 3.711662229088931e-05
0.1722541340411078 0.6312749027156507 0.5421871235809295 3.274145195837677e-05
0.17552308442660722 0.6179790851659838 0.4880588090016825 4.944973006322942e-05
0.17724847211012612 0.6271205014167588 0.5050759883159468 4.04731408328517e-05
0.19380328565882637 0.6521445651379304 0.4977089160834679 5.238945146255123e-05
0.17840749293643346 0.6347927751439625 0.5220541464052225 3.602383915735126e-05
0.1871625246053885 0.6348768961048962 0.47875789916259925 3.653418120362813e-05
0.19171261156619868 0.6455140372456292 0.4881474494168402 3.1812058994629216e-05
0.17272301261777515 0.6365397500545804 0.5555892263404931 3.8795483863196957e-05
0.1784390953390365 0.6408415524250672 0.5401065594841838 3.864731712652849e-05
0.18649900712801987 0.6397264530544828 0.49665778783395254 3.579625260030524e-05
0.18547202374576302 0.643692712093161 0.5137065031305412 4.194849790010395e-05
0.18017424634057833 0.6498767641021919 0.5586758356453256 3.2216278234007914e-05
0.1877317652804461 0.6571896594773121 0.5430982983072713 4.5788811058900145e-05
0.17701476282129783 0.6534090390882729 0.5850257683865797 3.199875668477938e-05
0.1841130680187427 0.659482863904299 0.5680022604085886 4.168604219470422e-05
0.17789590388601495 0.651111010228345 0.5737245583333067 3.567028136210621e-05
0.19646772661936496 0.6639249421027591 0.5199200006806124 4.486766239380442e-05
0.187848670352758 0.6681057909905925 0.575379714103882 3.870135965804202e-05
0.1857281134509517 0.6504778807565371 0.5328591955199644 3.695990551211695e-05
0.19469468965614414 0.6572785980483076 0.5087307535470804 3.68086327580546e-05
0.2000641997280974 0.6605334076635136 0.4918200728787618 4.2223619526082276e-05
0.1938193406322914 0.6752131848326741 0.568566715048272 3.106228922978344e-05
0.19686943521463754 0.6686911869161822 0.5328992433248776 4.194276641526217e-05
0.20266614304979833 0.6750489278968059 0.5250818306288105 3.6767697685837416e-05
0.20292195736606405 0.6893838971721937 0.5696806888281518 1.0887082394346848e-05
0.20172876593890046 0.6795894696073198 0.5441536560557854 4.981996009243169e-05
0.19468457821608814 0.6713468374760622 0.5520011677485731 4.846491271371719e-05
0.2014612310687297 0.6664107622631252 0.5033092643000506 4.478986129309046e-05
0.20258675338339593 0.6713940431548647 0.5137795701346664 4.140327861783717e-05
0.21003700982169438 0.6816796665449636 0.5104933715984169 2.413482640172821e-05
0.20911853690145815 0.6950514369556369 0.5577143600054921 4.0179374765880603e-05
0.22121005256269985 0.6884879490170224 0.47800946108945364 3.704267537939976e-05
0.22005442668043795 0.6928697447348696 0.49763345599064457 3.859674205584389e-05
0.212973997543642 0.6824379751575185 0.4986564520457222 3.89987956699054e-05
0.20559710903056475 0.6658655101661842 0.4814820137165159 3.921621739389006e-05
0.20985337952973676 0.6890173687881413 0.5348499485312015 4.2681178163659234e-05
0.21266102049041496 0.6757991015280561 0.47894612715723867 3.065461508396577e-05
0.21487080442855094 0.693709836200251 0.5254913744125458 4.98112921810441e-05
0.21994391642251795 0.6981710629445969 0.5151229131758817 4.2928704639909036e-05
0.21753841069697183 0.7012348303070532 0.5366014091467549 5.2374117655071575e-05
0.20934549561822619 0.6916311558279915 0.5456747103172634 2.936120297405977e-05
0.21673884526275827 0.7046634929300217 0.5518712575439397 5.2479065032139555e-05
0.22706937636913965 0.7080842461240942 0.5145885632378608 3.858229964475524e-05
0.25029049230831085 0.7294323981613392 0.47698781059019846 3.585411672929778e-05
0.2359640919745324 0.710621959318029 0.48110892682721695 2.2853725356448218e-05
0.22701204808867986 0.7006678554192931 0.4897723867791004 3.646412004777282e-05
0.23358242952042044 0.7110602046716088 0.4938544676242299 2.8531666372556593e-05
0.21621940906097298 0.70908286181418 0.569277035179931 2.885424861299221e-05
0.23114461649860885 0.7180237248444377 0.5289384754277807 4.977155906119026e-05
0.22346117726426107 0.7103135474688866 0.5391930782209051 3.909314656292547e-05
0.23055155510811257 0.701916508372992 0.4772575342545015 3.544702670992243e-05
0.23670174706326585 0.7285264642360545 0.538185777061081 4.038318935685855e-05
0.2306260852411362 0.7264721191025201 0.5599689452702266 3.8692150477478434e-05
0.237329003624756 0.7331729517981713 0.550937042677895 4.4026446419369477e-05
0.23835455982039389 0.7263858864444268 0.5231285611229037 4.6234556590228454e-05
0.23244334910768874 0.7321882117513234 0.5707106950694816 3.317995821429808e-05
0.23800943883414638 0.7225364712363488 0.5117392974047381 4.114397398479628e-05
0.21255832247329295 0.7081417783600187 0.583407264062192 4.111405174787948e-05
0.24554172165608643 0.7295073616201899 0.49969877318433487 4.0685050903013664e-05
0.22486230989204864 0.7230221825562319 0.5755563215596193 2.900481432407598e-05
0.2436348879104514 0.7357607827003072 0.5299687626082217 5.103890409782688e-05
0.26843511192524094 0.753546712424106 0.47944103719709785 3.374113129310498e-05
0.2527240568265591 0.7450017310758625 0.5211547089258994 4.033294377309592e-05
0.24921881982873684 0.7373215347276437 0.509881113785014 4.7420134900583885e-05
0.252481592454744 0.7355527796254843 0.48858833610220054 3.5979714044858427e-05
0.24883490774283412 0.7443061197281224 0.5365407900253801 3.077174152767743e-05
0.26427452845350313 0.7520704698034815 0.49329149367732517 2.011754369093101e-05
0.25576936332520206 0.744043203466717 0.5037489068007865 2.4102298715175395e-05
0.24158004326370341 0.7414646949638789 0.5597393085686699 2.0816710478658807e-05
0.2671421334937808 0.7588447644045964 0.504265110243608 4.4789920260230135e-05
0.244612809556397 0.7486242952130735 0.5713275414715957 2.3066660563478776e-05
0.25197344026990226 0.7536298057719921 0.5553568674051963 3.663810215570067e-05
0.25685352923669724 0.7564436645805465 0.5429690655687833 4.75055489260475e-05
0.2587404614332462 0.7627252946304516 0.5566913320391357 4.8501114811812633e-05
0.2565702194921785 0.7525606569097593 0.5304299269028486 4.081231249045856e-05
0.26283232181834065 0.7737138658603682 0.5770622857363478 4.030223682819974e-05
0.26191047465696254 0.755403665025651 0.5160321744360721 4.8931115360486215e-05
0.2667288932312346 0.7649391817507113 0.5278863030368767 3.818431862592404e-05
0.26579314252510355 0.7722114996898238 0.5581062365907342 4.870724718163189e-05
0.2451328492052595 0.7527069989935193 0.5834910174207051 2.318567304594858e-05
0.2589260841095319 0.7660707254974871 0.5677630770224853 4.3189454702914565e-05
0.2710385428494408 0.7834789183983218 0.5769239517023882 3.3132550564544164e-05
0.2734714833365697 0.7747610261539153 0.5334709416503681 4.626202556372087e-05
0.28089461939438637 0.7912846185556747 0.5622798472480596 3.146114264856175e-05
0.27165272945041546 0.7681560868640843 0.5168447581382606 4.641115584167975e-05
0.287784304785745 0.8004183227193679 0.5658055778021727 3.563606617783102e-05
0.2779557318641991 0.7688296092789595 0.4913185755448673 3.092597631854923e-05
0.27029735710899516 0.773888223973749 0.5443285576551236 5.032215097851367e-05
0.2821804235674769 0.7960298762263306 0.5743176097032803 3.5737821852141775e-05
0.27985058592795575 0.7833700682292216 0.5373050789151986 4.226444640845936e-05
0.27326494571157955 0.7821270968531389 0.5619577507868933 4.670435078917874e-05
0.2785088852732294 0.7851037153357882 0.5497635601952926 3.6417951281852865e-05
0.28734912771653925 0.7903630307726853 0.53010966194439 3.3511773988663605e-05
0.29553920902924635 0.7964698254535582 0.5165204116889524 4.358047321825926e-05
0.2836364131195347 0.7795456157763381 0.5061458398963048 2.487860425404854e-05
0.2910995235515033 0.782504315201694 0.4840095786027 4.541543364471222e-05
0.29273444273906246 0.7870772949622487 0.4938490967235436 5.320879735286362e-05
0.2938277334597096 0.7914750313845076 0.5054428954791159 4.35181657303552e-05
0.28275498994577775 0.7719955864995941 0.4818116804570719 3.124259186984497e-05
0.3023998338644447 0.797497844518336 0.48983943341010394 4.416995733746024e-05
0.29087627221138385 0.797414482412242 0.5408049514026239 4.503700061774865e-05
0.2834680316104504 0.7832080843367148 0.5206020513464719 2.612051670839353e-05
0.3109342382843569 0.8123538126061268 0.5112803029357132 2.183268683938589e-05
0.29643419628939904 0.8066468952652947 0.5512435719007136 4.479327582690403e-05
0.31897675302903145 0.8138378144274039 0.4825294532128443 5.368533531750101e-05
0.3003393375549199 0.8064275131957606 0.5336019200969758 4.1551900203278235e-05
0.3183697244783332 0.8204920536512507 0.5111993808352274 4.7602434084179635e-05
0.30578290375432826 0.8145126050709076 0.5418731681070562 3.1403157554425314e-05
0.3102355220989188 0.8167270784901071 0.5314108700235967 3.8014751310069854e-05
0.31850456867738697 0.8177677909666761 0.4999503592251791 4.4804608058839364e-05
0.30255404384940365 0.8019547064436754 0.5065664961798012 3.083735549503705e-05
0.3114546229928119 0.807331897327748 0.48937569646366413 2.76565970567587e-05
0.29310553815989226 0.8084822737823993 0.572736793109776 4.5326949132639046e-05
0.3333828571227185 0.8278843197030762 0.47563172900770356 3.621080942755225e-05
0.32720040072742335 0.8234239573045485 0.48473206773753647 4.7577631497551336e-05
0.29698110055922466 0.8155357059649799 0.5837060794911199 4.1801639857692074e-05
0.3122130045087077 0.8314677822940244 0.5806442130989053 3.20854603019666e-05
0.3179825498652116 0.8261336409792652 0.5349584191700241 3.778471103652757e-05
0.3225086230320599 0.8369271873824322 0.5577801813071621 4.974408728560234e-05
0.3077400540355983 0.8241447651378128 0.5711864001542544 4.707268308117488e-05
0.3255603995890291 0.8336969270421559 0.5320138622678123 5.580303134377885e-05
0.31812632773417704 0.8351129916666763 0.5695079437104846 3.7410072513772835e-05
0.29886768118615775 0.8126954495302301 0.5644746582867877 4.862699470127892e-05
0.31195605477864835 0.823237670536207 0.5495154237235185 3.432161904087286e-05
0.32994853576937994 0.8336514522129681 0.513350777627853 4.6834229127175294e-05
0.3537006337831041 0.8505208348529099 0.48401076511490726 4.194280870919894e-05
0.34119534236056703 0.8442285476509187 0.5100371378444027 3.731311527039662e-05
0.3431925072218157 0.8431059666904882 0.49718831951933073 3.608983099599933e-05
0.3469145424244976 0.8417870033434613 0.47640132188746154 4.787295676647471e-05
0.3314783644363454 0.830404716741224 0.4937567229095151 4.547986642179206e-05
0.32768028127630533 0.8394855934578856 0.5465710272012064 4.9184587715056264e-05
0.32644727451974415 0.843614903444747 0.5685430407370291 3.023387925839154e-05
0.33460514316571427 0.8423932707827668 0.5298025719171189 4.8363839100919035e-05
0.3389599323986597 0.8533438238651065 0.5565270625855041 2.1490341696408753e-05
0.34699512601132954 0.8638867422726867 0.566360113076324 4.4156839056209524e-05
0.36150397294027303 0.8603563507795596 0.49191290330913595 4.245350952643385e-05
0.3490702222474266 0.8534046392379608 0.5149491609940202 3.917398004572326e-05
0.3512147870774098 0.8614267526681512 0.5388526631161255 4.2797623357977734e-05
0.3345013493535915 0.8534974535408184 0.5755999439898917 3.2634758989817596e-05
0.34779570832926837 0.8556690846876135 0.5294735811876439 3.3550118235487816e-05
0.3574085474693709 0.8628597448590167 0.5190837250594647 4.657784545627709e-05
0.3369909435281303 0.8482315711807946 0.5437858883429447 3.87165790231017e-05
0.3544715052924424 0.8555083125859768 0.5011988816993409 3.981461417465563e-05
0.34841257616554794 0.8695479991059364 0.5836260502184265 4.52580513674777e-05
0.34450779011226773 0.8566823016746941 0.5472153875453497 3.585638658447023e-05
0.35284838573243077 0.8658530583245707 0.5501788071241662 5.710859872528714e-05
0.3715349862987138 0.8858983168803283 0.5604133187662742 2.4834760368296124e-05
0.3714282626724192 0.889072260575158 0.5743247182062926 2.3551272136130927e-05
0.3703735529098868 0.8734286763882673 0.512031947089667 3.5689819479716354e-05
0.3706196966614095 0.882464208603984 0.5494521777334513 3.7384452667813586e-05
0.3550510701341909 0.8737430240188999 0.5741748213731371 3.6917202082123556e-05
0.36415546502836355 0.8712378975469713 0.5273984831583018 4.503253933363259e-05
0.35685200188861316 0.872363291249121 0.5611645926727826 4.4533475920238855e-05
0.3687555318222564 0.8782411985972629 0.538904146905191 3.5726075579434045e-05
0.3603450324658951 0.8705286348483929 0.5395060702230733 5.143003769059883e-05
0.36480941357953345 0.8659669053353529 0.502403893825873 4.532792285666871e-05
0.3640475283291835 0.8805153926506448 0.5672521126993195 3.2351385149746544e-05
0.3805176191363929 0.8982719636006365 0.5773484505694412 3.907766814537534e-05
0.3854695728179246 0.8987106210820206 0.5595607301902608 3.633113164928224e-05
0.3737712375798544 0.8788595822635651 0.5216272404281386 3.530308624171304e-05
0.36773957249136646 0.864240547116607 0.4834393146573177 4.150149683059092e-05
0.383795906364514 0.8875525847713921 0.5187858273426033 4.532697602166633e-05
0.38123395648254194 0.8887002494575247 0.5338300158378995 3.568735454031635e-05
0.37654521875447555 0.8718047576848069 0.4806387166818211 2.218458988122675e-05
0.37951231663248686 0.8903290834207048 0.5475841933862229 4.7112822696656756e-05
0.3763865669822134 0.875275065781415 0.49601564330621384 3.2857698152510366e-05
0.3839407560111007 0.8832553993676845 0.49994980166787917 3.706701257465634e-05
0.3912639969921203 0.8930463397445526 0.5124947781299609 4.381971466138801e-05
0.3931607947513329 0.8903348692729113 0.49344474637585256 4.148129923083441e-05
0.3915220935805447 0.8995559703835353 0.5399637203086991 4.390761015577655e-05
0.39517649325641174 0.9082270695565592 0.5643246637705265 3.7486370591166004e-05
0.39903616677525344 0.8979359455446382 0.5043284139753101 4.809714085230629e-05
0.4010232608105537 0.9080022284572513 0.5411615763926868 2.0012739938975303e-05
0.4080790858763789 0.9162089282472543 0.5505767525117117 4.819884608817546e-05
0.4036339078268328 0.9168007671621977 0.5700423390325197 2.932243594367123e-05
0.3970562089689764 0.9015486880834915 0.5277604828893562 4.8173726315502785e-05
0.4095795858280811 0.9248131695487959 0.5828110123728479 4.8245705313314294e-05
0.40656314781520175 0.908262377367899 0.5212999055307608 4.076637260793579e-05
0.4176240197025696 0.9237966887806935 0.5478246980799685 5.70596628445291e-05
0.4065944540815213 0.8993752855128692 0.48201005147304793 1.711694962119857e-05
0.4151345525455677 0.9186429411723601 0.5345493449370723 4.912967107288797e-05
0.4234602162303659 0.9200459543745826 0.5091608361533545 5.603195652111427e-05
0.42024065576286407 0.9145826730878542 0.4972898207305261 4.42038820512336e-05
0.427652455881602 0.9164874938876298 0.4775786445237321 4.2566062713216055e-05
0.4075894083304501 0.9063792772862068 0.5091080972974924 3.9574240915559574e-05
0.4103528185077327 0.9060264537140936 0.4970736027141165 4.9002983373917055e-05
0.4217013510200678 0.921951453494823 0.5242295469135346 6.266293791884237e-05
0.4146783579728074 0.9074654923442022 0.48701310867794767 3.968036149550374e-05
0.4235032104602564 0.9264960892103894 0.5375850679894582 4.622629636187452e-05
0.41939103705207526 0.932225619414315 0.5785463483554062 5.019386126551557e-05
0.4400855511948276 0.9356556653869001 0.5195109071171671 1.2148897185985796e-05
0.4408493360090605 0.9292039928901928 0.487339475999335 3.756333655966285e-05
0.42089237261243784 0.92944149926204 0.5604351631497451 5.14535992504198e-05
0.4283761212604168 0.9196314603464435 0.48870343493518364 4.3424553449645084e-05
0.4336254869694537 0.9326838415289851 0.5292718742589293 3.8355070339976866e-05
0.42985850582642104 0.9272734232506229 0.5181967182399653 4.968310312908044e-05
0.4496950958860423 0.9385299926463359 0.49794081729513406 4.6013677581740866e-05
0.43817801180433014 0.9313548719178493 0.5067852912340027 4.145758163542387e-05
0.4307810304601409 0.9342262870622398 0.5465683642247148 4.205065207267492e-05
0.44410509049614344 0.943996097355486 0.5430336017498691 3.9356575682627796e-05
0.4633665259738771 0.945742489973386 0.48149299218387165 4.6021288412027366e-05
0.4495024173042617 0.94143402608448 0.5118765601112562 3.5972452934285876e-05
0.4385999782299086 0.9451569814260967 0.5681911054461453 3.1641280586519145e-05
0.45491066168938943 0.9548757107673533 0.5536464855149541 5.340131493493981e-05
0.4600441232841169 0.9494145954727824 0.5102238847332532 5.1759721238739945e-05
0.4513923869424873 0.9571149749749936 0.5765513705396451 5.273108667854399e-05
0.4479058603465252 0.9515221731674124 0.5636327428010286 2.6780494082932832e-05
0.4281836306450166 0.9383640798286599 0.5748064036804783 4.0653749400587354e-05
0.4434072225327448 0.9522160492412971 0.5830292406383485 3.018958495171675e-05
0.43357353884877115 0.9390492969371871 0.5584815820269132 4.946764387472812e-05
0.4553302437207739 0.9504129634204259 0.5317853392631576 5.520521788027792e-05
0.4456592857062955 0.942097239348048 0.5287679268019739 4.742547526796601e-05
0.44279323334958187 0.9457369252814688 0.5557043128892418 2.5625267322387553e-05
0.4631776174155879 0.9484258605504026 0.4945557534749028 4.7768083845416084e-05
0.46836804051483577 0.9613413343848697 0.5375740595245009 3.6966703009982345e-05
0.47753598631735916 0.9563006140163516 0.48253055542325934 2.660261181018341e-05
0.4649916222971706 0.9628070651840201 0.5560078896318836 4.76438379936271e-05
0.4739163099587179 0.9624439661710953 0.5237999765398506 4.0111161491622046e-05
0.4573067320960814 0.9593943721718456 0.5662169165566358 5.594921041481732e-05
0.4733600419700392 0.9592666255728843 0.5107542966708898 3.6356696161445496e-05
0.48926044604747504 0.9640551036010742 0.47894091869480815 3.2538553069985804e-05
0.4732240462088651 0.9561260430041782 0.49644526525989763 3.582004587221767e-05
0.4818111337233508 0.9775524539423025 0.5678924478890324 3.478657713519472e-05
0.4905664024105312 0.9696176275213826 0.5006448411446343 4.6334619929207565e-05
0.48248321447370024 0.9744824071608098 0.5511536244050375 3.255842923949948e-05
0.4865342892237805 0.9743589884059397 0.536728613924029 5.9042506553622e-05
0.4664830102697953 0.9700339444405052 0.5849075457894116 3.638468124455143e-05
0.4650670136321311 0.9666142239260943 0.5736597420613454 3.8268824637429055e-05
0.48516684643944313 0.9700047247012662 0.5209186332390177 4.9716513697544405e-05
0.5078748682264971 0.9868209141872856 0.5258861964038632 3.472106467639335e-05
0.507561273791124 0.9987365989296 0.5845873348290371 1.8447290464999416e-05
0.4970808355454044 0.980413937349414 0.5296202765915528 5.5900842552872594e-05
0.509664924208859 0.9966228174544434 0.5675798908876647 4.674789973362077e-05
0.5116205027718279 0.9956776320952601 0.5567071245125413 5.096712414171424e-05
0.5004888787532145 0.9748184058965695 0.4915556088848793 4.224358122979118e-05
0.5240300882093095 1.0085905854977149 0.5792709148804458 4.3498121934894354e-05
0.5220729288789416 1.0044448281366642 0.5655002678674586 3.641207302833126e-05
0.4989938314774778 0.9885329478446016 0.5627701741889315 1.7226286370817614e-05
0.5077384147395078 0.9894428673536009 0.53902009456713 4.49203187513286e-05
0.4993220786832747 0.9776020858052286 0.5087900124434943 6.0921318634661545e-05
0.5000770750155931 0.9925519261524687 0.5787408141234934 2.728834846529187e-05
0.499885151876165 0.9863907183695104 0.549528423846125 2.1231049058941172e-05
0.515047989908795 0.9886353510622027 0.5115751751463509 4.645937028653999e-05
0.5267145423815708 0.9929147876631725 0.49473088134493987 3.667839869222803e-05
0.529238261082316 1.0039132857209867 0.5398558910518676 5.1975232680850474e-05
0.5301783933480164 1.002063047021656 0.5278706623325479 4.37019157057748e-05
0.5182003920895302 0.9968099839223672 0.5410037989742685 5.745905372146991e-05
0.5040807094881721 0.9750576708851602 0.4811491472713521 5.3552750489796785e-05
0.5212033733608721 0.9873809758005063 0.4856829081495658 2.953899355806759e-05
0.5237428405106184 0.9960375385842928 0.5194183869593406 3.292040450811114e-05
0.5126470186730012 0.9840533808528877 0.49712150849419995 3.72266362591897e-05
0.531342216774404 0.9981449104295725 0.505153163749394 3.919989045345272e-05
0.5403805310282321 1.0088304066086895 0.5298115683451232 6.576551682140112e-05
0.5307188363830785 1.0109421305677864 0.5694469874978085 5.8718286501813284e-05
0.5468240610724879 1.004596396790544 0.4893308575624976 4.061578365506344e-05
0.5465593594032977 1.009530070998925 0.5146559135490694 4.8267820961293186e-05
0.5324965726967006 1.0092310259094877 0.5555793361105413 5.0664444469287765e-05
0.5561136816134195 1.013630957536468 0.5062290591362975 4.458254237312842e-05
0.5386091133132542 1.0100005707816169 0.5409709865290063 4.798296233532421e-05
0.5610275870124439 1.0117990251086941 0.4823027863547753 2.4273551979977167e-05
0.5684379912216023 1.017748820633102 0.48953296814259095 3.794846186804172e-05
0.5447743330796995 1.0060919119627019 0.5029470118907147 4.80332149503127e-05
0.5375869967579007 0.997724809621935 0.4830269507130817 3.6284227981826926e-05
0.5682083944320618 1.025237030742353 0.5274515426225638 4.4574730529331544e-05
0.5570501345609477 1.0194614845807268 0.5323902475441363 3.823200357430235e-05
0.5654316264472645 1.0296729408317855 0.5578778813790986 4.445606860048732e-05
0.5566822174151355 1.0234359146408831 0.5532578987137406 3.64524516938387e-05
0.5657311844783747 1.0347125045659034 0.5820276867471014 4.164480092934563e-05
0.5486773519404693 1.0172495157401236 0.5466442306302475 4.305772268106011e-05
0.5665773030504988 1.0214617950568496 0.5136026889130111 3.570924318348648e-05
0.5421087077615244 1.0187671503679632 0.5739983463934178 3.77278532811792e-05
0.5590509100933878 1.0276615028008576 0.5671211585594512 4.5723581734624335e-05
0.5448937727832648 1.017266187490614 0.5581374998950946 5.2189786305013984e-05
0.5882632487793817 1.0363776237785247 0.5267606971610668 2.5992355963350472e-05
0.5891732101737972 1.0269961916135957 0.47643044717344446 3.0017880577126452e-05
0.6065745510825945 1.03856185720384 0.4865049944799393 5.192941450340467e-05
0.5776271047668242 1.0359050325372308 0.5541977093466632 5.327541749792474e-05
0.5795281062812241 1.0243867523748447 0.4902043479288815 4.5279629123977975e-05
0.576841053689751 1.0328988278029096 0.5410935196423758 4.645326684036833e-05
0.5884395334110334 1.0301326586607071 0.49446220642843836 3.907838107000655e-05
0.5793939060288538 1.0274417565818266 0.5061391781968917 3.925995564674079e-05
0.5943552178603444 1.037940311642723 0.5176256694337286 3.1749499933597006e-05
0.5731138450510043 1.0368900488726922 0.5718778048504952 4.9435629451676e-05
0.59746820253355 1.0328034134381239 0.4827302130125338 2.420146576752219e-05
0.587737317772161 1.0399571324613188 0.5464658003495969 3.4901732728274414e-05
0.593282809020349 1.0463151331144793 0.5632851753188187 4.331377714291032e-05
0.5939342554736085 1.0414307458964511 0.5365825934407793 3.834507304424895e-05
0.5909896048693923 1.0478431916188455 0.5775015720705601 4.223981227512796e-05
0.6037794746162434 1.041676373287199 0.5102089814446417 4.2052764354826696e-05
0.6036954060604894 1.0477897232920628 0.5415783023592591 2.7350724029309144e-05
0.5838687479323824 1.0416665171539958 0.5660259256470002 2.467904400909444e-05
0.6017547644034922 1.0532213683932206 0.5746852312918206 4.383373422510841e-05
0.6026593077293627 1.044846458959313 0.5294963202711183 4.07171811538763e-05
0.6079866686115577 1.0419368680607501 0.49973071464203705 4.5146732462700916e-05
0.6138968041289654 1.048461292275371 0.5166049163593123 4.862926182380877e-05
0.6281625170548732 1.0492625506367437 0.48381851745965215 3.368922538472184e-05
0.6113115025123156 1.0550036952438355 0.55735894015296 4.900868905984487e-05
0.6201919642282934 1.049338693717222 0.5048637224529602 4.383271222891216e-05
0.6163699612421399 1.054578119334839 0.5420389559129263 4.864686425659192e-05
0.6530701912133212 1.0615056978215136 0.4830232908131251 4.249637105040477e-05
0.6415301227779205 1.0545362687336537 0.4766401513158419 5.308653031384075e-05
0.6257970856483146 1.0563404285733429 0.5267903477863665 4.818699879357706e-05
0.6167409992901512 1.043083365552027 0.48124186557701665 3.540408595903837e-05
0.6308958739354597 1.0545039935418572 0.5040216664144352 2.622660185355781e-05
0.6368925905830465 1.0594206635050587 0.5140800176664106 2.169783127561978e-05
0.6365781940097273 1.0553784707191483 0.4938528988985875 3.970621403704758e-05
0.6441437165435204 1.0706681643251474 0.5538437304117142 5.032030838972038e-05
0.6116326054603397 1.059040020207611 0.5775381398626669 3.805846249761843e-05
0.6220366673650397 1.0649323661525463 0.5812575093487177 4.329430418958576e-05
0.6217219934560012 1.0604386461352124 0.5586806925029792 3.0461931172738155e-05
0.6462567948965764 1.0656572223852225 0.5222850840621946 5.853381544976672e-05
0.6257652543267864 1.0598896302649687 0.5453481568007212 3.6827660759840714e-05
0.6333899368175289 1.067461779730946 0.56501210487254 4.273759459859048e-05
0.6420289479498495 1.0674253555624382 0.5424419215476338 4.661368910105349e-05
0.6456584425346853 1.062013889965677 0.5048698622017876 3.407526813731443e-05
0.6577935891221943 1.078596488207902 0.5616897171327114 3.0218700551250458e-05
0.6716136697078576 1.0810263450627489 0.5418288503176668 1.7477971681160726e-05
0.6797270510660259 1.0915285281450235 0.5783548068067802 4.4580191184480685e-05
0.6814527568889072 1.0890562471430276 0.5611377299612199 3.282201534367384e-05
0.6682545910304069 1.0826192134756336 0.5582489020103504 4.370909742172917e-05
0.6587348054498106 1.0694057804837716 0.510662057614852 4.943383072092803e-05
0.6672692091638099 1.0869615096612373 0.5836394851177988 2.211758051891885e-05
0.6521249370575338 1.073098498308445 0.5459371772031941 5.772130923383485e-05
0.6498245270566607 1.0768378903008182 0.5712441419781736 4.871364467575005e-05
0.6594470860899508 1.0727439603459903 0.5266970011632943 5.08373347584725e-05
0.670276105251804 1.0781394682629584 0.5296723118899546 1.971290690839397e-05
0.6598176653161382 1.066877732861252 0.49467282265379847 4.2625506292378484e-05
0.6733033288070013 1.0871080952657493 0.5701133259102008 3.376721335598724e-05
0.6819249794982647 1.0866975653552582 0.5474953172818576 4.3995601496575226e-05
0.6873388661604338 1.0795936957933518 0.49694474137663475 2.9491990056207952e-05
0.6896208795726708 1.0833541354536678 0.5115003759789744 4.0608162257696606e-05
0.6749603622580485 1.0756134794376462 0.5051566781915225 2.168633861605372e-05
0.6763577688297224 1.0713524981944207 0.4792211970260245 3.689396830740808e-05
0.6684604890613233 1.0693543716535832 0.48733359211629773 4.0048184489231285e-05
0.6819222921082354 1.0826559375386373 0.5260434694662655 6.0988479892597055e-05
0.6920105368015559 1.091215765751206 0.5475752888378334 5.451049579201913e-05
0.6863498210571743 1.076933767291393 0.48516698053787055 4.8927614319823534e-05
0.7253761363062587 1.1078835946579781 0.565665349347693 2.7170375784244423e-05
0.7030218367164016 1.0986114421174784 0.5635380309697586 4.3506832944819875e-05
0.6998262565222493 1.0892675816391149 0.5199035642754875 4.375860581809005e-05
0.7006329310473389 1.0864870209987996 0.503146436177241 4.895898895924796e-05
0.7158981498820562 1.099033057011271 0.5381804310122276 4.345621600930392e-05
0.7160022362975338 1.105884373060694 0.5749806660594331 2.984798204356299e-05
0.7122544191396348 1.100534785794903 0.5541159844107071 3.103044929156668e-05
0.6963125093501641 1.0905429343652457 0.5343368316289919 4.5174194853833885e-05
0.7100307093680773 1.0945294131836143 0.5264363879191688 3.3978431462595014e-05
0.6938374609215618 1.0967039339061595 0.5729421862575305 4.602027881870507e-05
0.7060107427171223 1.0868804807723063 0.49373041398577794 3.655769440550648e-05
0.73846860587177 1.0974850147346955 0.4813722453194742 3.7645744027745e-05
0.7309820284830446 1.09810681964615 0.5008007895846975 3.6705814901870445e-05
0.7207204488419554 1.0967615670740432 0.5155555129847489 1.2722617411838833e-05
0.7242585668989965 1.1048587473011948 0.5517180382826246 2.8343791276742117e-05
0.7158841396408723 1.093039748615855 0.5058233027592136 2.6807257273514364e-05
0.7295532930507299 1.1051513456577564 0.5419351884481479 4.1797295613517585e-05
0.7133068472543249 1.087966626325011 0.4839402740930333 2.20260582906778e-05
0.7275099052781107 1.0943524900564185 0.4879649525398039 3.0356371476721896e-05
0.7234050099439744 1.0998510075032435 0.5264886925374854 1.8855582701466646e-05
0.7336367197676911 1.1017579105902855 0.5148331819083112 4.644438302587532e-05
0.7022178747670808 1.0828280546281492 0.4799721043511961 4.671495896089114e-05
0.722974270170033 1.0907915435566304 0.47845674430803986 3.7445478521211525e-05
0.7644534931895355 1.1226724790571432 0.5693873191771288 3.290995452262367e-05
0.7658310917754826 1.1252233844894812 0.5807464663088708 3.2802630441810595e-05
0.755889707014028 1.1181547808448666 0.5610179409369924 4.150887488347381e-05
0.763247544686791 1.1187034875568216 0.5499150704564698 4.567231761476844e-05
0.7446687771789091 1.1133993137354943 0.556440714968859 3.617657362569631e-05
0.7453344129457988 1.1043005146973714 0.5052208431322893 3.338507239497671e-05
0.7468822508213562 1.1162148404655445 0.5676488810973799 2.4941238531299083e-05
0.7524874727987666 1.1145329513311155 0.5476644343752679 3.155691306136376e-05
0.7433017395786287 1.1175997455612645 0.5821191465799326 2.7837144490871038e-05
0.7428952260419175 1.106061299055063 0.5195648683758172 4.054005411629119e-05
0.7426678003590639 1.1099645255236381 0.5414258083819422 4.345042615955401e-05
0.7554023349777638 1.104497806152271 0.4869903184229686 3.298241015643963e-05
0.7607582246032507 1.1141072585236855 0.5294618713815246 2.6444510734932007e-05
0.7755383948519559 1.1123530640361032 0.4914801994451286 5.735696602376027e-05
0.7688341605475949 1.1140897283068059 0.5138734814146664 4.1641476182081874e-05
0.7769644315112368 1.118766695507536 0.5239487305188739 5.442268990781582e-05
0.7826603307719016 1.1126107251397206 0.47923239140878293 4.050224101340145e-05
0.7743583939713156 1.1142073924159719 0.5039221289954763 5.725994177198457e-05
0.7708021815010624 1.108228351367833 0.477925386369885 3.0093348967366524e-05
0.7744984205845179 1.122373797689703 0.5484785201146584 5.8232484252415566e-05
0.7684784392838566 1.1183827217747924 0.5381199006322911 3.8790004859123845e-05
0.7599066870649087 1.1093234177643134 0.5048371144202104 2.5905953013432998e-05
0.790499433181161 1.1238304335774774 0.5283890548119855 3.435761780906596e-05
0.7793596164798107 1.1271745836254832 0.5657929731163758 5.3303063694513925e-05
0.780458319448281 1.1223287405394466 0.5369753786332583 4.1529632551059466e-05
0.7887681916930277 1.126001695904533 0.5433917261584277 5.151427788852129e-05
0.7928092718604505 1.129161424888139 0.5541549870243525 4.468458058064646e-05
0.7983734056141973 1.1276266514107065 0.5362267595568719 4.7387867430054894e-05
0.7864204580662261 1.1177430657991416 0.5013994451015458 4.689396677147669e-05
0.7943917137183805 1.131562279993468 0.564844059377566 3.164684287407804e-05
0.8057445414724822 1.1348994368003462 0.5642575902178972 2.3551713440272536e-05
0.8131911604364607 1.1401701995054543 0.5810211856014672 3.611469109774044e-05
0.7831464210181477 1.1309433079056501 0.580373907453199 3.830036426946166e-05
0.7962170411114194 1.1351676772416306 0.5818257601948411 4.141693690801208e-05
0.8083393747748348 1.1322473454108768 0.5451223123855515 2.1211022341485142e-05
0.8228507362325759 1.1276952091190218 0.4953080236351618 5.227849094886179e-05
0.8091908749054443 1.1251595564795036 0.5042469347831352 4.091390016307057e-05
0.8152292003563666 1.1363434047676793 0.5562889624468915 4.2920624386871046e-05
0.7975467964322348 1.1226717272506863 0.5100507516081623 2.107442435771549e-05
0.7906430682802139 1.1164874421613382 0.4872880237976718 4.303122274004483e-05
0.8095779483198932 1.1303572455488622 0.532515385211174 3.745116339319356e-05
0.8195427508944743 1.135695480254312 0.5454055238281561 4.917948242186555e-05
0.809123074443457 1.1230091123129966 0.4923955954413326 4.928639423365628e-05
0.7998476779851222 1.125330455668232 0.5209624996011226 4.5247178151300185e-05
0.8217840615403941 1.130201846373734 0.5110555137700469 5.14645782866111e-05
0.8167291228538955 1.1310448970466125 0.5242756273560504 5.1534785815488206e-05
0.8270224638922217 1.1256561414132846 0.4771287442263494 4.38796133457368e-05
0.8300718952331361 1.1343019893437631 0.521369827867682 4.4623389027055784e-05
0.8434551926816082 1.1303138225435116 0.4794600508116733 3.64974430451056e-05
0.8374417088433779 1.1344625289160688 0.5115591109438118 4.584326699656797e-05
0.8445630862623382 1.1344543017429733 0.5011594558695132 4.852096377596958e-05
0.8346936618905996 1.1377263880565658 0.5339292306244796 4.867229569939055e-05
0.8293641339286326 1.1391855745594297 0.5498924475961477 4.659676027543987e-05
0.8333994476028116 1.1296579954988524 0.4903873066750555 2.9683792597893578e-05
0.8599182849566964 1.135740145944383 0.48607452240885884 3.921037058604169e-05
0.8426403096081639 1.1379733261714924 0.5237662968947518 1.856293706425891e-05
0.834393106873055 1.1422996186772716 0.560112588562457 3.0233485990369486e-05
0.8474385671586404 1.1475069385736216 0.5704626953648833 2.442311836250374e-05
0.8343701511621331 1.1445740267360387 0.5729504102348575 2.8465426935659636e-05
0.8587735742082526 1.1514844325569427 0.5763758637856717 4.2339913440381164e-05
0.868500095042102 1.1409450597038622 0.5029005532986986 5.039026008247431e-05
0.8495313570893848 1.1423254044836408 0.5382491439811671 2.77068695336853e-05
0.8533930783853326 1.1413917810403384 0.5273787068840032 6.0758872184926085e-05
0.8567545324787901 1.1383555453336767 0.505398306046888 4.739418812715008e-05
0.860977636672507 1.1458620427092496 0.5415186129169705 5.05319603064766e-05
0.8460917115562678 1.1446110492571435 0.556117550803705 2.7508496954074396e-05
0.8316476335518652 1.1458715420543295 0.5842132620802694 3.4240940909458715e-05
0.8568863223955385 1.1467367509047486 0.5523911610924146 6.624965575564703e-05
0.9076635684997132 1.1631706016109327 0.581456296286758 4.1401456163895996e-05
0.8691506962225191 1.1495562120546932 0.5509840535881987 5.2117237796089016e-05
0.8901767235018614 1.1560355640007458 0.562199914930017 2.1210542032662276e-05
0.8803211006647379 1.1576742629362629 0.5835261914867195 2.3668477159355154e-05
0.8937658335231493 1.1544209238563947 0.548646560914112 5.46723565409205e-05
0.8717814601403479 1.1460927767905984 0.5280874532506686 6.063379581753839e-05
0.8818835845141066 1.151643447301576 0.5473348960781479 3.992250731355712e-05
0.8802767695222418 1.1446987665562336 0.5098099455938321 5.0555808993930344e-05
0.8688196850384386 1.1429956345681997 0.5140882182411115 5.397949010082298e-05
0.8700672562109861 1.1519730629865337 0.5636078162478326 4.930590271377883e-05
0.8927268009121251 1.1592806420871693 0.5775418969420789 3.578467325200507e-05
0.8890020149071551 1.1505915125698003 0.5326800217258096 5.070160281554471e-05
0.8896982355909793 1.1454948583219626 0.5028553330176191 3.415524329678589e-05
0.9034706164090565 1.143809301871186 0.47648977653690794 3.847414220868408e-05
0.9121506159928086 1.1474421520479914 0.4865666706101566 4.7466958529212074e-05
0.8754657005280327 1.1383310783533063 0.4794699750028602 3.980598086658913e-05
0.9035638387213849 1.14887783394257 0.5051925968815648 3.423717598329255e-05
0.9061454754048175 1.1585946258456452 0.5572901381858729 5.566819881781418e-05
0.9096442628741674 1.1615414587615718 0.5697804314456351 5.58488658372479e-05
0.898887918466665 1.151658233562139 0.5266980841977723 3.9042495356379135e-05
0.8855388121759294 1.141341331690024 0.4843095833069132 3.3621401076572055e-05
0.8908602619327813 1.148184891534827 0.5167331274750677 4.4349557248095254e-05
0.8994618478716132 1.1452709487430166 0.48968471384641754 2.6508028630279124e-05
0.9311802592074157 1.1535699703341025 0.5026732147016351 3.322193142933013e-05
0.9252697111071843 1.1556077618019616 0.5201566465266781 5.5787863358133364e-05
0.918843664605353 1.150780681929329 0.4988043326321505 3.904659771457039e-05
0.9465359559766067 1.1556212988493344 0.49934771375718406 3.580355931210991e-05
0.9361782107511691 1.1563292770220097 0.5135778773657864 4.83911739117855e-05
0.9148949111931647 1.1581639125463472 0.5449952923729897 4.145842240184777e-05
0.9231087412808923 1.1492145009302088 0.4856397531318927 4.747930345314459e-05
0.9264971696326517 1.1580767926303808 0.5331009276944666 4.220068551051691e-05
0.9389056407022207 1.1512410398893473 0.48173886069501226 2.3090038558265997e-05
0.9171608280693995 1.1527182188535499 0.5115609924349084 4.658222013044992e-05
0.952353118479734 1.1656267227374149 0.5509748446549774 5.075433581068359e-05
0.9482186999622231 1.1611727329318011 0.529509912147465 4.108125675962964e-05
0.9560342163645985 1.1609656185086445 0.5206470116372699 5.280987434768875e-05
0.9364316519656458 1.15848093787336 0.5256599628486385 4.7830735633596106e-05
0.9518269485301931 1.1682249287292503 0.5663817615871976 4.148741325054848e-05
0.9202859625283802 1.164176397759765 0.5741576090777551 4.2562942791635434e-05
0.9401847353893956 1.1688441771164069 0.5813649311400473 2.593177455869708e-05
0.9311637752136739 1.1627546314222081 0.5553260124430912 4.4893523356590275e-05
0.930108651428548 1.1649525040775468 0.5689581533913985 2.8537378245066712e-05
0.9429936306264612 1.1625197399285667 0.542361275148374 4.5422429968399345e-05
0.9420110265099153 1.165088646371183 0.5580485611966884 3.584658083370049e-05
0.9888417398240957 1.1763697512939817 0.5848591260409127 3.5165152070882206e-05
0.9837258448009701 1.1718189182404344 0.5624286896491758 3.119333937858176e-05
0.9712656643201638 1.1627886084765748 0.5196397566202813 4.809809551052936e-05
0.9673348686568759 1.1675699151072296 0.5501402707692276 4.052720895926479e-05
0.9606110345159636 1.157992928599131 0.4999245347611979 3.9961454055431247e-05
0.9690035527348707 1.1737936997884573 0.5847864770767053 2.7167935961863056e-05
0.9672318486522555 1.1604565691347828 0.5091977491505988 5.4258281679074354e-05
0.9625593375012309 1.1635369793507653 0.5304426834332157 5.1108811451752626e-05
0.9617532544480023 1.1705391891034416 0.5714217438419325 3.8707115278270966e-05
0.9772397489320229 1.1730333144221088 0.5742645812718754 3.406696173591418e-05
0.9955062149438698 1.1605153541307667 0.4884677256543824 2.864406066269127e-05
0.9745976531002137 1.1597581754309678 0.4996817426015721 2.4161250771382522e-05
0.9930320607571915 1.1635924973191032 0.5080559410277656 2.405676470629635e-05
0.9806485066227246 1.1625862798966133 0.5114813164483774 5.3080866204261266e-05
0.9808475872694431 1.1587947506532128 0.4894688505683136 2.704841530075373e-05
0.9806144210721535 1.166110532643182 0.531829565100031 4.2808178596048744e-05
0.9917955408465355 1.1681150725730713 0.5350570987533938 4.648091463521025e-05
0.9888882146720531 1.1706131524085468 0.5516288897720125 4.012160401064243e-05
0.9691439943038269 1.1567445442473299 0.48636730703752296 2.5937484915132505e-05
0.9898533078677153 1.1657479117795841 0.5228539861083199 2.5951706965688064e-05
1.005586324299314 1.1764649106535723 0.5742257018329047 3.988541277904962e-05
1.0326665755862117 1.1793734650191174 0.5773095272628861 2.4308078276555222e-05
1.0149526103125008 1.1719521980007308 0.5433266448475554 3.629706112470242e-05
1.0150425267524925 1.1692612650110474 0.5276943978509842 4.307069565769776e-05
1.0250615943119348 1.1758662831297577 0.5608602121528813 2.7579568588285522e-05
1.0044297897511563 1.1668325052584885 0.5190202285924657 4.8991118947649974e-05
1.008079302792035 1.1651506785514105 0.5074238484776108 4.399228483490618e-05
1.0217634946842582 1.1774975604275415 0.5719851956202612 3.9194791045909526e-05
1.0058798606081554 1.1740288493284263 0.5599662468616573 2.937740064514015e-05
1.0145662836444806 1.1640524478032002 0.4977657585048956 3.5124237535746855e-05
1.0351716838363128 1.1629856847582642 0.4811148293324853 3.261933148043611e-05
1.034783109786789 1.17496624594783 0.5507061838125826 3.143600813160069e-05
1.0033910952747005 1.1594378663598321 0.4767165763244382 4.7661081263775883e-05
1.0119099605423578 1.161822372592689 0.48619869323647275 4.912625885669401e-05
1.0301190547791639 1.1715924470811188 0.5335347997266491 2.2744811819438226e-05
1.0440319082531935 1.1653957838483746 0.49057170075601986 4.3673451596798083e-05
1.0348140483481987 1.1684031454444395 0.5126756323429722 3.542523410723578e-05
1.0428756618376842 1.176898901928716 0.5577877508296688 5.9036362378141405e-05
1.036747678927843 1.1705283998656553 0.5240028387910808 3.45640900830483e-05
1.0355444653983963 1.1664562997477672 0.5010278911686512 3.2086474273533516e-05
1.0176062568163395 1.1673436998222024 0.5152844005489522 3.6982672909651075e-05
1.063882783853288 1.1816559289893303 0.5791752663520043 2.8877222451922102e-05
1.0743034963964848 1.179579948917327 0.5642835653751566 4.1889351551252774e-05
1.0565364718052916 1.1785979823556436 0.5634125387499054 4.152186073625696e-05
1.0509826341345312 1.1735331243406055 0.5355059924200309 5.601027882341921e-05
1.0506782908597556 1.181794232078219 0.5835699265572718 4.020719250468724e-05
1.0594574735052276 1.1715704845031023 0.5218018229421333 2.7604085382473497e-05
1.0479534938610144 1.1682181134950822 0.5054598665609965 5.102778196982917e-05
1.0864508924932832 1.1828596619949545 0.5800285211023111 3.947733591960276e-05
1.0452834485271352 1.179107723836828 0.569433777381393 4.6225685827532656e-05
1.066977201579667 1.1765340484645743 0.548585358604129 2.9528541878709858e-05
1.0754167806070083 1.1830739251247824 0.584274058448251 3.0178273771961266e-05
1.0487446020396054 1.1701500582110675 0.5164655849675945 5.2573941627277236e-05
1.0780794583507114 1.1757319196448761 0.5409069666397143 4.371859483170115e-05
1.0869182336933965 1.1803260513277476 0.5651860475182033 4.8535803346043776e-05
1.0860156299057704 1.1681127009079904 0.49449566479619106 4.220820463991308e-05
1.079185514969734 1.178059262087139 0.5541234924670284 4.257780994813448e-05
1.0684233903140976 1.1681389528893718 0.49943275470504633 2.8264882301268737e-05
1.0865914812948632 1.1700546685313937 0.5056181123080998 4.191483298680452e-05
1.0763794090226422 1.165873270871069 0.4841097151101722 2.630816862238213e-05
1.0818799102117662 1.1717772721202109 0.5169045173920095 3.3032048752664406e-05
1.0766369188878957 1.1736620112977976 0.5292771476704557 2.819304022485807e-05
1.0601381067889957 1.1648472652960338 0.4825678117640599 3.6287679434460164e-05
1.104267463818313 1.165736125149126 0.47910606633483754 3.19102847147642e-05
1.0980990465977294 1.172100296326569 0.5163372412122686 4.6155249927716477e-05
1.0977656307421007 1.1684575580255079 0.4951696363381043 4.0654742349298326e-05
1.0971864365494715 1.176151355636929 0.5399250080755098 3.3167046759084576e-05
1.090249082289663 1.1781313072628339 0.5516934935008798 4.955243881001975e-05
1.1270952712105666 1.167976018983971 0.4912855062304266 3.434113199836532e-05
1.108295190302237 1.1699927830586363 0.503706597444726 3.0223557929786794e-05
1.107370388006282 1.174431496074579 0.5295487455317266 2.7382460372185503e-05
1.0907733712549004 1.174532202222583 0.530747875457937 4.339943772488626e-05
1.1209109135881898 1.1697429928082437 0.5017878388277999 4.178354563047268e-05
1.1075294030162777 1.1819573651805524 0.5733005531511981 3.988375808847429e-05
1.1132056980591705 1.1838527900856728 0.5841113307293206 3.0127109577057353e-05
1.1238338139481423 1.1760126644900912 0.5381335890568903 2.8146312698008726e-05
1.0963575235557093 1.1816660633261467 0.5720197686919232 4.191283643402693e-05
1.1291366650889192 1.1820110765947118 0.5728142016524692 4.235200706040916e-05
1.1263052459654082 1.1730035828669525 0.5205465124196086 3.199051098220537e-05
1.123803869673116 1.1800003748608825 0.5613204726618353 3.1338876280401164e-05
1.1117963498933627 1.1797770574472808 0.5604658575719954 4.9273120489026804e-05
1.13176283795355 1.1710745921072432 0.5091290426147032 6.079451059435551e-05
1.1039160611037935 1.1782411832939983 0.5518270827244266 4.1599996739913777e-05
1.0971282084519187 1.1839075736074138 0.5850241141263667 3.796715199237929e-05
1.1227549130574377 1.1781271558592203 0.5504677716676749 1.9677847249476734e-05
1.1664385389842022 1.1684507624244205 0.5002633062045764 2.556681734155101e-05
1.1423857485046713 1.168396899352708 0.4952309309977341 3.700776841872157e-05
1.156366900051053 1.1734251137003138 0.5271935844675956 2.1992194464830207e-05
1.1483706747532547 1.1770977996528385 0.5469669776416715 3.0150896285681132e-05
1.1455529558177389 1.1712307044405863 0.5123198734471538 4.9741527077197775e-05
1.1389794413186385 1.1665294837480542 0.4837108552894914 4.0526497415966826e-05
1.1550238111179223 1.1683017066164731 0.49715745754799556 2.1411631271679084e-05
1.1405844970033177 1.1739325163829277 0.5270455011104436 2.856639029661875e-05
1.1671728945195625 1.165812345423666 0.48507530372170976 3.928207482975437e-05
1.1495959354437464 1.1652133266634181 0.4781455933130738 2.0218154348922686e-05
1.137656457558462 1.1789902195660549 0.5558617830296257 3.9682709063588325e-05
1.1577141716817116 1.183223822035536 0.5843992196674146 1.5200799079561384e-05
1.1388370375866925 1.18342935886647 0.5818896913457294 3.130570841192767e-05
1.1665759209877364 1.1795585999218505 0.5648390267464545 5.039380800425633e-05
1.1665541171260614 1.1721489422294085 0.5217764789883254 5.7306704507417786e-05
1.1697115973860046 1.1701522501152912 0.5107930354354518 6.799482762538364e-05
1.1754442837890848 1.1751062927951361 0.5407063009304856 5.3315730675181655e-05
1.1452002781470538 1.1806949602238843 0.5672483698269275 4.788118196539874e-05
1.1576127564665724 1.1812867086346837 0.5731225590550926 2.3949262454910693e-05
1.168185606506206 1.1774010486667739 0.5526171182921649 4.67158082369929e-05
