x y z curv
1.019516184264365 0.20371786003967365 0.10351030039884433 0.032779351610708864
1.0199971780326906 0.1865063771848718 0.10598557749698932 0.01826535663983538
1.019775746102517 0.25344695570953396 0.10484605049757637 0.025771276893906306
1.019767392878355 0.27025823583302594 0.10480306336172207 0.03365196820054718
1.0180079312171333 0.24412824688611068 0.09574856943294521 0.07658326233014598
1.0188902956862032 0.29405846933756774 0.1002893695562139 0.05495725393098566
1.0192781968885687 0.30747072844484463 0.10228557621373403 0.03281470734739921
1.0195861965861328 0.12265399199125028 0.10262004128071973 0.03021595831592468
1.0183506895697725 0.16048210752461964 0.09744925923341055 0.05611238490203616
1.0195953362392025 0.14101344272253538 0.10388641241635889 0.03568284917716904
1.0160364407229783 0.03073003485250102 0.09182420038636413 0.11862051691290615
1.0175961804519018 0.06397126349437192 0.09436347515191122 0.0722681215614471
1.0175553869400757 0.04607341732894558 0.09459545223462576 0.10591702997503534
1.0126826199535792 0.05377165967259737 0.08653326569164857 0.11887297494499723
1.010558630134255 0.04226692466278144 0.08447151363265179 0.1663937208590245
1.0084635249356508 0.030628234217028687 0.08255010253869398 0.1884034481675489
1.018067316236193 0.36513348076584085 0.09605417500900652 0.059569865808899405
1.0183417360671867 0.3257893821906739 0.09746638690792545 0.07070922632573697
1.0179670347601368 0.3473311197980873 0.09553810919402952 0.06121824146505935
1.0187750175288721 0.3862866017582751 0.09969612822639132 0.036193398732282236
1.0198448239915094 0.35362637511105977 0.10520153725825956 0.02838527707580272
1.0184572888660368 0.40466703572529567 0.09806104159049236 0.04018584539153382
1.018693662223751 0.43943162810765896 0.09927745975947999 0.04200358328627426
1.0183241666616967 0.41700498873910496 0.0973759717094313 0.047491468554334
1.0188766736887032 0.42857682738883607 0.10021926840176329 0.030003436382300616
1.018219128264048 0.619062943579421 0.09683542595344255 0.059323706736445034
1.0193272365119943 0.6408393514096038 0.10253794259509104 0.031531378426613785
1.0193991207865876 0.6537932770046481 0.102907871501314 0.031078041909380537
1.0198876445827163 0.6300169102579944 0.10542189942451463 0.023094884283615617
1.0182257709049227 0.5941575753838485 0.09686961013193143 0.05625326372704963
1.019372849253604 0.608714316734287 0.10277267365009546 0.03286283249189146
1.0186729910437298 0.6650223998115108 0.09917108229293559 0.05254962177477492
1.0189595802868334 0.6825202101529402 0.10064592009072709 0.04086649794808558
1.0181865943369515 0.7020064350109041 0.09666800073931803 0.06264164467256293
1.0184080398826352 0.7149041500128928 0.09780759780649936 0.06675557422339208
1.0194058355272597 0.5831516505819436 0.1029424267178278 0.04095014072194583
1.0197103607338205 0.8372228253540213 0.10299105519044607 0.03422780041556469
1.0188222647529592 0.7625812781227562 0.09885458448497647 0.0397716868223677
1.0193176261947108 0.7925352372684566 0.09995343345154256 0.020801624570076147
1.0194221283826725 0.7749897358771205 0.10175766038802392 0.04375465789215581
1.0185719908134303 0.7254410769589088 0.09865131764434543 0.05459587892953303
1.019342596704608 0.7507012916065829 0.10261698880213733 0.04444695327086422
1.018287496974134 0.7366341580805715 0.09718726315685332 0.06723972107089504
1.019175061121663 0.4688229830522551 0.1017548217245238 0.04030060384730603
1.019783163261643 0.45619583621756593 0.10488422048090429 0.024632513117727035
1.0189474888590888 0.4969065072279145 0.10058369551288143 0.04477640481783158
1.0188348680067667 0.5356327241022869 0.10000412913409698 0.045466149933920834
1.019037991680697 0.522194291335971 0.10104943868129015 0.043682011723196225
1.019403676912171 0.5111792144398873 0.10293131811134477 0.03799744059777832
1.0183769888783627 0.5498201750907179 0.09764780396963355 0.07050607757050253
1.017988370637183 0.5614494493624236 0.0956479073063953 0.06699486230709359
1.0192572263471655 0.8575174504723198 0.100509818366516 0.044695757799282844
1.0059751057590463 0.8842376615590987 0.08562959468668027 0.17521848178503902
1.0036023145406818 0.8748237481900478 0.08105897106420273 0.23616614061185667
1.0169997740328007 0.8708695171596016 0.09398352333855775 0.08505017697041306
0.9939633763918044 0.8926096029328878 0.08688971514801652 0.11532492143325311
1.0094516976355672 0.8916540991755799 0.10256612887416244 0.07398979934610407
0.9949226900529845 0.898152286574456 0.09952076447311134 0.07527472294721306
1.015867031572794 0.843852490057049 0.0911451884894322 0.0942343246603388
1.0145369019918942 0.85489703679768 0.08876267478086738 0.1177066526177178
1.000734706331497 0.19265774924181248 0.078076908324002 0.24159110040256848
0.9914190047141945 0.2118931535124059 0.07627454220965108 0.20143479647661253
1.0001824536318014 0.31858169543768616 0.07797006059600677 0.19789685280262453
0.991689565343267 0.4440619884541741 0.07632688923940266 0.22129104595610674
0.9916326538704192 0.2489413939655577 0.07631587822655655 0.20896102446781628
0.9950845645775097 0.0763278110221013 0.07648735055598108 0.23974754118603636
0.9924151862999275 0.05514567926857934 0.07623149302411913 0.21390412653343463
0.990046549767011 0.10512433997352347 0.0760044613207897 0.21874963617360918
0.992360432630874 0.0929614866823408 0.07622624493367722 0.22733360308373696
0.999103973298063 0.030618629802359177 0.07743563478191956 0.26719007682562823
0.9927920025914787 0.04239603639055167 0.07631599591424587 0.2165265237226908
0.9927762770970164 0.1337626450761411 0.07643265426703472 0.21566911631133506
0.9995601792967208 0.6295237399651709 0.07784966535134841 0.2204778965633684
0.9937926835192523 0.645556794925941 0.07673379245406026 0.20384510749767673
0.9908398457659447 0.6639726941847764 0.07616248876418547 0.18714078663469805
0.999889607252289 0.6722068375574324 0.07791340180498635 0.22797487481670584
0.9923156046150026 0.7099539017451855 0.0764480129095225 0.19355542068389703
1.0110182489856616 0.8635189985607086 0.08501748234760742 0.15701269265619786
0.9914335277248807 0.5202364228104979 0.0762773520658932 0.24286496034443553
0.9903352473919889 0.5399792343911654 0.0760648610118232 0.22410611389196528
0.9950708816716786 0.5745652324443111 0.07698109331576669 0.2142784368675025
0.9909861720088745 0.5886905242224734 0.07619079940279663 0.22027888630428186
0.9931515728144534 0.827124762830864 0.07630207501607034 0.22588181513178016
0.9978538242456516 0.7296300499571872 0.07751952633987699 0.19489801620207947
0.9987843414095104 0.7414772064116271 0.0776579195276796 0.24021339311735895
0.9906526116951404 0.8120122990097011 0.07606255181713821 0.21594166402905174
0.9950484753791864 0.8385106242364839 0.07648389143844521 0.22927720307047583
0.9906615794824377 0.8529537702726541 0.07606341137156833 0.21324734383135718
0.9952271839658553 0.45800549082348624 0.07701133408239841 0.23317382072793533
0.9928461780812289 0.47634759004809635 0.07655066622281924 0.18036258443665293
0.9945817617142285 0.5085874893833826 0.07688646026788944 0.2543984552353373
1.0108398341795628 0.06400446525472905 0.08447818365403424 0.15544509210409413
0.994593867453498 0.0006939944652850855 0.10901394967725156 0.023757522422090845
0.9928273581457762 0.0002721566361867196 0.12295915611309535 0.022106358192137333
0.9962546274217825 0.0007084144126413736 0.15553803081598958 0.025142453440252496
0.998040892458698 0.0012373512057938664 0.14107828966429312 0.020428393242124483
1.009113304232473 0.007071210116329823 0.14525087656356903 0.038325753637956934
1.008547701384604 0.0066091243541603825 0.18264867475642216 0.038415463098777025
1.004045911486741 0.003661781218539748 0.17182959169385814 0.03697771578342929
1.0041673072679123 0.0037256365592183835 0.19336157904957782 0.03858981947621919
1.0078228298264431 0.006525903587037454 0.232042772834479 0.03924394824415584
1.006096984192817 0.005095084719934583 0.20656608846233326 0.03658528980837471
1.009353880380331 0.007410678788271124 0.2207043608605645 0.0345045964940588
1.0032858901852006 0.0035405138174558195 0.2463289732212993 0.02992127342272345
1.0108724630655475 0.008561280237440873 0.28250563867656203 0.03284495333499431
1.0020610583087701 0.00272992452340969 0.2613613019617896 0.03655100156721416
1.0107824769763005 0.00850172776990622 0.34157602814627613 0.03765655322034702
1.0038468842256998 0.003911777639048539 0.2973872883227532 0.02948098983965212
1.0095096885058896 0.007659400975875387 0.32928339704499543 0.04961621154269941
1.0080189713331738 0.006672849756963826 0.384720146695198 0.04188560091312924
1.0042763258096148 0.004195980521940659 0.3652478842659168 0.04552157832108115
1.0030230353571516 0.003366557445479367 0.41317434842865064 0.04148617775547833
1.0089214456901232 0.007270104013626646 0.4231952928192175 0.03669287216632615
1.0034543365709228 0.0036519910246664627 0.3948483609765933 0.039846474603603896
1.01067392187073 0.008429886394707804 0.43771304991090965 0.039846425679802545
1.0059657028934732 0.005314004149618539 0.4501986969522545 0.039766817571429684
1.001991725256842 0.0026840401610754567 0.48391209623772213 0.03938680736528404
1.006672618727392 0.005781838484920378 0.4702766546235045 0.04269011260741738
1.0020776166123406 0.0027408827486649595 0.4327549653159173 0.040848083504031046
1.0066962568991895 0.005797482141293698 0.4989072150858735 0.04735450632975645
1.0108546328599575 0.008549480272041467 0.48870961346355996 0.041514550843886375
1.0020863614318172 0.0027466700384818857 0.5496388183625679 0.037235167866339985
1.0012466535463171 0.002190954405005742 0.5303779077432799 0.037420992938050526
1.005750666183466 0.004699328834490509 0.5941345957286557 0.035177593702823966
1.0066240504572206 0.005598900172880946 0.5657534667133708 0.043875288749308
1.006571233035707 0.005033525175292454 0.6125675119515139 0.04841567638794633
1.0071448590991303 0.005788003620633318 0.5794834485364895 0.042002344451215444
1.0058767881700483 0.0046248398456607675 0.630170928884379 0.03612662314176533
0.9983574610100452 0.0013310913568364202 0.6191401817566743 0.032771073477958906
0.9960528084260258 0.0006486531285056827 0.633127368914079 0.031076762205770183
0.998267577358646 0.001304475614298001 0.6452061743948886 0.037825111087621
1.0084804891452217 0.006554213352599373 0.6418673836860495 0.04219587176877136
1.0139422990424192 0.012130032377415924 0.16792969237296734 0.04513720303778288
1.0136540109727905 0.011776869140179398 0.15724473165304909 0.037325677816808164
1.017222351859816 0.01764212030496954 0.21748118445120715 0.02444520802368675
1.0155055067486602 0.0146601591077053 0.1974480484722026 0.04825944866144192
1.0146303819531992 0.01395942683750865 0.29116138522946555 0.03374788313924723
1.014240079181943 0.013368620316254617 0.2734594033896612 0.04118763723466557
1.014272226854383 0.01341728267768095 0.26043400573654024 0.039599393483085055
1.0146779505087307 0.01403143199577108 0.24609765163894667 0.03332218745758327
1.0144458856149243 0.01368015226446526 0.3596898705506348 0.03835914047733985
1.011422862667097 0.009104162025583585 0.31077091021794956 0.047278587940824915
1.015808164724779 0.01574225235993646 0.32501605219214647 0.03559753936760921
1.013884492124021 0.01283036343425111 0.3934139485854281 0.04717853804127024
1.0142632394559863 0.013403678332611454 0.4124474291170423 0.03222435315730369
1.0149580550769424 0.014455430024275753 0.3798042839044052 0.034415698971307675
1.0120689787979513 0.01008219664821148 0.3691775807700761 0.03687002406289735
1.0171324997685487 0.017746916015451693 0.48272326158097073 0.028341699524690896
1.0132052090456443 0.011802123559881736 0.4594821758034395 0.03453137872717376
1.0147505756712456 0.01414136567490654 0.44642856028906186 0.04398095410128179
1.0127206452875088 0.011068632922988833 0.5252455568587968 0.03897961585650206
1.0122905968633735 0.010417662875770665 0.5436734304804287 0.0343919300025553
1.0151649211459757 0.01476856595774026 0.5152441952822641 0.034708556184677865
1.0172535290880242 0.017930119713901217 0.5378034482587828 0.03173515006012051
1.014672550012595 0.014023257192592953 0.49846557019643845 0.047481554022406315
1.0148139256936097 0.01388680441076046 0.5727248463512695 0.04708222565745093
1.0128176744760755 0.011142768305873832 0.5566537737401788 0.03484066343698271
1.016268280620939 0.01582293781125885 0.6069219287391858 0.04062663583571315
1.0174431855318629 0.018063196566195237 0.5908480333937046 0.03012317588757391
1.0127796677390146 0.010705767282603388 0.6209398821181831 0.03472065608864143
1.0157353793758093 0.014806824363422667 0.6375596902181804 0.03631046939867366
1.0179409425173027 0.01916963729433364 0.14136219742547262 0.035128149801637906
1.01876036050753 0.021949255909463176 0.15413411883133682 0.03316878666988033
1.0193329304926655 0.02389152006295736 0.6457874331631823 0.019483205818545273
1.0190195267668898 0.02282839618649093 0.6302150752103409 0.02386969255064465
0.9992643859619067 0.001800224857942268 0.35157485039284525 0.0260346197405437
0.9996590864689143 0.001876921834786544 0.3149566268333914 0.03263759391388479
0.9998623027530892 0.0019164101920727187 0.32717368331354446 0.04041920042351944
1.0009194349407453 0.002121828836028096 0.340043439875949 0.03584172481476248
0.9960589119522697 0.0011773471024613279 0.30535825340235434 0.01890558622598674
1.0012215676366656 0.0021805383232760193 0.2743745518382281 0.02285458089843491
0.9982249310142561 0.0015982412003709785 0.2870089510598934 0.03282436315866898
0.9910332393732673 0.00020077401330823662 0.2684240894411284 0.025569497468447114
0.9903618643987346 7.031451310149089e-05 0.22049329994947314 0.019693614013991223
0.9933423172106073 0.0006494668481991614 0.23146199501383224 0.024733658927753033
0.993125428086352 0.0003565087856082027 0.18902431134522737 0.01758714620700067
1.003088012317803 0.003334130298122117 0.11874932403930091 0.029803231806959284
1.0036220680613797 0.003510160050635724 0.13074620474564994 0.03906412883484244
1.011042470237686 0.00909201403327477 0.10883264014652094 0.06602460701972224
0.9964773638103003 0.0012586593680805056 0.45977607367584217 0.021760592517198613
0.9970310391518212 0.001366247841097212 0.47318768548804 0.02326038672141329
0.9947187055407551 0.0009169223543661475 0.4430271843897822 0.021499461021760622
0.9952510551418556 0.0010203668757279645 0.5091896021144627 0.02663074256570775
0.9983900640970984 0.0016303293482352933 0.520791073111995 0.033253017625055246
0.9953728542283509 0.0010440344959887326 0.5654564047025483 0.02810172762331281
0.9983925182222186 0.0014319869919749088 0.5775658076665492 0.03001436250730554
0.9936917772117582 0.0004451571412753904 0.5972040117657669 0.028317969358765356
0.9931129541369568 0.0006048977279765995 0.423407481647775 0.02181554735524229
0.9919853451866529 0.00038578425835750294 0.4003215767375518 0.023101408186787947
0.9979086967518249 0.0011611263402659755 0.6717938366844236 0.024692304916406477
0.9939011487478145 0.0009278230033780692 0.6818341777266992 0.03008167876633722
1.0028352056479093 0.007028514389316666 0.6917900279876985 0.04428842785645309
1.0091401129426087 0.014831747509372089 0.6963160979046709 0.048165592112732976
1.0093544824614826 0.024185739517134257 0.7014304888862096 0.04677225627757608
0.9917228104198865 0.015815589882380174 0.7057098009612424 0.040484222635122656
1.000422517831117 0.02311367278374948 0.7069153203285298 0.04056135157080368
1.0155580672971214 0.023256778496021077 0.6905471771545573 0.041624617899747245
1.0139995623249758 0.014626000053802237 0.6850556609186509 0.04259891387473058
1.0053700922925564 0.004446202756040555 0.6636308468892608 0.04169954091364346
0.9993966329637056 0.0018259226846605598 0.38189176607521197 0.04285833269771742
1.0183993338124981 0.02038209728890345 0.1110640785088304 0.03050360738478856
1.0183564675524828 0.021505446074618732 0.3065538992958139 0.02950645649284503
1.0184513823005807 0.021996016198305896 0.3176809502159855 0.02595592931443178
1.018739798679255 0.023486706121578677 0.33595785538233075 0.015964313569718308
1.0192005207665746 0.0258679639965759 0.3464358356950996 0.018194142898608132
1.0185277880183314 0.022390921765232785 0.2677348396464524 0.03270293572649429
1.0191660409884034 0.025689754083140552 0.27874471068425544 0.03429865293471219
1.0190653827676757 0.022852391186690812 0.12844121708640696 0.02631586444110775
1.0197670304110955 0.02756966690004413 0.16519997423162808 0.01860501945099937
1.0187231355152346 0.0234005819880974 0.23116176298225852 0.029948340784606883
1.0198376808249943 0.029161147563206417 0.20483612206367172 0.0115565863484465
1.019713345755075 0.02851851749937464 0.22138891779030134 0.024132846483337723
1.019821983974292 0.02908001785317929 0.24239458584298423 0.013464173573468297
1.0194458008929619 0.027135702723706842 0.36986075512558614 0.015565272405424498
1.0193272958481117 0.024099657452351167 0.17791664978976413 0.02242843417103083
1.0187515929058397 0.023547664985300164 0.3938179324671722 0.021296598288731865
1.0188212837551862 0.023907864525084845 0.43713736625058397 0.0259292923146243
1.017878385672879 0.019034463519119697 0.46937241195854196 0.03321735229198181
1.0182888017640253 0.02115571313134021 0.45804980747802804 0.02256639530507601
1.0196908333959085 0.028402161600610952 0.4782545117823158 0.01664151957514024
1.0184775261679224 0.022131141671349993 0.5272120825780479 0.029952540705169832
1.0199503833322219 0.0297436543286817 0.4922942186157682 0.010968375974312692
1.0115822142644524 0.009242642655777922 0.6534128540511213 0.02490760965419483
1.0082885143728484 0.006305396574633937 0.6751726942111504 0.03184171530382893
1.0158127496288383 0.01515876832797191 0.6610802427298119 0.033481163048699455
1.0194281638235778 0.026793021192885992 0.5794038875559311 0.022213234004392395
1.018743526278565 0.023505972346176088 0.5469558970978909 0.028627504881839218
1.0190998376715372 0.025347579974329647 0.5671738820206457 0.02052408169825379
1.0193204994568308 0.02467722792470528 0.6653633381399433 0.02540221778585193
1.01940333688724 0.02596521609456135 0.6762056354525301 0.024947221786592602
1.019727563038457 0.027157910313166306 0.6114650444317875 0.024120387190192192
1.0198108011373708 0.02802631966539197 0.5979784825598352 0.023935359224762608
1.019815039640938 0.02904412582859303 0.4031171079209461 0.011942041798987859
1.018732442209371 0.02344868395523212 0.4184747432031496 0.023224166635501503
1.0137992542248986 0.011874176783889787 0.12236948962145917 0.03674407903328411
1.0196740267869797 0.8722040619921194 0.10807483677077748 0.02885322091161724
1.0198510719818943 0.8715470560665096 0.1203143672770953 0.01735588492378649
1.0196206489286108 0.8739409772954423 0.1437936737744676 0.024900419861928567
1.0194628918860924 0.875579953637944 0.15514034800488635 0.0225658616774993
1.0156599923213911 0.8853352609152536 0.14190195551366508 0.04039686116260521
1.0128258168460138 0.8892393261029339 0.20448837893860933 0.0407063956852997
1.0137647797949414 0.8880900243907279 0.18387679513508748 0.03826019518161279
1.0153230895899086 0.885975759177336 0.1709220798862046 0.035734941917263
1.0176776255002857 0.8814994637434279 0.21366698593131772 0.03388935458118698
1.0128552953221353 0.8888146765023123 0.22872130092148213 0.04624401881074667
1.0141505586542368 0.8867747071976324 0.25113731612400947 0.037323689238222775
1.0125458410229637 0.8891995050481022 0.2660182618186308 0.035593931283791604
1.013360924943796 0.8879678779377187 0.2771052697369913 0.03456131473583875
1.0137535787643763 0.8873745610067102 0.2894275691651237 0.04471022843699709
1.014798428331963 0.8857957480515991 0.3095306839802027 0.03432344818527188
1.0112731525889442 0.8911225923994142 0.3413672360648533 0.04247302288927175
1.015966083347884 0.8840313707446397 0.32212938483134557 0.036416712078666987
1.015137672923464 0.8852831347791926 0.3575872894599244 0.04281983014289365
1.0163552605215562 0.8834433071777033 0.33502352480792785 0.035093700469792086
1.0177353938482372 0.881357865939519 0.2990774897749627 0.030586566189830324
1.0119812446026486 0.89005263469514 0.4136063479953534 0.03661687963492378
1.0128144278736386 0.8887936586826803 0.38777732852564584 0.04954847550996681
1.0147203738353803 0.8859136917769277 0.37304102711946624 0.04235197594403061
1.016109663141357 0.8838144154574293 0.3999659097136078 0.02770279183632171
1.0119818601629675 0.8900517045568348 0.4272559872137661 0.03425605152017401
1.0128959804067317 0.8886704292726639 0.45459844853913556 0.041140119410360214
1.0142969356561573 0.8865535252072945 0.4817182518252623 0.03436102446223203
1.0170190088777566 0.8824403546606983 0.43758360996009893 0.03159386381255576
1.01296593457969 0.8885647254872032 0.5034209433820342 0.03442661639704202
1.012312000945562 0.8895528475340246 0.5246150667128092 0.043973610199732685
1.017584137111226 0.8815864214209486 0.5211651851737551 0.0339575499006839
1.0124243699253372 0.8893830531382332 0.5431125364947696 0.04058614555657478
1.0155119231589043 0.8851931243409852 0.5802162590451185 0.03621854002118403
1.0141794486168927 0.8870101599525329 0.5687458922997491 0.032202600374617196
1.0126770909237273 0.8890461543673842 0.5550711768906387 0.03899774737835579
1.0158399807330865 0.8849930782788042 0.607494232851504 0.04702373839497799
1.0124839861821202 0.8896577308629363 0.5968119574494082 0.043295497885109085
1.011221507187951 0.8912030200261353 0.6141601290107718 0.0411592163353121
1.0152962461051818 0.8860267923204632 0.6258179189347506 0.04590431068725893
1.0186495936290472 0.8784226223377998 0.6327813197349462 0.037012585726490736
1.0136919005034306 0.88817922950219 0.6378635739855364 0.04136129352310436
1.0104912250056044 0.891802548710984 0.15394245220047342 0.04464428725279579
1.0072528565576864 0.8944460541474628 0.139695679418732 0.04123423032020921
1.0017306585289356 0.8975513261074647 0.16695843724291415 0.039635055572810565
1.003057683606267 0.8968553635731786 0.198674899465751 0.03442331759830662
1.0033145875786724 0.89653680866079 0.22430975140400283 0.043567577441831006
1.009826995975338 0.8923412053280544 0.21496421260136486 0.03751523671480702
1.0066423058716707 0.8948590972014917 0.17870037990608864 0.0394354833566782
1.0056367973499003 0.8948971365036249 0.2886448092263493 0.039973907521902774
1.005237843538404 0.8951606973707302 0.24921976746957686 0.03891574054515405
1.0067830087469432 0.8941399148378956 0.23814214201956768 0.03773543213557582
1.0078372081483913 0.8934434790592641 0.3601936318290469 0.04147970767692083
1.0051641074510091 0.8952094096441079 0.30893865659094044 0.03798477319082576
1.003837028199783 0.8960861180451595 0.33106505795334185 0.0357280958347498
1.003513766209953 0.896299674622103 0.3457292191016012 0.03306132483797084
1.009973813798019 0.8920319732120947 0.4017227455210971 0.04514962029809489
1.0018342103713922 0.897409239640425 0.4072003802343236 0.03155166370490862
1.0078757943083563 0.8934179878833797 0.3736411402299819 0.03967564236555753
1.0034678610469743 0.896330000951143 0.47527440913554764 0.04045147701132346
1.0097516627003562 0.8921787328976551 0.4430052868331103 0.043346062395215136
1.0032422016440576 0.8964790783284968 0.46197026381198836 0.03502624721582263
1.0045350922389427 0.8956249559803935 0.5369642184028235 0.039116135427899254
1.0030711348126258 0.8965920902138979 0.5505476919422083 0.03838772468521976
1.0053840217417283 0.8950641276603781 0.4908315301455013 0.037659212123334534
1.0068829201881018 0.8940739103398642 0.5129387468952772 0.03937821842627678
1.0078398089066067 0.8937007500328451 0.5751308616155144 0.04167221453747598
1.0036098078061286 0.8963436788738316 0.5618568410759868 0.03259040647549478
1.0047857704195657 0.8959490629322986 0.6044187918167347 0.04488227603447614
1.0075804907252885 0.8941786038195703 0.6260587960249495 0.040837108784132665
1.0056830328260509 0.8954784908014444 0.6382605610786085 0.04353634275778971
1.002657903466618 0.897065029542496 0.6174200094944673 0.03762895758042336
0.9969187263782688 0.8990940978808464 0.14808169511926567 0.02481343415456073
1.0184763934385657 0.8778406338185829 0.3448988298848505 0.026646981864871837
1.0195922044614654 0.872098488789238 0.3037699814241659 0.028880129192434118
1.018264379019118 0.8789316945087866 0.26939967963621453 0.03628610287977906
1.0185745393482233 0.8773355590023966 0.28875994562524715 0.033908283948246756
1.018094390295332 0.8798064841329246 0.23453225807543798 0.023816269510561858
1.0188549672370264 0.8758924314702836 0.2228948601697637 0.026345729657027195
1.0192202909810706 0.8744978919173383 0.20634231658798133 0.026162981211816805
1.018600156238403 0.8785895705610838 0.19316294859445104 0.03170495528439204
1.0185519342393732 0.8787524144522433 0.18099726184596007 0.029751097402964614
1.0125679799591127 0.8895818383404778 0.12100511719797326 0.032747937834452664
1.018159900068181 0.8801683219732009 0.13136358683064903 0.03520943344513247
1.019002155172637 0.8751349784110283 0.3678064922156554 0.025135663245501278
1.0187899447918034 0.8762270475503993 0.4836286368155615 0.028435139889927685
1.0178372923633503 0.881129551912223 0.4495884511688906 0.033546409046763016
1.0187490579937148 0.876437457664292 0.4674966880987761 0.02690853941571391
1.019851312909722 0.8707650745661456 0.45169158329765785 0.02179129899751483
1.0195244898688616 0.8724469590976985 0.529115124998906 0.017529239139623613
1.0178850283114604 0.8808838949581898 0.5357360491751125 0.03951332458049974
1.0182942244011675 0.8787781053179036 0.5054564745418908 0.028022417733158368
1.0190843475354205 0.8747120031421678 0.5607788108401683 0.026381452269359815
1.0194492658552243 0.8757215177917758 0.6425742793834652 0.02506326324853201
1.0196228241122607 0.8739183787826547 0.6122118977013118 0.020989491369778
1.0187599335938404 0.8780327912547136 0.5890544646162975 0.029450123548909288
1.0184652018954146 0.8778982273201321 0.4265099012395538 0.03475326342171178
1.0195426378389325 0.8723535666916395 0.4364374521241623 0.02345668181330758
1.0188982108263867 0.8770353658946144 0.6788772748918771 0.036020536487128364
1.0124093022088474 0.8862670319203281 0.6891515222068366 0.04148272678970735
1.0176194692465148 0.8726689494257276 0.6902778548448252 0.03545215159556082
1.0111583895665426 0.8728257247104503 0.7008255272882705 0.03209532958474027
0.9996743735037801 0.872090317175267 0.7076086217371751 0.03021167193463627
0.9926176866143377 0.8883509064377464 0.702930012598284 0.0419631678525827
0.997207757641617 0.8958102877544758 0.6923420237572608 0.0313992122292085
1.0055228917046948 0.8939792127502943 0.685458190838528 0.03988006325784212
1.0154840915225745 0.885444452748987 0.6690271317286028 0.0264403156604914
1.0169475208807415 0.8827577734940396 0.6585155989293543 0.03353548700705699
1.0135775865877719 0.888333395292429 0.6509064460383177 0.045950815064330734
1.018834835430188 0.8759960330230525 0.3828321194607355 0.03179241214096354
1.0054121851446758 0.8955732646673484 0.12974177371826864 0.030557580662278188
0.9972174495212054 0.8986035986297664 0.3199297247998675 0.030148822206735565
0.9926102632786592 0.8994949823692687 0.307430973673187 0.022937210744418676
0.9908440630181262 0.8998367011776824 0.33258368519364884 0.017702674037357858
0.9961125208024474 0.8988173767236742 0.2425575007612769 0.02985014881224872
0.9976540849170139 0.8985191198022511 0.25762944499668405 0.0319888539871944
0.9965649628123221 0.8987298396827474 0.2860353559823058 0.03064044921073956
0.9951877867966319 0.8989962913176917 0.2725637553574974 0.033699950219558114
0.9992843561351672 0.8985054527387062 0.11139466021719557 0.03527875339456629
0.9942911991253687 0.899588688037006 0.15811677575952415 0.02703649518451888
0.996753577516392 0.8991072213028155 0.12182941284025411 0.034038886878986784
0.991418930757233 0.8998639999141436 0.19097467060116186 0.02103382824152364
0.9930457053549873 0.8994107344214106 0.22652551890008668 0.021038403437580698
0.994578089817883 0.8991142535497938 0.3604961229961314 0.020776802289321085
0.9924187702518579 0.8995320318309861 0.37083220586691795 0.022291257499730904
0.9993393628292769 0.8983475840877826 0.21491405669629227 0.03594343382089016
0.9959257091112983 0.8993327016358958 0.17709881773924482 0.034682812149806425
0.999105297278718 0.8982383438505775 0.3957049329712894 0.039716937989143324
1.0009684391458809 0.8978778690884683 0.3829199628165273 0.03212339593365424
0.9984419761430441 0.8983666811139916 0.43144896305987307 0.029910693939657982
0.9942682404034652 0.8991742022289151 0.4539048468027018 0.023952013080230716
0.9923157620721209 0.8995519615259495 0.4834628282980677 0.02366405801636689
1.000075049692188 0.898163641266181 0.5911776318596424 0.03171578218717576
0.998237175966326 0.8984063052007472 0.5179030318462298 0.033748228497825404
0.9959077277808945 0.8988569994260711 0.5056403240455865 0.018758972854203727
1.0081321346386036 0.8938257015234529 0.6710851090221726 0.03388642524461391
1.0029454181908903 0.8968888661698126 0.6507223372510877 0.028964098365149276
0.9969485095152417 0.8987420505229338 0.572007329185853 0.02884979420739035
0.9902280158765494 0.8999558920190897 0.5600901026140563 0.01971630626840483
0.9996578165503835 0.8983627170727315 0.666650686523704 0.03880293589077855
0.99401875470676 0.8996148023044384 0.6561693964349643 0.026878586455881297
0.9921567258065038 0.8997932809861315 0.6388708250222259 0.021503656301444265
0.9965317290368993 0.8989777180549541 0.6789033372354131 0.031440130748862274
0.9943296505796573 0.899585002398792 0.6100251542072644 0.023034864147281654
0.9962744268448407 0.8987860516575884 0.4187157905396008 0.030050285799047415
0.9901038478937358 0.8999799156454463 0.4066556509595197 0.010076981953041183
0.9869580096041416 0.025323986685737657 0.7092903051113166 0.028665608861408537
0.9436498254004317 0.019699605979125234 0.708093595804455 0.022617274968357345
0.9312957047149558 0.017186434421423494 0.7069864616145013 0.025476235142053747
0.8982674371611968 0.015040493820645658 0.7058576706606396 0.03866102176166367
0.828363192296518 0.019164668908519762 0.7079351946920382 0.03546023189846461
0.8381771287417076 0.01435079954070508 0.7054948830495358 0.03953683379076049
0.8794955373829307 0.013322569429184597 0.7049188686236625 0.04101809238667043
0.9112257486070608 0.010477469312164435 0.7025944627974988 0.04131787818409398
0.8453980546064872 0.006796863720625563 0.6987754610597225 0.041894968800754065
0.829964860244667 0.004097250707422024 0.694874056756941 0.04424210354199598
0.8198806900362761 0.0026345718337323133 0.692085128026721 0.03158826560811214
0.8973327948560357 0.006388027382461048 0.6982746179551829 0.042897157051142915
0.8840066736686242 0.005985092708781996 0.697781004657994 0.03689872879605043
0.8733398319020735 0.0066557386152246425 0.6986025763884753 0.03532981608538289
0.8581987322016947 0.004506444040726696 0.6956542765741517 0.02944815560861303
0.9089837866645659 0.0031410163890797965 0.693050779336847 0.03717650411305864
0.9503382159642639 0.00587379259294636 0.697644656955143 0.04495542460639346
0.9394579482351039 0.0054584119786326045 0.6971357968147444 0.047805681752436276
0.8389640616537932 0.0012295524537384204 0.6880166158193732 0.030510575150924778
0.9508028043578023 0.0007836376854307648 0.6865039619289067 0.0233233466700588
0.8319214429416423 0.029265762829747233 0.709929360486692 0.024178005261259006
0.8199624238786201 0.02914335471978964 0.7099175770151511 0.02638243576457357
0.7843831744845225 0.029767634242235122 0.7099776725430442 0.0205633028806305
0.7974675128755864 0.023778739829571502 0.7091920818459319 0.023607656209231918
0.7706203272379253 0.02944818652495675 0.7083050600933881 0.03602156481644723
0.776284316295833 0.02086943001293049 0.7073057006470573 0.03234960885999973
0.7636171488937081 0.0210081059560701 0.7022756289000615 0.041865212832278356
0.7589486085963087 0.014099559843350139 0.6923274717715883 0.04322859451943072
0.7682317929398654 0.009026796946332509 0.6954992787700978 0.05422445408604761
0.7515040469875471 0.022409861974498013 0.6817815225800763 0.03227781175975343
0.7592899783784473 0.009402401299346358 0.682521785145948 0.0430798617813736
0.7565180338155542 0.027728633678137528 0.6981419794823476 0.03022740550080988
0.7760474553271961 0.010441262960806 0.7016553887545138 0.04033979027819269
0.7794302228556689 0.0026890920541670664 0.6915004744794089 0.031062104486111766
0.7702905957965778 0.002737679426689427 0.6856344200600479 0.04029431966270333
0.7503126284708567 0.026752048779894816 0.6392378161282595 0.027516359712482067
0.7510830412178894 0.02248019273758687 0.6278881284146153 0.03329911453402999
0.75360523459894 0.016061541033956565 0.6193437142582947 0.0393032491084628
0.7526142079673745 0.017945608442662575 0.609007512628976 0.04589095333070104
0.7554487331309581 0.013810523441413706 0.5536225341533125 0.03634664157562325
0.7545392217493508 0.01445635984020899 0.5961699508275381 0.049860508080564206
0.7543827493866502 0.015441437688221161 0.5372699838511396 0.03537066269152055
0.7528896463272543 0.017697575994933032 0.5259603087393849 0.03965302860380564
0.7576557382748439 0.010495820865841284 0.5167170875597147 0.03941249122607212
0.757288593894875 0.011050590675285556 0.5004442758595189 0.03886321612081583
0.7535732183226519 0.01666467143117443 0.47709126142180247 0.038341926065008865
0.7526458581456998 0.018065949665904437 0.4321950579111571 0.11979921245134764
0.7539745669871509 0.016058217582844342 0.4610116593872781 0.04450646285885918
0.7534249891902016 0.01688865156555764 0.3870031644546983 0.1933455870960194
0.7558337074046468 0.013248982220909422 0.41051015222157683 0.16708319599299012
0.7586952144580625 0.008925130871526354 0.37928665594714606 0.14978784879160853
0.7562995922837293 0.01254501157695324 0.40008473450300214 0.1402074884502257
0.7538602124286291 0.016231011884218847 0.34464918317327153 0.2582989790895121
0.7566155048164283 0.012067655133198487 0.3351450644198752 0.1880752068219692
0.7556212308207728 0.01357004281826109 0.30911199441563564 0.1733081082862016
0.7556062958084698 0.013592610217849367 0.28106652214131156 0.17439609404993073
0.7581766759249414 0.009708663287938499 0.2476462842224406 0.1503242587352146
0.7561813894650333 0.012723620753020071 0.23755460782340818 0.22309448209984165
0.755758225295278 0.012520759614468021 0.18436107659194892 0.18396814866532155
0.7563514996062912 0.012045469270693067 0.20896014394408102 0.19846734809216757
0.7563040232786695 0.011927593694322777 0.197885462710439 0.17439759725796244
0.7564726792795597 0.012039741892172395 0.21932026629704376 0.20020893323194144
0.7571086247506816 0.010840852727883401 0.14500230038353487 0.18462048665856917
0.7548281179401131 0.013736684592798932 0.1589279688431191 0.24686437417065604
0.7578126904778727 0.009979067982606284 0.5692460335612494 0.04244026757815579
0.7583573538914752 0.009312393547215357 0.6367360280692451 0.042683911907803615
0.7645636166073899 0.004392145858429231 0.15185113319939209 0.09265425545575978
0.7591632054634101 0.008479494196039734 0.17215999045460628 0.1296195386401576
0.7675995706446734 0.002867188982967352 0.22500549845711246 0.06451427572996055
0.7644083657704671 0.004591013918228996 0.19133445943121707 0.07368238342197761
0.7654326072923894 0.004058888321001016 0.2039940926041494 0.08516970559470861
0.7595175133061071 0.008304026545090543 0.267399692187448 0.13645543813383587
0.7661772091372263 0.003904444771267026 0.24206210131304354 0.07683325263917731
0.7664973849477705 0.003692927654538239 0.2553047498133685 0.08968174631683311
0.7602640210203566 0.007810862620353342 0.3209267491696859 0.12712647317025141
0.7636168473115448 0.005595891574291479 0.3434120909060791 0.11084643815391476
0.7625682291212407 0.006288638149323355 0.3559215544569036 0.12143025238158335
0.7631366228355452 0.005913141326461663 0.31078464326886585 0.09649861664103261
0.760358981066802 0.007748129351420762 0.2990719509203945 0.10193073588466092
0.7624817875908748 0.0063457438477130795 0.4192644639761446 0.08843024683902222
0.76325877187639 0.005832446245572293 0.3686607056247528 0.10214957556451328
0.7678312142419048 0.0028117626282851225 0.4084402236246225 0.048613153316318665
0.7588481525493483 0.008746225026857152 0.48383040579538183 0.04224447193790149
0.758907124361601 0.008707266594379872 0.43135665768056186 0.09275786243939135
0.763971989828355 0.005361274471094801 0.4734622839733975 0.03998675042292848
0.767423187410564 0.0030813165922980237 0.45505647108185887 0.03699364751059636
0.7632570807264092 0.005833563466661813 0.4420076457505421 0.047755351070763424
0.7633964873804875 0.005741467522644946 0.5413051442645507 0.052391493865209145
0.7633223848323498 0.005790421743445358 0.526203002864983 0.038136480785358695
0.7681278596778969 0.0026157903366708993 0.515145301896788 0.033345364934354534
0.765814534955418 0.0041440375035152605 0.4988116493709251 0.044848116446413296
0.7592293860130952 0.00842547109069561 0.5799620866313253 0.030453380297937257
0.7614870277158745 0.006582560807857994 0.6113779863577389 0.03737346991106663
0.7635684693849126 0.005546567215378932 0.5595649230359412 0.02598637068110047
0.765557038016658 0.003871139927778015 0.5980833150322001 0.03347566476017785
0.7633618462655617 0.005052148617376321 0.6250660136430533 0.040323125591280574
0.772315495524838 0.0011316439909625376 0.1620882199454039 0.037009650696573644
0.770142695877557 0.001772162920905902 0.14159205332979155 0.053867259403118525
0.7503420010643798 0.026446906261216614 0.14429901542724946 0.14758448765224283
0.7561094020327286 0.01581240041933088 0.09731088161620371 0.24509575264480057
0.7571969039685589 0.023546186009497167 0.08888298998519426 0.2991684597045147
0.7646630334445346 0.009799397283644384 0.09214330410631247 0.16493877134180063
0.7670391442018636 0.026170345073753848 0.08044700883031866 0.23177780213190838
0.777922140056558 0.008313903737775834 0.08574111825198905 0.14745677242502575
0.7632966795423373 0.006014605490538655 0.1030474718503595 0.11283281618400592
0.7787893241627184 0.0021064449549459546 0.09583741294073202 0.08396963755306383
0.7511793570963821 0.03736259489816938 0.09808153930271345 0.17455131169493024
0.7544744692287496 0.1099287202646704 0.09040904190631935 0.22501123725200622
0.7570876242685938 0.15570255912092612 0.08713125807661129 0.2607064289526035
0.7539296690111856 0.16810105909225742 0.09209645206330767 0.18370966538686276
0.7558339549138537 0.12482410258002513 0.08854391510535273 0.2102400812499737
0.7573464239467567 0.21674890995139934 0.08696323256734052 0.225043878239852
0.7533730985124361 0.27337395796887853 0.09296707240995059 0.19192482958016818
0.7545316614725393 0.2522644324517545 0.0912164414649096 0.2169808264064514
0.758577773756062 0.30125719461557526 0.08510261803487872 0.2492297555375789
0.756301386064029 0.33262294939798737 0.08854232297437381 0.24821626072696815
0.7551122344820057 0.3101414646799542 0.09033917444427486 0.21452314897211272
0.7582033049852391 0.3788284360426267 0.0856684540237104 0.2354865116759508
0.7558126156231328 0.36459596115099924 0.08928087296114179 0.2009170403407294
0.7584981905842688 0.3448757023003851 0.08522287111394578 0.24019488476746065
0.7546105490451092 0.40721360906034443 0.09109723946167313 0.20638584350047956
0.754424342149222 0.4484499084918565 0.09137860488189244 0.23362037184006104
0.7569102091536383 0.4212283116732166 0.08762236905091131 0.25552518842744326
0.7571524633859736 0.43847692963152307 0.0872563140583921 0.2556820981751212
0.7580334159307323 0.3909058729711564 0.08592516258965398 0.2272898662795368
0.7550072387477046 0.47032491044403957 0.09049782683339364 0.20185796966784314
0.7563723654844523 0.48717326232146657 0.08843507047784749 0.2065510938246231
0.754307385229786 0.5010551962953401 0.09155533105858914 0.20107434796008058
0.7548409502013778 0.5339599437881662 0.09074909489998155 0.17848274895355706
0.7580039712792229 0.5454378507946167 0.0859696545334441 0.1939702650805229
0.7547141834622143 0.5741310676571694 0.09094064407255462 0.21802553905400238
0.7524679692814567 0.6375151144027101 0.09433475573453458 0.22531607394438724
0.7562177977602809 0.5958708398515182 0.08866862795409806 0.2059581643124187
0.7572453223437381 0.6149454366444044 0.08711600078187214 0.20390893991111333
0.7579457650379138 0.6332076709397207 0.08605760628983465 0.17774014719338976
0.7579910923897103 0.6538642040156666 0.08598911500585267 0.21398575540652598
0.7525081401409848 0.6660772459596442 0.09427405609869209 0.2220522526653396
0.7584541626051691 0.7029018042434669 0.08528939899832842 0.21650608175480138
0.7553729192788768 0.7143456860333415 0.08994527019563242 0.20620682804328674
0.7586439806455816 0.6882599635921748 0.08500257700684716 0.23008988349932627
0.7544773389612901 0.7449182331243096 0.09106581029288768 0.20786763800400926
0.7571009204336008 0.7597899845716927 0.08686949365089064 0.23867477495971023
0.7584991779565775 0.7358285799853195 0.08513882950404753 0.2381513965085711
0.7570161456244068 0.8119486788081737 0.08695407855148574 0.24189864427600194
0.7558966986005379 0.8340046621988242 0.08832429489785582 0.19842268859049023
0.7542897865783532 0.8002219663639969 0.09076014559017784 0.19993449255092313
0.7532822042288729 0.770641556792186 0.09267567947456767 0.2005007794249636
0.758698966935104 0.14360996668930856 0.08489428544044779 0.2425637640680272
0.758042800246297 0.07966072389247375 0.08569744119840357 0.2500957273540843
0.7566738191065593 0.08958793091133616 0.08737309024256994 0.19958501705403658
0.7609367969109697 0.8209563458513767 0.08303172672873904 0.19900157349642686
0.7652584808547492 0.796263172044514 0.08002771308691743 0.20837217939184122
0.7602387743285239 0.6710393279165429 0.08382756617986555 0.21484159263668096
0.7607462420223907 0.7226239962323495 0.08349231690817241 0.23255963831944287
0.7685060906226828 0.7179230256870183 0.0783659145319462 0.17931366163212833
0.7637033690088388 0.5891807045962498 0.08153874492616753 0.21878139378322506
0.7602320130325956 0.46461171503954163 0.08383203290664064 0.2056085700816665
0.7600753983481496 0.4533537316137145 0.08393549754001832 0.20436398339315412
0.7650042965634023 0.5017982215028335 0.08067931087654437 0.2045925551278532
0.7607526519249999 0.5177160041208688 0.08348808232298141 0.20124140863766127
0.764504319088376 0.4011301098003217 0.08100961187184184 0.1798255372139182
0.7639521283454639 0.42984629907120525 0.08137440660978137 0.19594015592590114
0.7660497963247068 0.44021846918802865 0.07998862053749646 0.19381754680508206
0.7621622202278168 0.31887856952072635 0.08255687674549862 0.20852328924506452
0.7656804906596756 0.37213683767591493 0.08023259558601725 0.17636046124513144
0.7596913609318415 0.2888371006943644 0.08418920485119541 0.2311063163376388
0.7600613056023502 0.2655003710943802 0.08394480765536647 0.22611048775633333
0.7592641813735563 0.1816742165744721 0.08447141323121282 0.22734189120333234
0.7596457279518625 0.19600879654637274 0.08421935144670892 0.2201656899453811
0.7638240080665328 0.20647672648376897 0.08145904693412097 0.1905963036412825
0.762999994555325 0.22703489891810766 0.08200341642371899 0.18543008631278257
0.7674702432096734 0.0877023613148966 0.078867740799874 0.20869750816143226
0.7729690302766891 0.8170421724250031 0.07693897607324206 0.19458579563199463
0.7504834293412859 0.8030788672886016 0.10097763380263033 0.13500843089410375
0.7646335695399971 0.8874450717439548 0.08845922217185337 0.22507281994805559
0.7553858559666345 0.8792977494257821 0.09349961613617881 0.23546143382870136
0.7727964301025311 0.8853172080653519 0.08261530172887137 0.22728066341107894
0.7739105830821955 0.8944595339028318 0.09091091242768384 0.1253095555435268
0.7750193868894251 0.8986321357713539 0.1025483836612269 0.07835324746547889
0.7606425445002447 0.8909267979122487 0.0990319227703689 0.17672200664085752
0.7506712233853186 0.6782874966413865 0.10254566981263001 0.1400288037747425
0.7505896356480941 0.7128298708896079 0.1029655372811674 0.10531342325138847
0.7517649068986498 0.6258249166609204 0.09691734693293579 0.22878490656942857
0.7511988717798995 0.5973040906725227 0.09983028140688496 0.16702905982360844
0.7514876082826858 0.5865375329765687 0.09834438329739945 0.1844069792179769
0.7504699302102709 0.5761136204654213 0.10358156636664878 0.08119120589678039
0.7543141123278824 0.8672736821808305 0.09111391624429611 0.2481263365190497
0.7613516820343122 0.8673060472899676 0.08277016861816237 0.23718881499935718
0.7581198513068798 0.853434817100133 0.08590213863224348 0.19614946306812373
0.7514284196370739 0.7830432226107691 0.0973138186093357 0.19758822327017259
0.7520408940757128 0.5463861894382742 0.09549705950587699 0.15927479695954022
0.7511980737965728 0.5643191003820988 0.09983438799508956 0.13325161717006181
0.7509502576389829 0.5266986501930547 0.1011097014954941 0.10618981825620648
0.7507821058054052 0.4515368300954826 0.10197504581188194 0.13276148037179175
0.7501244268115126 0.5028277628155883 0.10535959873208181 0.09680826328199854
0.7505394471178575 0.24869053298495292 0.1032238178985361 0.10445312291429414
0.7521315136041821 0.24137529256384158 0.09503071256070175 0.17561106600766674
0.750327745874316 0.23529805916670485 0.10431327653822528 0.10126523264822829
0.7508419359539381 0.20631744061438645 0.10166714742100531 0.13560675740356448
0.7514365761195587 0.30538551861594115 0.09860700542512386 0.17885650558145674
0.751607076936134 0.1546417224977479 0.09732614673335356 0.16471705395275973
0.7512568123223738 0.43716310412688925 0.09953210732188171 0.15803001201619535
0.7507176463459058 0.4142708800448182 0.10230676760003282 0.11641558778709349
0.7510020327667324 0.4006162488848975 0.1008432559172629 0.12141984610867332
0.750794929864918 0.3655028279808135 0.10190905053382673 0.13414590075760305
0.7512060530347766 0.3555157407195885 0.09979332517536409 0.16854069022814638
0.7518341739507882 0.14039708147820817 0.09594356390785343 0.22485105223062563
0.7515352118171863 0.05934684645884546 0.09688054094544321 0.16177082916074656
0.7551507701488771 0.05111751601712369 0.08925948148471893 0.21415947326167062
0.7583076670147303 0.0646156729635291 0.08537145630115575 0.2355996020462404
0.7703089723763523 0.7721913235768293 0.07772313732084732 0.1816343690174542
0.7700625575346967 0.6835420052135279 0.07792264861223422 0.16066419585097852
0.7771679742951889 0.6721356464149059 0.07654792723255563 0.14040795329449907
0.7779865874350135 0.6938181048006542 0.07638954595487184 0.12351287487101731
0.7751804942364533 0.5504093675791462 0.07693245518081343 0.1433468857627548
0.7706032248674098 0.5809370233259646 0.07781804293368944 0.15354750959743582
0.777011651164168 0.5294478109445782 0.07657817186951311 0.14344340781757708
0.7716019132688469 0.45569040272147865 0.0776248215726672 0.13827973828429926
0.7733252104798463 0.6308026071694516 0.07729140643329441 0.14070886395041582
0.7761139271616536 0.6516933193446584 0.07675185913106394 0.1267917478562852
0.7691415823373764 0.6401564073067786 0.07810083440155337 0.16424733510635298
0.7721474020074857 0.8595146537693761 0.07713697083171389 0.18276886693787822
0.7696887647024525 0.7355809595431207 0.07796512836252859 0.17176886909174865
0.7706327594987147 0.29087654625661064 0.0778123287172734 0.14930401255420023
0.7797612255201698 0.2576161432263489 0.07604619763357123 0.12388910858532888
0.7710553976023633 0.10855242433745928 0.07750309784862423 0.2025906095671108
0.7741818672084875 0.20786164084067726 0.07712566466759581 0.1388739081071585
0.7740744223639701 0.19611085708188225 0.07714645257207389 0.14530032941793777
0.7752835838504512 0.18506922600564163 0.07691250990509454 0.12086279794098759
0.7588622162600249 0.0378740205975733 0.0851161932856177 0.23487309001727932
0.7623918183371572 0.051876161846362824 0.08179328483403438 0.19441863107679416
0.7715740209680819 0.05393281121609886 0.07730883177950391 0.18235620813832204
0.7712806082934484 0.04350696842301761 0.0773563446662933 0.18708253347675383
