x y z curv
0.7892355892631854 0.5500883571734994 0.26750340016890634 0.18432144265117248
0.7155295707234246 0.5460713218409841 0.2551402371368351 0.19504207906950394
0.682865488979066 0.5431149215985576 0.24604137313399144 0.11520603094657207
0.899124459900079 0.5455827334350752 0.2536365167017827 0.19501002802418432
0.7773243887724747 0.5519455369567459 0.27321921159189555 0.2050033238784736
0.7365326290937878 0.5481295325473012 0.26147475809824816 0.19096956509444846
0.8222741317370075 0.5488565702820262 0.26371235007861105 0.1473764368514264
0.8877183289193764 0.5493713425237352 0.26529665607092323 0.1964859372033827
0.7527425704608526 0.5432359492947652 0.2464138580677187 0.16930615612600355
0.5274193139863217 0.5472677492173259 0.25882246183374513 0.1544866371935326
0.560250185444014 0.5479337094735411 0.2608720766712907 0.1531859272882588
0.6122771301154017 0.5446820128679437 0.2508643839481447 0.14322094105759972
0.8022197854704651 0.5541519189878147 0.2800097569825075 0.18811172303731963
0.49815788022874774 0.5436893503068206 0.24780928284418868 0.1583651829216894
0.6705776496416405 0.5473801207362688 0.259168305794242 0.19046570724152737
0.766200653825542 0.553390529374094 0.27766644079378494 0.2206222541396324
0.5719634445037733 0.5480670778469278 0.2612825423025373 0.18156585129871458
0.5496725795974127 0.5469213242704462 0.2577562755191801 0.14882499256733045
0.7255769844366466 0.5518197339898845 0.27283202988686167 0.19548035806533126
0.66036861757946 0.5495829013796918 0.26594776725381436 0.20691280404297052
0.6711876914496573 0.5514563610273215 0.2717136829454624 0.20259478547959667
0.572696847074887 0.5441071638750827 0.24909518073500983 0.17350106533414567
0.6860885412695745 0.5491067801791991 0.264482416930139 0.21797311703985942
0.6359596045826115 0.5475895038769623 0.2598127208143456 0.17052399072059868
0.6631469567254602 0.5451899204204701 0.2524275626003903 0.18956044366120908
0.6133689603543164 0.5494656773757863 0.2655869888808127 0.19826157511986836
0.7539476300334277 0.5522563064356681 0.27417566166396967 0.1859270486989703
0.7157339277534434 0.5503692717551101 0.26836796631858073 0.1898777858747095
0.6254069024747201 0.5431487957592728 0.24614562707672094 0.14006820579108625
0.48247066868505106 0.5444440285185231 0.25013194346220924 0.16021151257641086
0.584696374869451 0.5484639380097543 0.2625039522449009 0.2134582805880904
0.5392689968314447 0.5450980849715759 0.2521449221621515 0.1489909565793846
0.6503149129408319 0.5465276519565819 0.25654467676670706 0.15991092157321277
0.7022420024906383 0.5490879392213583 0.2644244304266148 0.20664521480048562
0.5864158991964961 0.5446052400706931 0.25062810158309967 0.17392162173137293
0.5608027472207832 0.5439082052726225 0.24848284914336632 0.1393934780630526
0.5963582683814627 0.5478978978242658 0.2607618597521479 0.23186319437628453
0.7909604428575725 0.5541901551938625 0.28012743591982503 0.20207332364323297
0.7413953893025804 0.551473160601425 0.2717653867161088 0.2205929309388621
0.40807317437896884 0.5444909565825272 0.25027637318662954 0.1858792190565409
0.512709792598735 0.5490218206631641 0.26422093843644373 0.17986348733378904
0.5443197832296388 0.5543364574342315 0.2805777078990128 0.17767910027811862
0.43924654948304764 0.5519759279021454 0.2733127453006069 0.2046475626352543
0.12295657815813302 0.558470550413648 0.29330113730989227 0.18313416065331017
0.27165650048882645 0.5588362109869691 0.29442652479298914 0.138260514254056
0.5664213596955916 0.5563586375577049 0.2868013381330691 0.19904269587430343
0.2948861237018593 0.5534024571240947 0.2777031506321752 0.17147541285370654
0.16488543479956666 0.5553902214162647 0.2838208598329153 0.2080899275883743
0.4986866725271659 0.5471641462690323 0.2585036047577345 0.17640338765438493
0.2764899068755214 0.5547043709266075 0.2817100291537266 0.20353981954006
0.20557822093644298 0.5526440631748187 0.27536905415023905 0.17924304786505693
0.25238415049666196 0.5566569442955055 0.28771943183345156 0.19927562388164505
0.23250218462405403 0.5577433757899066 0.291063124028473 0.1735018428734722
0.266183865837574 0.5560116231859327 0.285733337755287 0.17364229526661631
0.6356579866085748 0.5542165948911706 0.28020880893780487 0.1885162201068247
0.7758985185472428 0.5581314203284551 0.29225740227017716 0.19254324613055815
0.17982621061595652 0.5536482466695116 0.27845961304040195 0.19733948494555667
0.2886405589304143 0.5477052394116816 0.26016891815041526 0.15515090084827693
0.3458860208565784 0.5542970904270043 0.28045654871365633 0.2044168267173242
0.3628718068450778 0.5458633293267362 0.25450010202468376 0.16345457603546842
0.49582329495058886 0.5559676874306991 0.2855981174099512 0.192856247618086
0.5798229666874736 0.5533439115836326 0.2775229659931018 0.19045514903377522
0.25728424519956394 0.5534610390602169 0.2778834472855677 0.18029223126185845
0.1415967097314093 0.5567637721846339 0.28804821425639326 0.22462739893679426
0.5107410504591408 0.5569056722129793 0.28848493762063354 0.17295401637955896
0.558695789375968 0.5540083640587621 0.279567940357802 0.19707179697632435
0.2926010371648273 0.5577178778542052 0.2909846494545737 0.1479534460793787
0.5073574196326479 0.5530492973245913 0.2766162365733681 0.20998127637231898
0.47611450575864867 0.5571009762422283 0.2890860215929056 0.17847058632998117
0.7606736665362996 0.5572372916637003 0.28950555730517646 0.17322199892640672
0.6012894741230771 0.5506985081044435 0.26938125157150006 0.21963549309593397
0.6972886981489239 0.5543756308559217 0.28069827128937175 0.18985313875816895
0.6689252534218342 0.5570741655699412 0.2890035068313843 0.1564144010522035
0.20265711701234496 0.5558233108577856 0.2851537720255593 0.16854584502032555
0.3994159753235623 0.553891342558677 0.2792077852274503 0.203891371221727
0.5916591524462437 0.5524226937862613 0.2746877492538416 0.19398047155178594
0.4673373387922118 0.5519824245389615 0.273332739892008 0.22562447497935598
0.37531619978271674 0.5431438132495504 0.24613029248916862 0.11191813244498117
0.5686220260769932 0.5517665357745614 0.27266830262169883 0.21734147064191914
0.5792229753000964 0.5580166557340545 0.29190419318102634 0.1320126719252347
0.6211130925574743 0.5535901109490238 0.278280689697468 0.21840089285918637
0.8109054284797297 0.5586927534450582 0.29398500789507453 0.18257742757173387
0.37280380929910206 0.5558491066864293 0.2852331634196271 0.17089427423845027
0.3234628739626687 0.5558113410576156 0.28511693277006034 0.20798494856379454
0.40449236707621383 0.5481872269911209 0.2616523233312975 0.21218630439965921
0.46066142548154615 0.5490645137893334 0.26435233436291433 0.20172207580850895
0.33694893272472426 0.551737246087075 0.2725781582362063 0.23071554572569503
0.4543813311987649 0.5455726025598818 0.253605337075191 0.16795590279305717
0.3574156171607297 0.5534677005497785 0.27790394924153006 0.19440588494154465
0.7292054683166016 0.5559864669527628 0.28565591483360236 0.20746586370659265
0.43441214186457455 0.5456032300568959 0.2536995988148838 0.1906701493943193
0.2427295093475832 0.5547210122595976 0.28176124590832236 0.1894784710986388
0.8216529242827596 0.5581471430845737 0.29230579193596745 0.16511855217059587
0.3412489845327614 0.5477323484630418 0.2602523512282617 0.18038524976906087
0.3524321809377554 0.5581434017743959 0.2922942773676719 0.1814272681308319
0.38657093788797164 0.555150222349083 0.28308221868353434 0.2008037571891096
0.842811640593768 0.5586870256444172 0.2939673795380203 0.16888025863791942
0.4304889536868038 0.5554937990603634 0.284139639030625 0.19394682886058792
0.7078880685046905 0.5555125688787571 0.28419740658945225 0.17759618212507086
0.33757998648484744 0.5565768898488597 0.2874730495904788 0.20100991858643916
0.1547374626881151 0.5589058895935834 0.2946409734851498 0.21912227680215968
0.30015169766422645 0.5470412974236487 0.2581255149033872 0.1654497769805834
0.3540403344137983 0.5498283451531706 0.26670316548548123 0.19465095616048952
0.21800020140521592 0.5571929706965711 0.289369151399577 0.191745862415107
0.8733099380826704 0.5588098674660328 0.29434544777543353 0.17145052600300661
0.4568255006693122 0.5579579811819577 0.2917236114849845 0.18505714661303055
0.37576964881933633 0.5474216001032051 0.2592959661540472 0.1499322901276019
0.5977051704825679 0.5568292269576316 0.28824966332587176 0.21039741016552554
0.5294902954444713 0.5542176747538029 0.28021213241312204 0.17945710162746623
0.6965630686879715 0.5583334113255338 0.2928790666124551 0.16512511771558797
0.656087771975409 0.5557481092412732 0.2849223252574184 0.21237793590170148
0.3963540254874824 0.5504707537356175 0.26868029572720614 0.22595533232508558
0.2305604859792703 0.5538663780416344 0.2791309523473123 0.20012605319531032
0.37029797580150337 0.5507551732704996 0.2695556490134445 0.1889365947818159
0.5477853946232187 0.558710401829152 0.29403932403415284 0.15493208201734776
0.6435690037954964 0.5566186863698238 0.2876016860499769 0.20964277821881397
0.6099511168486167 0.5555714033868122 0.2843784805792949 0.19832731231615594
0.5371222903321262 0.5513670353995259 0.2714387669420005 0.19687298754456337
0.4465397387034592 0.5554735921283962 0.28407744849118216 0.18854174144468042
0.7412477186209575 0.5572908702603838 0.28967045526374474 0.18227274724957757
0.36481598423391426 0.5589032257891795 0.2946327751385069 0.16103990088698553
0.4108913974262883 0.5547084519633938 0.28172258929297184 0.21562216404423415
0.41031924456154667 0.5511160223671807 0.27066622829467046 0.19973730057603822
0.5261830402289728 0.5507021160001836 0.26939235553239294 0.19213293219438518
0.3959772492252692 0.5571329580486146 0.289184451468096 0.18737226576183763
0.33167180490039744 0.5462434462018465 0.255669981428081 0.17769246247941217
0.45410465898137087 0.5523402465138303 0.27443400265062823 0.22633257393461717
0.2759159240282086 0.5509583373628906 0.27018092377171243 0.20456124448677265
0.6853611778909654 0.5569427876716335 0.2885991672522821 0.17984483599892598
0.3518852254937819 0.5435940538523925 0.2475159905266087 0.15831695624349013
0.6468347923900416 0.5532676352443173 0.27728821156841177 0.22571009010137674
0.39309781074792416 0.54580191410888 0.25431108542707964 0.16492097323352314
0.2520539533594156 0.5502176893547348 0.2679014436784975 0.21275481929580506
0.5528929683725329 0.5511462109821061 0.27075913929423656 0.21135869051259973
0.41743219314864766 0.5471310904685973 0.25840186946886956 0.21631457947481522
0.31981225929420765 0.549025044103967 0.2642308591667516 0.14111882974503936
0.6314231962265685 0.5574834985221554 0.29026330407082135 0.15826460574433862
0.1925241641386437 0.5545722669218692 0.2813034548489033 0.21095353175025658
0.5184662898155659 0.5545765865691805 0.2813167493558041 0.21518165610835302
0.24034631358438302 0.5515520003158073 0.272008030397736 0.18726465889715657
0.4910551719405649 0.5497530984660188 0.2664715800041808 0.20063957701093643
0.6834949096296126 0.5532079521615656 0.2771045259342965 0.1905818552348834
0.4222940952290945 0.5524280795218209 0.2747043248428668 0.18830414757374278
0.4078461091022472 0.5585535119985372 0.2935564668040298 0.16641270912708903
0.4798041165054861 0.5494567895339473 0.26555963491736345 0.1968438890312113
0.4701136317960344 0.5468720883647027 0.2576047429885072 0.19508277900511573
0.3165767889845598 0.5524593913373866 0.27480069269841817 0.24204745907418648
0.26452406139329065 0.5507402114963975 0.2695096014093882 0.18117717570344208
0.7871289608679498 0.5589184742656321 0.2946797051216336 0.1608208809401845
0.30474250269852116 0.5539868900266683 0.27950185008531114 0.1938420251129356
0.5273190234382904 0.5583030903080786 0.2927857481198186 0.16984168398969338
0.23198570698537685 0.5449799480837265 0.25193011848393393 0.17042822574261413
0.12282689686894696 0.5478362686159246 0.2608202988216462 0.1987102780359944
0.1710921979933291 0.5509447051271104 0.2702245440522181 0.20202786863042035
0.11504748561396183 0.5450462420802228 0.25232179139646294 0.14174550474540717
0.27336272274807805 0.5441539444963561 0.24934332407779963 0.14257811549756305
0.2615207693479346 0.5470150077152326 0.25809031892571266 0.1691280559457863
0.18361877619098516 0.5463304879446739 0.25612835966875114 0.20705171597798858
0.18613392442649285 0.5500886028273951 0.2675885952392861 0.2120603131950735
0.27439815484117247 0.5473940299896611 0.2592256832329631 0.15340580734165646
0.13097669084190305 0.5560484254322682 0.2858586753009612 0.18701328013496682
0.1502050215858929 0.5461231584822904 0.2555500214510872 0.18591008227817155
0.21182350110112483 0.5459919171513884 0.2550498415407508 0.19465027735682014
0.13761933542257457 0.5458734496993924 0.2548086616132746 0.1812705369717776
0.190206467669618 0.5438550394877542 0.2485662130924781 0.19018112420241448
0.10514436023702423 0.5466533531735569 0.25724040410444154 0.18533995217105204
0.13735206169644054 0.5510390456596594 0.2705669933942512 0.20728979852668833
0.11611195613873415 0.5525337492693222 0.2751610675746842 0.18182202982574291
0.10266731971904751 0.5512334279451327 0.2712161551737583 0.19826655372255111
0.1438454843826546 0.5424102899206213 0.24423403986717057 0.13361574396946685
0.32291138749945825 0.5442632875599352 0.24959661152510842 0.1474639460980626
0.22043625127908545 0.5430920303901381 0.24618964491891007 0.16166041741670806
0.2457620074514062 0.5462706885043498 0.2558452665822853 0.1763766696286898
0.24158650720444874 0.5424874199084928 0.24431098817048202 0.13274882418912373
0.22722882983202336 0.5501763695878867 0.2677897582248317 0.21534984737549492
0.17174473617445524 0.547373979995076 0.2593308182731623 0.216836518470349
0.09408880569993451 0.5538873999782469 0.27932612163322457 0.21666113100561987
0.09468320563902262 0.557169355773861 0.289336922630352 0.198386459107591
0.15211528806771585 0.5528413355991931 0.2760410490715566 0.20986694729091515
0.19900778291373938 0.5468140740991088 0.25757863229279887 0.17969814067207773
0.16208077352409012 0.5450186212925507 0.2521613389412489 0.1950057662976855
0.21681426219416097 0.5494070070947406 0.2654596525516174 0.22023422684159852
0.3111209387817845 0.5454897903175242 0.2533572176716108 0.16434230040901074
0.10795606779044539 0.557180383701008 0.289349061818889 0.18561644963718335
0.9475114853857429 0.5504241512555295 0.26853686804700516 0.15979154188925943
1.0022145712912518 0.5451577579725441 0.2523285767677289 0.17021333097709185
0.9609640268987445 0.5505845422424192 0.269030500727739 0.21593659551993724
0.9220892531150005 0.5432487961032089 0.24645339647703912 0.13936425362643237
1.0520813483787246 0.5449045636193696 0.25154932470545327 0.1822594194525567
1.0601131008884275 0.547662742634436 0.26003812652377184 0.1866888737309973
1.0944241992002948 0.5471646812593955 0.2585052512887042 0.20299703727290633
1.0131467018323623 0.550386781097506 0.2684218545313319 0.1863601099105669
1.030631201582136 0.551837821720323 0.27288769819490044 0.19165801428780158
1.1208563913878622 0.5454650910982791 0.2532744508325802 0.17785611481816455
1.0853392761635852 0.5451647700422773 0.25235015769847174 0.15463434052507388
1.1375720500055644 0.5442040495937606 0.24939336430481793 0.15473351239694594
0.9549978722251157 0.5573080566285674 0.2897233494641177 0.1599703479150998
0.96931357028675 0.5535224070804624 0.27807231862386766 0.2087446080808941
1.178172839358817 0.5425757179787232 0.24438187509434642 0.15021061541042316
1.0779833561331675 0.5490623002659533 0.26434552183871207 0.1830374453191318
0.9595734288652061 0.5473061839597253 0.2589407518030995 0.18636897588867044
1.0033822788521642 0.5486395605836212 0.26304446292830297 0.18593423117731075
0.9480201737450294 0.546690821233998 0.25704686014612405 0.14332256519685233
0.9721719077942734 0.5428940345797102 0.2453615528188519 0.12307651790943964
0.9872627151494585 0.5549619150208513 0.28250266834196336 0.17482324579276343
0.9808914882941233 0.5511622790939105 0.27080859185549383 0.19919259153415747
1.1044240732257813 0.5454684827717067 0.2532848893296474 0.19758397120936277
0.9288285560562763 0.5469799565961169 0.257936727255651 0.17814577405017235
0.9839603939718886 0.5476816083075088 0.26009618909295545 0.17634560580237288
0.9939566054100173 0.5505733200324784 0.26899596231829204 0.1881599736580446
0.9713409108848843 0.5465335465143681 0.2565628183494617 0.17889568920482737
1.0163317367984852 0.543691171308889 0.24781488731205864 0.13889313310199225
0.9734321706771704 0.5569509476302142 0.2886242810214969 0.20773253285868834
1.0685719166471839 0.5448702908727172 0.2514438440413951 0.1673319929554335
1.0344034732651324 0.5476154594416133 0.25989260382527457 0.21116402110594168
0.9507104363182706 0.5538498690792417 0.2790801429875089 0.1718386502588956
1.1298773337063852 0.5514661039007247 0.27174366842537784 0.19818173312393558
1.1654098953535672 0.551275474596752 0.2711569717775719 0.16034832295588297
1.0484079957793364 0.5541126786001822 0.27988898749217844 0.2331996202081519
1.1292469574422113 0.5480011157631292 0.2610795318910192 0.18173502582673207
1.112323122571478 0.548755749149505 0.2634020545508753 0.1814357819873069
1.2592360984367441 0.5474477251428942 0.2593763707554909 0.1804103017616705
1.070772708875637 0.5526648782066143 0.2754331162284398 0.2025895697901575
1.2298721638979428 0.5475666592174347 0.25974241218452976 0.19878125431144625
1.0039993422178313 0.5551334673432993 0.2830306520800668 0.1908178790617595
1.1491622287875312 0.547978314213529 0.26100935593991237 0.20259364971122104
1.0172957268553102 0.5554075544033186 0.28387420527975404 0.20284451238803636
1.3497816983874031 0.5446113902267602 0.25064702981644493 0.13067144372734943
1.1777780057852885 0.5499631704046027 0.2671181149261308 0.19947435424341067
1.2011709199145906 0.5471995591822318 0.25861259449346896 0.19877446035233257
1.107753411370665 0.5525751332063393 0.27515690952925287 0.22020052402139292
1.158800487266532 0.5445637001234681 0.25050025477634397 0.1700034880128804
1.2133929744685181 0.5445777243292548 0.2505434168419429 0.16916603599560778
1.1911451121598966 0.5492055585634109 0.26478642552527654 0.198249493522506
1.2776506587152623 0.5435190674619108 0.247285206156054 0.13808425381845127
1.0301181745938806 0.5553547516110532 0.28371169500157906 0.17197838350933983
1.3986755863436646 0.5440378824646988 0.24888195448710132 0.172599226704498
1.1661697837414424 0.5470524597781419 0.25815986909671573 0.18365199666857385
1.3050296443667482 0.5465105733166098 0.2564921141196646 0.19186829217066498
1.3160884652110352 0.5448320722520249 0.25132621922623444 0.14424149855519652
1.2833713948877161 0.546969559826614 0.2579047292905521 0.1603537338975608
1.0969766243491867 0.5525543323090796 0.2750928909526785 0.21033124342290233
1.1798760694090862 0.5464366939771519 0.25626473690168783 0.16534424227459196
1.3009784113733533 0.5427993730169339 0.2450702144967811 0.12293373808339897
1.0569407244270854 0.5519352972097457 0.2731876968923497 0.22908263644289933
1.3733338936670492 0.5448229053547403 0.2512980064184679 0.15969348747559142
1.2118042839311451 0.548281288538074 0.2619418149946189 0.1910756731871384
1.2264864330940435 0.5434865383332945 0.2471850917963126 0.15636313765695076
1.2913556041635479 0.5445841579890596 0.2505632176100408 0.173811131978124
1.2492572419294667 0.5457495713923424 0.25414999111634307 0.14523619868712795
1.5605044133471282 0.5542980633004453 0.28045954291011405 0.20353837873553307
1.408057576124081 0.5457754234487681 0.2542295555617235 0.1840759237745355
1.1324810185364367 0.5581362580682877 0.29227229130184 0.15142176295901522
1.3362369598050747 0.5576156302098624 0.2906699635750585 0.17777096476399318
1.630119195906866 0.5534424186416089 0.2778261395319833 0.2003168089619102
1.3921034690704897 0.5518543677084027 0.27293862150804593 0.22063782927687248
1.476640752617762 0.5532875725943662 0.2773495724200546 0.17264873637398034
1.2641068249172422 0.5522528935672935 0.27416515793556534 0.21026815524648074
1.5240148010020782 0.5531042928406202 0.27678549536111036 0.18950369810495604
1.5149577666750198 0.5487037943628625 0.2632421541655442 0.20790707783405807
1.509382668970762 0.5538470387344507 0.27907143208227875 0.2389022653032698
1.2018741682088656 0.5560893708648755 0.28597262049755073 0.17936537508429046
1.4238444669900587 0.5585401887345502 0.2935154620153845 0.19797150283099554
1.393129649316658 0.5564992722474458 0.28723416718566863 0.20111638418272101
1.4164668509891594 0.5508702460861787 0.26990980671011316 0.2349434867741959
1.6810186309710677 0.5589172721544465 0.2946760054039708 0.14643179351032967
1.6414422399378066 0.5562235191439766 0.28638548643168255 0.21991152571671266
1.2339036726826063 0.553001229188747 0.2764682980687496 0.17716116802276236
1.1735583721321516 0.5565649119194946 0.2874361853158912 0.20078292526901972
1.4340249577470017 0.5507186634783225 0.2694432834314694 0.221751722892891
1.1452116231385752 0.5576550892772199 0.2907914060923513 0.17929073614452504
1.3303942553101207 0.5478165208775322 0.2605114072725849 0.21250558543646056
1.2733945204155201 0.5575507634763821 0.29047032430505226 0.1924164025627818
1.3352401963186047 0.5535140092396951 0.27804647272859195 0.2029642931439932
1.6599657725094998 0.5566556591363993 0.2877154765205808 0.17396990372976998
1.4117197798300458 0.5547122108686589 0.2817341580133753 0.2048813882472841
1.2640559883157696 0.5563320049676004 0.2867193714521284 0.22935482699363888
1.4674416034766153 0.5565518113899565 0.28739586603336537 0.1938014395763756
1.2849407690604213 0.5556374570719876 0.2845817729108518 0.20961391880462962
1.3488016308762585 0.5588184510052693 0.2943718651918087 0.18284299410527896
1.2721200855266999 0.5490180014858261 0.2642091842176806 0.21695849909548973
1.1036242217812555 0.5558790061657334 0.28532518455128586 0.1591544242955161
1.4040889777305463 0.5522110678042411 0.2740364314781775 0.2146012811118906
1.068813172203176 0.556051855111555 0.2858571588856452 0.1439752694297898
1.1441756277697075 0.5531004504268976 0.27677366962811123 0.20767287158272224
1.3645416910740167 0.5561839613487136 0.2862637400611522 0.175832084103331
1.3788280337517147 0.5564864244946182 0.28719462586983374 0.18169783585800373
1.4905290923145365 0.5469355164599096 0.2577999545853557 0.17698006812988887
1.2543210822480584 0.553720709091524 0.278682629435052 0.19927853238508694
1.3418772859777872 0.5469918851751389 0.25797343964550623 0.17526880868526395
1.4971778060165388 0.5558832636670726 0.28533828779255954 0.2102925953400955
1.2012277834467806 0.5516516518254647 0.27231472619657926 0.2307469777931614
1.1132157198754709 0.5576665011814366 0.29082652832072603 0.19533652499863796
1.5306252277795507 0.5565766547420236 0.28747232600606787 0.19479586309753624
1.152417069055365 0.5549774512816148 0.2825504840340916 0.1828331766414895
1.1834435635500142 0.558273774349446 0.2926955228800547 0.1646581432461758
1.4198978298494542 0.5459410608988753 0.25473933519530484 0.20901911607784376
1.6740381274769864 0.5556922888245828 0.2847505276865888 0.18175482089013267
1.6183331234320086 0.5549435085906427 0.28244601917692724 0.15850500334856527
1.5920814784669837 0.5522966677484762 0.27429988100712444 0.17186630335097317
1.4523645981472413 0.5533264735797012 0.27746929733756087 0.20668370808254452
1.4459808995438586 0.5488954881470888 0.263832126946575 0.1925608837017661
1.3053069233475576 0.5526459546936693 0.2753748756464404 0.19958729382245075
1.2402326869264326 0.5567558774980605 0.2880239169104365 0.1484856843566724
1.0603467189899025 0.5584849996764103 0.29334560756629735 0.1717098788625967
1.3497937152370167 0.5503127420045546 0.2681939856426771 0.18594333451170925
1.2941492729449637 0.5582585672097419 0.29264872011835347 0.1997576534100051
1.4773944686629388 0.5453202232368135 0.2528285934175585 0.17224645633539254
1.5450898430075295 0.5577321679597442 0.29102862987543154 0.17106250316714852
1.3790623126515857 0.5516141827549794 0.27219940825966177 0.19676974093395033
1.2957414163044172 0.5507388175886019 0.26950531140247935 0.19801798561012934
1.5733192695739304 0.5520925657175428 0.27367171957095776 0.20630531657508344
1.5950700125556365 0.5570827829696771 0.2890300284596571 0.13119661590778228
1.2226838618588778 0.5558604134432558 0.28526796203762267 0.19322636704724117
1.5461651748496361 0.550936992503455 0.2701152310517696 0.21915135628842491
1.0927434832028355 0.557193775847248 0.2893716293984644 0.17725217815386218
1.0451148920294548 0.5575674598582324 0.2905217104826119 0.16781557870632394
1.27644443452369 0.552338793143469 0.27442952963676726 0.20924677791706564
1.435764156247806 0.5463636175217071 0.25603983070652553 0.20207270966784
1.7218605116145782 0.5586422001072693 0.2938294207256414 0.19530770268315983
1.527861573654751 0.5496076303215809 0.2660238751082089 0.17959897578861267
1.3066875644508917 0.5580487320233489 0.2920029138446965 0.19068508435809658
1.0821901019358637 0.5551312322689009 0.28302377322865313 0.16630892844879108
1.4888769960797004 0.5521618156633871 0.27388484898097404 0.2212774964457887
1.2219670196951666 0.5511017516681624 0.27062230760093964 0.20548506212780498
1.4578367382096435 0.5495290921783281 0.26578215956704615 0.1932167778067126
1.5071688648518886 0.5580644907600538 0.29205141424734005 0.17613388319558176
1.4280751853969276 0.5437389522724756 0.24796194199138122 0.16519211555063518
1.4583907542819092 0.5453572237503032 0.2529424692843801 0.13637807090072016
1.3621912585418354 0.5523256603662074 0.2743891111059581 0.20451713316390432
1.3877663888063494 0.5451374633492458 0.252266116342131 0.17135442222307556
1.1256212285919949 0.5551979680170961 0.2832291647342556 0.19096046396564412
1.1893202643462302 0.5552409440416292 0.28336143133232916 0.1851505974924008
1.5424962038964303 0.5541810166334209 0.28009931032389024 0.18548347484378971
1.60568774762201 0.5538584319703447 0.2791064968554659 0.20685386786024132
1.3204357858801057 0.5508368592918265 0.2698070527267578 0.19715273531669694
1.4367997233556693 0.5550601786315885 0.28280509262731407 0.2005448054045385
1.2519607897955918 0.5580552826369886 0.29202307455967197 0.18563441514607704
1.362368236972698 0.5484430729877117 0.26243973631254586 0.1979766562111469
1.4589531455985238 0.5586129019470746 0.2937392502638345 0.15982073886891043
1.5017368062800485 0.5460507170716673 0.25507682217997896 0.17007217340521855
1.2444297695635786 0.5501981469585409 0.2678412983697851 0.19423486134662002
1.4801792335568056 0.5582428641427603 0.2926003910494936 0.21093922960849018
1.47552510517253 0.5497081802294911 0.26633333589245756 0.19631769108924685
1.1623190390037939 0.5584455546033419 0.2932242081189956 0.14888338202735057
1.3184473903944203 0.5578666440628285 0.2914425047479998 0.17865793107867345
1.5664230854741925 0.5489266925858571 0.26392816433033794 0.20144976605771822
1.3801784989224277 0.547987532609121 0.2610377272431655 0.17414573440816472
1.584078665147814 0.556936057541745 0.28857845404312404 0.17592602761544182
1.7084705258870496 0.5485599963880442 0.26279958952291566 0.17914071548250798
1.727801678027529 0.5432412701059004 0.24643023383991933 0.16061530255375525
1.600056050996833 0.5498950602518615 0.2669084934384472 0.19199080626070014
1.6840439718904923 0.5548867194045147 0.2822712400404642 0.2059208401417608
1.6505236483336514 0.5533511496617579 0.27754524250612544 0.18013462253567475
1.687934422302534 0.5509253125171996 0.27007928375175017 0.16556463091244922
1.5464829729572422 0.5460067466488091 0.25494149513866937 0.20196090481898077
1.6533159663620225 0.5458720017572911 0.25452679302039544 0.14719717624895537
1.7303119143572794 0.5502998910110956 0.26815443435320435 0.20344426525995213
1.4869587893555514 0.5434987506846594 0.2472226775476017 0.14305292666019562
1.5510678100985231 0.5426780476317119 0.24469681337051097 0.13118054839665164
1.666488220759947 0.5500461075720515 0.267373369271117 0.18745428924443394
1.7248874585419922 0.5554040020575751 0.2838632722841644 0.17092153270197605
1.575707483940444 0.5451695898223814 0.2523649914557762 0.19311769699484685
1.681323904713702 0.5482915117269521 0.26197327873350723 0.174618808919436
1.636706892012871 0.5487134371511431 0.26327183161513756 0.22263317495736937
1.7121971650596963 0.5544338498361284 0.2808774508793624 0.16254400319099954
1.6691391698928149 0.5462802110103886 0.25578313186969404 0.14689436611279902
1.532916990995476 0.5452959678568016 0.2527539430367004 0.18256240496163273
1.5803970362909059 0.5484179987652393 0.2623625657938252 0.20562721288702276
1.624447192582569 0.5506165257344507 0.26912893579081165 0.1795966046437014
1.5184598970994858 0.5443606074505739 0.2498751998246769 0.15544569506115355
1.5994128892114479 0.546448031025702 0.256299628748019 0.15644001298673144
1.6375762663389528 0.5453570457319639 0.25294192140028926 0.17457383272260946
1.6949537860079185 0.5478884173459517 0.26073268184124676 0.16542262094071664
1.7170757176392901 0.5451271627196443 0.2522344142652124 0.17391288298546267
1.6253450413865318 0.5456731578020763 0.2539148142766776 0.18869836024186593
1.613729099610273 0.5459907650378486 0.25489230879962493 0.165507384491826
1.6088701029084125 0.5430123923446806 0.24572582054948294 0.13735122673904687
1.7359210684693804 0.54564725210698 0.25383508474844996 0.1974972604156926
1.696618576545347 0.5540911263636207 0.2798226565310939 0.18847966428582644
1.65150778706663 0.5493524719255113 0.2652385783436831 0.1731845025721856
1.5876175515461917 0.545424172334741 0.25314851583255726 0.18145481594094776
1.7043126614172635 0.5448357462482849 0.2513375266236009 0.1714949163003951
0.08815551208980346 0.5406595076602818 0.2446401592671052 0.16187676662216005
0.08901371625748775 0.5458092445250314 0.25771221387374943 0.1662734487423329
1.5798090556694957 0.5517814259489081 0.31801912307429914 0.17067418419884842
1.3457184676498888 0.5515797659349502 0.31739847334005256 0.17268332997470187
0.9485344970058623 0.5506516065433458 0.31454187391594396 0.18619867375262417
1.4185332742104508 0.5507498459702109 0.3148442257455394 0.1797119552409571
1.5254130326722315 0.5503210507785379 0.31352452127594804 0.17070816292014487
1.7124876211999327 0.5505545642058346 0.314243206372464 0.1542524808212786
1.20683772861906 0.5503630759106521 0.313653862172869 0.21747896629487903
0.3619857417902815 0.5416074563292025 0.3190675069592995 0.1622135035573236
1.6131094310964427 0.5409397530085918 0.3170125269799388 0.1717420683077596
1.115135730271166 0.542175197931377 0.32081483633434554 0.16646780385110674
1.1971724194012991 0.541987495499069 0.3202371475187237 0.2658355903297731
0.8572775934943888 0.5418512642017709 0.3198178706035602 0.17987658723192454
1.544814365108914 0.5410422171933039 0.3173278793852441 0.1844367400585198
1.6725756963108258 0.5420452711828055 0.32041496282936804 0.16962089978361136
0.805429216959226 0.541753685852983 0.3195175552584236 0.1706746522056602
0.7479590061728282 0.5368090142567999 0.32295307240094784 0.15962170033195897
0.7368435232691215 0.5376122186024094 0.3226920927580857 0.16817308003203968
0.3936910485226217 0.5421467075413533 0.3212187325723286 0.1762796080309612
0.7816400541490626 0.5419985441528866 0.3212668742792537 0.16528411279863894
1.183589134307181 0.540851029255265 0.32163972837273236 0.21292015422307997
0.7245981812515007 0.5415567453692459 0.3214104249079346 0.16541032747875672
0.8680151868192149 0.5374170589122005 0.32275550464888314 0.1467323378470789
0.5506518629782676 0.5408180907025174 0.3216504308692756 0.1692616763398762
0.2655826216614794 0.5420977624751059 0.32123463595479773 0.17372078769537927
1.2382860452586413 0.5411379934694109 0.3215464870717715 0.18671053527587908
1.313129154097238 0.5371863779935752 0.32283045820719863 0.178638641755611
1.3352623613750532 0.5367995992442774 0.3229561315559675 0.16420694734950653
1.7380577325820923 0.5336956891080655 0.2911311895759311 0.24717641209132887
1.738057732582092 0.5507726813501325 0.3038382843525981 0.22249263000903305
0.26904728661769367 0.5162392305575975 0.2667228149119954 0.15435745859356756
0.15675785766221056 0.5206529131343376 0.28012084729192815 0.2612867859817061
0.1040708307233717 0.5262499027099959 0.29725939605773627 0.21170803184989745
0.12314145945771311 0.5230431414673284 0.28742156606948277 0.26551563114433496
0.14352056443973485 0.5278833010052182 0.30235178945399893 0.18879078126957774
0.09726657245308064 0.5130657585322758 0.2566714892720509 0.1334610111749255
0.17472098405228634 0.5228088772160824 0.2867859630476318 0.30148322408933237
0.23348579157746527 0.5223918586650281 0.2855997949089701 0.22491597072270925
0.21860954574103245 0.5140458860290006 0.2598888930467396 0.12543161488199164
0.13298092840914547 0.5199340995246031 0.27786920336085286 0.25085266427732317
0.09048865915221849 0.5175090577513795 0.2703353438849917 0.18299096309489554
0.10313583345958852 0.5178368271723414 0.27136505197317606 0.19091396118860995
0.2364389810953008 0.5156627416332469 0.2648945814164494 0.14587729976273617
0.14383317469480708 0.5224862858256127 0.2857419944147977 0.2847805020170748
0.11637143274626527 0.5199634435354921 0.27793201839943893 0.2142404502873352
0.1642084385522062 0.5155932050989969 0.2645609941069622 0.13122586533263725
0.11669789432141131 0.5148259679011776 0.2621210272510949 0.1391602993309459
0.18109485506248174 0.5165569089277087 0.2675549259243084 0.16176212815099572
0.15146695097806742 0.5169807009688374 0.26881017610854735 0.16244812801867806
0.1593030355319332 0.5262548677130822 0.29736611223479004 0.19074305733099
0.11130972116446766 0.5230680930573821 0.287478772072035 0.2689219642215634
0.2857275416841317 0.5144457306499627 0.2612306009072448 0.11048909354998455
0.3333062333696397 0.5141924138120342 0.2605297367519246 0.13961478128512736
0.30209913168008423 0.513327147194738 0.25781505614419864 0.09751716293238408
0.21466152693181106 0.5181133661782125 0.27240077976878974 0.1672313829580491
0.20357684885159016 0.5191938994684175 0.27570797045400525 0.19216171958921408
0.2500877249138026 0.5144533998401923 0.261195203480023 0.1416900381413799
0.19316380175835474 0.5186043793538417 0.27387637472628856 0.18800509112774622
0.2420198194278465 0.5193876925665328 0.2763680458875434 0.19623394721225926
0.282903161399771 0.5178082187571539 0.2715746043642769 0.17847141935027339
0.13174945359504514 0.5164599303032483 0.26717476625477954 0.12981412406111126
0.17593197098607932 0.5192689059571741 0.275893051430051 0.2207132912702166
0.21260070112194382 0.5218303450106149 0.2838370580508348 0.2882749650472751
0.13264502990844523 0.5261359005532958 0.2969558371671495 0.19588666694442539
0.22775117496246786 0.5195826061255285 0.27694430705510675 0.20814781456496695
0.14025994574019665 0.5121407422775242 0.2538957550362859 0.10417729736773579
0.10860115502455042 0.5123608336471368 0.25452071664392767 0.1381245728701502
0.3097860665211881 0.5155279754271264 0.26460123765780447 0.12880788859861325
0.20728768579184756 0.5249668978159995 0.2934815841171086 0.21273563631662198
0.20944012333669804 0.5282702645510342 0.30365187695491214 0.1824198136333528
0.24911296238673517 0.5220848344744211 0.2846807427937538 0.2478164809785653
0.3199480663971236 0.5167261762803974 0.26830574744386687 0.1557526733724499
0.2325774046169111 0.5321803232169728 0.3157241211770455 0.1527227633838586
0.2886191311345175 0.5254348053284048 0.2950563130584445 0.2114601432339836
0.33143561971899593 0.5311387649320529 0.312682204831215 0.18580577854122857
0.3377890629544531 0.5184195090604482 0.27354683424860715 0.1982860105170174
0.26177948090315717 0.5242580485450835 0.2913901869523606 0.2436006997312353
0.28104314853281803 0.5329525198022262 0.3181809427246322 0.15947741556447784
0.3116136900504377 0.5285032584247338 0.3045381223837902 0.1833218414431359
0.26620411004145716 0.5280689741497957 0.3031263491158734 0.1859212110804031
0.12449681889771139 0.5329769914488371 0.31799707359226737 0.16179283671368402
0.21799761661845096 0.532806902032573 0.31762839575244567 0.18258883039421017
0.1865521939448203 0.5342035793342184 0.32187486898916823 0.15752601479929063
0.31395069892745253 0.5323853762739501 0.31648993564056416 0.14484418565521262
0.34520254521155397 0.5138982549085875 0.2596441027977191 0.13385783670660448
0.21829147520618453 0.5254236804320987 0.29490563645190004 0.22756183323347337
0.23802651544177222 0.5253989315400374 0.2948621413339011 0.2384287008434036
0.30077047235884957 0.5283259681585399 0.30397452589678253 0.16057480247425954
0.3191443391907752 0.5213968290544777 0.28267922451634403 0.2564164774344529
0.2815921504817835 0.5210935287459757 0.28168358796474335 0.25952315883650356
0.35461289869964985 0.5177923706661522 0.2716445528123026 0.20722959134269006
0.3488020533502796 0.5232239401916492 0.2883516035377399 0.2768411606786313
0.35897563454681425 0.5244717826846383 0.2922089161152196 0.19421527923894752
0.24541244950895608 0.5291635170278695 0.30646058598853976 0.19960715836399404
0.263883048481493 0.5325930400488019 0.31704616548732695 0.1860022409289873
0.29434016310398053 0.5186539640644028 0.27419647741906095 0.17882929878635948
0.30027988224804314 0.5323611360861294 0.316392697903256 0.1473231957493846
0.3540698913614004 0.5337549102451027 0.3207713558218498 0.17356237221909065
0.2646581708270783 0.5209881651857718 0.28133127523067436 0.25848960803260196
0.1514230088692872 0.5339085410047313 0.32090867185845384 0.1695025953111658
0.34253876774521264 0.5303482954167521 0.31026776988183147 0.19658169475405515
0.16086750080809925 0.5299729771735912 0.3088118745800125 0.15668382375889336
0.22615016424815465 0.5276505697303798 0.30177231610524413 0.17140527630876326
0.27377654322791456 0.5306431573229216 0.31106141670720333 0.18251424005927025
0.3643548088362816 0.5155862065076747 0.2648707990044886 0.1554967765405813
0.399668389892283 0.515787466358909 0.26549027381856444 0.1439876283152783
0.4377009787037365 0.5162970286600927 0.2670585471361081 0.1273480740325294
0.5124214365118149 0.5122516949309938 0.25460827573029904 0.12802042656954377
0.4659152595065469 0.5122955799180842 0.25474333998865334 0.12594937753053317
0.4511831077972297 0.5132073630969893 0.25754952331018344 0.10818581974600834
0.38548725753202706 0.5157770062281823 0.2654580808092336 0.1463584401297742
0.4524029657770359 0.517928540304168 0.27207982946551434 0.20381433535700058
0.426433789279925 0.5165718044693666 0.2679042210978386 0.16804810950839835
0.5148277735150477 0.5196285902629955 0.2773120512816237 0.2637225097405666
0.47558802829448193 0.5251385665316508 0.29427003412760383 0.22099695242688286
0.4878914516500643 0.5200466527051881 0.2785987166641197 0.23918084091902903
0.5422142636983558 0.5147685071591622 0.2623542362409876 0.16184493032994332
0.41325809874535446 0.5133409856471829 0.25796077170827725 0.11744825767625826
0.3899756946445225 0.5268382273963149 0.29950105843362934 0.21114397174597924
0.41199392723278905 0.5232307862758608 0.28839848345766206 0.27536547142619766
0.47216270161389995 0.5172023191587309 0.2698447480193802 0.18607945598858583
0.5093788335575254 0.5154488158697963 0.26444801357911013 0.18871706215055
0.3776678880485456 0.5182425346003119 0.2730462056581004 0.19575588087759666
0.6150402385001634 0.5135996594586439 0.25875688875916436 0.11118897204961374
0.4068780363660877 0.5201385146045652 0.27888143884619093 0.251694683391581
0.43365680092245873 0.5239770900102169 0.29069537282851055 0.2310386046044105
0.4462307909781646 0.5208485541561771 0.2810667184098615 0.25248083719025144
0.46511742000610157 0.5225314005945428 0.28624599317308813 0.30869786937823757
0.5274008555058339 0.5174665773478454 0.270658052037295 0.1963938284924723
0.4608527214485122 0.5160225904408358 0.2662139121708152 0.17336992177950136
0.39671043464972416 0.5233297595846571 0.2887030923327177 0.2394528572321724
0.4875870608210142 0.5125864952019352 0.25563868620298186 0.13382847281386528
0.4174755692240435 0.5184537756365508 0.2736963394688907 0.19345314694666393
0.4300048418876675 0.520385653905453 0.2796420562827603 0.26108772574265543
0.49927006227412296 0.5196579800114556 0.2774025037311323 0.23018602249129283
0.4891975886054464 0.5160609035579884 0.2663318279569766 0.14513008301415878
0.4248187462079521 0.513219283779978 0.25758621144236016 0.09750089637086387
0.5520331609291419 0.5168384336659203 0.2687248223347476 0.18215856801512265
0.45358741632341526 0.5241444386683757 0.29121041963379357 0.21027410598374355
0.5645527436434314 0.5148276677753014 0.2625363141057058 0.14569417487718436
0.3770595870638927 0.528881825552627 0.3057906141030357 0.14804570540441012
0.575160911760674 0.5124837124441037 0.25532235303579853 0.12466477126650541
0.3697197207721683 0.5204968822457953 0.2799843823102318 0.24598976224907065
0.5917592343543788 0.5135179923541526 0.2585055429657309 0.123824998109924
0.5336067573669802 0.524215428988355 0.29142890562533724 0.22236248234702127
0.46060465667361394 0.5340482501697751 0.32169125246531843 0.15230960006045208
0.5091159050639872 0.5275764516104644 0.3017730815694184 0.18574340792644323
0.6017106803399324 0.5224296144639202 0.28593272731260233 0.29561646194031405
0.5104691777840412 0.5231314328570064 0.2880927047227867 0.26240623677130337
0.45485873926283316 0.5280135273045867 0.3031182637919783 0.17828223778357877
0.5837615698729739 0.518511471167115 0.27387390825864466 0.19378054273301282
0.5973304431903351 0.5337129671835571 0.3206593563460596 0.16165153060883475
0.5953374650920793 0.5196892960235616 0.27749888461740213 0.21866832417593107
0.3880972582085233 0.5324441561306908 0.31675435294492016 0.15317977448406359
0.4426504945054164 0.528629534751759 0.30501414196146653 0.19187000808304738
0.4850467364005112 0.5274346328519224 0.3013366078066772 0.14832259237167544
0.57465470763817 0.5200755318445629 0.27868759761863665 0.24097994616581048
0.43644755918783174 0.5316672367420303 0.31436323816996875 0.17678265444532282
0.6141400825882127 0.5217665207127871 0.2838919322331461 0.23932215369478854
0.5827860639615378 0.5228483354809424 0.2872214195823513 0.2898678620159494
0.6267926268928402 0.5305167932890908 0.3108225332033792 0.2676593994017777
0.5488877185051886 0.5286372153964749 0.30503778058257625 0.16524161787232355
0.6078342750061111 0.5314321499735458 0.3136397146568177 0.19456867370407951
0.5002998536614637 0.5298156011040942 0.30866448306574934 0.16422730762995433
0.40457499100888045 0.5308791172948883 0.31193765311958516 0.15942619067460784
0.5430632674447989 0.5319241749736118 0.31515401364906115 0.16647777120435095
0.6184925790535779 0.5182202884580214 0.2729777389930989 0.17218063673255712
0.6023335464346857 0.5171888048105467 0.2698031550844004 0.1402162860020308
0.6364089315479177 0.5179582083295712 0.27217113836437873 0.18001324540533523
0.6177106643434918 0.5258628015582069 0.2964990029212923 0.26074900372639276
0.48799219500029345 0.524180888649034 0.29132260126881376 0.2289496569744096
0.6387198651867165 0.5220717120793976 0.28483121576312487 0.27469019359142666
0.6285934459826934 0.5157004026440618 0.26522231894709136 0.11595391739035006
0.5357858978728052 0.5205255480938076 0.28007260682067525 0.24612967838758665
0.5626015315977532 0.5194465122023849 0.27675167198452444 0.23078046106220698
0.5095116917510664 0.532444088380345 0.3167541444305554 0.19186249739949907
0.5868937041206956 0.5293686292893132 0.30728884368036513 0.16868249978687164
0.44615851019612895 0.5332665920564253 0.3192855533785523 0.14391273633916143
0.6545596289962307 0.5296503446878165 0.3081274396964869 0.20025704646292808
0.7548241669046551 0.5230880975580638 0.2877508482998137 0.2669019677063268
0.8332676576214835 0.5151285870557879 0.2631131021787581 0.15455711708376485
0.6943460494511793 0.5140828363890819 0.2601440746375959 0.11061855709209088
0.768529713872755 0.5216942555704228 0.2834364273338231 0.28743896247829054
0.6976375890999322 0.5232695126088218 0.288411878750063 0.2672080750324112
0.7190794741130286 0.5150450390272151 0.26306101870951815 0.1411198424298704
0.6702681250515515 0.529725100818246 0.308329307446559 0.16204703407981785
0.6778088283448787 0.5193540279879093 0.2763968493818453 0.1789582556199179
0.6606973781147732 0.5264595610150001 0.2982961842252497 0.20825297139419674
0.6876707583929154 0.520930835658637 0.2812320606285656 0.22800559933508913
0.7180158416462572 0.5226374763484243 0.28643007505648466 0.295710432176665
0.8217673212144616 0.5181995318869173 0.27258516095597835 0.19105181640190635
0.6967876805603002 0.5188016518894799 0.27466272768665356 0.20197824349863366
0.7528931573177928 0.5150979143744612 0.2631630322162719 0.14611772328359285
0.6999330705935696 0.5272278188896834 0.30059018483522176 0.20184294783595066
0.7872893974848216 0.5206403253963081 0.28015907270112 0.23737720388638886
0.7052691054786959 0.516420418924897 0.2673188073710055 0.13318315350123516
0.873381494879039 0.5121050472974755 0.25373555924207764 0.08343223605490359
0.774576824128391 0.5162970366874106 0.26681461745712653 0.17606395504418432
0.7906257545821515 0.5171811238873989 0.2695067416656397 0.17924442784976835
0.7304010501293168 0.5125984128419769 0.2555107383763241 0.10890979822989333
0.803443996199337 0.5193209797769038 0.27606953040888127 0.23486740606927267
0.7276327530867011 0.5204350684526236 0.27963448331903107 0.2106203851632496
0.6813479455424569 0.5256209170063559 0.2956780175273571 0.22843545620453903
0.8143552055236982 0.5135223183930063 0.2582034715168019 0.12642225931329829
0.6806772046473039 0.5138455274271301 0.2594382574717329 0.10154206788710693
0.8481296362394716 0.5148456557664058 0.2622156400907696 0.1319551772904942
0.6490141781068554 0.5211406035360615 0.2819470773231816 0.2537816368637185
0.6678174809170512 0.5141466757452808 0.2603881903635868 0.1344769744909283
0.7639602948104696 0.5172153907122244 0.26966008821329823 0.17098631820128266
0.7318265347744084 0.5166275524798392 0.26790860965009183 0.15975996562891995
0.7406420658129984 0.5143521340365256 0.2608897533562319 0.13403802859322636
0.7578854606758436 0.5198024820794664 0.27763325468902955 0.21409475320728832
0.8924689006968947 0.5132759720281538 0.2573050233333326 0.09835997383924497
0.6594924204965519 0.5121905321668168 0.2543827420857509 0.12710190537161903
0.6690526224386051 0.5216286150733346 0.2834130404843046 0.2691408556435559
0.8598078335591823 0.5160793057487206 0.26599145782213096 0.14429842701102757
0.7443407765836243 0.5198255338437917 0.27772852341081633 0.2315049668706424
0.6635583232960924 0.5186665113385918 0.27430647833243343 0.20827804926802976
0.793840690541338 0.5132540195248204 0.2574145700961994 0.11540184359517143
0.7169095879906555 0.5186312083610098 0.27410202231323133 0.1798646051605413
0.6477788545748971 0.5157768016806055 0.2654411918903814 0.1558333576000998
0.8576005964218192 0.5124791792023687 0.2549153584198303 0.11906103601137226
0.9056926841163211 0.5306558027055124 0.3111741389449612 0.1887845403561622
0.8455500186904861 0.5297407932569712 0.3083375667673897 0.19853567335875164
0.8258901762590086 0.5314147731760719 0.31352698297713977 0.17692709117901495
0.7896502503594731 0.5287574464716693 0.3052891456428444 0.16100894449623818
0.8783648328626725 0.5197698059292414 0.2774270387047045 0.2671763210381407
0.7942827035783698 0.523146091058448 0.28789368085394595 0.23801443405454464
0.8757887490737277 0.5324477602770108 0.3167292914068341 0.1845587582433269
0.7802796619839328 0.5246598120754327 0.2925862869556961 0.21795971525794489
0.8948265566324314 0.5285136196294281 0.3045332710035725 0.19834518205693358
0.9080545770387632 0.5138102345067328 0.25895208796590213 0.11079242002309454
0.7993513628049879 0.5269323297584247 0.29963119828736756 0.19437203611012716
0.8977987796997134 0.5327176016717693 0.3175658123782288 0.20355628919457638
0.796303028609199 0.5318145415183362 0.3147662835755639 0.1870678527221699
0.6724741620082608 0.5334621672407427 0.31987400054032317 0.16730534252047793
0.7096027566904581 0.5312596086752281 0.3130459657518623 0.1407232023923387
0.8488402043100032 0.518327304750492 0.27295521743960394 0.2096900101728834
