x y z curv
1.2039404112936358 0.4545603941998204 0.6437513466736835 0.11920155375315288
1.0472540846828902 0.5071530667458138 0.6817635791740007 0.002282796423272407
1.0668332510537497 0.5039288053601898 0.677286604344339 0.0001570979517526323
1.0783757118323656 0.5027701868685874 0.6806055176943216 0.0001734041182313399
1.0941225078873686 0.4985339551787339 0.6732170501292981 0.00025383452913163996
1.1316376333094462 0.48815825375800936 0.6648287627015123 0.07869713176754903
1.1619091288067585 0.4766924248324702 0.6550539620947119 0.1188581201797402
1.1841693661634323 0.46586236353217164 0.6459566774577823 0.2012647205673446
1.036396511615151 0.5077215715415485 0.6790000125883084 0.0019963895730969357
1.0812236559971122 0.5001132937415793 0.6688922990251585 0.00020388215454946284
1.145825099387247 0.481105018383231 0.6507945357925129 0.06625463669996999
1.1989906166460025 0.4554689436578466 0.6338377880095829 0.19149798011890193
1.0150096331271052 0.5080420593749329 0.6727425083599686 0.00021542159229918478
1.047502240779627 0.5044464059665227 0.6668342433446491 0.0001940828199552591
1.0699404380752024 0.5011612111893996 0.6647715670085924 0.00012329978995150685
1.116207543578917 0.49064741676659523 0.6572437218138267 0.00018519294808078682
1.1323892797974433 0.48520353558766605 0.651244051192815 0.08194764154499343
1.1829512239766395 0.4632669169170066 0.6324524149987905 0.22039652089010414
1.1925684014429818 0.4563993205323519 0.6227253585313223 0.2479920827542519
1.0572452783292554 0.5023689072596668 0.6618175699049069 0.00017835239206830548
1.0793953408736074 0.49797976227860574 0.6556390520806958 0.0001950150427339344
1.0966230565084385 0.49434939099296643 0.6536344504674649 0.00016051107469453713
1.1211364854615848 0.4874370436012947 0.6468088312211125 0.00019170849026351074
1.1529452064443062 0.47591468989374675 0.6369513900072429 0.10640251120463463
1.1661300526590401 0.4704087408407965 0.6334115075754904 0.17705602903978956
1.1823208810402597 0.460556691257623 0.6194106945329124 0.207302222590263
1.1984684278427773 0.45051924024082785 0.612017435950406 0.19435713471426805
1.0196479937731218 0.5056736158038477 0.6604768840873554 0.00016715991380371578
1.1075342675357285 0.4905236997952699 0.6457722630447249 0.00017861748136629456
1.1325920521120199 0.48233063699306394 0.6371426190665374 0.0001690170836735311
1.1627146106352624 0.46930439615141695 0.6221721796535372 0.15096435790541005
1.1717237205008437 0.4646102096979895 0.6170576051247498 0.14827241309414246
1.2012064286445898 0.4461108849154985 0.6013084731297682 0.21162015946019455
1.0417012451528123 0.5025363342269275 0.6523823391012229 0.0001761779009539856
1.0678028692263972 0.49828723577148387 0.6468291392466934 8.679839819906547e-05
1.0849595895550381 0.4952730877915173 0.6458170484023991 0.00017117356571445493
1.119739309601801 0.485124536119209 0.6331551481128785 0.0002381346658360605
1.1786254121639537 0.4596976326110458 0.6082661739996263 0.07625091587724751
1.203785911585053 0.4417403093752521 0.5909962987774422 0.1875117406751029
1.0102911742301683 0.5043159142809538 0.6501250762883446 0.00014812549247851165
1.1068011691445236 0.4884563207909933 0.633944309992252 0.00015840073566078042
1.1279489081120304 0.48140710772616496 0.6258877256413338 0.00019743424394302777
1.1496758461016106 0.47365827229797686 0.6207184958506515 0.12712818488128416
1.0544567805063234 0.4996240890379683 0.644557248483433 0.00013676103976195228
1.1866681238434325 0.45260954133623776 0.5937200710787922 0.18711993219769016
1.0172277276557626 0.5023920365976507 0.6414301391859233 0.0001838444607340977
1.0409426797169787 0.5005419257244648 0.6409771779102655 0.00015289088660133858
1.075164379789996 0.4950139366230535 0.6357442071794337 0.00016911823516385015
1.1374324812449161 0.4769197699337482 0.6171598182716175 0.0002081486055705903
1.1604027957918592 0.46624218379921967 0.6040701732787292 0.08389900601675265
1.1706410139903796 0.46121813409458445 0.5997031909021515 0.07975138795306481
1.0863300876556439 0.49214904364773726 0.6305251164268865 0.00017007629750640123
1.119635892687766 0.48221462259926684 0.6183573273441889 0.00018906898379091017
1.1041939578400035 0.48613279144768895 0.6187941691576146 0.00016685335951071976
1.1455322550865716 0.471755366600229 0.6051861641623546 0.00022819834388177856
1.1726815544181783 0.45772199097882155 0.5878284268651454 0.0007785136017912522
1.1937039661568334 0.4447029003053533 0.5759194361333796 0.06427095454428768
1.0282298294518448 0.4999347037549636 0.6320401260559576 0.0001234305351233812
1.054671359772955 0.4962849871358994 0.6269748485985458 0.00015899679127389217
1.0734665755602268 0.4929433250838369 0.6234869896532832 0.00015200793322228516
1.0916194451790622 0.48915769631971073 0.6208360394063196 0.0001702478275111842
1.1333781907064557 0.4752949135451457 0.6036817756451897 0.0002301403180930981
1.1496587476769127 0.4683416810974713 0.5956062984998897 0.00048558975306675867
1.20009629320809 0.4381813000303012 0.5653899215289081 0.1020300111140546
1.207018014140456 0.4306229153092276 0.5611322113124175 0.09686970266209885
1.039895901160435 0.49767153036297196 0.6254310369978588 0.00017915082477548165
1.1201791688403202 0.4797837041864515 0.607125119376877 0.00020705261222924915
1.1806325229110182 0.4517668219071129 0.5774401750406599 0.021067244278526704
1.0164190210032689 0.49887183014621317 0.6229820471106039 0.00016383944963408925
1.0985339744968396 0.48542308613236024 0.6095083288767749 0.0002462825507157153
1.164474239991034 0.45936714617554114 0.5797595456301208 0.0007193523805337379
1.1855464807255665 0.44611846104326375 0.5632365529548858 0.035730173806740914
1.1316958600433416 0.4732239061508614 0.5916854358165511 0.0003938448506622173
1.2054120796054435 0.42937754205008477 0.5473053755411923 0.08876743101513444
1.1423801653177792 0.46870442765996523 0.5861116190570747 0.0005293865441839175
1.0840873115311827 0.48749038031629294 0.6055359778547252 0.00035425751150624705
1.1148867528054922 0.4783065101200965 0.5939651172127423 0.0003606310891987456
1.1516549458498402 0.4640492884979343 0.5791306435261212 0.0012250335410738612
1.1915882032320066 0.44031307867663927 0.5525418782255977 0.08248394719568704
1.0415803839056823 0.49448305857912334 0.6107776412364646 0.000177673364828542
1.1746445585377225 0.4509327725799219 0.5617769501917519 0.0030727050347078566
1.0217037419936814 0.49640279934948556 0.6124673421514965 0.0001772978711908697
1.07019131911771 0.48890198147464353 0.6015298256332838 0.0003314356716186314
1.1267754421202147 0.47242685896595404 0.5818582113012273 0.0010031815060958873
1.0566069559648108 0.4904496980931284 0.6005249309111197 0.00025948343343297264
1.101914563541268 0.4803426241243808 0.589630192621668 0.0007975218237584446
1.138233621609067 0.46745546906448837 0.5749305964135762 0.001743549571658236
1.1643815058583908 0.45466867869451466 0.5600304851578424 0.0024561671410575615
1.192852963011793 0.4361308196324537 0.5397121439801245 0.07945672429158442
1.0833739410428445 0.4850094492620412 0.5940889548825266 0.00046574693723635586
1.177089049388671 0.4464356475724995 0.5494532046638116 0.005394103895642569
1.1469928267423974 0.462022356101115 0.56556417801522 0.0016953072276538086
1.0185558164705055 0.4936128582126285 0.5995997793315931 0.0001844700458027278
1.108710268845791 0.4762769814896317 0.5801971806462783 0.0009895729644158423
1.1826518061746385 0.4406660864239875 0.5399044083243054 0.0752223381782213
1.0908659148500017 0.48110468471892487 0.5846778138826428 0.0008251714040706525
1.1171045247683171 0.47218502194696427 0.5731108851334541 0.001534635659059827
1.1873416750314882 0.43345185902197086 0.5283997721314744 0.09400549844410702
1.196437510613322 0.4279464584937775 0.525219804753193 0.12007399540716165
1.0378926577381344 0.48991412383480876 0.5904407044753395 0.00041042234127830913
1.0728526569692247 0.484297570425959 0.5855255319537196 0.0007869948576278398
1.1343201222387178 0.46302071107494974 0.5592427700199716 0.0026727709428116973
1.1472566829630177 0.45657682722159504 0.5516270047386347 0.002285737081425519
1.1215691702028157 0.46745528190684077 0.5630643308010768 0.0018510734309657524
1.1578367595931554 0.4493308872051105 0.5420481429226072 0.005742650984037972
1.174561493997743 0.4383490143044149 0.5298437016878921 0.09383170824207418
1.0466355520178732 0.4870436591819255 0.5834071753387197 0.00046973324891269683
1.0899680788565544 0.47716539933808666 0.5722102664341993 0.0008312550064033426
1.0286758096281141 0.48881876640555794 0.5837347234687781 0.0003486725112279643
1.17279848780481 0.4326790660912821 0.520336208633566 0.09021368222591701
1.0576819083633688 0.4835616350250113 0.5763261713198463 0.0007878526602311408
1.0781346008706951 0.4793010828509074 0.5724760798676083 0.000652954000576363
1.1325984423673547 0.45809537824544194 0.54798695019847 0.003175481408710072
1.161470866167925 0.43827096265135745 0.5251153031853447 0.06291937127024529
1.0180380760015373 0.4884466351001401 0.5800010932389322 0.00039314800110275353
1.1158726247718336 0.4637946121704309 0.55255927240822 0.002235444062503461
1.1457989305741112 0.44819098582632355 0.5354348500972165 0.005086889773416002
1.1357832629675393 0.45217919847385096 0.5389095234266156 0.0030207945074501846
1.1732944257454776 0.42386802078211344 0.5102341908178353 0.19725667150760168
1.0467562971057243 0.4835404391751056 0.572455077763776 0.0005937491970067685
1.1034866624506237 0.4675730825425827 0.5553887352407719 0.0017378574863688425
1.029237125222983 0.48531953899348057 0.572329352021341 0.00047618819336777237
1.0908344267963155 0.470379185709381 0.5563863642159359 0.00200638177582869
1.0641045357554284 0.4780846914174762 0.5638396670910916 0.0015095422307858373
1.1489549132728323 0.4393040752899759 0.5242270701919342 0.05280587561524143
1.010612974968515 0.48545486768629875 0.5691007071694818 0.0005006355872704532
1.1115678527625714 0.4580654501460006 0.5411583024055077 0.002918296199273513
1.0968057183403925 0.46445290538724116 0.5470364593868213 0.0022461260333479396
1.157690836363402 0.4242556717935961 0.5098142632603812 0.21712422977508272
1.0507964168486554 0.47794150666260454 0.5585592124659944 0.0011405417729351815
1.076709670624465 0.4707228680203631 0.5518548412479141 0.0021322151537850795
1.0628361660425256 0.4729615848211792 0.5514108645056932 0.0016524023647640287
1.0356774389411147 0.4783460819957762 0.555012021869906 0.0012167338572098378
1.1148943153735953 0.45042430020770857 0.531101878367992 0.003975351003301452
1.022541930240783 0.4786478323416855 0.5525456040232012 0.0010869249499654413
1.071567406123797 0.46703745803568075 0.5429746257840274 0.0021972587263928115
1.1250624342728328 0.4404278683042513 0.5215390741971951 0.041134534562230984
1.1347487959046356 0.43311818173349353 0.515754129410991 0.14176776698186627
1.0943617006712514 0.4551768649940973 0.5318223912791473 0.005202672011586498
1.1389318012169851 0.42236530989472487 0.5076427555328856 0.1884993938749971
1.0084279710303345 0.477451852152818 0.5475534401564787 0.0011310312360199757
1.0407731775501166 0.4735590162234772 0.5456799992799715 0.001509207047234393
1.1027154286893839 0.44875537920585545 0.5260325697873346 0.008228311727580562
1.0292233467307081 0.47242301435878253 0.5404914281363961 0.002977541185261307
1.054468963453612 0.46786321920413 0.5388785101134759 0.002369710006957839
1.0774829674613047 0.45880283998895616 0.5318939790531808 0.006992470437224212
1.12675419065223 0.4217151532390668 0.5068631571427676 0.18301189412847943
1.0065687158951029 0.47182852607622705 0.5358042054250087 0.003978699437804462
1.0172755785233416 0.4719232359020694 0.5372935266669883 0.0032408480673859247
1.057909418283009 0.4611191137005045 0.5295384451707371 0.007948325011267519
1.0878136908968237 0.4475638509568183 0.5214590841424158 0.015531377534967986
1.1033458662931261 0.4405313356501098 0.5179052059238991 0.04473985368468433
1.1118760083317176 0.4330424538997357 0.5130705662423579 0.2801843918967642
1.0667481758392423 0.4546998803707627 0.523859184067441 0.01062564160698994
1.0131009206268249 0.4659416006237227 0.5267408270509234 0.006156395976914316
1.0268166399405065 0.4620114659759238 0.5234597994863596 0.005869720771827718
1.090962922207831 0.43579470262669184 0.5124589042570356 0.2339850902275334
1.041240375287653 0.45638457398887544 0.5197393491472345 0.008282443676782608
1.058156470410091 0.4478315514744122 0.5155716020268027 0.03175549303641415
1.0717111319043866 0.44007381411436747 0.512547306296723 0.2137545789022939
1.093234984078879 0.42340576921343187 0.5064838752928291 0.23470660964726958
1.080746326126722 0.4286731985351101 0.5078471830385335 0.26711104244481587
1.00445872022376 0.45501027083402656 0.5133034195325049 0.09362841878313395
1.0533878763426352 0.437878800863272 0.5089423044981397 0.2583058277978253
1.0675700376749004 0.4304804445949232 0.5075738510580472 0.27165096552833073
1.017958775263559 0.4497668412912358 0.5104309420056361 0.15388836424023575
1.056971662537844 0.4241464626023175 0.5054467604605878 0.2519913391089067
1.0691850763767485 0.41949744034307007 0.5051460043570785 0.2446179347188016
1.0371080806492436 0.43768616961071094 0.5069588816855181 0.28230727686958457
1.0039876296334973 0.4442166777182742 0.50621370617345 0.2787986898187925
1.0233881855246951 0.437445072575082 0.5055258560458399 0.27854191356943
1.044631162606823 0.4251096722949799 0.5051381122384438 0.241487319715819
1.009423594194651 0.4290092241916165 0.5037681239016427 0.2370807888745064
0.9992379775670179 0.4211429841573232 0.5047716180700215 0.21735873033928343
1.0080638136692794 0.512639506745622 0.6958692041288557 0.009359831493283738
1.0019569777547992 0.5147165094737225 0.7052965814240955 0.010285493208085255
1.0056457236121064 0.5102680861465523 0.6831686824321295 0.005825412795820165
1.0062033722943768 0.5064827274617106 0.6617422027638781 0.00018932456962381675
1.0050236942179305 0.5021747624021233 0.6375679745500529 0.00018844567452452332
0.9997849267029206 0.5004334156156762 0.6277548367184558 9.15519780536781e-05
1.0039614074166683 0.49763304884769355 0.6147216493503287 0.0001817898443366564
1.0012312345466767 0.49530943280918105 0.6039747863268312 0.00018167528119243973
1.0076357438305632 0.492214638278394 0.5920494388646294 0.00017696645363418666
1.0002346946217315 0.4649832624177449 0.5243008905378368 0.005490196491440509
0.1010950316427704 0.14513566961965235 0.33975698049857783 0.028866900704360134
0.1178748339164695 0.15175240085626282 0.33975698049857783 0.08646408923406694
0.12495649844779831 0.17113858210192934 0.33975698049857783 0.11014955166159222
0.14452845052763097 0.15366684911265915 0.33975698049857783 0.19491967699531165
0.10876023254951009 0.18658361658733422 0.33975698049857783 0.049691935267777036
0.13304437768396216 0.16267771889909255 0.33975698049857783 0.14791362188645746
0.10143668981324921 0.1704555288044961 0.33975698049857783 0.016759290420639183
0.15608730477708854 0.17857453258990216 0.33975698049857783 0.13868650296246224
0.21787788326457808 0.17225863008624515 0.33975698049857783 0.09685012712916062
0.1522626488137238 0.1929759144715375 0.33975698049857783 0.1234187491960676
0.16509990395698146 0.19580653352064947 0.3347569852669494 0.10694164374057721
0.1820725174388729 0.18981363646589336 0.3347569852669494 0.089153426330038
0.20508660295906542 0.19056337790209846 0.3347569852669494 0.06713109026390883
0.1932721353619294 0.17036907441260854 0.3347569852669494 0.041434543004059306
0.22067333901722808 0.1598836862008543 0.3347569852669494 0.16285254550392433
0.1205392410338762 0.1869450044432922 0.33475698526694936 0.06674309940476765
0.2095999565619452 0.1637428133520241 0.3347569852669494 0.12337707589092123
0.15522458749668283 0.15639421939998777 0.3347569852669494 0.15009077244284058
0.14538888443791276 0.16457559999271704 0.3347569852669494 0.12257964362451158
0.16927586655006693 0.1697994112295172 0.3347569852669494 0.12923495106146593
0.1922539895401544 0.1494275111149722 0.3347569852669494 0.05686924606570644
0.13521568163804681 0.1442512239160914 0.3347569852669494 0.13602277905165802
0.12412454279140586 0.1436626875623886 0.3347569852669494 0.12068416248614178
0.1492347875227357 0.14363590844501353 0.33565679406292986 0.15236069845180963
0.1671445798191349 0.14506652928564462 0.3351493960018856 0.12356831185567745
0.18054583538333918 0.14613701157731412 0.33915285961001945 0.10974298111745646
0.1402669371621922 0.19907710049912367 0.3354082320046928 0.11479576218290764
0.4674773998033186 0.6456140109074444 0.5818616314745572 0.12600085425209454
0.5101977900908745 0.6455170553440844 0.581891230836528 0.12588208695003575
0.5244800432397652 0.6450678040656868 0.58670252977626 0.12907057129950494
0.5387428877841586 0.6429273304226248 0.6121855584046014 0.09219984859933028
0.4785520197167281 0.6424809181058643 0.6017157651269187 0.15142992671357677
0.5044112990672034 0.6422812608491274 0.6036345487863727 0.14733490655137563
0.4582468398093382 0.6426687833396261 0.5999613995326984 0.16633738683457772
0.46777056286447516 0.6434282426207828 0.5933404829093724 0.1680564069083473
0.5210631511797532 0.6413516463252072 0.6135364509347929 0.11977370079848863
0.4779983347566199 0.6413037027502357 0.6141044442190478 0.11224789212352096
0.4960841246917573 0.6412447931440297 0.6148023533908828 0.11703909324770066
0.46757404735796393 0.640903290482292 0.6196818514105316 0.11002419107812733
0.5046368895701597 0.6405017817909608 0.6274987067015014 0.0875992680359489
0.5039419214860277 0.6398302764466919 0.6408124126407649 0.06527022080150562
0.4487831120846877 0.639817386467275 0.6411767597504101 0.10240178720782256
0.47542267428745155 0.6397112549283461 0.6452925473930174 0.06476145780953242
0.5376500000864994 0.6397193149011395 0.6501110812280083 0.05250938416758948
0.42958229151529614 0.6397114478545441 0.6454078854265812 0.10294519099936887
0.5248135559826513 0.6397386820773061 0.6518519954109768 0.06306858076077068
0.514906167628266 0.6407237199011768 0.6681050867875883 0.04469873437754625
0.5138587856596244 0.6445477161925534 0.7105578656933333 0.02501152509675596
0.5069553047969183 0.6468017829429392 0.733062102133334 0.014895471091685014
0.43008266687969765 0.6470003043647555 0.7346516752812624 0.11332024938254796
0.5229603553910905 0.6478301694231525 0.7411774304755647 0.00937642852057042
0.5146698513711261 0.6504357288286504 0.7769753708555813 0.017124482906493457
0.46685306531613757 0.6487996196523357 0.7857843880529434 0.04214737428447947
0.4872697811133022 0.6446734068080434 0.7966398626936423 0.031644242023121334
0.5080090272835686 0.6421178973085282 0.801156799818581 0.03976459995569337
0.5289131710577967 0.6424884595721521 0.8005828984627064 0.0545304667991697
0.44103631651499403 0.6429606326120066 0.799851629322859 0.1576673359533146
0.45871436321134124 0.6400302918314651 0.80425363166278 0.08565859108762146
0.46825749858718024 0.5877403041474694 0.8204732157146849 0.07208348325131923
0.4712892741203095 0.5685203755473809 0.8076618431228717 0.08851001808634774
0.5203537315021246 0.5659056801767939 0.8048847056690639 0.08589915864101236
0.4923041836098211 0.5623096902497429 0.80101685149433 0.10737540162276735
0.44354756547272467 0.5653492767218327 0.8042862369664909 0.140608684311916
0.4735814146031084 0.5603773157529581 0.7987022882087634 0.10316087264727217
0.5088680578188953 0.55454929872399 0.79111406876581 0.12557512073781682
0.4735654157372168 0.5522459653492239 0.7878463411775235 0.13117852153090548
0.4973542392896718 0.644758373393312 0.5834781939100153 0.13552825826957443
0.489318275668549 0.6434726085836635 0.5929749674725556 0.1518807695226669
0.4291381709417687 0.6452802767475867 0.6112388852026437 0.13839243737589432
0.43254554632498216 0.6453692927831882 0.5994233588453641 0.11995113760235392
0.45462381932081763 0.6486510566080054 0.5831659829705051 0.12189558299405308
0.4487032546614529 0.6470332049025656 0.5952013601413555 0.16796821151635333
0.5161777424493257 0.646193856858889 0.6027594581045107 0.15790236626846796
0.5281701999157415 0.6459621576570591 0.6050283220722159 0.13107740572755341
0.45044262849591965 0.6453062991813134 0.6119648730165783 0.15379049836036288
0.5264449034437164 0.6440407088226209 0.6300583125333776 0.09120174354552857
0.4864158454336346 0.6441154330162069 0.6299999752115468 0.07957520541244154
0.46907914226037273 0.644024601260894 0.6322955582171812 0.08468919850327687
0.4565229910587908 0.6441099006277244 0.6311525445286582 0.09074927850629344
0.4343356453290508 0.6446214130625962 0.622433123851973 0.1310892417901452
0.44299613129661175 0.6442119531769848 0.6297325202765396 0.11028548723423613
0.5138425996288081 0.643730459135362 0.6370812342549441 0.07358906025010525
0.5384676899122991 0.6437105886678027 0.6376680457101891 0.07603989172564121
0.487328082123385 0.6435447017104408 0.6461367073756985 0.06054307735616149
0.4669635557882233 0.6435565147766054 0.6526018157935457 0.05963159163615983
0.44640061009067217 0.6436810002720381 0.6548881578101893 0.09624757216844729
0.5051559383316456 0.6437358266158869 0.6558951166781638 0.05194201133281376
0.48096853334650835 0.6437604629202639 0.656347595239109 0.051363941582284744
0.5379116084628867 0.644084396322925 0.6622970638621297 0.04466751541692496
0.45297525818806417 0.6443455792677586 0.6660813665821873 0.07225750449500079
0.44246769555751037 0.6448305967125935 0.6711787284712644 0.07564938862052277
0.4635671816846445 0.6449006402943255 0.6719148617545045 0.04136986948128827
0.47245203630976335 0.6467157752700198 0.692165071534142 0.029238618060150188
0.4341857241892348 0.646927117739817 0.6945511149532967 0.0625547027078424
0.5181179386956655 0.6456820102442107 0.6804939282984671 0.034669200282711816
0.46212754891527397 0.6460638168401636 0.6848045011640987 0.04304805708192638
0.5284737445419468 0.6452785824481 0.6759392534196407 0.03858770762146287
0.4460665577343738 0.645788527254062 0.6816964987549763 0.07804406551381106
0.4813587804511967 0.6455537284653476 0.6790456349452783 0.03557452291657759
0.50748111583183 0.6452711366851358 0.675855191216061 0.03455029170265521
0.46006967777144137 0.6470674576787118 0.696135544187827 0.052800279089919626
0.49833330123769226 0.6464468829838597 0.6891292942458873 0.029417030509139047
0.5380632762513811 0.647460546384381 0.7005734913747153 0.023323350832830606
0.48488812334851866 0.6480053662890135 0.7067244744181148 0.022899659267543077
0.5383292012171307 0.6459222199121977 0.6832058806006607 0.025858923237084528
0.5290532316141284 0.648096523955046 0.7077536388324013 0.02214075308943589
0.4411834192948094 0.6484415968675634 0.7116494906828629 0.10278956779050925
0.45374193679855146 0.6484144051523542 0.711342497899099 0.0817725809103331
0.5293691688885062 0.6468204656927069 0.6933470199344838 0.029288679265686797
0.5117018476266243 0.6470273968159617 0.6956832595238762 0.03111273898989185
0.5020140590662453 0.6485869367112915 0.7132397339495133 0.02048006754665512
0.46141542873356534 0.649274837618607 0.7202176003404136 0.03908404894600986
0.45049127850169146 0.6496353095403791 0.7238741224950525 0.06602012547035825
0.4883908135499657 0.649650949671676 0.7240327714303368 0.018104346070610563
0.4980750819348285 0.6517988160121825 0.7417571151392002 0.012071364817429656
0.4615469245348043 0.6521973996728837 0.7448510230486358 0.031169453423713456
0.4733490320631425 0.6526681229636666 0.7485048971435917 0.01225804545100394
0.4498318239083729 0.6523270040258173 0.7458570450514772 0.0709003562990003
0.5367628238270221 0.6512974384729606 0.7378652949590084 0.00826583490869519
0.4607940396617043 0.653686937981538 0.7564446259193569 0.03742880390120571
0.4369710083980882 0.6541396215854869 0.7599743920033014 0.0714832892600798
0.5170330757640411 0.6540596827986432 0.75935107537303 0.007215869328605648
0.4776147187654843 0.6546273124864296 0.7674852895762035 0.011255977197491513
0.4976025638861893 0.6544435141775843 0.7742502523748468 0.015211737299984684
0.5243700922295844 0.6546635743968469 0.7719782564502422 0.014805035317929344
0.45738961810394574 0.6542539789981446 0.7762070947187263 0.07199742304458483
0.5383239428730461 0.6521747052905017 0.7875703920449822 0.01684835371250898
0.5215472312028275 0.6515120750025781 0.7899195142578598 0.02077349979089541
0.4581070347932554 0.6494172404542257 0.7953591764771186 0.0504946641256943
0.47405086156823806 0.6497337739096161 0.7946282698501304 0.02045616997192527
0.49260217488309854 0.6391312295588185 0.8109532593654263 0.022798683894548942
0.44976900867881514 0.6342356926761277 0.8153725740097654 0.0935260489492427
0.5093666619803802 0.6321273831679168 0.8170037371021744 0.022196240236101235
0.43761413037393926 0.6311723180858001 0.8176286498907203 0.12729689487336507
0.47049519179443744 0.6319817139575363 0.8170990505568997 0.039580537655230424
0.4501765835014946 0.6225029259872545 0.8222785379924471 0.08485406261319263
0.42996905309180977 0.6158979479729471 0.8245550076197791 0.08623380895020584
0.5358363427138723 0.6178725647030894 0.8239394168276142 0.029030745182342232
0.48420964829904056 0.6169019314950651 0.8242420137094841 0.03693844382852432
0.4405584269771697 0.6095929943560017 0.8257373989341569 0.1320546674803286
0.5135516115976174 0.6103832383666987 0.8255898661981093 0.0314368722807803
0.5376476453548827 0.6054272683137483 0.8262296909679954 0.03428869637281645
0.5011302371830326 0.6022794961343205 0.8263407308659277 0.046739112544354
0.47626909952943375 0.6014429261865089 0.826340780194531 0.0410432653461294
0.4641840645617419 0.5968956180521369 0.8259954156233491 0.05766229173508271
0.48993857488102893 0.599733342021195 0.8263178038649606 0.04053208957008508
0.5178657879669949 0.5991184436899814 0.8262479464743435 0.057886104406617366
0.4531613691869367 0.5919067418503398 0.8252211085127328 0.09735915995461047
0.48643881963692026 0.5882002340696542 0.824202490658341 0.049077974559994256
0.5083911127158851 0.5830182712778657 0.8221453702868025 0.06023456268304734
0.53800660947595 0.5859096311789611 0.8234574565677907 0.0481395969648275
0.5243838034951736 0.5806538670945733 0.8210724141700516 0.06155547531156423
0.43446881987328245 0.579365455288865 0.820373965893716 0.08827647781543824
0.47283715385842096 0.5742962702812978 0.8171002599333985 0.08084649754543193
0.5160171167952654 0.5738149050268866 0.8167893917563437 0.07920758675045747
0.4977784345414702 0.5771103256272682 0.8189175914659851 0.07199332587082961
0.4852057863364151 0.5742606439069472 0.8170772522361293 0.06593486794370534
0.4603007476083741 0.5687482661442589 0.8126002932027026 0.0835118041364752
0.43992204483391234 0.570793415081679 0.8143294359103176 0.12256244841779558
0.4994387356650526 0.5670843888692956 0.8111935099588383 0.07278115636791202
0.5388669939884208 0.5662940100909611 0.8104551039939043 0.06457120660876342
0.481641425697956 0.5626776401624435 0.8066682953876094 0.08743521892964957
0.45479614391091705 0.5607964370160369 0.8046984315722886 0.09942861597540213
0.4410537054972966 0.5540617389182597 0.7965091853234685 0.12060650769481678
0.5110262129233406 0.5583934224190049 0.8019034819992614 0.10025043720980026
0.5322679312167952 0.555946547088655 0.7988563592216356 0.09745462203334797
0.49826419064220384 0.5479156127557956 0.787936280787585 0.1386995385712905
0.4875199180487251 0.551524424414276 0.7931161350128042 0.11677922329817665
0.4302366247837894 0.5495298174108937 0.790253205469268 0.14611810404192835
0.5132443625882355 0.5290259446266494 0.7526403462808469 0.22923757911988868
0.49560426557332704 0.5366333284484615 0.7642489761175801 0.16341405266951667
0.517247845524079 0.5414744146917274 0.7716363223488355 0.1805507536398069
0.5279342850987024 0.5357325987077712 0.7628744906982132 0.20152793653834972
0.5376083607326378 0.5255204056546416 0.747291003424292 0.18994806519354548
0.46685116356385603 0.5453655240541253 0.7775740335647219 0.1707391337649271
0.5046361646350899 0.5402998141901746 0.7698439187120594 0.15471025280976494
0.5175313703671659 0.5230091626498878 0.7434589251231174 0.12917603006998518
0.4862308943335705 0.541737743089699 0.7720381532501221 0.15664773480627908
0.49806147510776316 0.5300521465189162 0.7542062982801301 0.20822405244963135
0.5356066100967445 0.5170786776733195 0.7344091904892613 0.07397889124564222
0.5266375568008896 0.5478011446597562 0.7812907144494722 0.18000944623341694
0.5388054084197121 0.5379858954446994 0.76631295106041 0.17306615810733805
0.43992790795562264 0.5213226612000157 0.7408853766458413 0.12303364449224002
0.45230031003291077 0.5193735267630806 0.7379110584425803 0.07531582261837545
0.45876846451492304 0.5317027978032616 0.7567251405258115 0.16993134719950787
0.4346046203699657 0.5138293790108392 0.7294508623326651 0.04208145003236752
0.48134858278913484 0.5209268686401557 0.740281409575536 0.08871066423151454
0.4400268829812323 0.5406581813804855 0.770390775838687 0.1629250756541397
0.45188959095620396 0.5386330211687177 0.7673004446802818 0.19465699514502788
0.5388901382684708 0.5505973153054122 0.7871632316567863 0.14394339751881796
0.5388901382684708 0.6358959870580663 0.8128349174032832 0.02091714962326686
0.5388901382684708 0.6427614070648897 0.6263294667852628 0.0796071171493109
0.4288901388645172 0.5242645205274452 0.7455257692556353 0.2258038548132271
0.4288901388645172 0.5335503552462955 0.7629740767347112 0.18644477548595959
0.4288901388645172 0.5443108305749811 0.7805194143203018 0.14285627545140886
0.4288901388645172 0.563457055799548 0.8066211674291367 0.10177515415076496
0.4288901388645172 0.5908958176263254 0.8238751625661627 0.10591411198912652
0.4288901388645172 0.6026172518695938 0.8240681342914277 0.11789956264095326
0.42889013886451727 0.6446389520469357 0.6823078510647224 0.07893087652067146
0.42889013886451727 0.6479852914608473 0.7142540310548605 0.11491869655003527
0.4288901388645172 0.6408910488951323 0.6662658875575134 0.09828024999604411
0.4288901388645172 0.6435552595057996 0.6326067574643872 0.13628785911762245
0.4288901388645172 0.649704943937194 0.7526252366997279 0.11406848151323984
0.45617489039562964 0.544480399892507 0.7829188206768891 0.12184422690803778
0.47898010196805463 0.5435413019399525 0.7814857886988151 0.1546938203191835
0.4486270401365892 0.5233983612022653 0.7507483367311721 0.1215175303651092
0.43649497861179076 0.5250846559869637 0.7533215660139738 0.23247969840297783
0.4532853414717919 0.5092036190570745 0.729087636311965 0.04969598599165794
0.47605115843637097 0.5258565027312871 0.7544993782579246 0.1377110086896746
0.468502703280331 0.5139569406190132 0.7363410455881734 0.05978819766701452
0.4736918105360266 0.5367936162906872 0.7711890467166977 0.14120612096257168
0.48005887559708127 0.5116232487877309 0.732779910126105 0.050024220428177654
0.5151645147295275 0.5318674045182736 0.7636718127780755 0.18396230561038054
0.4845189193760532 0.5322972330736184 0.764327716737 0.1348905236999874
0.5126164299021478 0.5441476059765847 0.7824109883231631 0.14116529224063637
0.5240939907280021 0.5143319147277609 0.7369132435014192 0.07166529731880951
0.5369758666776703 0.542402170732101 0.7797475126823114 0.11606908071650401
0.5251818389222549 0.5261813733786997 0.7549951199696527 0.1570335743038332
0.44312685597506246 0.509144873119485 0.7219107340582119 0.02635114251595558
0.46056334664746856 0.5091213573344477 0.7174044668857886 0.014870968484409329
0.5074057695126466 0.5091731604526956 0.7273123564254949 0.03441133436547445
0.5141155447785077 0.5091210755288916 0.7173500852756246 0.007249167529980853
0.5255641983452616 0.5091231078517134 0.7177392791607202 0.009968823612634764
1.2744328543296148 0.12616248543346256 0.29463380983443527 0.2113261181615663
1.2676006491639649 0.156667813525061 0.2968147149236474 0.1613241927739955
1.2712928967426262 0.14018219508566265 0.30192177192356484 0.1724448474333815
1.2733079922830721 0.13118510145163445 0.30767635900047086 0.17603454879124944
1.2596649161033207 0.19210034053971642 0.2960109198384043 0.16184951704852046
1.2481092257214819 0.24369569744058184 0.29237369446512856 0.1882452986904769
1.2501295433692359 0.2346751880533392 0.2998942084752251 0.1956099069423386
1.2687764581500174 0.1514180132136005 0.30653010149259197 0.14739512560300475
1.262898956980541 0.1776606132130184 0.30113535260947105 0.18273712781406956
1.2653941235241932 0.16651991128379268 0.3062961108339366 0.16798856434303094
1.254283650256581 0.21612730869024796 0.29321788325224174 0.1825799279358904
1.2568632275285125 0.20460965999839392 0.2925413450374562 0.16553420537238953
1.2312520501529867 0.3189618224436304 0.32411875639351573 0.23553505558605692
1.2223323017808083 0.35878785087490567 0.32904262006783175 0.1967290337939438
1.2432411200874096 0.26543150431027324 0.297185690760193 0.1664608151905009
1.2708936833112228 0.14196480441652212 0.3175213848018707 0.20267231394807836
1.241168857128248 0.2746840043008037 0.307296824927729 0.1725643690304769
1.2269354754060515 0.3382350165950148 0.32267739992658084 0.20032402608786457
1.219816388357614 0.370021222086009 0.3290069553428332 0.2138514639438273
1.2244244591541311 0.3494465233654289 0.31993948728915855 0.20535472065569182
1.2425872193070528 0.26835111270658557 0.32541571084972587 0.22233374486194765
1.2292271124515206 0.3280030257586446 0.3161898433044771 0.19536410803427898
1.2396236866652626 0.28158308305911384 0.2958171755835659 0.15692053693429633
1.2485356898052626 0.2417916293467328 0.3089575682096306 0.16181224250490162
1.23349360347042 0.3089534565065888 0.30585605824712025 0.1523721042258567
1.235289351230981 0.30093556808264355 0.3177941779097393 0.20718180972639832
1.2461155107916624 0.2525975571231569 0.29943991066692993 0.16609379029578875
1.2380465315337523 0.28862495921082043 0.3141055207552534 0.19474112695002763
1.2626629463696248 0.1787144506296099 0.3126066469766873 0.20292291809473914
1.2465077208952862 0.25084636052416204 0.31678452420059955 0.2202150509426284
1.2268955980333967 0.33841307086405936 0.3108841421693269 0.17741771724473196
1.2563528024624815 0.20688878804597868 0.3077273492111474 0.14636205229740384
1.2601239489179465 0.19005089218126026 0.3079794716740405 0.17294277095681954
1.2392645877412383 0.2831864118109546 0.327060307585549 0.19610443819757323
1.2586692141444848 0.19654611213466094 0.3230585057713041 0.22395655845940227
1.2733939425083096 0.1308011885564913 0.32104789674563977 0.23400080078330074
1.2520857343563923 0.22594085129341265 0.3253505321954204 0.20081492993306116
1.2342190632281254 0.3057142619504358 0.3306566747626028 0.1969596697345768
1.2665194835469 0.16149512742642685 0.32605491264255626 0.16330830961089923
1.262042392829023 0.18148502823110507 0.326762531438705 0.2107845392006976
1.2583405077463603 0.19801371812677465 0.33376041118424976 0.16675282137246708
1.2767116993282148 0.11598767425471224 0.3285202094834365 0.25495664232487714
1.255092492386812 0.21251589741140672 0.33110754986923274 0.1943973018781558
1.2714877891653527 0.1393120505364201 0.33077464032409976 0.24432588488119386
1.2494616988868454 0.23765698664571044 0.3323103814899935 0.1961494678221364
1.2449879345950121 0.2576320374769659 0.3312733918626516 0.2071010228473919
1.2295358490094888 0.3266245363389091 0.3029363776120652 0.1550803832302994
1.2225494805763668 0.3578181029380149 0.29836137172247734 0.1459873221601553
1.2185082967247316 0.3758617329851288 0.3187772757815113 0.2253346885050447
1.2191517797589917 0.37298858106837446 0.30259656723450296 0.1888698267866889
1.2335388963983596 0.3087512193540475 0.2941455403332014 0.13807247559855712
1.2229906218041255 0.3558484784991445 0.30979142597705706 0.1591887776924872
1.2521134834842234 0.22576053338859617 0.33915928497460296 0.1079488874545241
1.2711699456615129 0.13975968576948206 0.28976067689312845 0.1804700143356615
1.2287412078171231 0.3274617128890912 0.28836668557436707 0.16325324961861637
1.2362468687972097 0.2919135920444245 0.2871559698922209 0.14445082192374262
1.2261581678127773 0.34085125832314894 0.2899512928710004 0.15009526238951862
1.2634438014019234 0.16960643709713502 0.2867499057737224 0.1659680061358522
1.2729328234206712 0.11935819044107993 0.284144467162418 0.2324200364981569
1.2636682388913785 0.1575554099854615 0.28339384900884507 0.1478326090690704
1.2482172320283058 0.2195983976865473 0.2821529431831368 0.1468847814693762
1.2644400095264468 0.1446318061730636 0.2817841141018548 0.13391658978986715
1.2560236633383106 0.17991314027926153 0.28154326850811345 0.14918057474428684
1.243902907935622 0.23002681257670848 0.2812642387465929 0.12590384350064282
1.240569471189591 0.24542473604107112 0.281338472418448 0.14982861043495818
1.227057214425658 0.28874922879180454 0.28012425732624474 0.14350056910513964
1.2198532114412 0.31693566293815145 0.28002934727530504 0.15795367222441167
1.2100179537837241 0.3591742668568114 0.2800059316726803 0.1722290658484119
1.2332097153993917 0.26577541589883535 0.2802241095518284 0.14407536952141914
1.2167797911975573 0.34113230736380895 0.2803237375065779 0.1424340419551948
1.2105545677374996 0.3744340965164538 0.28078479336395007 0.16906132653676037
1.260244604791322 0.1342042764074018 0.28000848725317845 0.1971503422837924
1.219536233968948 0.3614849071814267 0.2851777706585971 0.1489707455093269
1.2415074927117364 0.25780221605187054 0.2837536863354728 0.12939009820411143
1.245368504675365 0.1979097976192941 0.2800031452973144 0.1366626439207392
1.2213924045545579 0.3028042468939752 0.2800031452973144 0.1147207261641611
1.2360432433812032 0.21639042236596656 0.2800031452973144 0.15870798320757307
1.2219070862385248 0.27544052509241745 0.2800031452973144 0.1618297268165834
1.2081130752535787 0.327894029385098 0.28000314529731435 0.16726523452013894
1.2484103133022448 0.1438448556182606 0.2800031452973144 0.13818215548713095
1.2231638381281105 0.2577050826802969 0.2800031452973144 0.16489550817328655
1.2287820007507906 0.2283122841825951 0.2800031452973144 0.1353300108514549
1.2009664605215602 0.3516918022777497 0.2800031452973144 0.1492340950506527
1.2046992778888919 0.33955597560131145 0.2800031452973144 0.1661588612801061
1.1932295730376012 0.37481108741126234 0.28000314529731435 0.18157171927608476
1.2423207872311666 0.15940999593054012 0.2800031452973144 0.14617909352683872
1.2135448963843487 0.283759362710316 0.2800031452973144 0.15028135856265018
1.2344720337685882 0.19187424023474353 0.2800031452973144 0.11123494424026326
1.2063501056240273 0.3157585956216722 0.2804439344299623 0.13470392104350745
1.2504840286992642 0.11870370528033865 0.28398540014527063 0.21389108813062876
1.1953757501735502 0.3647583381432836 0.2929966798563515 0.24060660841163461
1.2106721015735125 0.2964611986285016 0.29793919840385175 0.24100577982910049
1.2321354356306133 0.2006289011055285 0.2941491390353687 0.20228014608216865
1.199760706588915 0.34517982392627883 0.30326226178913207 0.28119408729457107
1.238602243220856 0.1717550499700405 0.2894213696954672 0.18786270564977384
1.2068753351359471 0.313413491088714 0.2928170900041225 0.20012557197971192
1.197834344589773 0.35378088854921697 0.296166743530239 0.2714760770211486
1.2473673329936785 0.13261953112697966 0.2868634149465222 0.15381265401117147
1.2224007194680726 0.24409371971155525 0.2832259611226597 0.16054876253096542
1.2068441304252686 0.3135528315320472 0.30534643889377955 0.24680852336988557
1.2008883474513485 0.3401449736359857 0.2919270079284877 0.2178393109585951
1.2432284156733484 0.1510995305008121 0.2909914673513391 0.211997917743806
1.222977904357887 0.24151666659765997 0.30002742786045683 0.16782715440292856
1.227226007535611 0.22254921709832276 0.29941287316682713 0.2399404612464862
1.2403397483298808 0.163997302160809 0.29862918412497075 0.2727938967657022
1.2495374568903546 0.122930165389422 0.2973269228429001 0.20901144585965692
1.2204270236720305 0.25290619124642955 0.30473975922136787 0.20360213985594192
1.2094094752151299 0.30209877221542214 0.3071965713794029 0.28190503781061643
1.246963619205915 0.13442206170724974 0.3050203588877543 0.23403252966701196
1.2430816326691994 0.1517548942346817 0.3034545593689104 0.24855120918614834
1.2310203118381648 0.20560785256503633 0.30566718909485674 0.2804607157103748
1.2380653407493702 0.17415232506396827 0.31064521912785564 0.24199925682487763
1.2529969709331623 0.10748360353582184 0.30867531542045035 0.21692141763391473
1.250537622591152 0.11846450845921166 0.3130827581005643 0.22885431533775535
1.2525998119656174 0.10925689361664906 0.32165608190759987 0.28426920133252775
1.2358873355160216 0.18387697083816656 0.31555538793514937 0.2658231436556441
1.2478469587790002 0.1304781003710949 0.31634864150967384 0.23762404662791334
1.2410850467597063 0.16066958543674792 0.3134044042790587 0.2811626133407262
1.239313279049833 0.16858038454960989 0.32348466087989464 0.2718482394763989
1.2498735986701555 0.12142931316151234 0.32789414408931944 0.20952250637267072
1.2217371342430932 0.24705662655436555 0.3174648760715956 0.2220862047655366
1.2432709664003498 0.1509096115256048 0.3269103439292288 0.24026091982417525
1.2112734971790267 0.29377602531018604 0.32388552558278694 0.26464360356800964
1.2140212188180155 0.2815076403101761 0.3263003676620258 0.27819857654040225
1.2069665072161269 0.3130064155152985 0.3290312641361113 0.20501208070373755
1.22428869673335 0.23566408635341068 0.3272443016699615 0.2518335724934551
1.2278577579498102 0.21972847774496923 0.3302967378253961 0.2057269345782465
1.246974766538208 0.13437240947270965 0.32887807753212084 0.15058209469380515
1.1986226631525807 0.3502610871805447 0.3258155521491165 0.23586542627946372
1.230554354498322 0.2076883611341765 0.3334086474282485 0.199743870121113
1.2011608608266502 0.3389282095165069 0.32923982660899725 0.24418791824629119
1.2199391367761445 0.2550845609013161 0.32652400809966087 0.2217985467145675
1.1985419390813183 0.3506214879913897 0.33831863989560734 0.14025194085469597
1.2019976364096085 0.3351920975237932 0.314577853891632 0.22506314188843757
1.260578566962561 0.1090062801577049 0.29332756024737666 0.25352382374607574
1.2676527048199906 0.11404333899855393 0.3195755731163896 0.2917186558458556
1.2765594051338782 0.11414487939029949 0.31081780213582055 0.25280473035375867
1.206101589261846 0.3693692256308633 0.29577885494654493 0.2373715817929907
1.2033195110254276 0.36558238909318036 0.30561473706412606 0.26231028225342057
1.2121500108162608 0.3832927614079148 0.3118441820517107 0.23073055634453654
1.2152844291690754 0.3871302650372274 0.2979399775648484 0.23250452919333944
1.21195415139279 0.38471056944403403 0.32362129812177215 0.2651340087277946
1.2451695720789213 0.1703224152296 0.33975698049857783 0.14919786275938682
1.2577864415205517 0.13827020978319382 0.33975698049857783 0.15135714746411394
1.253669435991974 0.178802327852642 0.33975698049857783 0.16619170052037635
1.2476838431738857 0.21220890970922543 0.33975698049857783 0.1173002210091727
1.2600366738870175 0.12302194199764119 0.33975698049857783 0.17891529821034266
1.2334973623754832 0.2615330276620632 0.33975698049857783 0.16114724937461206
1.2347633887863196 0.23972902421390524 0.3397569804985779 0.101566261296089
1.2220793231145732 0.2534576154834843 0.33975698049857783 0.11868075542559764
1.2245372562267285 0.2786091662832726 0.33975698049857783 0.1461289580641356
1.2177073523765034 0.3199184582067477 0.33975698049857783 0.17303790133965039
1.2162471625200293 0.3569184808797332 0.33975698049857783 0.14928799063198678
1.2415040569140334 0.18226915458535123 0.33975698049857783 0.13061611655814137
1.2030619015182076 0.3618006373314409 0.33975698049857783 0.12905306281834533
0.18829274423104256 0.5226470806625796 0.0021233633514740687 0.23215185648890865
0.19578033186108476 0.5328853910823149 4.363347033751913e-06 0.25863809264098964
0.20658477331327685 0.5239107455821865 5.423193026355337e-06 0.18632302309645557
1.3135097970451606 0.06315427797156456 0.0004930207371138513 0.20055079689212943
1.3002154062152895 0.05855038612427971 0.004267020640112751 0.19782063391870477
1.2989141105171065 0.07368285958040044 3.1290144306694856e-06 0.2158377745467475
0.9764666846635789 0.44670057648655404 0.33675698932006526 0.05592354524240078
0.9868544185187977 0.5235337792274497 0.33675698932006526 0.10381693799709095
0.9858089205954695 0.5096383643906954 0.33675698932006526 0.15809893130580513
0.9992224530088878 0.4969004981451355 0.33675698932006526 0.11619913078268473
1.0009151551500135 0.5152612999562756 0.33675698932006526 0.11071024191826667
1.0165917347981988 0.4836901952448013 0.33675698932006526 0.16210967621147288
1.0257519777257205 0.5245063923903919 0.33675698932006526 0.11451204349773922
1.0303697916866035 0.511853611112991 0.33675698932006526 0.16569184987790675
1.0254638042814517 0.46980364270714814 0.33675698932006526 0.10743499005589627
1.0235997860368777 0.5035889363395886 0.33175699408843684 0.14939527005471515
1.0004952414984065 0.43019296036289983 0.33175699408843684 0.14484264142150294
1.0164172376660283 0.4949106425107438 0.33175699408843684 0.14299860818153623
1.0082336510630634 0.4650156823971795 0.33175699408843684 0.10092096571704375
1.0005357807550406 0.44874942086473235 0.33175699408843684 0.05350055324247591
1.0038909060004173 0.4183643880412508 0.33175699408843684 0.21023124273660238
1.0031915771163855 0.481982046659854 0.33175699408843684 0.10139740031731079
0.9936563011469344 0.46091135351769397 0.33175699408843684 0.10646692883479042
0.9902507801726419 0.48528346634874464 0.33175699408843684 0.08171073116799323
0.9998949626831346 0.5283632514847602 0.33175699408843684 0.043167422527616565
0.978875756440073 0.45848123604376934 0.33175699408843684 0.11135641872375049
0.9815236628823274 0.4211154587487192 0.33175699408843684 0.1677018928870568
0.9722707421353343 0.5135766894876366 0.33175699408843684 0.09822481146357324
0.9760785039374547 0.43297885273968906 0.33175699408843684 0.10201866705425512
1.0162959497085833 0.5355570191183383 0.33658601070694155 0.03830324938528967
0.9737151252761094 0.4723722167904888 0.33332952779667613 0.10636654213265323
0.9728745179704814 0.4895146943641373 0.3318862001619988 0.09725116007691666
1.0291283465045604 0.493057150462238 0.33300941889718444 0.11014034209592204
1.1994434397845608 0.40491129040022394 0.3397569804985779 0.22882481950305278
1.1956717806837656 0.3930171795700793 0.33975698049857783 0.13162522447914685
1.198476924357148 0.3751617565738623 0.33975698049857783 0.13197735483923276
1.1784893760859776 0.3799578620916594 0.33975698049857783 0.10944819235201604
1.184316279202444 0.36065906048137764 0.33975698049857783 0.14291374652964703
1.1757927466230393 0.39270782376745184 0.31649582484574534 0.2907226023665566
1.192992350090336 0.4135925124543543 0.2649300597007514 0.17023724347877067
1.3117680380526284 0.5257923762788619 0.004999403504922239 0.23103474326907716
1.225199164670017 0.45442641577779697 0.17408054011527432 0.20805781391491682
1.2422170730145312 0.47480439978379835 0.12150856332074296 0.19916524007639855
1.2132815116100641 0.44142118039759887 0.21636590258735364 0.21842031551522387
1.2509759870559276 0.486936932534836 0.10108461463686885 0.1667076549487501
1.2226040072665694 0.45216138169073705 0.18557142069366428 0.20706896253352264
1.2004420878441628 0.4245804404266251 0.24972816969801026 0.17535463802854243
1.2102059182027005 0.4399973114759771 0.23593930139516048 0.21649680923950185
1.2604057293801658 0.5003118171148573 0.08106761737164674 0.1811132636129823
1.267692128754077 0.5098370143172605 0.062017913245062284 0.1920460193622109
1.2192553731985918 0.4511987879609963 0.20949547959652765 0.1862398347492678
1.2389992866070019 0.4749985527344812 0.1489179491880818 0.19894032231887054
1.2837355641398023 0.5305501804292909 0.01947972448167506 0.17872138573269913
1.225536885607656 0.46005070553029787 0.19614560983971066 0.20958583691279795
1.2360978740255826 0.4730830857379181 0.16523367171469439 0.1962833686695805
1.2479953030349225 0.4872475810446918 0.12783878654539518 0.17774799086609172
