x y z curv
0.7017940361148143 6.075078589103152 0.18507930589839816 0.047370079129920445
0.6939974715178311 6.0532306695887765 0.18507930589839816 0.044224719610698585
0.689091140766099 6.001596611641362 0.18507930589839816 0.03551317425358491
0.7065189669518455 6.031852042520914 0.18507930589839816 0.041273214980857544
0.710590744921148 6.0500026490511285 0.18507930589839816 0.0476657344188486
0.7352024105302781 5.992685824686968 0.18507930589839816 0.03700556252173417
0.6809460350218208 5.9783231908005385 0.18507930589839816 0.03461377620943127
0.6985923033320951 6.115867479189869 0.18507930589839816 0.057808154105339786
0.6821403231474077 6.12463129534875 0.18507930589839816 0.05675323017710393
0.7197857468270539 5.98637875250968 0.1850793058983982 0.035561599575892826
0.6873240908270194 6.136189960994868 0.18507930589839816 0.06209173848075412
0.743669577370278 5.966828517071539 0.18507930589839816 0.038255545092736036
0.7496594741706468 5.945862900495217 0.1850793058983982 0.0443760637954629
0.6982401898672087 5.970671887783034 0.18507930589839816 0.03520279888114356
0.6885463968286064 6.0706864795899484 0.18507930589839816 0.05034439372857282
0.6911854186878124 6.091726482145823 0.18507930589839816 0.04984431679825075
0.6876145557273136 5.988273466819234 0.18507930589839816 0.03705195439818728
0.715737734062128 5.968306571143581 0.18507930589839816 0.03665985117517478
0.693111791516716 6.013407506351981 0.18507930589839816 0.03664838676565703
0.7159427524549059 5.937466436505185 0.18507930589839813 0.03006583998906893
0.7214760993743843 6.0194089429759075 0.18507930589839816 0.03968157803677537
0.699391189094005 5.957998384433147 0.18507930589839816 0.032269497257060555
0.7373754148825491 5.956619495218337 0.18507930589839816 0.03228998818059393
0.7096706135568861 6.004709620403803 0.18507930589839816 0.03480061239116387
0.6804327418905431 6.047762004219228 0.18507930589839816 0.04774949114480468
0.7278652979074558 5.969690595012893 0.18507930589839816 0.03264965696158497
0.7259006285591266 5.956554999056803 0.18507930589839816 0.03012156930588662
0.7295617444115072 5.936766640950942 0.18507930589839813 0.029334282943157267
0.6982292934139921 6.0247136310783675 0.18507930589839816 0.04186805863139749
0.7269052637405916 6.001833852613961 0.18507930589839816 0.03801547295871069
0.6984049758820694 5.995692177759578 0.18507930589839816 0.035682457919006004
0.6773745714512398 6.003604988716152 0.18507930589839816 0.038834422224455815
0.677963083945107 6.15932922845497 0.18507930589839816 0.05972310040024526
0.6850826589039452 5.96692099134906 0.18507930589839816 0.03430358567150512
0.2314159962344965 5.938307134864136 0.18507930589839816 0.032883841043981316
0.2373231369705984 6.12316062506625 0.18507930589839816 0.05653527645055315
0.19928769156210252 6.0314544521685285 0.18507930589839816 0.04247160955551514
0.21439030457389102 6.085046771801973 0.18507930589839816 0.050246672700016634
0.21664690195070868 5.988350169061254 0.18507930589839816 0.03623338100761125
0.2309379581076681 6.064506209709155 0.18507930589839816 0.04401768204571676
0.21072863744246545 6.032546052565037 0.18507930589839816 0.04112553356225548
0.21456180150141801 6.052932438385842 0.18507930589839816 0.04398295307979832
0.2269565446535299 6.013150774117074 0.18507930589839816 0.04158317592178487
0.19005091563582288 6.00696014600997 0.18507930589839816 0.03808841467537764
0.24001904844128258 6.167991943766216 0.18507930589839816 0.06405496490246237
0.22473986701857812 6.045145517491362 0.18507930589839816 0.042062931766025505
0.21559157756454966 6.011093685982654 0.18507930589839816 0.03874045103942398
0.2208566890755524 6.026443051469892 0.18507930589839816 0.039008001204884214
0.2272313882617395 5.952028113490233 0.18507930589839816 0.02936328264511494
0.23897661946617316 6.0154861449723 0.18507930589839816 0.04474972513776981
0.24223361398946108 6.113114054057465 0.18507930589839816 0.05631001847815707
0.2398706220373142 5.98511658922936 0.1850793058983982 0.03697017933172746
0.1960677441749759 5.96002529856046 0.18507930589839816 0.03303080259485893
0.20345045575440626 6.001729688847019 0.18507930589839816 0.035448670932621607
0.23122822143247726 5.9731303104353035 0.18507930589839816 0.03342526770517955
0.19692486939397408 5.946054184622729 0.18507930589839816 0.031006630988107537
0.24039244133512427 5.953666825552866 0.18507930589839816 0.03389514554572052
0.18543328706040285 5.988845979505593 0.18507930589839816 0.035714975545075286
0.17078695971353577 5.9461121637551955 0.18507930589839816 0.036076681036499185
0.22231116533628267 6.075422571987016 0.1850793058983982 0.050513495920306906
0.20850191135406437 5.939485592817517 0.18507930589839816 0.0304644558548153
0.19984247638258837 5.980189375557407 0.18507930589839816 0.037642995150259345
0.22911866098081465 6.113936378861233 0.18507930589839816 0.05139232265613545
0.2392919146657456 6.071573636665225 0.18507930589839816 0.04876689469357188
0.20615132361231747 5.99047134198849 0.18507930589839816 0.03891490244944195
0.24145703490331574 6.039986727639743 0.18507930589839816 0.0481678874009122
0.21843892377591295 5.969589040828277 0.18507930589839816 0.03424992620037811
0.23236704839482258 6.0271057836313595 0.18507930589839816 0.03851275576285963
0.24068564879238757 6.059525376494091 0.1850793058983982 0.045347078573652194
0.21540499412862318 5.953582708545898 0.18507930589839816 0.03035123771931916
0.18609552459932255 5.977296137979395 0.18507930589839816 0.03824590337131816
0.2459675849086356 6.136384615358764 0.18507930589839816 0.06006573050824352
0.2292581269840443 6.092473193863895 0.18507930589839816 0.05303705223911948
0.22323631339893135 6.001833519584262 0.18507930589839816 0.03670168754457527
0.18662734753727855 5.931637856195167 0.18507930589839816 0.029476114763607446
0.23803742688743024 5.999374806862725 0.18507930589839816 0.039823094654518
0.21022898558202138 6.073480074854112 0.18507930589839816 0.05289795154907715
0.24615817949883123 6.157144687558627 0.18507930589839816 0.0625291686619135
0.17994435426260214 5.959671814351557 0.18507930589839816 0.03313909125198271
0.19905223858334026 6.044997219668629 0.18507930589839816 0.044005653800094253
0.1645212697892254 5.979402600320338 0.18507930589839816 0.04652669622116547
0.2135616097331609 6.142228399358993 0.18507930589839816 0.059580901115022324
0.17845997772396763 6.01761287031227 0.18507930589839813 0.04149916166827397
0.2114486670205981 6.129192668359972 0.18507930589839816 0.0629718188944359
0.18878007957972937 6.055231344030717 0.18507930589839816 0.04232204276283958
0.16812036873978028 6.162457458754995 0.18507930589839813 0.0736802561577042
0.19832658769849837 6.110668565285082 0.18507930589839816 0.05117494899883456
0.16976871645886618 6.104021474551352 0.18507930589839816 0.060783213472148524
0.1655855496068481 5.990777855842096 0.18507930589839816 0.05026893713010812
0.19071810942949963 6.019698850558694 0.18507930589839816 0.03950024055317638
0.2383731350951469 6.179659909519532 0.18507930589839816 0.0658005417378256
0.16527254408828576 6.174156903512415 0.18507930589839813 0.07971318687379388
0.22346424536046555 6.186204223947655 0.18507930589839816 0.06637403772859336
0.187238267196696 6.067231906221153 0.18507930589839816 0.05153537351400451
0.21271691022694145 6.097051898348301 0.18507930589839816 0.04779350553600415
0.19442043407219556 6.131984142687852 0.18507930589839816 0.05457102258544171
0.1852354368550056 6.187531571056786 0.18507930589839816 0.06566815541052805
0.17350649110054506 5.968218508488418 0.1850793058983982 0.03698266143509297
0.2277237678346029 6.1433719175157275 0.18507930589839816 0.06600213249746582
0.1747951052790069 6.051778669971609 0.18507930589839816 0.05207591927226496
0.18352117352498015 6.089119644314207 0.18507930589839816 0.0508655419250769
0.22760089659836655 6.132569010110689 0.18507930589839816 0.05917860794060403
0.19882512507888114 6.0861330116699754 0.18507930589839816 0.05140650283672448
0.16856580609018326 6.12436317956242 0.18507930589839816 0.05910776098058779
0.23447130394811072 6.153373333016228 0.18507930589839813 0.063485987965293
0.22173900868396354 6.157667581747797 0.18507930589839816 0.06300369072776912
0.16506445122676575 6.025869879843805 0.18507930589839816 0.04880009761059519
0.17895101606113484 6.001421583781246 0.18507930589839816 0.04385277526319498
0.1717723919643689 6.146829058962532 0.18507930589839816 0.07107570158446451
0.17912427851811275 6.1153860618173805 0.18507930589839816 0.052239706693519884
0.1815345613805741 6.035640571171604 0.18507930589839816 0.04418642952370354
0.19367098203834904 6.169086966543826 0.18507930589839816 0.0617989652566355
0.186077585205778 6.103196863599446 0.18507930589839816 0.05661546244333454
0.19760965226909805 6.062069878944177 0.18507930589839816 0.045691691589030484
0.16568872568425347 6.0064613883628075 0.18507930589839816 0.05595336618977826
0.20157682939619936 6.150419377786919 0.18507930589839816 0.058679139124781635
0.17105713882857 6.0893030744228565 0.18507930589839816 0.06243205478751892
0.20685993048265836 6.171828365979296 0.18507930589839816 0.060326685108535553
0.2112633076424279 6.115607881144605 0.18507930589839816 0.05966738448821428
0.17771129523305365 6.177699973662368 0.18507930589839816 0.06610908877819303
0.18023159054935572 6.128046987274784 0.18507930589839816 0.05356153315875791
0.22502583323428133 6.173699264484254 0.18507930589839816 0.06489879334100021
0.1892149633093449 6.078205516854949 0.18507930589839816 0.052507152745304035
0.171432709863929 6.067630207875783 0.18507930589839813 0.05927534400526364
0.18901929120416164 6.152767293994213 0.18507930589839816 0.05593741670310013
0.17785821656041653 6.158146469562361 0.18507930589839816 0.05983749258574483
0.19112220735675417 6.120399031038698 0.18507930589839816 0.05112632309974847
0.20277451737112184 6.182641212451921 0.18507930589839816 0.06906767762243884
0.15912458586413797 6.107973443405842 0.19167511725396683 0.0720689056737317
0.16123833489718276 6.05962893006385 0.18761777418097114 0.05868860633835885
0.15748886824570008 6.182353520743644 0.19486504456970188 0.0787516797436851
0.16028742796915416 6.035403082880226 0.189380654430436 0.07341624817761931
0.15568896931950088 6.089613644017184 0.19813824416345838 0.07166956818188445
0.16132355736685522 6.07583496990269 0.18747882581242648 0.07306901430462162
0.16235767760050035 6.04580524646118 0.18548517647553314 0.05673103108274531
0.1604130797482903 6.1512432272631905 0.18930055816376015 0.06902763944905857
0.16116085650610124 6.097714025919878 0.18781577008312117 0.057123779041690824
0.15581523256841545 6.15621235753572 0.19799017354998474 0.07779899452723814
0.15869416024154454 6.140318117699984 0.1925318519317102 0.07214593098541774
0.15608634658443607 5.937463538667111 0.19718134664175987 0.09353885532710311
0.1510451093054614 5.991036458268151 0.20677424294704616 0.10063610087206958
0.1517990255257572 5.951442244668857 0.20529677019925838 0.08087131185596853
0.15448941462347915 6.06166643157111 0.20036563714481997 0.09767455064283746
0.15874497076403982 5.947377971671761 0.1921740822454563 0.06991958673304248
0.15050620917995902 6.162752656640713 0.20802495218921024 0.08291107256003445
0.15289608205429944 6.099280347796862 0.20342563086509496 0.08598906885410443
0.1571144870788182 6.008708521616224 0.19533641752279976 0.08670753522436538
0.1519444901351006 6.014828220231562 0.20510807887399152 0.09863967425951992
0.1538174745321238 6.0285966075445 0.20158969725909634 0.09143071631849978
0.15222022847596858 6.12712829115303 0.2047397456174962 0.07150491789102874
0.14709476072847333 5.955391553689441 0.24374848047664063 0.0018975392204246943
0.14615379373818968 5.945497345083294 0.2596199411430963 0.00041199591441663027
0.1484567502893434 5.971234118215935 0.22079413492923586 0.04474188124123103
0.14872995562344699 6.0638346208945455 0.21728172165782653 0.0870298322994006
0.1484035619127122 6.032444159451202 0.22244562394038558 0.06716952839185839
0.1490911340367425 6.148973437406051 0.21218302864836333 0.08287457854365392
0.14715581178266146 6.071943286383728 0.24413425693257662 0.0007957080211102683
0.1461079625453501 5.961335513250757 0.26059229138051204 0.00035654598030811474
0.1482370515079788 6.122448917703689 0.22637474044512945 0.03327020202745911
0.14748345775577126 5.988356346725139 0.23754492269558872 0.0017049063737537191
0.14760768845846806 5.947019172947517 0.23492872241151075 0.005322974029402639
0.14763679077935632 6.099220409560039 0.23629285224773422 0.0029680774383206974
0.1466029192265756 5.981578354490704 0.2524274222456297 0.0006697309827521615
0.14883505818749831 6.10063254168467 0.21594483179408763 0.0730295466232805
0.14883656139996201 6.088865926971498 0.2157755853028167 0.08034892653794057
0.14563069052852579 5.953062501386195 0.26860277938526056 0.00023382956904272403
0.14719336812818928 5.974978909559206 0.24231179763353855 0.0014356904672262493
0.14786751091631725 6.0078568644859285 0.23125585918874486 0.014864522770350283
0.14707587460777943 6.009873416093974 0.24473481513172968 0.0009289992776825748
0.14835777736689182 5.933207588819924 0.22201184364603 0.0416355338581002
0.1470876321538927 6.053731634214891 0.2450706023766051 0.0006974569249693251
0.14657440987828035 6.019945107045485 0.2533805053395278 0.0005423422520786857
0.1465337078559104 5.969792238947234 0.25345977392321895 0.0005636379742302397
0.14650789492591004 6.001059105761883 0.25428032320465765 0.0005092769980254991
0.1483223820761685 5.998677890478744 0.22341295656644505 0.04535598113971386
0.1489759370081261 6.023338680700028 0.21260656972874367 0.06790482697132758
0.1449570698810375 6.080121308645097 0.28160409510009976 0.00039921400552142756
0.14541309804409092 6.091158689491043 0.2739883032400072 0.0004178468221299841
0.1471010650659818 6.119298876113196 0.24564342932084043 0.0008044375507449582
0.14604375335221892 6.083457810016965 0.26317554762375994 0.00042368122095779354
0.1456636493625943 6.024644129210916 0.26891707349035987 0.0002746793262774396
0.14482769593644185 6.051848971614066 0.28345743545880947 0.00035629869435218703
0.14600400202567798 6.061499574411146 0.26358282004357575 0.000298827834410045
0.14482947198502666 6.118102746112807 0.2842369108777721 0.0003506402849194636
0.14763524009185347 6.1319325826603475 0.23671895790356995 0.002630855526554767
0.14573343237300743 6.118959823316128 0.2688836331436016 0.00035846853012347216
0.14494951061468672 5.996237115215401 0.28070745712319184 0.0003037684424359103
0.14692361463509285 6.0946217358319545 0.24835781530029905 0.0006167160707822443
0.14696828747176896 6.178287331017828 0.2486209979505313 0.00043185729601117066
0.14469501683853642 6.069152900077624 0.2859239199001643 0.0002686106794767003
0.1460340973384603 6.048375621609084 0.26291093609724725 0.0003075981686187538
0.144868948558513 6.102877530989662 0.2833799039019567 0.0003246558874841501
0.14466713996917646 6.089899894617032 0.2866512572650136 0.00032437230530457726
0.14497872844692516 6.1391429165350155 0.28195726490070894 0.0001819119305406668
0.14516855308958096 6.007759738914449 0.27712541472443075 0.00024096356023283445
0.1454073380874032 6.056166173447476 0.2736585700014461 0.0003563673748296073
0.14606859461952476 6.148389507376988 0.26354684895689146 0.0003573990683693592
0.14771167474044786 6.1773365005031735 0.23597473450533774 0.006188289521374928
0.14729622683999422 5.773628918448402 0.23810468788540087 0.002112942063068618
0.1487913267697831 5.899969994730773 0.21423750365874225 0.07472544060083101
0.148859041367572 5.886684273559083 0.21292440344439395 0.06783298261607976
0.14897843642118644 5.914333284741847 0.21123287417164768 0.0820210093199294
0.14774003315661344 5.764629864721767 0.23045203609944143 0.008716511057996331
0.1487797413695202 5.820403357346439 0.2134627055044938 0.06113574598218419
0.14822636145380239 5.804947905704859 0.2226789776680983 0.022892587153385498
0.14657380964041014 5.878258405463811 0.2516603732979376 0.0006596767937645667
0.1471382907930045 5.91058638955934 0.24246148299167433 0.0008356256366864711
0.14752596923573927 5.836591794591953 0.23496900676136218 0.004027658246841896
0.14870009668635562 5.742331255101718 0.21386286711509633 0.060323898436867716
0.1450708173825898 5.925834580385356 0.277785637848904 0.00021546250159130092
0.14602402042935264 5.872675652025698 0.2609361885577494 0.00039237773637374476
0.14690363981573662 5.813342412504884 0.24526193415448688 0.0006688402235542516
0.14643252136029308 5.921967202385169 0.2545954404264869 0.0003992556576894564
0.1487202627367843 5.782039044604602 0.2140050601790356 0.0630394637814886
0.1459266681631675 5.859490269333688 0.26242972306285955 0.00030988380038711043
0.1486060763458126 5.730155685419663 0.21531210579749896 0.07258922483284237
0.14743318410787132 5.864385527215767 0.23688537303046803 0.0017118688112351913
0.14873581612476156 5.714884618353637 0.21292060498661208 0.07506339516742838
0.1480523455135656 5.869524880646058 0.2264251211649759 0.025444488778980826
0.1482577997269995 5.881022634909349 0.22307371991194402 0.034614592772649125
0.14816436079300732 5.755166751104449 0.22312476876663834 0.03208864902015866
0.14738040211563969 5.803116922894143 0.23703419815308846 0.0016667345515736457
0.14783661456100447 5.924956933704419 0.23076855469643806 0.007212772600627369
0.1444974364753187 5.720574926167935 0.2850271041489265 0.00017496030611395267
0.1448651993740905 5.784040863659249 0.2795505337269595 0.0002104061900950295
0.14627743158463957 5.783575158423149 0.25554185270200264 0.0005302043313342966
0.14788358141215002 5.681635124790328 0.2269995425543636 0.026971325442380966
0.14538616381417194 5.7398546967084965 0.2701570128957248 0.00021989927724153324
0.14537532602594966 5.835705393054059 0.2715103333269631 0.00025729727615003516
0.1480312878201721 5.715949580262191 0.2249075933979608 0.034059345470473665
0.14458349917202298 5.774210379764787 0.28421854541816133 0.0001647111130501495
0.14597774320702483 5.7970468667013115 0.26079982329526197 0.0004212758866505479
0.14715123118188297 5.6779253052204 0.23940168149353172 0.001533445604405524
0.14554032137178663 5.78803765744852 0.2681245745773058 0.0002988715842976673
0.1460904777266256 5.710537292712095 0.2578285514736061 0.00046067298724747005
0.14582095174546567 5.848296160615739 0.26408982995220837 0.0002796616986924763
0.14580627761785367 5.750462516037869 0.2631459361870665 0.00031659527197006986
0.14665570123190122 5.727161633881616 0.2484245032293882 0.0006463050138535496
0.14486825533892317 5.895713628362438 0.2808606949274701 0.0001903539385239137
0.14580778988765092 5.825824367590863 0.26403944109785105 0.00032117889044591306
0.14516848465122098 5.7286357860285175 0.2737199561757103 0.00023989340341472123
0.14644292571341003 5.755699156260202 0.2523890213352389 0.00046656657259831926
0.1458935603219546 5.722395930993728 0.261320100485076 0.00043854025588518545
0.14611975242567998 5.7344429225833204 0.25762256735103584 0.00043511567578307807
0.1445268838484028 5.697994358773128 0.2842511808749798 0.00018243508561149342
0.14727287616455373 5.692880366022956 0.23751655368143224 0.00133692045406927
0.1468375454455506 5.7125348490768 0.24515538185904595 0.0010948792855820502
0.14523882377442926 5.8008444126262955 0.2734051849619477 0.00028487566575673216
0.14494478010073752 5.813280182588468 0.27855457975085407 0.00019398623118772385
0.14785382219825371 5.711575384114578 0.3463965736649209 0.005612542787464351
0.1457757142007437 5.81033555764702 0.3093632897755463 0.00025662977124721483
0.14485153740384343 5.887268682133253 0.29248557351380394 0.00017682275437100656
0.14468994186031164 5.816554150202548 0.2905753290047336 0.00010502327807862005
0.14610989850067016 5.688631743306033 0.3166273740293465 0.0004537910937386817
0.1466694536338341 5.778452499012614 0.3251593489193656 0.0005993420837549447
0.14514481224186793 5.761485237051755 0.2990951198006583 0.00022410138130188648
0.1450640873967443 5.781447870738941 0.2974571161383675 0.0002877219133304721
0.14568944820979657 5.746805222040052 0.308662348795587 0.0002949231471835443
0.1450626041493247 5.749724152953162 0.2978238808847207 0.0002859506160509622
0.14525844896115833 5.872076185068461 0.2996857430570705 0.00022215546843027388
0.14614572873428935 5.712608062653161 0.31694832068024437 0.0004081423818040098
0.1455635897497325 5.832926635805348 0.30542837801283673 0.0002893732554060966
0.14597167628865373 5.778062522864131 0.3131394126363388 0.00031268930219867597
0.14680636782955386 5.732844522805507 0.3280828151459458 0.0008412665647556649
0.14484111159817534 5.862135742859429 0.2926167238450513 0.0001405095495605707
0.14685072728136228 5.691139514855887 0.3293630227036784 0.0007796046660393554
0.14799410302059626 5.691354936084723 0.34906409062418514 0.010119378595716044
0.1473828729976788 5.748743194002859 0.33782107941097883 0.002083182515923539
0.14703458046440518 5.769185073890014 0.3315661694977883 0.0006310181767569227
0.14502061080661546 5.926229697339584 0.29510701853278093 0.0002180049566904513
0.14815453136857612 5.852150120748239 0.3509465337368101 0.009716773037646039
0.14712966042177195 5.8380121100105065 0.3328545053364136 0.0013607122217921923
0.14717210178788281 5.789547427237112 0.33381966819958453 0.0015465778733443195
0.14748185378210768 5.883112185990931 0.3388946024080897 0.0025840929319611585
0.14742871693643322 5.871416555727694 0.3380048421665954 0.0022802516845350316
0.14842569378218262 5.700726288216092 0.3564164797208252 0.01874542785648066
0.1487731487840663 5.778535284785404 0.36222863992489146 0.031101189473593662
0.14833776186523456 5.721011258060695 0.3547695730417737 0.018522979934561094
0.146431451332322 5.880713761954089 0.32029863202413456 0.00043876822832559126
0.14755042175811778 5.776806146426596 0.3405772145492688 0.005004018461408853
0.14709638081868878 5.802728185264794 0.3324203394765839 0.001649481422565465
0.14657503917739922 5.914915703811873 0.3226915301330726 0.0005130300367539882
0.14815869279269855 5.737608348346118 0.3515245248721339 0.01514443671386119
0.14866684142752687 5.86222683749205 0.35997708475586243 0.032786078701516806
0.14740074708444864 5.82685239608095 0.33770558850134036 0.0019796933502972884
0.1486095875980487 5.9261015628956155 0.3586816945244969 0.025825778994177498
0.14819801319535242 5.8126167632438985 0.3518908063415821 0.011278122833560568
0.14835730717314094 5.899350159885787 0.35433064560525795 0.0141190264342563
0.14792305664246874 5.863096230042482 0.3467980655320897 0.003067072247589394
0.1465829916035109 5.867461959669618 0.3230413150274406 0.0004913945765104403
0.147465964711307 5.850657245748268 0.33875603271027727 0.002417977679909709
0.14796292679926626 5.925397645175209 0.34723002849966117 0.007363101957962755
0.14864254610570166 5.753177260134583 0.3600268214948322 0.03419692445617253
0.14882074659095496 5.822564455543 0.3628779329084009 0.04655997910126697
0.14621279363651757 5.839709839514484 0.31660591409499805 0.00046398039638620604
0.148115423376992 5.799706478441122 0.3504846721249567 0.007482493287421661
0.14585814393389443 5.863486405087259 0.31021907263193776 0.0002901923047207358
0.14851611339824933 5.874325863421023 0.3572538647396012 0.015996252412798076
0.14663768310360298 6.055967203323478 0.3211757873840855 0.000492539275213154
0.14468884231796636 5.958328793160383 0.28880234015445394 0.00024752214381636953
0.14534323584631662 6.1463483902094715 0.29774945509499867 0.00020864122069752934
0.14564952981896642 6.161969838518662 0.30283408280497826 0.0003169550829065841
0.14792871338745978 6.175653676831137 0.3419403800420586 0.006646124827310108
0.14775327593338622 6.162027280077568 0.33908600695943336 0.0033689927085514397
0.14582524127745233 6.1019531931170174 0.3066056565158789 0.0002506301004739867
0.14606569698609775 6.178341268842787 0.309802798810333 0.000300998328967168
0.1449470232775414 6.130903597910654 0.29111312353424074 0.00019191780631503357
0.14650980749311998 6.107675467344096 0.31833148661645266 0.0003290712071808366
0.14570951960454398 6.014466302583999 0.30569550405186763 0.00027855195442368937
0.14727823689494135 6.170725487503177 0.33079215919643923 0.00109416571657206
0.14574305774302507 6.002582102415381 0.3064206992781664 0.00028265392964017794
0.14720969526664474 6.151329903626753 0.32985134332837984 0.0011315711786042254
0.14738843423462786 6.186592126152534 0.33249452938784146 0.0008095249798566371
0.14486996155382326 6.032466698034874 0.2910048523363016 0.0002564671889408677
0.14628436223996838 6.03905493575059 0.31529676653310335 0.00037993696453540986
0.14480927717012476 5.97211562379167 0.2907068974525285 0.00022318553572564276
0.14764985748592674 6.124217410268013 0.3377723425063253 0.002997527478833725
0.14638738346999755 6.130111777625342 0.3159438259230111 0.00040658153218652016
0.14824414169943678 6.029238917275896 0.3501167040064087 0.008405283553241492
0.14717004291744631 6.063324297281552 0.3303727900152192 0.001189609668545042
0.1474807196994737 5.956644588504091 0.3381221956010614 0.0013343996072808235
0.1477066794251941 6.106297062439772 0.33897378684731333 0.0012207303097709452
0.14803902557499446 5.967068309769231 0.34779236807278857 0.007244113110484555
0.14710388433322333 6.018691503242721 0.33014063765620133 0.0013981028556533223
0.1470009452641468 5.997717365282354 0.3287588265120032 0.0007052253152244166
0.14802616464171325 6.09535402892972 0.34486345284059067 0.008911678235316028
0.14846130011710462 6.132630022534996 0.3517864411255303 0.013788690111296324
0.1486586838337921 5.957481982588671 0.358970635182631 0.026647905519854784
0.14597124259052288 5.984468346188957 0.3107979730526238 0.00024396846388077982
0.14806855849377282 5.98015425099444 0.3480399754438777 0.009595946445424091
0.14898968432475462 6.157932618319824 0.3606133110357093 0.039621802049887245
0.14681607542516828 5.934483750623659 0.32681550864275744 0.000530129030485542
0.14540239677544284 5.963085634967025 0.30117184492268606 0.0003011778775521888
0.1452474071827584 5.947814757441908 0.29874794368453145 0.0002062291436397679
0.14646116196016126 6.018326056290914 0.3187633584728301 0.000536023044371807
0.14637816209351456 5.993252292087554 0.31782106290599504 0.0004363384840903096
0.14599008978344322 5.940171976546884 0.3120645016795174 0.0003038704174138738
0.14765114952301445 5.997952235532496 0.3402713867105339 0.002819223983719939
0.14771038328056135 6.0791188612685 0.33961164229942625 0.0036113275334243968
0.14851250869232824 6.077294809653337 0.35385863540992635 0.020065505061402446
0.1484854037905727 6.103771418949691 0.3528210337429688 0.019068210819046538
0.1490676133841429 5.927380559208634 0.2104222945666413 0.07877596840689902
0.15225186967407128 5.795509254785007 0.20422999212644619 0.08332754258011296
0.161454627951594 5.928230474862428 0.18703100737166226 0.060843841468847366
0.15608297991526265 5.837699463571936 0.19705232668236686 0.09288265866042582
0.1527842392989622 5.778233748526296 0.20320118834340864 0.07761090677608795
0.15156757265466766 5.82952856590738 0.2055684264387542 0.08820155646155002
0.1506414771713057 5.853360780051528 0.20734966494885582 0.08360488690175998
0.15216116667735372 5.7373925877605565 0.2043224184191536 0.09149777618173581
0.16083120903799455 5.842268721597648 0.18809171467669122 0.06083746983088074
0.152932145554334 5.749729089653211 0.2028831934382855 0.0935575762126427
0.16038297454422287 5.860094343560975 0.1889623553869607 0.05754168189893328
0.16121550507058316 5.80475953971569 0.18731512573334055 0.06150033160564105
0.15076899374853478 5.702075547279703 0.20690357068265144 0.09364271310657676
0.1588389534681764 5.707862032578215 0.19167171811677708 0.07800939929042693
0.15844513587516357 5.692082572099125 0.192394023794894 0.08593026783450179
0.15959882598246347 5.871386342030619 0.19045849217177682 0.07759341406836479
0.15725241161883727 5.770392254811739 0.19475261661136173 0.0805660876373144
0.18468118636653771 5.762709900896522 0.18507930589839816 0.03423750817967946
0.19598956291475292 5.798309968357034 0.18507930589839816 0.029822814003253234
0.20682952629907525 5.73017105170811 0.18507930589839813 0.029405893475235926
0.16786355431711014 5.707355737067141 0.18507930589839816 0.04703981976913143
0.20343982112938525 5.7089312965453685 0.18507930589839816 0.030018446158636407
0.1801707477127436 5.691954834364436 0.18507930589839813 0.0324826100501583
0.18706095991109373 5.774810699298444 0.18507930589839816 0.03178463573814946
0.204212782718797 5.753629185472069 0.18507930589839816 0.031320059637279345
0.22545902702979514 5.697810376153842 0.18507930589839813 0.03126020307905776
0.17066134253720178 5.830268029509344 0.18507930589839816 0.0486190312298127
0.19682228022832873 5.816407223501875 0.18507930589839816 0.032924616686871744
0.18483317481544512 5.834935568997249 0.18507930589839816 0.03296059091503794
0.18557985507298147 5.7432902648738375 0.18507930589839816 0.03626195841751424
0.16661527978176868 5.746512226420614 0.18507930589839816 0.058596532432342856
0.16369124191224416 5.818775064512408 0.18507930589839816 0.048312619177553535
0.1624996246763512 5.7350274497058376 0.18507930589839816 0.062300426639872085
0.18451185806791734 5.6748380863041525 0.1850793058983982 0.030285402613649808
0.2278815223210876 5.677158545709493 0.18507930589839816 0.032717236382722434
0.20549307243952566 5.76870907704385 0.18507930589839816 0.03272996510840395
0.16540967662103584 5.879972491633202 0.18507930589839816 0.04919510778671504
0.19127866515681166 5.704984083111212 0.18507930589839813 0.029560598159277418
0.1706279183843324 5.848494766444544 0.18507930589839816 0.040997748863804716
0.17314483971415667 5.812039399763874 0.18507930589839816 0.04723611301319795
0.21572795598326994 5.739535944074021 0.18507930589839813 0.031471614107234085
0.1745282227759067 5.731230770613559 0.18507930589839816 0.04386070519043118
0.19349590915132878 5.723035989774608 0.18507930589839816 0.028501952323813824
0.16282920992747246 5.719376750847303 0.18507930589839816 0.06142052165567008
0.18711627425193425 5.81093885860799 0.18507930589839816 0.029978542852167524
0.20528987805296744 5.779941996638236 0.18507930589839816 0.030448264255244235
0.16943044049035955 5.7787387742183896 0.18507930589839816 0.04006646930319054
0.2135944978064593 5.678711627582121 0.18507930589839816 0.029884691797982338
0.16381701911654223 5.7668608243004105 0.18507930589839816 0.060864875059850776
0.22372494919381034 5.708580137899623 0.18507930589839816 0.0319082579045715
0.16984340402322598 5.868181271777408 0.18507930589839816 0.041892274845362114
0.1652780074673711 5.684577632754362 0.1850793058983981 0.050134320982081454
0.20571783253799333 5.689758851735933 0.18507930589839813 0.030940063878219286
0.1752265555114288 5.789544705906526 0.18507930589839816 0.046022386156253876
0.23669897082210786 5.688780552831621 0.18507930589839816 0.031803968865673105
0.17370886763335508 5.757800880345945 0.18507930589839816 0.04384527489200403
0.21179575341874884 5.699388592531712 0.18507930589839816 0.0327784481356228
0.1752199556171396 5.80109115703669 0.18507930589839816 0.03754795580674389
0.1965028673462134 5.675353706086596 0.1850793058983982 0.029466108101405555
0.1729439233479963 5.896161630301429 0.18507930589839816 0.0466375886758456
0.2154571401625406 5.718917854339838 0.18507930589839816 0.030919708290172678
0.18505981050275416 5.900492690066432 0.1850793058983982 0.029045118131106183
0.2039752749997344 5.92082397675356 0.18507930589839816 0.029382905088473712
0.21357810928311047 5.888678359059261 0.18507930589839816 0.029458995618542774
0.23503417876730884 5.712081445879175 0.18507930589839816 0.03114395820393958
0.23391858300693077 5.768336255835543 0.18507930589839816 0.02982335917118763
0.20633794804864491 5.84259410830529 0.18507930589839816 0.031907592388105935
0.19046481507379287 5.912991495130411 0.18507930589839816 0.029940563838154795
0.23534519158831926 5.793148885715632 0.18507930589839813 0.029272073430020744
0.22609079595603043 5.9015235013009395 0.18507930589839816 0.029746252887098968
0.18830067250583962 5.8732323198677125 0.18507930589839816 0.03204771034181769
0.1706674069578451 5.914007186888765 0.18507930589839816 0.04841429450648622
0.22058104773405948 5.810626462693841 0.18507930589839816 0.029236981295934595
0.23172233498568015 5.874439226670454 0.18507930589839816 0.028165484478741717
0.19771338786596077 5.885835474405325 0.18507930589839816 0.030370618229265723
0.23184404187976618 5.729318216015893 0.18507930589839816 0.028409662436323566
0.1995712753848891 5.9017677716879255 0.1850793058983982 0.0307440863022456
0.18785116495180446 5.859128306277142 0.18507930589839816 0.0294619812060197
0.24138148701324358 5.814486919797115 0.18507930589839816 0.029275760079459767
0.23599372318400874 5.923316176110754 0.18507930589839816 0.03191593534280812
0.21396314002000555 5.833559604841884 0.18507930589839816 0.03234064507128438
0.20134985130887098 5.829902339820668 0.18507930589839816 0.03012157944097085
0.2362427816956401 5.842320932238021 0.18507930589839816 0.02902931505576834
0.22242243221998675 5.762509502877898 0.18507930589839816 0.03405985209097678
0.23517940716743058 5.8861857618595135 0.18507930589839816 0.027758893183217472
0.22769248024696756 5.859413161654451 0.18507930589839816 0.029052880791701836
0.19536383415703434 5.839669648781942 0.18507930589839816 0.030706619173540048
0.24081741017603467 5.756674169483745 0.18507930589839813 0.03007763924892083
0.21238592293418299 5.79793251089212 0.18507930589839813 0.030207233996561826
0.22648849541151794 5.837933077309566 0.18507930589839816 0.03256513108509091
0.23007037376691425 5.779129548924697 0.18507930589839816 0.029876359524394616
0.2189749992889405 5.923676733720689 0.18507930589839816 0.030947166448424216
0.21890338912024546 5.821663605325286 0.18507930589839816 0.03150204418090731
0.21612186088492366 5.86053151462005 0.18507930589839816 0.034665279126543574
0.2226302900634391 5.91371853050292 0.18507930589839816 0.030137018321460353
0.2040538559645927 5.8592536259679555 0.18507930589839816 0.03193179936146455
0.23910440442513928 5.830113466202089 0.18507930589839816 0.03030902490667234
0.20205358316708388 5.873227952482248 0.18507930589839816 0.030532289182753223
0.23480791153494895 5.912131315247788 0.18507930589839816 0.028227275303046275
0.18200352425951688 5.886955774310355 0.18507930589839816 0.03303156616485756
0.21625196259501817 5.785586716492888 0.18507930589839816 0.028484103243704192
0.20863370183387736 5.813878516970108 0.18507930589839816 0.0319142687212277
0.22489311160766365 5.751278505602491 0.18507930589839816 0.03234951213489136
0.7626940335767418 5.927259786900075 0.3886888843577067 0.09022398133809187
0.7682913661027357 5.917811365340066 0.3758221333281545 0.1892824051285365
0.7695025709699661 5.842536543988789 0.37279081395936076 0.19518820299824596
0.765022845413203 5.9048282406992145 0.3832731541611089 0.1475730227165951
0.767827081977014 5.860471069614283 0.3766932795214891 0.1993279983343042
0.771475036475362 5.889123277409879 0.3684250735739295 0.19758407404716669
0.7729140676150291 5.9159840575914675 0.3652159583843423 0.10121101175196111
0.7690478057140693 5.774137096647511 0.3736028181957485 0.1900562253997569
0.7686242325319248 5.79705136850713 0.37465140111937406 0.21548524199648622
0.7715748493808683 5.805506359745556 0.36791406598918064 0.1837012374038738
0.7677456019189208 5.880467128562238 0.37694758506276915 0.18728346628831832
0.7719636150944202 5.833447563530925 0.3671168900732629 0.1580628781734426
0.768553765945568 5.819441939698642 0.37488853176516107 0.24005821114594542
0.7669162794798183 5.892437902154441 0.378889639980479 0.18869143282098386
0.7669893628010295 5.807792457883959 0.37838525367532927 0.1977409580256599
0.7627210628764856 5.677629612260834 0.38531327826402645 0.10681185333671463
0.7623198198468105 5.833605692903782 0.388357993264193 0.12333905121180176
0.7607561885881738 5.7289192120766055 0.3900848946045261 0.0981458367408052
0.7696339865862984 5.737815699181934 0.37194946900407067 0.15343600145372638
0.7696294328950128 5.719787816116233 0.37170232233806355 0.1656895979287024
0.7633532500674343 5.849423428693686 0.3864572491984628 0.12146031505101801
0.7617955782323652 5.7034148981014 0.3875839316346612 0.09358577575581235
0.7623023217483021 5.913500711630868 0.38953079191498763 0.1282167291763233
0.7719213414923797 5.696317683576451 0.36665381796727514 0.10685914695556545
0.7694672014866808 5.75666397394569 0.37256074004065964 0.1493434190972714
0.7625072523176832 5.688612149615117 0.38590936326665726 0.09335337463339013
0.7657103585037 5.729463346239131 0.37990169692584236 0.15487120005203658
0.7649708494751055 5.7646420734765575 0.38192344717996995 0.1256877290337058
0.7644271238741107 5.747731153937927 0.3828012932265466 0.1145554196403939
0.7689103908123495 5.681465841849967 0.3726361498811449 0.1915410326473153
0.7672682197748262 5.7019385959753635 0.37630546734679254 0.18875087356252337
0.7623231677053268 5.717937136115755 0.386705290401219 0.12674638559222418
0.762437227283102 5.815666271716792 0.38786122602731804 0.09584530681717021
0.765964979337603 6.020166123298672 0.38118836979595844 0.2026495328479005
0.771053807329474 6.031492203479584 0.369518582336252 0.12257313670630057
0.7705268564215384 5.9483966863636155 0.370733433725707 0.17053838818932576
0.7672963189177455 5.9810321516905205 0.37813862761725114 0.1861721475102302
0.766199422268655 5.94533063713897 0.3806566638051489 0.1740626124479789
0.7717138305221298 5.997991465031982 0.36800775422791276 0.14444251658382418
0.7709834301049141 6.08981766276838 0.36967537631119 0.16278016311924903
0.7676739472908641 5.959000553288975 0.3772744413521406 0.1691929287865596
0.7717243169237189 6.075844809520692 0.36797758974170897 0.16960217520755658
0.7677659064921938 6.0538533477751875 0.37705612026125546 0.19998010234874658
0.7691550985963111 5.969492673401838 0.37387727430447126 0.20056334820482094
0.7726188749581261 6.151991393121745 0.365920345837257 0.11622255190514098
0.7674028323120234 6.001397685369156 0.3778927873222186 0.202308878726362
0.7664046859979148 5.933246297243716 0.3801869351568671 0.19497405713606705
0.7699145085867533 6.1026328285146345 0.3721254512738761 0.16277897632840874
0.7617337293796433 5.962105794115519 0.39055662681864634 0.06411849962224976
0.7635863122898909 5.994049748071688 0.3863855892826447 0.11325051540440265
0.7674383058102917 6.135061209201482 0.37687203706512856 0.19772198404473296
0.7623980883063821 6.092544825041742 0.387719499956207 0.10450863238910464
0.7671306804247917 6.166901405392196 0.3771459036536105 0.1982562859234195
0.7697569121217925 6.116193910960921 0.3723151617237378 0.15890622546045713
0.7630750106085229 6.008421011238751 0.38727536874180607 0.10944950308592066
0.7629812138182495 6.04794191527073 0.3870227842823194 0.105851053147469
0.7637715452531093 6.1569935067754775 0.3841676289719084 0.11088479179828888
0.761278928499453 6.073952840161617 0.390231301763269 0.09342075594050828
0.7712762972752951 6.184367199750593 0.3684211150993501 0.18104693595469445
0.7637535211527724 6.175864043704059 0.38399197214616604 0.16377176391043588
0.7681448956450977 6.068035414981126 0.3761741254184765 0.18996778162322706
0.7652521886771286 6.12280628479735 0.38150722211407945 0.15501592697649663
0.7649286766563941 6.112213133389596 0.3822921343729124 0.1624451232078296
0.766803600658799 6.082476562057471 0.3787704847317219 0.19967248001567978
0.7662536239457808 6.034751493014758 0.38043985503720656 0.14621396558472888
0.764287614297715 6.144159401379205 0.38325071373618097 0.16442920133285896
0.7456245772002256 6.014960255188951 0.3919109209067484 0.021604005377310977
0.7307012430733475 6.1645307398189555 0.39225472645684667 0.01964684713033693
0.7171059490419569 6.166452227474515 0.39323881673511196 0.03605614862322315
0.7059721319127428 6.134911078902754 0.394210107317049 8.734465842807628e-05
0.7392081200161171 6.088084449205066 0.39201472401931303 0.022967994602487864
0.7235429120109214 6.092148823562857 0.3931394037613531 0.0003142415697647715
0.7179850277747315 6.076724110145717 0.39362266224811127 0.00011470411063907801
0.6950357957820678 6.15637998832233 0.39490223432373206 5.148671134229909e-05
0.7526703963693727 6.024570325999633 0.3913479466302896 0.029523718409691077
0.7233083752508069 6.106696252541077 0.3930838970185477 4.507767818975473e-05
0.7129270437377864 6.150650115561424 0.3936231697472885 3.37752854657908e-05
0.7558638242815777 5.982491427400239 0.39132467749588856 0.0372780514302786
0.7310644897235135 6.077196952848952 0.39266431719928124 0.006303850545873032
0.756928269129237 6.108448399796957 0.39061785387344283 0.07537596957498639
0.7242602700993785 6.177714176570984 0.3926596626090897 0.09381928693370183
0.729604114083992 6.143415451378246 0.39244036480653294 0.0025791896036178315
0.7041008229645593 6.181508412539577 0.39411417734732745 0.07631005853087128
0.7170266600119604 6.114990533643488 0.3935016091529322 8.95309450874054e-05
0.7375179519727635 6.153861370713832 0.39180977246939236 0.011718114000148286
0.7422008275357347 6.065884069032753 0.3919068532923798 0.02269111053488263
0.7585059142509574 6.135065091188982 0.3903696206521946 0.08360444375764339
0.7521433585835691 6.147306934260869 0.390773527520745 0.0244233189133775
0.6807037143890349 6.183871988743556 0.39581247884535337 0.11997224669678565
0.7379546122505838 6.118270366943053 0.3919555964834117 0.015571369753916538
0.7224180886985863 6.13067205328604 0.39302923449882876 3.5500009447217994e-05
0.7541713149742665 6.161013408474124 0.3905568538328558 0.05246725866076977
0.7410233080421367 6.104108191318354 0.3918020293449127 0.025330806046428643
0.7273151013110011 6.049322008529499 0.3930775677570785 0.0004615111900815164
0.7494804451286279 6.075250789053854 0.39132800586683714 0.032790803669401125
0.7491578525950555 6.093574975331429 0.39126007422102255 0.03321050547055827
0.7353870358317026 6.024801508332578 0.392610040632114 0.006036939244171835
0.7602322496060276 5.95036816446347 0.39116580932674666 0.08349434956382067
0.7444795786676426 6.136559294043742 0.3913873497884656 0.016891742610725468
0.6936316988831657 6.1788818889153525 0.3948924870152385 0.1050903200672701
0.7019104250521135 6.170321396788291 0.3943301419077131 0.06125571136073127
0.7373012384550874 6.179684029881945 0.39169665507736423 0.09369227903734945
0.7410290828471904 6.052091394618651 0.3920613765653674 0.013020158587088123
0.7504714158195803 6.182643154627946 0.3907192632291782 0.14716663604754882
0.7592197449600018 6.062910827056518 0.3906777812653206 0.07669997907705416
0.7530526340918121 6.126165858126883 0.3908126456550651 0.05373103079101033
0.7218003816736498 6.06384441750053 0.3934081168797804 0.00014558137740880342
0.7519863785259681 6.039378409900513 0.39132399096217707 0.031986095939720245
0.7527791564403281 6.002972599248454 0.3914478552847892 0.03521563340136472
0.7272649417143294 6.034431100945099 0.3931638641792949 0.0003955217107647467
0.691626425656027 6.139231109503725 0.39534314685283056 6.942306033475368e-05
0.715081915417061 6.036705104334494 0.3947853982833716 0.00012851062190443745
0.6940517613557744 6.127188711550385 0.3953231221367755 0.000100477819905161
0.7116344690899303 5.95642218347965 0.39735845650174945 1.9754380902431552e-05
0.6791887959023508 6.010351515739148 0.40042621116393795 0.00023514626398445245
0.7211366349699265 6.013914986710345 0.39454539772611447 0.00010100100820710584
0.6810321340618097 6.106936016832843 0.39764859790709445 0.00012864082618682998
0.748913549051946 5.944493096429822 0.3925265558336892 0.020364665446414156
0.6863532359644001 5.933441799727814 0.40144697806081575 0.00015967622305611173
0.7392482573704809 5.989375203212511 0.3926875664676507 0.009083211034534872
0.7026839932733635 5.932571370623826 0.39921649577572216 7.846123907443755e-05
0.6998732492292472 5.947521206066783 0.39921373976995184 7.618777051021534e-05
0.7053904161682926 6.099265028908433 0.3944881900361171 0.00012178786201187932
0.73767758754939 5.945820953905104 0.3940421376404354 0.009029000735454023
0.7042189798812619 5.998023015774103 0.3972947761957558 2.371660767160791e-05
0.6826339354274805 6.093779687796201 0.39777130120633103 0.0001403693000889714
0.6822168869421209 6.055904617290572 0.39881833331425987 0.00017306959974590567
0.6958447234366929 5.986879931144509 0.39874132135674123 0.00010313566873634677
0.7267725929662823 5.958568895483506 0.3952137036706126 3.6996951976639896e-05
0.7129701912544135 5.943761725493767 0.3975049171689255 4.848889367163464e-05
0.7212265148189478 5.978443180575672 0.3954597012943568 2.4866119307017345e-05
0.7100555789521716 6.067939731274922 0.3946628948660189 0.00013469635181591937
0.7120686487623671 5.98843981869797 0.39646208684545425 1.0152366599792253e-06
0.6974607345847839 6.071265660664569 0.3963137675403995 6.948459221922041e-05
0.6980510488336503 6.054366407830709 0.3966738141911139 6.250722357337804e-05
0.6920548649131686 6.013718350643849 0.39856306732957925 0.00010666518985756868
0.6896877739041035 6.082997247410362 0.39707974623610276 0.00012115161629156604
0.7122116909818541 6.006009668006408 0.39598333655695483 3.122120194069332e-05
0.680566578227898 6.153004953668233 0.39650927675956954 9.31767251879369e-05
0.6807135038227315 6.035030154774389 0.3995711088477491 0.0001909927660547596
0.6854580750330299 6.117071971511729 0.39677312958807354 0.00011024247052066616
0.7334131499480752 6.012111757849674 0.39289866556683417 0.006961625286446434
0.7141124999415168 5.967852956777068 0.39671792215066715 1.4968403600797265e-07
0.7258975151839526 5.999897706790689 0.3942547222429683 0.0007120891156569689
0.7095664477584875 6.01849712495829 0.3960220756132492 2.645401689942674e-05
0.7020516738735366 6.084265650409875 0.3953407105018204 0.00010737218502535706
0.704665870612122 6.043351715778649 0.39604889977526064 6.0844753659246606e-05
0.6995560845366235 6.116872152067974 0.39483318903276804 8.676235449960086e-05
0.6876020850223106 5.9479685730869365 0.40089515569423473 0.00012831460011125594
0.699943637531674 5.969662396411735 0.39862558707871043 6.0011059912801085e-05
0.6810325833067592 6.169248060623672 0.39602062722892706 0.07963156543955784
0.7440394849046978 5.975186057287489 0.3923971938562925 0.014743512363103067
0.7318368587908624 5.969096498538416 0.3942399311683792 5.462157021348511e-05
0.6932028571946042 6.0020177626218425 0.3987103531638466 0.000140364861987966
0.7106845457832152 6.05729247286776 0.3948542744480362 0.00012983449726651565
0.6916236820326483 6.042792344647103 0.397862998270989 8.528471528305028e-05
0.6852812361739148 5.9718919814361 0.400590371280461 0.00013864928427223964
0.7267477424227116 5.938451068303127 0.39574271275298256 0.0002534053888333967
0.740656048888751 5.96244571090142 0.3931968634487308 0.021998141072361366
0.5482188484257968 5.997258046014478 0.40841272177090054 5.100402491710522e-06
0.6769749979667485 5.983384365227789 0.40128748651708734 0.00016445822257883931
0.5789032858187126 6.009303549057438 0.40632135988952484 8.72114108775158e-14
0.6573870733782132 5.9382277571335145 0.40358245833007644 7.225678028142283e-05
0.6335409427734477 6.017261824144674 0.4029430409470669 1.0897600166011926e-14
0.6535654566038454 6.0822752264807685 0.4001139685338122 3.637522846180515e-05
0.5587768046347745 6.03992238237727 0.40670624005727907 3.588999128347359e-05
0.6462219050063774 5.93709274908516 0.4042602293494009 8.277521456192103e-05
0.613630203652157 6.108932638907299 0.401751222927061 4.1724158104716685e-05
0.6770118853755729 6.081072500792456 0.39878255430830056 0.00018983028186964957
0.6753103598651684 6.023703784157022 0.4003512099681902 0.00019464886184850436
0.582061455914608 6.052974447470057 0.40501901452349154 2.6221729806835318e-05
0.6256683469356582 6.0013770103305175 0.403807407694166 -6.548764977287963e-14
