x y z curv
0.5850225286829502 1.8912232228211525 1.284348424639075 0.16931833707194457
0.5874699727989391 1.8936705835744887 1.4472277245453706 0.15423992858315416
0.5872299611583685 1.89343058010898 1.435376991001914 0.18856495688159353
0.5871070799368779 1.8933077030729597 1.4585393347526328 0.1847145601099018
0.5863256809361699 1.8925263306875655 1.2619646559303557 0.2175918643095092
0.5886753343912757 1.894875904110877 1.1384985437985804 0.16873243645231145
0.5879587739181793 1.8941593680446223 1.1281830277032652 0.1734332179149031
0.5867422997278294 1.8929429352887284 1.3144917358078367 0.12738503110560814
0.5748467445373534 1.872663825347192 1.0734399614105452 0.22122147838493803
0.5748467445373535 1.7826319078303379 1.121808696421909 0.27748149789697074
0.5748467445373535 1.7862553484696544 1.3692440971798543 0.2157025778809852
0.5748467445373535 1.786392042268076 1.4049356663012251 0.21678055570670932
0.5748467445373535 1.77797710545267 1.4365305271926359 0.16018505305418035
0.5748467445373535 1.780273643852353 1.3445688311073059 0.18374456403542808
0.5748467445373535 1.8322821288126443 1.586324668752793 0.22254181886584146
0.5748467445373535 1.8915970880384916 1.3016333603944583 0.1789065026342013
0.5748467445373535 1.8950372986976571 1.2214162610267165 0.14265491395227717
0.5748467445373535 1.8859640600637098 1.1118452981726397 0.20777266511676276
0.5748467445373535 1.89425356328667 1.0787364971672597 0.1633394570422696
0.5748467445373535 1.8938503165325267 1.5883442515788981 0.16405644562095134
0.5748467445373535 1.8859108477015938 1.2920700991759075 0.20706147890301244
0.5748467445373535 1.8858911607417257 1.4769841101506695 0.19143587605350662
0.5748467445373535 1.8852339800277542 1.155026826000694 0.20975754239320607
0.5748467445373535 1.8859343487672247 1.4003914782035296 0.22040514953406073
0.5757621864883512 1.8850465416908266 1.4322394514573844 0.19402234756643733
0.5777130381532634 1.8850465416908262 1.3437562213940246 0.22083446079781557
0.5812091800874132 1.8850465416908264 1.2143277735938967 0.25299297603978244
0.5817582103202713 1.8850465416908264 1.1331824596938829 0.24976788157209698
0.5769905108143725 1.8850465416908262 1.3249259935669397 0.22033033903764898
0.5754471047575861 1.8850465416908262 1.4634619362433805 0.2038737464075885
0.5836274206785523 1.8850465416908264 1.332946566072566 0.22511105701284706
0.5878522965516051 1.8850465416908264 1.396204875867943 0.21343984863647095
0.5846702833617956 1.8850465416908264 1.2398465033972266 0.21184974230149398
0.5883280464071626 1.8850465416908264 1.4920470001642216 0.21112506271662068
0.5850419794707222 1.8850465416908264 1.2504386581350846 0.19599282760083955
0.5870564073833788 1.8850465416908264 1.3059769818952867 0.1855400664588656
0.5838353721339471 1.8850465416908264 1.36290298829596 0.17181119551178756
0.5870700356307457 1.8850465416908264 1.1942451811992911 0.242309931815881
0.584991229653771 1.8850465416908266 1.5362328985725546 0.1986330490544439
0.5770883330195407 1.8770739969016441 1.6022413752020521 0.18943256066621555
0.58884596824646 1.7906565182490843 1.0740217718998544 0.2402613511862336
0.58884596824646 1.8023617546146535 1.073325842017404 0.23340936893781233
0.58884596824646 1.85343759978573 1.0735110090767688 0.21041905239032577
0.58884596824646 1.7867219688361007 1.3445195896514115 0.2250336295278004
0.58884596824646 1.7859053198719228 1.4148254264648628 0.22360968628950184
0.58884596824646 1.7780818372226066 1.2681944649388146 0.1453516955384055
0.58884596824646 1.7774459365775368 1.3792092053521423 0.1384790981988283
0.58884596824646 1.783396572119824 1.1645168662869496 0.18622286507430838
0.5888459682464598 1.8907882937114537 1.3246029821244432 0.1530706935207186
0.58884596824646 1.891214041404094 1.2056851284285437 0.17279947880610125
0.58884596824646 1.893510501355232 1.1606010684619958 0.17689084059165477
0.58884596824646 1.8942811743606653 1.5096865891189784 0.17283500160927326
0.5888459682464601 1.8874704521089478 1.1090453964720683 0.2042945058736416
0.58884596824646 1.7901230173647922 1.5280377009565551 0.14741120905811134
0.58884596824646 1.8889448184850886 1.294716294299321 0.16597661741649963
0.58884596824646 1.8855054557366213 1.5177404012229028 0.222241611200909
0.5860317699284263 1.8739708258425978 1.5949628878851043 0.2537384880392174
0.5749386396668851 1.8080706378368572 1.565179546602471 0.1412109468559485
0.5857041122323373 1.8529988692178971 1.5966594334820938 0.18469899191953643
0.5872078380468388 1.8187509049693609 1.5750350773650137 0.15757128096053158
0.5878972080508051 1.8270008862738902 1.5847275857211418 0.14194161301701436
0.5784187405876363 1.845198038091223 1.5855390124439872 0.247043958334828
0.5880741373079207 1.8401026444706279 1.5823550781651161 0.22133098131399634
0.5767164376263615 1.8205300225850625 1.564518149173749 0.23077149720455822
0.5764471289522564 1.8039934405685047 1.5539324387106526 0.1895085400051614
0.5752252721388438 1.789624599516746 1.5270612055066575 0.14646273483063088
0.5832389269434497 1.8022439768042255 1.5417574739103002 0.22576199901087388
0.5823234787778186 1.785968294284485 1.489429941501681 0.20565371326145987
0.5830397390351891 1.7963446794876683 1.5154783995288112 0.24692190189006352
0.5810789859871461 1.7882717599432127 1.4722925669943918 0.25688764635440997
0.5876981930496257 1.7872666095071268 1.4574675395713075 0.17474721517468678
0.5763934802003371 1.77856547263068 1.4181113989276593 0.18787778168189684
0.5799635495806875 1.7821356168761109 1.1782391127897902 0.23751890211380006
0.5814061616094627 1.7835782407274512 1.1403733968392418 0.24326119114771932
0.5793659190731978 1.7815379773745463 1.201178943483358 0.2649847431019863
0.5759936641827178 1.7781656650507451 1.098628881247095 0.23920846606633409
0.575242545663949 1.7774145337395768 1.2952649380075376 0.15933475942313013
0.5860709356521203 1.7797936792325024 1.404699686133149 0.1638449118993308
0.5851266443975441 1.7807379626153534 1.3268634898515184 0.17935355912697237
0.588458105004994 1.7774065825079806 1.4203255955425136 0.16178580556745092
0.5837114216756308 1.7821531849987022 1.1055913248500653 0.22550165186097437
0.5868209231195272 1.7790437365113345 1.2414549676970796 0.27323031411718307
0.5824798878805464 1.7833846978200858 1.0814764210671364 0.28139305744589577
0.5815946843576657 1.7870187163352966 1.2314779969073215 0.23758818258938258
0.5788787544021383 1.7870187163352969 1.158925156707001 0.22448277576420045
0.5819464310953679 1.7870187163352966 1.4298574914934759 0.2372573157764943
0.5877319215856093 1.7870187163352966 1.2222730481518553 0.18930110713632572
0.5884511881946922 1.7870187163352966 1.2110032527721446 0.18376878423020448
0.5842901174185903 1.7870187163352966 1.360495457579253 0.24599743058086282
0.5874242416334854 1.7870187163352966 1.1512570525185912 0.2018737687854897
0.5866247038771821 1.7870187163352966 1.2884580889178383 0.21853600537597137
0.5831842816194498 1.7870187163352966 1.3005810427029252 0.20317758600147212
0.5868847077576043 1.7870187163352966 1.3943510018389882 0.1875358089673813
0.5800967857974156 1.8869157894377713 1.069964160101964 0.23985518136612324
0.5821038901640176 1.8629963360714834 1.0714559799852936 0.20173053243255726
0.5781660660773026 1.7930326794282612 1.0747140645980835 0.24896268577646488
0.5861709912435674 1.8424788686335574 1.0747140645980835 0.2355042757630929
1.7887953519821167 1.8354348044933186 1.2230593398778296 -2.320244399997261e-24
1.7887953519821167 1.8595723219467861 1.1270251470427857 0.011027226932018757
1.7887953519821167 1.7869613886197464 1.1958956460034114 0.08229629342235963
1.7887953519821167 1.8117965246650771 1.3059907951462804 0.007674103381269345
1.7887953519821167 1.8569691356383362 1.1656559174422219 0.0010498319963345212
1.7887953519821167 1.8144930930664898 1.2907187920515004 0.005030529744463761
1.7887953519821167 1.7867626403469024 1.0744769394119456 0.13657175159105273
1.7887953519821167 1.8665680095734953 1.0772393384190575 0.09579408904459179
1.7887953519821167 1.7992020860953033 1.1753516007595355 0.057983661177868344
1.7887953519821167 1.7979842037381908 1.083492186057612 0.09330815217365021
1.7887953519821167 1.823866701863601 1.2413361225165234 -4.341982509525982e-24
1.7887953519821165 1.804527386502413 1.3557443910945413 0.031573719873835206
1.7887953519821167 1.809624168129504 1.1957207266933003 0.0115618160610161
1.7887953519821165 1.8254438354310796 1.2897926945573168 0.0
1.7887953519821167 1.8073886745279588 1.136912130555553 0.02677537548094927
1.7887953519821167 1.8865809998809175 1.0865788409788522 0.07032546545814736
1.7887953519821165 1.845578948733742 1.0818253010999983 0.06779053239635531
1.7887953519821167 1.8260527874727326 1.0865814929210915 0.04232774611460889
1.7887953519821167 1.7885483564732416 1.2185754138086546 0.10753408440379109
1.7887953519821167 1.7971958793398293 1.3462284718844435 0.06517772427974092
1.7887953519821167 1.8717457986738486 1.1062061484611871 0.040725412134796184
1.7887953519821167 1.8316566795849276 1.1202729588057536 -2.9785705832287803e-24
1.7887953519821167 1.7786200556064684 1.4246709187208026 0.14012614124729542
1.788795351982117 1.7929921279849454 1.2760093661624945 0.06435230547138357
1.7887953519821167 1.8091708813824243 1.2298840764550503 0.017023083850379518
1.7887953519821167 1.7825592140545403 1.4076890627225205 0.08796235853977535
1.7887953519821167 1.7851478288134304 1.2079073626549983 0.09221295775182399
1.7887953519821167 1.8019816146545753 1.2382591248452255 0.031192755416457444
1.7887953519821167 1.8796799629025798 1.1146054514882084 0.060767792690180525
1.7887953519821167 1.7989587843642356 1.303089365371681 0.05392159357251466
1.7887953519821167 1.7871160615921606 1.2443783351884028 0.11165128808332977
1.7887953519821167 1.8462154147310086 1.2246326687885878 -6.359146573893023e-24
1.7887953519821167 1.811736850815843 1.183985894787724 0.015330756605752534
1.7887953519821167 1.823364233778123 1.1854925134180851 -1.2935625189518887e-24
1.7887953519821165 1.784122497910635 1.3252844004450277 0.10469663343279645
1.7887953519821167 1.8078532774731242 1.1475583854188285 0.025882467089990244
1.788795351982117 1.8003765792782174 1.2007808968452491 0.050047092105240415
1.7887953519821167 1.8173155399241283 1.1538134128893236 -5.462595223561742e-25
1.7887953519821167 1.817061552478675 1.2670088748463177 -1.5059211190264506e-23
1.7887953519821167 1.7880679852099708 1.129101665850712 0.09673958344336174
1.7887953519821167 1.8165968070420921 1.1684163164032892 -6.767326026075554e-25
1.7887953519821165 1.803845113437989 1.271067664534636 0.04239548633020366
1.7887953519821165 1.8016527120764543 1.1142325416218861 0.05372281296040617
1.7887953519821167 1.858672356080651 1.1770550599737806 0.0050191127626306896
1.7887953519821167 1.8319537009313702 1.0778396302829396 0.0541002251032459
1.7887953519821167 1.829978557692218 1.1686278799524157 0.0
1.788795351982117 1.7861333217028896 1.366068313147142 0.12878599370916788
1.7887953519821167 1.8516707052544414 1.1880959971752274 -2.850078084374912e-24
1.7887953519821167 1.843406287550665 1.1196915124162636 -2.3541241815390666e-24
1.7887953519821167 1.8290416019489408 1.2664518818877313 -1.0022417400178574e-23
1.7887953519821167 1.7914175127064897 1.3567909367450743 0.10093003237881447
1.7887953519821167 1.855085659970963 1.076830845724495 0.06123881895278018
1.7887953519821167 1.8787843031024365 1.0759008331940967 0.13213201246175865
1.7887953519821167 1.847193824235364 1.1450548084527568 0.0
1.7887953519821167 1.7786392127500943 1.4456558993471562 0.15472467736107184
1.7887953519821167 1.7963493420169883 1.2627740261784515 0.06555401795136402
1.788795351982117 1.8092357257518177 1.325349515819671 0.01291076159238978
1.7887953519821167 1.8432843582402827 1.214376115759337 -1.067304889235492e-24
1.7887953519821167 1.8560827560529116 1.090013612854963 0.04694902801495641
1.7887953519821167 1.7852693256659329 1.3931295981743075 0.09831815399379627
1.7887953519821167 1.8277334352598258 1.20489676478805 -7.410799993255454e-25
1.7887953519821167 1.8179097106981144 1.1414063108475676 -7.833416425477949e-25
1.7887953519821167 1.8387442807473664 1.2351695702845635 -2.4646356660667724e-24
1.7887953519821167 1.8266682468052255 1.2287582089220708 -4.419339678333061e-24
1.7887953519821167 1.7949514285509456 1.3277944381488593 0.07857369614370141
1.7887953519821167 1.8091834861786706 1.2182489436817971 0.014720973098877311
1.7887953519821167 1.7988208480625716 1.1618780860509492 0.047295469019475074
1.7887953519821167 1.8596714404593633 1.1119113989834881 0.004190688349915402
1.7887953519821167 1.7871862230514244 1.3351533228992811 0.09377650492494453
1.788795351982117 1.7847049102985793 1.3802254438038422 0.1058506769403462
1.7887953519821167 1.845090455039984 1.1626034814313544 -5.456151379872767e-25
1.7887953519821165 1.8725262088474208 1.1224035934243717 0.05909963561832257
1.7887953519821167 1.8767363701417386 1.6012891025166442 0.09587286189415276
1.7887953519821167 1.860185548945495 1.598995464207822 0.07036312302521242
1.7887953519821167 1.8411886887884974 1.5926684173137522 0.0628873246392349
1.7887953519821167 1.854623827725891 1.5884224641960256 0.060004332931813335
1.7887953519821167 1.829263269015081 1.5823347555657217 0.06702873076459238
1.7887953519821167 1.8188772645662723 1.5712999647669745 0.07238037803542692
1.7887953519821167 1.8123789985703638 1.5555042283932923 0.08771860805896058
1.788795351982117 1.8639620637087069 1.581309559266716 0.06263887059713492
1.7887953519821165 1.8309559734666716 1.570156336029412 0.06724700678690299
1.7887953519821167 1.8252040892423094 1.5617648924146892 0.08572260547525347
1.7887953519821167 1.809139241389472 1.544286874386596 0.0724075290633888
1.7887953519821167 1.848329840976411 1.572634401594844 0.04583960151800845
1.7887953519821167 1.7986328942262053 1.545886936639346 0.07738435345799406
1.7887953519821167 1.8429343825014364 1.56300361432814 0.026773098843346024
1.788795351982117 1.8312653909836811 1.5485549771305114 0.035434814805549567
1.7887953519821167 1.8419587877653933 1.5513104045568893 0.008482923992087433
1.7887953519821167 1.810788876999837 1.524354230663594 0.058633937961112916
1.7887953519821167 1.803408001827462 1.517469834718298 0.06849214707562216
1.788795351982117 1.7833764489549901 1.503423182066374 0.08543636904889888
1.7887953519821167 1.8206085836106543 1.534737106832215 0.029213278840466324
1.7887953519821167 1.8485903013722038 1.5410919027105625 -1.2288127665790805e-24
1.7887953519821167 1.7790186968034958 1.4745686742982564 0.14567578311156953
1.7887953519821167 1.8317647112117883 1.5260021051851438 -4.8351035733713465e-24
1.7887953519821167 1.787820503344091 1.4671755891897855 0.1304667260098271
1.7887953519821167 1.8611884994660517 1.5657015479831697 0.022614651522445253
1.7887953519821167 1.8573748385548088 1.5531855983297573 0.006108012591233257
1.7887953519821167 1.8051668253541453 1.5048292369766738 0.04229492854939091
1.7887953519821167 1.8787083124671637 1.5819394058529717 0.08426614611895775
1.7887953519821165 1.7942281740747794 1.496474221851577 0.08661517235948295
1.7887953519821167 1.7945930467053044 1.483315441275311 0.0958537825788265
1.788795351982117 1.7825034555876416 1.4931147953246404 0.09225476414549777
1.7887953519821167 1.8236578400096248 1.5128896765921414 0.002967413993251089
1.7887953519821167 1.8259675744573003 1.4635534943665793 0.06381692391816798
1.7887953519821167 1.8369038019490262 1.3842999868093626 -5.5053965543569395e-25
1.7887953519821167 1.8519473882365607 1.2858554318025577 -2.600540137956691e-24
1.7887953519821165 1.8856478224446984 1.369420305023624 0.0840782717407649
1.788795351982117 1.892864110319354 1.563734800921443 0.091856167353753
1.7887953519821167 1.832288950901481 1.476793118945285 0.05294807545801841
1.7887953519821167 1.878352296296376 1.5502371497910918 0.04812416338180938
1.7887953519821167 1.8228391241415034 1.3468131854921614 -6.120135651839265e-25
1.7887953519821165 1.8483547041864627 1.5269540144501033 -3.166392802555487e-24
1.7887953519821167 1.882780034276696 1.348039854072971 0.08621366465357026
1.7887953519821167 1.861756524532008 1.477302926821828 0.05228843281308315
1.788795351982117 1.803100790356743 1.421934969708544 0.047014953634122954
1.788795351982117 1.8762045262552087 1.4190341143046366 0.0632572504235213
1.7887953519821167 1.8139097639533617 1.4207662235714362 0.022006725987817805
1.7887953519821167 1.8457483338713268 1.4083040364440804 -2.99985753035714e-24
1.7887953519821167 1.8448312941889695 1.2494539047049413 -1.2601894792241797e-24
1.7887953519821167 1.859868104055542 1.3231820764057547 0.005876616543105506
1.7887953519821167 1.873769509651244 1.2917055279351193 0.04270417441113449
1.7887953519821167 1.8599610585392066 1.3359771473123387 0.013057893924380353
1.7887953519821167 1.7949921755053337 1.4137349306073546 0.06056290276096617
1.7887953519821167 1.8790728800415741 1.4627767508485758 0.13588410099050097
1.7887953519821167 1.8048314855367182 1.3672316921650736 0.032048672619958855
1.7887953519821165 1.828444189892869 1.4111215705815379 -3.0022272861988503e-24
1.7887953519821167 1.871035714773566 1.4002433408777988 0.028649797967587567
1.7887953519821167 1.8608671998213362 1.2022787148310474 0.012501449708138539
1.7887953519821167 1.8702902351420951 1.3414338189229074 0.04487698037868501
1.7887953519821165 1.8790842038625037 1.1761290289142277 0.0758259786226579
1.7887953519821167 1.8832510157083722 1.1477141110863105 0.0744177702742038
1.7887953519821167 1.8938186221328173 1.5201295350521091 0.06494019240566085
1.788795351982117 1.8460377957791814 1.4259201824341041 0.03034733618577771
1.7887953519821167 1.8404211023988684 1.396915301547087 -3.1839404477831464e-24
1.7887953519821167 1.8792859464447855 1.4882834988205758 0.08123511128453285
1.7887953519821165 1.7992584611421023 1.4612733674272584 0.11129973973023545
1.7887953519821167 1.888033284305429 1.2591413049283031 0.08057751130823573
1.7887953519821167 1.888416342820392 1.498176945569244 0.07380785695915021
1.7887953519821167 1.8597621894086758 1.2709811269039126 0.010149979209445506
1.7887953519821167 1.8624329274598994 1.5017481530818497 0.015851293827972363
1.7887953519821167 1.8664072321664853 1.3869395687103507 0.02867806258655169
1.7887953519821167 1.874791407554675 1.1340765698171518 0.07081385567314631
1.7887953519821167 1.8427943543010286 1.4842287462245753 0.03286783283203007
1.7887953519821167 1.8313284363045725 1.4236135811773765 0.011940315344296884
1.7887953519821167 1.8727554680949987 1.278830326509693 0.055744737042600745
1.7887953519821167 1.8594380065524114 1.525148529496594 0.012363889503668785
1.7887953519821167 1.8119989073882898 1.4865165497077355 0.04211193847150819
1.7887953519821167 1.867477333905456 1.1694576881450816 0.01767096554175714
1.7887953519821167 1.884652726429799 1.337774358265482 0.06474029386184121
1.7887953519821167 1.8082678804336167 1.3776962979442147 0.016103346862584435
1.7887953519821167 1.8757368964034398 1.5092327191080526 0.06462776245720683
1.7887953519821167 1.8565826483459575 1.488643078062169 0.003805903133637396
1.7887953519821167 1.8927906291694516 1.552341729249119 0.09379446752202684
1.7887953519821167 1.8687467717725685 1.3285972469552667 0.028044018914723877
1.7887953519821167 1.8948642605891428 1.3768992882737807 0.09632704195221664
1.7887953519821167 1.8439040148545862 1.338806142163532 -3.536540364083508e-24
1.7887953519821167 1.7895369199442457 1.4230646087573071 0.08918372283414265
1.7887953519821165 1.8192216037471887 1.3712444865754476 -7.203309938925057e-24
1.7887953519821167 1.8080038001905139 1.432066455549896 0.05431171936804564
1.788795351982117 1.8311802354425535 1.5009795130929373 -7.090995461355921e-24
1.7887953519821167 1.86418477790567 1.4147569959389061 0.023325145635069086
1.7887953519821167 1.8753457493949022 1.192660502269446 0.06768464591164836
1.7887953519821167 1.8112261154977514 1.4592622078895578 0.11530501704696212
1.7887953519821165 1.8683944094565994 1.491047836583384 0.022030840767332378
1.7887953519821167 1.8039280650217004 1.4465977746148284 0.11567282039851394
1.7887953519821167 1.8661354661086236 1.2404450923589037 0.027224513516395026
1.7887953519821167 1.8517291341660618 1.512958169247643 -1.1515932683818917e-24
1.788795351982117 1.8244178569627143 1.490257171580909 0.007644598531734679
1.7887953519821167 1.8151981099127823 1.3355666881756336 0.0005859268837233823
1.7887953519821167 1.8435067558528235 1.4722049769910037 0.05193965797790857
1.7887953519821167 1.8602338358896313 1.2595113939948837 0.008952476489327238
1.7887953519821167 1.8650421154412409 1.2260691487634316 0.03558924283620542
1.7887953519821167 1.7842897913155285 1.4337643087638032 0.13265125842754028
1.7887953519821167 1.884032172123938 1.2865069322402105 0.06909167738678244
1.7887953519821167 1.8752617821347337 1.5237944076542502 0.06470777894072156
1.7887953519821165 1.8716670542502394 1.1455224402574395 0.03683242383788412
1.7887953519821167 1.8943325733166558 1.4072282369970774 0.0801764099109708
1.7887953519821167 1.8876810111535498 1.541345938516146 0.09334138279134728
1.7887953519821167 1.8942070561576836 1.464090600362749 0.11329199579201453
1.7887953519821167 1.892277678421872 1.5787685567824263 0.08868339882566678
1.7887953519821167 1.8172153420125112 1.4502279176493031 0.1118029253827259
1.7887953519821165 1.8147495031480676 1.4755468494632515 0.04132237267864861
1.7887953519821167 1.8217351432872546 1.4333909753208969 0.0544654898438006
1.7887953519821167 1.8869456044938175 1.2012714168009841 0.08871333274334271
1.7887953519821167 1.88073064174187 1.4756260417062834 0.10034174690002803
1.788795351982117 1.8157582595772028 1.3597600819490694 -1.2117040263849304e-24
1.7887953519821167 1.893823693061079 1.5901671599345104 0.09255065019385032
1.7887953519821165 1.8428212364826007 1.5016463584512436 -4.116876655029469e-24
1.7887953519821165 1.8547619577155938 1.4665474020142732 0.11119792170045145
1.7887953519821167 1.8658801407072596 1.466505100849954 0.10248192309693198
1.7887953519821167 1.8403270996350567 1.366784508588016 -5.249166557338788e-25
1.788795351982117 1.8849479665705722 1.4009869543852296 0.07947451802189409
1.7887953519821167 1.8260742164345465 1.3824335454920245 -7.295702780041169e-25
1.7887953519821167 1.8764432421985002 1.362632522488483 0.07360012174290506
1.788795351982117 1.8312950800308865 1.2790862642941345 -7.241177444326093e-25
1.7887953519821167 1.843955928420922 1.4525229613203015 0.16429008864727093
1.7887953519821165 1.7872628909064965 1.4543736034436356 0.15618087981610954
1.7887953519821167 1.857108345910281 1.310880943415809 0.0011041367000956556
1.7887953519821167 1.8102886746543143 1.3449669394120243 0.015056745271821397
1.7887953519821167 1.8812174751925217 1.5666050620645824 0.06499302623094569
1.7887953519821167 1.8703066174773793 1.3739761601133464 0.03628460346863873
1.7887953519821165 1.8673002622099228 1.5426157193129644 0.019719988930687056
1.7887953519821167 1.866390775939152 1.304564966823623 0.022917889582288367
1.7887953519821167 1.8202928549287278 1.5012566686584745 0.0029219899469548442
1.788795351982117 1.8768099133350449 1.5345653701404764 0.06401283751586999
1.7887953519821167 1.8785435711493756 1.3895619429700201 0.07632970087539975
1.7765343979084716 1.8174150033229424 1.0647140741348267 0.2093015302355543
1.6559703711433715 1.8441909170653883 1.0647140741348267 -4.276039870209978e-25
1.7107668843996566 1.8839933316457176 1.0647140741348267 0.2739244179856837
1.6430706662670758 1.8584817099118442 1.0647140741348267 0.015007046625243109
1.6012024438267671 1.848274053035642 1.0647140741348267 -1.3632332979480454e-25
1.5443210854346803 1.8620394587037907 1.0647140741348267 0.057654405754639676
1.6953327962178946 1.885723141305462 1.0647140741348267 0.16449658807111134
1.3807158533587067 1.8626780090382757 1.0647140741348267 0.041963312343965935
1.5470193358209183 1.8329183895892918 1.0647140741348267 -1.8834699896665284e-25
1.649015047324968 1.816780990870835 1.0647140741348267 -6.59921242304826e-25
1.7556336604467353 1.7954373949927582 1.0647140741348267 0.09275446990278544
1.4967284893367734 1.8548210566746761 1.0647140741348267 0.07751274199750603
1.7064853909054971 1.7973567725483666 1.0647140741348267 0.04646152305393346
1.3081608612649505 1.8784866839434744 1.0647140741348267 0.22229250466580674
1.5074884031197624 1.8488431952636568 1.0647140741348267 0.028513077206776854
1.5951284187577004 1.8243807779676118 1.0647140741348267 -1.723041591569131e-25
1.7201372063348475 1.8903393624898603 1.0647140741348267 0.10543903342427248
1.7390924751003853 1.8405665032769802 1.0647140741348267 -7.631944662015764e-25
1.6725082551206132 1.8633249367684244 1.0647140741348267 0.034591009458711665
1.4260577728809087 1.8523185189832443 1.0647140741348267 -1.733208474530336e-24
1.679632866724215 1.8179156648230423 1.0647140741348267 -7.412734858897923e-25
1.486759160226828 1.8466596299568387 1.0647140741348267 0.12539759630270003
1.559417539975025 1.8519816389395674 1.0647140741348267 -1.3794161768663689e-24
1.7620888567110704 1.7841521752944425 1.0647140741348267 0.12238343028031282
1.6006931289682949 1.8773456316407209 1.0647140741348267 0.20785274417377167
1.6540739218137013 1.8321945184944233 1.0647140741348267 -2.9273034950589765e-25
1.7533032867965472 1.8167820816601685 1.0647140741348267 0.008821131587439955
1.7502920166395204 1.8534153385663463 1.0647140741348267 0.002931611951274836
1.3356701960997819 1.88141350651545 1.0647140741348267 0.22488968720646182
1.534272879202176 1.8681008801850938 1.0647140741348267 0.10556597275668587
1.7396423187952634 1.8143081933886998 1.0647140741348267 0.0032277242012927368
1.6119755365082287 1.8520869713658672 1.0647140741348267 -1.4728787109566738e-24
1.5791200180005478 1.8395181684375588 1.0647140741348267 -2.1043411251133175e-24
1.59330236651387 1.8562699503829672 1.0647140741348267 4.093173843498397e-06
1.780696349623476 1.839329502718376 1.0647140741348267 0.18782496974189208
1.7635997442926117 1.8851600433997564 1.0647140741348269 0.2011861651519612
1.6785056634792925 1.80236518751293 1.0647140741348267 0.0327061736537082
1.7303532009530822 1.8585888064278386 1.0647140741348267 0.00010023970163760796
1.573858558409642 1.853804118347775 1.0647140741348267 -6.538506734547926e-25
1.486904622136226 1.8683506307247355 1.0647140741348267 0.19345055731233615
1.448790663252177 1.8504722637254187 1.0647140741348267 0.02624086029520512
1.721459659366669 1.8390107350826035 1.0647140741348267 -1.604031005197978e-24
1.5939803137993207 1.8400738357420323 1.0647140741348267 0.0
1.5257914079793817 1.8835180144538366 1.0647140741348267 0.2636767211579727
1.731914406495342 1.7935588219852103 1.0647140741348267 0.05952165053592698
1.590711540245859 1.8844840787877526 1.0647140741348267 0.2426267736564601
1.6606593210479121 1.8578003234690617 1.0647140741348267 1.6343386787362138e-05
1.685609974006793 1.8619440506404124 1.0647140741348267 0.03943069455298953
1.7801308069272745 1.8741641459180627 1.0647140741348267 0.20626329603265842
1.4607758238947972 1.8743458713848258 1.0647140741348267 0.21764729602841154
1.6065481750584234 1.836518006489807 1.0647140741348267 -1.5867649058501697e-24
1.6807509009654185 1.8455878024197863 1.0647140741348267 -1.93362805682945e-24
1.5925825695038134 1.869329975638586 1.0647140741348267 0.13829539599831214
1.4935218389217402 1.8825649184591102 1.0647140741348267 0.24486041798425282
1.4979007317803825 1.8653395103363 1.0647140741348267 0.1137857979985841
1.657396717326106 1.8066079103303203 1.0647140741348267 0.02531446246156064
1.635289964876025 1.833153229230001 1.0647140741348267 -1.4293561212493251e-25
1.6228587610862226 1.8747765629205315 1.0647140741348267 0.23656496669743926
1.483571006941932 1.8900465941006503 1.0647140741348267 0.18330679292038882
1.2966293236217659 1.8811146406673434 1.0647140741348267 0.2027468646195286
1.7141593615787822 1.8713273911101336 1.0647140741348267 0.15216844596378068
1.6063955863228532 1.8218660501514359 1.0647140741348267 -1.2865255167427106e-24
1.4172674173158095 1.8612320636401902 1.0647140741348267 0.03271027250480225
1.7511600812983819 1.8371671078163683 1.0647140741348267 0.004682964332255912
1.6254533860027118 1.8192418109419108 1.0647140741348267 -6.087255656117572e-25
1.695253002513295 1.8049893880307233 1.0647140741348267 0.030668887159092384
1.635580944583676 1.8141341183069115 1.0647140741348267 0.003756698114928085
1.7490548720748358 1.8823679836221365 1.0647140741348267 0.20947879381115794
1.674183867701275 1.876687406602561 1.0647140741348267 0.22711170473708925
1.4088874521104244 1.8870713626133533 1.0647140741348267 0.2233297535651442
1.6223962761519752 1.859094495987478 1.0647140741348267 0.008721009725593431
1.396524650644799 1.884262078843813 1.0647140741348267 0.25578335536541796
1.6775839892490834 1.8879258378353643 1.0647140741348267 0.19649533506385358
1.7056376822420023 1.8118294126457506 1.0647140741348267 0.014892044887938875
1.5087228053401387 1.870600872195038 1.0647140741348267 0.14370077552759328
1.6478628141350251 1.8710152697135605 1.0647140741348267 0.15451405641261406
1.777075163819362 1.803023932012561 1.0647140741348267 0.2219992849741827
1.6861331081325173 1.8291365190967706 1.0647140741348267 -1.2216879058035092e-24
1.4352975586863872 1.8724865586045365 1.0647140741348267 0.19785787566570123
1.4796808408745405 1.8789668073716521 1.0647140741348267 0.21465410118819733
1.5620018849501796 1.8915818969276397 1.0647140741348267 0.18818534913009802
1.5263965605663659 1.852488687654781 1.0647140741348267 -6.36512386588664e-25
1.520967031246907 1.8641426211828587 1.0647140741348267 0.06264644401739072
1.514717178989279 1.8858827735152857 1.0647140741348267 0.23056996377250746
1.6732614516662085 1.8345912896821024 1.0647140741348267 -5.846945439850894e-25
1.7456029383817344 1.8052306512975587 1.0647140741348267 0.036428056419943906
1.6195368174421978 1.8326607904329624 1.0647140741348267 -1.3499136202597784e-25
1.7788217086715041 1.8606818079901306 1.0647140741348267 0.2219728018110105
1.5672366621522633 1.8713710667927395 1.0647140741348267 0.14264462813877465
1.3913020340599256 1.872937367469781 1.0647140741348267 0.11080561421034642
1.7409130674971127 1.8692805646973965 1.0647140741348267 0.12105310837611206
1.7163093328961392 1.8237734818026219 1.0647140741348267 -1.28469598522193e-24
1.7648528774993997 1.8241166740594683 1.0647140741348267 0.1267783117053872
1.2815825635568265 1.8820322680842652 1.0647140741348267 0.19886359013200788
1.7269629011594982 1.8488708726667276 1.0647140741348267 -5.727510164150629e-25
1.7397805848099064 1.827913614915253 1.0647140741348267 -1.6241817118271942e-25
1.663939806046923 1.8713021499652018 1.0647140741348267 0.1584012128656453
1.7608683491619488 1.8619159589649448 1.0647140741348267 0.10734735140981115
1.6122466150363883 1.8764932862740618 1.0647140741348267 0.1672743405742158
1.5368901160252681 1.8356318733984294 1.0647140741348267 -5.792626315604262e-25
1.4486285042649485 1.871851264307904 1.0647140741348267 0.15526290854126962
1.4305399628182447 1.8846834272422304 1.0647140741348267 0.2467428060313074
1.6667246397664361 1.8173928989150174 1.0647140741348267 -2.156593533732767e-24
1.613085706185094 1.8646936918174983 1.0647140741348267 0.07217973791152085
1.3150958635233474 1.8936560641845346 1.0647140741348267 0.17984144379243797
1.6940724654491726 1.844682390610923 1.0647140741348267 -1.4562886963778228e-25
1.720947032961021 1.796850660017997 1.0647140741348267 0.0505329426493575
1.7685400790287344 1.8545865175319718 1.0647140741348267 0.2018593755782172
1.76729069145124 1.843017972207667 1.0647140741348267 0.19099123848331398
1.6986951172186284 1.8223376538658695 1.0647140741348267 -6.312631152797792e-25
1.755932360883302 1.8752487681046421 1.0647140741348267 0.21087260321510895
1.632978882291229 1.8796283818563169 1.0647140741348267 0.23385936743884037
1.3466562556014952 1.879406606879361 1.0647140741348267 0.16449786152079057
1.453815724348157 1.8611143956044915 1.0647140741348267 0.05824706168140601
1.7159128832425683 1.8080556424469854 1.0647140741348269 0.019299284181009742
1.5480558040164185 1.8723426420814624 1.0647140741348267 0.12941103163612813
1.3921983309663353 1.8606489439330134 1.0647140741348267 0.014354156773378634
1.5802375730450555 1.8859428780507295 1.0647140741348267 0.19364103318099682
1.5595460486967807 1.8346673909689653 1.0647140741348267 -6.159096020313012e-25
1.4712266529244826 1.8522116277816103 1.0647140741348267 0.13288148306412043
1.77530749820858 1.7821110111865484 1.0647140741348267 0.20247289021048012
1.402080002499794 1.870228410546134 1.0647140741348267 0.09902474342272738
1.6361830265220685 1.889913261722147 1.0647140741348267 0.1640552576987289
1.732914524133704 1.880174590062471 1.0647140741348267 0.2457826709813285
1.5832473323805047 1.8737635784614002 1.0647140741348267 0.18173668823130704
1.4527378806068394 1.8950425055093283 1.0647140741348267 0.1461755581070006
1.7009712188083328 1.8721659192529096 1.0647140741348267 0.16573117099589968
1.371241141349132 1.886280497068967 1.0647140741348267 0.23948518175397113
1.7265721622249628 1.815741378850372 1.0647140741348267 1.5909862754268166e-07
1.6227495396207225 1.8466654371123203 1.0647140741348264 -2.1946360401278563e-24
1.7078983386407622 1.830336301631025 1.0647140741348267 -1.9087602972061395e-24
1.4668006958713913 1.864295613388724 1.0647140741348267 0.14745682221989714
1.3692351337188804 1.8643794188575649 1.0647140741348267 0.06492311061305127
1.5245102793099217 1.841088820278844 1.0647140741348267 -6.75612603610706e-25
1.5454427023889674 1.851457339184345 1.0647140741348267 -2.688630110955364e-25
1.6966257251776289 1.8562684174589383 1.0647140741348267 0.005833748099914225
1.648926691926144 1.8843604544445847 1.0647140741348267 0.2428601153174549
1.7156546010681584 1.849737894249091 1.0647140741348267 0.0
1.570041349280033 1.8311385642049638 1.0647140741348267 0.0
1.6377495486830087 1.8486532179833364 1.0647140741348267 -2.4247323240269024e-24
1.5362732332553808 1.878915562807752 1.0647140741348267 0.23773917101433395
1.7790903525969568 1.827247777346318 1.0647140741348267 0.22422346141619412
1.729440919847442 1.8288547211079957 1.0647140741348267 -4.0829986653323406e-25
1.6324462136310933 1.8692411294440752 1.0647140741348267 0.10758473657148891
1.7057399419867105 1.8448342489821676 1.0647140741348267 -2.2257524041406024e-24
1.667313677718176 1.8865832454715865 1.0647140741348267 0.17795520965611475
1.732913921535853 1.8052931770878735 1.0647140741348267 0.034044076818573146
1.5690594869851853 1.7798509964625358 1.0647140741348267 0.06353498117320816
1.2647454715914086 1.8633042016996506 1.0647140741348267 0.04785797109297998
1.5622952683740292 1.7900828541674318 1.0647140741348267 0.06657049050111091
1.4967727322694615 1.7892735149368322 1.0647140741348267 0.13634814713097484
1.2460249495309121 1.7789671611803932 1.0647140741348267 0.11758621324900807
1.3436302821436945 1.8229896254620255 1.0647140741348267 -8.676750342879792e-25
1.3346212578009533 1.8452662269894136 1.0647140741348267 -9.904912094099277e-25
1.4502936026892943 1.8022823173380569 1.0647140741348267 0.0667911450904498
1.6005376811193848 1.8116873525884654 1.0647140741348267 0.012900414549556602
1.2576791058457601 1.7846024986404696 1.0647140741348267 0.11872498305168086
1.2259830357270194 1.7809628480010327 1.0647140741348267 0.10486790871117237
1.3384404836325516 1.8350815440254764 1.0647140741348267 -1.7623236594911817e-25
1.3473807872904935 1.8653688775026795 1.0647140741348267 0.08121850059673362
1.3019939738568447 1.829839390360691 1.0647140741348267 -5.415520064899381e-25
1.5534446761577454 1.8132956173948127 1.0647140741348267 0.0059698351218938185
1.5202659210554836 1.7826072863046283 1.0647140741348267 0.09114094367460743
1.639243359389887 1.8046910815608297 1.0647140741348267 0.04668220971965494
1.5784288020095305 1.7997678606352214 1.0647140741348267 0.03604821691611394
1.6962172022642907 1.7909242191942816 1.0647140741348267 0.06261858345158149
1.5470098015969986 1.8032303911469032 1.0647140741348267 0.04525663712028301
1.2882690885958277 1.8247720440516348 1.0647140741348267 -5.74716175904799e-25
1.2579260897847588 1.829205420914906 1.0647140741348267 -1.4463493989449934e-25
1.244735083265456 1.7899127211674701 1.0647140741348267 0.08937404120475997
1.3132875192503912 1.7984687701142184 1.0647140741348264 0.06149994845852243
1.480198474076404 1.8373216343293726 1.0647140741348267 0.11147435413026902
1.531869025568632 1.8174054646100712 1.0647140741348267 -1.1847758788779868e-24
1.2466071126088858 1.8153339613227621 1.0647140741348267 0.027218490118356004
1.3557110831392967 1.856743954047854 1.0647140741348267 0.000340606912018814
1.3474849367454844 1.8094246186629515 1.0647140741348267 0.01805091759302892
1.4691944678099669 1.8296761509723694 1.0647140741348267 0.09654901308144141
1.337459173166204 1.8145443998796607 1.0647140741348267 0.0010254379231928118
1.5339781611224836 1.805890022623273 1.0647140741348267 0.025213915384978632
1.601920173281684 1.8009116363674884 1.0647140741348267 0.03351984696398772
1.4518519764570628 1.8249187754068519 1.0647140741348267 0.04311211797478755
1.5750257842755395 1.8168479850248918 1.0647140741348267 0.0
1.3243608493349932 1.8417282025430566 1.0647140741348267 -5.698638732511562e-25
1.6143675059610598 1.7956444220144872 1.0647140741348267 0.0743828349524021
1.4868067527612978 1.8000824168950482 1.0647140741348267 0.10443491642161346
1.587693393016389 1.8155534952995813 1.0647140741348267 0.0016937589431602858
1.2886115475534523 1.8704388340053164 1.0647140741348267 0.1644744025657776
1.7165689300609042 1.7832330426612448 1.0647140741348267 0.05702296510537385
1.6519331376564677 1.7969167639654104 1.0647140741348267 0.05777726257969461
1.3988075750429496 1.7803847486230158 1.0647140741348269 0.13579749751186085
1.3930765143350154 1.8147575847119808 1.0647140741348267 -6.702578478484522e-25
1.2172201793249857 1.8759894179693608 1.0647140741348267 0.22111772951559194
1.360859462524786 1.8353055192482635 1.0647140741348267 -1.4761166348574994e-25
1.5085502923163654 1.7859701602496827 1.0647140741348267 0.09477525445948795
1.241025249824231 1.8737913559773565 1.0647140741348267 0.1580174654334348
1.4796123584116219 1.815037215102397 1.0647140741348267 0.12499476829075229
1.5902727429012185 1.802864875502752 1.0647140741348267 0.030901243285227167
1.3147240681971235 1.787378094023143 1.0647140741348267 0.1052778900621957
1.2839225602336002 1.7931486819912335 1.0647140741348267 0.07247677648645003
1.3094092971933362 1.810005393725089 1.0647140741348267 0.011065119193153367
1.4413681476778502 1.841940071084616 1.0647140741348267 0.0033378552765787697
1.5445179959308182 1.8220219485155766 1.0647140741348267 -3.2771593143117096e-25
1.2240140862731623 1.8356424391566437 1.0647140741348267 0.10622905622556614
1.630298266168003 1.7863375460084079 1.0647140741348267 0.08813369580009195
1.2898656661488852 1.834610917205167 1.0647140741348267 -1.157643710821156e-24
1.2364741731320685 1.8490172102658518 1.0647140741348267 0.07184017674192723
1.2968044148597686 1.8587090699816162 1.0647140741348267 0.01083199303057024
1.281855646751895 1.8083389973246504 1.0647140741348267 0.009529070029952059
1.5382197445132362 1.785762168586453 1.0647140741348267 0.07895113184672871
1.3667587656352986 1.8129810641085005 1.0647140741348267 0.004922652076026496
1.4321154253236457 1.7876835020630986 1.0647140741348267 0.09114686655227591
1.336790103697716 1.8673293971277092 1.0647140741348267 0.09063057023766252
1.429932094314207 1.8071243262594068 1.0647140741348267 0.012051708152728324
1.7452127555945256 1.781085097918124 1.0647140741348264 0.07865664832799879
1.5635372222422377 1.8222917107067005 1.0647140741348267 0.0
1.472444337868481 1.7921721940540312 1.0647140741348267 0.12932634103085366
1.4970009054745295 1.8353174120970763 1.0647140741348267 0.0745697019000175
1.5070523259774191 1.7999584032891132 1.0647140741348267 0.07042354698425903
1.4275561801127425 1.8422635358948454 1.0647140741348267 -1.4958572356101507e-25
1.3860765704732132 1.8321986445463927 1.0647140741348267 0.0
1.651222924801652 1.7804126819860053 1.0647140741348267 0.08548007483518988
1.4164215966953033 1.8193792602738474 1.0647140741348267 -7.007255206747374e-25
1.2938730634042668 1.8130881655895834 1.0647140741348267 0.00882057200880209
1.3185986944856034 1.8547154487714923 1.0647140741348267 -1.3686914275654537e-25
1.2459592333400527 1.8276545401941842 1.0647140741348267 0.01990398768087249
1.4402172042326107 1.807219095604484 1.0647140741348267 0.0174299854489783
1.406091891671568 1.8249910531303124 1.0647140741348267 -2.0978403994823496e-24
1.4240927964046266 1.8302823857810453 1.0647140741348267 -1.6010859648163111e-25
1.4867123958034738 1.8267313127230858 1.0647140741348267 0.10912612268706966
1.4838444750401618 1.7876380995995849 1.0647140741348267 0.1424969672287835
1.5902600055660574 1.792394996507009 1.0647140741348267 0.04141058009804103
1.3747706040142695 1.7960529438140105 1.0647140741348267 0.0507016450632001
1.6096477858790306 1.784303942544561 1.0647140741348267 0.07196397385526648
1.5176768756023344 1.7957742841893025 1.0647140741348267 0.0569984238113422
1.3503379401146502 1.797989793677947 1.0647140741348267 0.07499002995543175
1.2295305946758295 1.8710537394718079 1.0647140741348267 0.16372055135223046
1.4990193347450274 1.8099190127093339 1.0647140741348267 0.07506919888958824
1.6605469726965367 1.7887720557561635 1.0647140741348267 0.07349099281154971
1.309070220651474 1.8630379897903706 1.0647140741348267 0.03401741216513723
1.3253071695669276 1.8298646637249423 1.0647140741348267 -7.599191420004332e-25
1.3310703878409174 1.7863735371918725 1.0647140741348267 0.08925948224340381
1.3150376386832692 1.8320517243758072 1.0647140741348267 -7.156235965251774e-25
1.4757072458107436 1.8046845080640082 1.0647140741348267 0.08871662693354573
1.2393437813130825 1.8386970571763719 1.0647140741348267 0.04961917764545442
1.3043757742693536 1.7825987709775843 1.0647140741348267 0.12296054510509395
1.2334524023126485 1.7952408826968385 1.0647140741348264 0.09142316056864491
1.6855993347212685 1.7933448478073162 1.0647140741348267 0.06840128388280306
1.4241737912700476 1.7974767423698261 1.0647140741348267 0.062124676687740646
1.6744462426759712 1.7912334863108268 1.0647140741348267 0.06988855263257394
1.408211973422202 1.798352701284918 1.0647140741348267 0.056479585468530706
1.2469154305118844 1.8013160867731757 1.0647140741348267 0.044545105897796616
1.2579106380530636 1.797257129921261 1.0647140741348267 0.044206097918931084
1.6213697789192327 1.8075595160146678 1.0647140741348267 0.019862789696777967
1.3713202030183371 1.839551403272312 1.0647140741348267 -2.697693410983617e-25
1.5507345832505393 1.7923017457170665 1.0647140741348267 0.059676614407693764
1.3985104099415397 1.792264728083264 1.0647140741348267 0.09621801561429408
1.5615951428813424 1.8067367332863307 1.0647140741348267 0.023068559391502243
1.3447169408427841 1.7852632799352437 1.0647140741348267 0.10207334231565625
1.2848380839485656 1.8595813012961233 1.0647140741348267 0.014157871565428956
1.2208508224587313 1.8642405058428189 1.0647140741348267 0.13555699866776716
1.422013268801726 1.7809251985250891 1.0647140741348267 0.10849988750304983
1.639141128928315 1.7779250012167125 1.0647140741348267 0.08359312412207322
1.4170750129901597 1.807376206675577 1.0647140741348267 0.011526850611736306
1.6912710300155331 1.781677076328208 1.0647140741348267 0.09208383098270481
1.5038830380619093 1.820689471329723 1.0647140741348267 0.0527670177618
1.511318461133261 1.829889836289674 1.0647140741348267 0.021617369666044193
1.5182906667640697 1.8145053440293664 1.0647140741348267 0.00324069587066132
1.2240892628625248 1.8463205486467382 1.0647140741348267 0.0955295809984314
1.3211659715046598 1.8062355066119662 1.0647140741348267 0.016245953945552238
1.2142748832702637 1.8425807602275457 1.1998298391806292 0.054594824564674425
1.2142748832702637 1.8077894139159774 1.0861510501365024 0.1622415829751314
1.2142748832702637 1.808679196750111 1.2242980744362633 0.08416127365236234
1.2142748832702637 1.8539897627810276 1.1600035648075537 0.06468500479845288
1.2142748832702637 1.7984112166432982 1.160438207706044 0.17895681104349104
1.2142748832702637 1.8403131453035269 1.1491697976720179 0.0651656040849179
1.2142748832702637 1.8146057289368414 1.2624802896239988 0.05909224065507606
1.2142748832702637 1.7938578097818576 1.1461722302480697 0.2066553168450693
1.2142748832702637 1.864781546321264 1.1492743549793425 0.08072116570631874
1.2142748832702637 1.799776029048499 1.1710821695175668 0.14859896667485084
1.2142748832702637 1.8370175648871658 1.158768049130472 0.0618659209426394
1.2142748832702637 1.8122552785976733 1.1915691131032573 0.05967813398257401
1.2142748832702637 1.8279846074009338 1.1294392644106181 0.06068874166062986
1.2142748832702637 1.7876810663416478 1.2306939008859028 0.22538692905696905
1.2142748832702637 1.8225573395266712 1.1954641220402185 0.059019602936121775
1.2142748832702637 1.7940196225201386 1.1299136275034911 0.1975414907895819
1.2142748832702637 1.7996974319265637 1.121510135693441 0.1340673977478829
1.2142748832702637 1.8705534743029895 1.0959038032543005 0.15154595386407366
1.214274883270264 1.861737734572627 1.1177654566434376 0.07292022757277145
1.2142748832702637 1.8307442467005224 1.2031947608478064 0.05917533450898837
1.2142748832702637 1.7875394926938737 1.1574447712195595 0.24733230038740317
1.2142748832702637 1.7935390254520431 1.310178390361164 0.18068218075392536
1.2142748832702637 1.8411992244994089 1.135078354673496 0.06321589640426804
1.2142748832702637 1.8730386839734763 1.1131442477968165 0.15262992578561108
1.2142748832702637 1.8087563178670008 1.1788870660073347 0.07545063293822474
1.2142748832702637 1.7939199294036086 1.2514927787028136 0.15790047619890107
1.2142748832702637 1.7804167795420354 1.0960846022557758 0.2693051909115758
1.2142748832702637 1.808840128193454 1.2104828547376658 0.0789587516400581
1.2142748832702637 1.7773971682396015 1.4288810070903641 0.14859629321110224
1.2142748832702637 1.8219906606644771 1.1121012451559917 0.054246358648204436
1.2142748832702637 1.8438288100145253 1.2141733254019773 0.05761679731907588
1.2142748832702637 1.833670968268202 1.1748726873669375 0.06088044001162862
1.2142748832702637 1.809710839673003 1.1271335975325476 0.06654853644198055
1.2142748832702637 1.8449925885758873 1.1890781330858258 0.0588169564788083
1.2142748832702637 1.8459078324266973 1.0869256864194992 0.14638921659788381
1.2142748832702637 1.8040681584458165 1.3463526636571057 0.1224557949432894
1.2142748832702637 1.7926035216261988 1.2671334053794534 0.21083250086973382
1.214274883270264 1.8467538459853299 1.1156413227701396 0.05597483972989177
1.2142748832702637 1.7930166403365193 1.3449380307910093 0.20441083000638866
1.2142748832702637 1.7967600355756663 1.3545160954372464 0.1510188548806357
1.2142748832702637 1.7948358464504872 1.3732263477402389 0.19337485539596083
1.2142748832702637 1.8256479704450266 1.084307365433199 0.2041241428535042
1.2142748832702634 1.7860419809057904 1.138179612392416 0.2520565051549705
1.2142748832702637 1.7991603863047814 1.2157462519481885 0.129625107690386
1.2142748832702637 1.8815937233783722 1.1019039029211903 0.2049447402356925
1.2142748832702637 1.8365902700849448 1.1087831178590821 0.05623434117169485
1.2142748832702637 1.7939161181475431 1.0897939021877399 0.23740032578993903
1.2142748832702637 1.8556539909009016 1.1900020811045495 0.05498809113735047
1.2142748832702637 1.8190091267812112 1.3107392198468506 0.05902559443782139
1.2142748832702637 1.8454470666828557 1.16817730307596 0.06046417146618081
1.2142748832702637 1.8185884962065026 1.135934510584188 0.057010980301455856
1.2142748832702637 1.8087711983424168 1.3066449215745242 0.0749967668069949
