x y z curv
1.0909282201935901 7.607745522530776 0.37934782991176896 0.007933879119185834
1.0546532204673982 7.574665389462853 0.3793744824356373 0.01669169109550689
1.0569054027425564 7.586786643153076 0.3793647163925979 0.008662561708736286
1.0333444278360855 7.562274658506977 0.37938446559537464 0.10932931181674956
1.083009641223747 7.6204350875213125 0.3793376059827087 0.006182657888619872
1.044705925272397 7.568736649561709 0.3793792591964019 0.04357754510835711
1.0489306480826315 7.600897270623342 0.3793533475194837 0.007779332811059947
1.0835977759773656 7.561898999044733 0.3793847682626209 0.0717967676031645
1.103754655229967 7.581029181802854 0.3793693551549554 0.008913761581679884
1.0960108832689301 7.619451347995031 0.37933839857750123 0.007856577535710793
0.9545851911708811 7.563907236734066 0.37938315023397406 0.09158602926509317
1.0750062328451584 7.576939335422375 0.3793726503269564 0.011839657875992428
0.9665334193133324 7.574155479699373 0.37937489326778584 0.021468471456641314
0.9935090406582695 7.60683535940752 0.37934856322636346 0.008557577598773418
1.0054956325133033 7.616305330728688 0.3793409333103606 0.008002079841226983
0.9729517164139805 7.627753181752428 0.3793317098250129 0.00806457928830973
0.9427029256881977 7.568564306810513 0.37937939805223053 0.06783313636340933
1.0802656324346573 7.636141099331496 0.3793249517151522 0.004821670627198066
0.9822125669143469 7.634103199821201 0.37932659364220334 0.007328391668320502
1.0190339935796338 7.639856800332478 0.37932195799050744 0.006242168912977816
0.9780730399926639 7.601010011910636 0.3793532566843034 0.008794063004145253
1.0160686431618131 7.628286651657101 0.3793312800105579 0.00754554037968912
0.9578375360460184 7.600044612213145 0.37935403450277305 0.008384479137961264
0.9533660011163995 7.5890617362212796 0.37936288335969626 0.008827925221666451
1.0089640923532401 7.599800129646152 0.3793542314813475 0.00840170451176648
1.0357969859800726 7.632160688418944 0.37932815871545755 0.0059542772050364574
1.092764255870725 7.641709307767447 0.3793204654330704 0.0075310508699775805
0.9576911378803652 7.619206907001339 0.37933859552258015 0.006777572284591666
1.1547705154872694 7.557117937391965 0.3788409848009521 0.17902354427282502
1.1996882951508625 7.551058595461219 0.3774367348993014 0.1826854011132541
1.22973990449373 7.558761828526334 0.37980395931085 0.1709026556200946
1.282616291555524 7.549821277188867 0.38299481315266104 0.16437451614633156
1.294074779387446 7.54106663257655 0.3933969771487231 0.1172420990501019
1.2857988306110517 7.550522878847456 0.40037087816659267 0.18731285227320166
1.2741050008774026 7.621661554300383 0.4096467796547128 0.0323473268693339
1.2771764157280545 7.599537911342324 0.39862725009583916 0.05207300342308672
1.2803817043140509 7.568886378252414 0.39431065613525185 0.10737603846901057
1.2777706491199665 7.580538756489877 0.41047396903337585 0.04229926005803834
1.2764738573684578 7.594788915639705 0.41046416115380824 0.029084325735983723
1.2728851822885656 7.634891852825149 0.40980282265711104 0.02801789962387301
1.276926789951518 7.6116412781076495 0.38960624331565274 0.08058600773345291
1.2781826946387316 7.600027666726126 0.3875541643787937 0.07692462955796162
1.2746776884196516 7.634222708502752 0.39156388985159707 0.06670498678758331
1.2789927471868943 7.588663553508635 0.38996007042953235 0.06283228904072294
1.2755848442887636 7.6230808313693235 0.3927325797195963 0.07658608954791668
1.2812335475925871 7.561646028261985 0.3859214280958863 0.17328991409284322
1.2786275164447383 7.575644721856395 0.3855154565661369 0.09794274726299229
1.258345994650552 7.64116412622697 0.38121761339550964 0.06538251660113562
1.2307182438565063 7.572280372256956 0.380000204037636 0.03681980344711251
1.240052904864987 7.599748273223807 0.3803545316345324 0.019034782142019688
1.2611310856173659 7.595508464610381 0.38102383184825694 0.0547708530741095
1.257628645559569 7.615191570969607 0.38095007790547886 0.05777199516248374
1.2358981656395336 7.583512936599627 0.380188910554786 0.03539519794018562
1.2157627172291452 7.629826968793071 0.37960054625754913 0.009908890737149586
1.2107209600695426 7.615032164326228 0.3794120372645051 0.008511900410738004
1.2423624182680486 7.629274506219847 0.38047962949495706 0.02940128308173831
1.2205864010473937 7.60743483899812 0.3797272176738874 0.009852830393279149
1.2220051003819914 7.579689353045523 0.3797333916469162 0.00934193493642595
1.2320254016159566 7.618847576976455 0.38012237394192244 0.013094041584328597
1.119354701137654 7.607403210102506 0.37934810571145045 0.008727053849339068
1.1502972850179711 7.587108553913048 0.3793644570304545 0.008636724794228846
1.1636840734504474 7.5833878395069 0.37936745479437867 0.006989749109916771
1.1484225098799459 7.5744877263196955 0.3793746255780834 0.020093009924176734
1.1064283364300358 7.6384532728814944 0.3793230888066626 0.007023216422617048
1.1344408145286042 7.572623292003304 0.37937612774495855 0.01916148796296455
1.1291040360960631 7.602218761976857 0.37935228279946664 0.008555310951614957
1.1309277989983282 7.585996516029937 0.37936535299469265 0.009100385425431613
1.1106332950688693 7.5962892011248675 0.3793570602216679 0.009188364936807235
1.1101272569013583 7.62354232742239 0.3793351024926091 0.007673597557847042
1.115969889950525 7.561767516880409 0.3793848741972469 0.15004340916849948
1.1993782109108246 7.5991889628574585 0.37935472389585473 0.009012262392498242
1.186653881977517 7.591305941317651 0.3793610752131034 0.008090918952641671
1.1489342931840874 7.619326388370875 0.37933849925694396 0.007095242548771366
1.1306586979741127 7.626536066227204 0.37933269044986473 0.006470471171852612
1.2028170163691205 7.570075589518442 0.3793781804181188 0.046788539037133516
1.1894574111370546 7.609413194679326 0.3793464862753436 0.008125418101468823
1.174433968580181 7.606257960560557 0.3793490284341823 0.008002784076970339
1.1885782500365523 7.620808654572305 0.37933730500130924 0.006277479202700269
0.9460180220334727 7.542802318433006 0.37197723540582917 0.20358652252584394
0.9882932822186725 7.54349315551699 0.37343093586028814 0.18333280516882966
1.0665469815615245 7.54383078828671 0.3741414028027254 0.20916596710295068
0.9686289246560471 7.540488092251921 0.3671075031213902 0.11591807398502108
1.0478016391084861 7.541561633008454 0.3693665113909709 0.17875491540664115
1.077656776913376 7.5397703647613525 0.33962280912979315 0.011170330886714142
1.0895515169961272 7.539770364761353 0.33918766263286393 0.0056451909558600764
1.0234433633365487 7.5397703647613525 0.3534259401772787 0.061263547357261784
1.1013957250335755 7.5397703647613525 0.3655547287405697 0.13479031713035336
1.0632635637298733 7.5397703647613525 0.3515516740737601 0.056898993140604454
1.1017603751495488 7.5397703647613525 0.3386813049429002 0.005831447234613544
1.0738677415346767 7.5397703647613525 0.3598159839978446 0.07623998299721588
0.9786981184919135 7.5397703647613525 0.3607389829402363 0.07446412326345765
1.0434031768253305 7.5397703647613525 0.3591562937120413 0.0808699134703121
1.1084400203486233 7.5397703647613525 0.3487334485662075 0.03321824055551047
1.0032566282065494 7.5397703647613525 0.36558182564786024 0.11090156213858234
1.037101885428514 7.539770364761353 0.34746431614547535 0.030295617205436817
0.9577019081718111 7.539770364761353 0.3646369805341951 0.11363686052629642
1.0147206782577463 7.5397703647613525 0.36540293098381027 0.13379845049030126
1.0864906946687616 7.5397703647613525 0.3617319964492306 0.10222155017987722
1.0140491376980516 7.5397703647613525 0.33501845543826037 0.0046645355149996385
0.9992381425036481 7.5397703647613525 0.3533251657042988 0.07152997815362834
1.0664521151826885 7.5397703647613525 0.3311729331630732 -3.474499635999343e-11
1.0430143384249577 7.5397703647613525 0.3369479856974073 0.00016578038925870914
0.9447999699527332 7.5397703647613525 0.33094009799686114 -1.6803808999483462e-11
0.948394518875508 7.539770364761352 0.35541471929262747 0.05666831727259403
0.9967650627982971 7.539770364761352 0.3373936068276217 0.000594450593108305
0.968615021749111 7.5397703647613525 0.34166225769328334 0.013802326711671219
0.9504202045266436 7.5397703647613525 0.34211650164854024 0.014558032169059877
0.9815569831118112 7.5397703647613525 0.3407737304789342 0.008417170626420875
1.031322041826559 7.5397703647613525 0.33433871811253985 0.0001499571020614059
0.9879728946650415 7.5397703647613525 0.3503922048217114 0.04594494916091562
0.9631232786801566 7.5397703647613525 0.3539107027998013 0.049678897046594915
1.055507549853373 7.5397703647613525 0.3393401590707037 0.0007721785664407056
1.0113867767984517 7.5397703647613525 0.34595175162136205 0.016181164153272982
0.992852398597566 7.5397703647613525 0.2910306900274684 -3.2519089892587236e-11
0.9754622844026268 7.5397703647613525 0.32947491641142435 2.0645537468019624e-05
1.0052759158984164 7.5397703647613525 0.31160705164784874 -1.6251756888279344e-11
0.9993538742493572 7.5397703647613525 0.3242307652713802 -1.7513971385098313e-11
0.9533205614468248 7.539770364761353 0.3065388706027648 -1.7556736048001842e-11
0.9609330419951705 7.5397703647613525 0.3302179403459084 2.2388309853215642e-05
0.9878364015985961 7.539770364761352 0.2795118601099193 -2.749371107812787e-11
0.9621187534061262 7.539770364761352 0.28805515993819925 -3.65996030047015e-11
0.9516741937119974 7.5397703647613525 0.3185835595196794 -8.224652283064806e-12
0.9866648403446271 7.5397703647613525 0.3303218328000058 -3.462808259466346e-11
0.9748886305549768 7.5397703647613525 0.27926108803054234 -2.710656622558196e-11
1.057555703230362 7.5397703647613525 0.3231651663818953 -1.7589553693791924e-11
0.9723735207798799 7.539770364761352 0.2946459910329099 -1.7246218323612055e-11
0.971498500325136 7.5397703647613525 0.30562762048286496 -2.4890476713269697e-11
0.9832890906595199 7.539770364761353 0.30805892081943986 -3.102186129335269e-11
1.0349898368941073 7.5397703647613525 0.32130467237219407 -2.727908754345019e-11
0.9656491787950635 7.5397703647613525 0.3166740213885796 -3.172968204802376e-11
0.9476263924765868 7.5397703647613525 0.28149485540326036 -3.3489788897919954e-11
1.0475933667310495 7.5397703647613525 0.31622463950946217 -2.73269279469137e-11
1.0255919170658114 7.5397703647613525 0.31232697234530427 -2.5501510193527288e-11
1.0964045879565265 7.5397703647613525 0.3280599830561049 -3.252126824533562e-11
1.0778825042373348 7.5397703647613525 0.32363741375839256 -2.4610408360786843e-11
0.958089530303643 7.5397703647613525 0.27617934969510377 -3.4701494001800006e-11
1.0005518509860791 7.5397703647613525 0.2993908669182782 -1.5707617141038295e-11
0.9466004676682956 7.539770364761352 0.29587129270166346 -3.451496440375558e-11
1.0626440517874947 7.539770364761352 0.30823562812799365 -1.660722093353246e-11
1.020857287950938 7.5397703647613525 0.3255287059294858 -2.8635085595481898e-11
1.0227015119747924 7.5397703647613525 0.30069295871741425 -1.8466467471907365e-11
1.1121164136488613 7.5397703647613525 0.2705739339962858 -2.609661415629198e-11
1.0269623278467472 7.5397703647613525 0.2873784395382136 -2.4610025423701227e-11
0.9895944667232045 7.5397703647613525 0.2652914404789272 -4.7044340493677324e-11
1.032389253756204 7.539770364761352 0.26021832760111613 9.715104361672423e-12
1.0146429695745707 7.5397703647613525 0.28310606313511855 -1.9835037028262387e-11
1.1016613073277357 7.5397703647613525 0.279941146584163 -3.351031299221911e-11
1.0118008239995158 7.5397703647613525 0.2620496510118615 2.6904460625528393e-18
1.0966615890730818 7.5397703647613525 0.2596417898411389 -1.8036535656534638e-11
1.0994033483050074 7.5397703647613525 0.3172491875408392 -2.5213156700463918e-11
1.0872937699921814 7.539770364761353 0.3094608914625492 -2.846352316460806e-11
1.0421950116447376 7.5397703647613525 0.28383871430620855 -2.4787750424662183e-11
1.0208130618474887 7.5397703647613525 0.27192692425874077 -8.792699538605145e-12
1.0830514387945298 7.5397703647613525 0.28213078725429885 -2.4199062012074503e-11
1.0890286986134206 7.5397703647613525 0.26952737122866044 -2.5634663671596402e-11
1.0735632298231672 7.5397703647613525 0.30821810642738273 -1.757107054077239e-11
0.9599508995921409 7.539770364761352 0.2610420372922693 -4.09479432599724e-11
1.005983856943655 7.5397703647613525 0.27365976796861063 -2.481470041739944e-11
1.0857328445491516 7.5397703647613525 0.25520357500766955 -1.7727940398050073e-11
0.996224762080669 7.539770364761352 0.2557017989611801 -1.681531706280438e-11
1.1128011006952623 7.5397703647613525 0.32252850774155273 -1.824897609299312e-11
1.1098389100364037 7.5397703647613525 0.3120261392345506 -2.500468501001589e-11
1.0835777468763075 7.5397703647613525 0.2953956429324718 -2.4816448912338898e-11
1.102401733940223 7.5397703647613525 0.29788641962751433 -1.718531620730349e-11
0.9463169646289793 7.5397703647613525 0.2548450371471803 -2.5858323546112256e-11
0.9740976057502879 7.539770364761352 0.2665984802664496 -4.63493296259152e-11
1.0635672438970216 7.5397703647613525 0.2880633665808929 -2.475590491703728e-11
1.0451240439617753 7.5397703647613525 0.2701651088089039 -1.6205402480725807e-11
1.0747974921964563 7.5397703647613525 0.27040843749917887 -2.532710912909709e-11
1.0555946601029365 7.5397703647613525 0.2574566204745528 -2.496641908351983e-11
1.05382741800134 7.5397703647613525 0.30101585045264045 -1.6687430374324487e-11
1.0601285377198968 7.5397703647613525 0.2700816116550382 -3.9136304666999296e-11
1.0992498249714584 7.5397703647613525 0.2337645033966615 -1.8062014135262796e-11
1.012476357550132 7.5397703647613525 0.24664623525272705 -9.994394158433628e-12
0.9991686402100772 7.5397703647613525 0.24257542294145598 -1.5947256921123062e-11
1.0602670651954882 7.5397703647613525 0.2224320088076735 -2.6390281900779847e-11
1.110952072452837 7.5397703647613525 0.19834574030213087 -2.2608718284068398e-11
1.0172196468232804 7.539770364761353 0.23548042685404738 -1.7795839046571523e-11
1.0764694946642654 7.5397703647613525 0.20165495507155726 -1.8392413809262838e-11
1.0772324311212516 7.5397703647613525 0.2153783290614086 -1.798369920868273e-11
1.1089951136560245 7.5397703647613525 0.21195710316384292 -1.6122122446091966e-11
1.017295295533289 7.5397703647613525 0.22234949612757582 -2.6607332057179264e-11
1.0266104824151139 7.5397703647613525 0.24294914684726587 -1.7503869439255683e-11
1.0465164385712795 7.5397703647613525 0.20834561840079563 -3.313815323901626e-11
1.087204989026695 7.5397703647613525 0.2410735088394252 -1.7580877226020525e-11
1.0515348698637044 7.5397703647613525 0.23624413534723354 -1.4935160855233974e-11
1.0916552204331305 7.5397703647613525 0.21781224147719452 -8.458183188845186e-12
1.1127644272582082 7.539770364761353 0.22871815912579574 -3.442991798830837e-11
1.074681695199121 7.5397703647613525 0.2512235247643442 -2.5774159715540445e-11
1.1100679546973615 7.5397703647613525 0.18731622017623262 -1.9126108731418525e-11
1.066140362727275 7.539770364761353 0.2063577927295693 -1.814298104358209e-11
1.0284491147905723 7.539770364761353 0.2278161512350447 -3.007837486748459e-11
0.9707734507281209 7.5397703647613525 0.2537983813763412 -4.28231118256977e-11
1.0902639115453205 7.539770364761352 0.20592876001485128 -8.871540230924145e-12
1.04193193283806 7.5397703647613525 0.22893273398335495 -1.605364137248646e-11
1.0866887377809284 7.5397703647613525 0.22850026023802245 -1.5974074251013706e-24
1.0768794044056087 7.5397703647613525 0.23745497805247417 -5.657636869467831e-25
1.0070892627525194 7.5397703647613525 0.22817986885074173 -2.1531172018160424e-11
1.1054109018623228 7.5397703647613525 0.2512542436107876 -3.2968027603126306e-11
1.0711993920287177 7.5397703647613525 0.22717450910682346 -1.9717559536469518e-11
0.953554227550846 7.539770364761352 0.20918319953774936 -3.344382720948641e-11
1.0585634894493103 7.5397703647613525 0.17976391241245615 -8.65592925249124e-12
0.9811696039028416 7.539770364761352 0.23440119141490187 -4.036295198466106e-11
1.0358439123475551 7.5397703647613525 0.21100297115660083 -2.6435694626219807e-11
0.9603518925140255 7.5397703647613525 0.19837938728989682 -2.680672181189375e-11
0.9757319853852451 7.5397703647613525 0.1776515957540181 -3.36662803109251e-11
1.0690680297338362 7.5397703647613525 0.18312388854060063 7.206116461022146e-18
1.0937878379311985 7.539770364761353 0.1841847096518865 -1.7256557111794972e-11
0.9638211805351814 7.5397703647613525 0.22564551100351699 -2.6897058487986653e-11
1.027904594377343 7.5397703647613525 0.19297138422692314 -2.6274608184460925e-11
0.9776446524804477 7.5397703647613525 0.21660063201744467 -2.5776971726981873e-11
0.9870929044338987 7.5397703647613525 0.22445644719629773 -2.4197575670624416e-11
0.9507264316028512 7.539770364761352 0.22430165066425045 -3.530729588700401e-11
1.0799836471554762 7.5397703647613525 0.19005170053889026 -2.4153045294069912e-11
0.9605188678728716 7.5397703647613525 0.24049184445357216 -3.176607323103586e-11
1.0398165930529903 7.5397703647613525 0.1816848588010448 -2.705036469598585e-11
1.0571999278590907 7.5397703647613525 0.19926930202788304 -1.8297333541737763e-11
0.9471985763366944 7.5397703647613525 0.19751156052125884 -3.4305104064413375e-11
1.0220886390809243 7.5397703647613525 0.21068265392093233 -3.151621896244858e-11
0.9500900451279785 7.5397703647613525 0.18326328636916445 -2.7493982172565284e-11
1.0066892349976548 7.5397703647613525 0.19829949326768637 -2.903208082871587e-11
0.9681917007992633 7.5397703647613525 0.20767434737805934 -2.6617967053237658e-11
0.9692549365003043 7.5397703647613525 0.19233084917722518 -3.397581190263494e-11
0.9840164205110888 7.5397703647613525 0.20372491425202752 -3.1130975563655346e-11
1.0461585829892637 7.5397703647613525 0.19677965967022057 -2.3132877433447486e-11
1.0122062555930216 7.539770364761352 0.1866490729861222 -2.6822298379676566e-11
0.9422635306357721 7.5397703647613525 0.23191033162758581 -3.310920534837582e-11
1.006933778195678 7.5397703647613525 0.21299842427376542 -2.685855286281196e-11
0.9908607771821138 7.5397703647613525 0.1893447633819892 -2.498576071530152e-11
1.3130375320657548 7.542887238158455 0.12924423582771222 0.05236505200112967
1.3397585932798144 7.544042094868085 0.12600158444705667 0.04546895031356289
1.3560636279175795 7.541280201953189 0.1337565343027678 0.047817996500395824
1.3558799962229129 7.5397703647613525 0.15952625098067796 0.003182850116929047
1.3502015239358092 7.5397703647613525 0.14355198655059767 0.03252097450154062
1.3657342625479871 7.5397703647613525 0.14456111891584136 0.018943509230389656
1.3336585577084765 7.539770364761353 0.14274994943716537 0.03589009786641099
1.3346724758422586 7.539770364761352 0.16416936659311196 0.0007728694137012381
1.3437183016679741 7.539770364761353 0.1556985286788083 0.005467376928143322
1.3128920368507135 7.5397703647613525 0.1520134803337006 0.01370693060923977
1.3213483504209012 7.5397703647613525 0.13816785243619423 0.037589858552950134
1.3204326394771455 7.539770364761352 0.16247472880216185 0.00040661245765298136
1.3299225826112324 7.5397703647613525 0.15338500650885828 0.010418180442954686
1.3109622208802114 7.5397703647613525 0.3850768115090607 0.022061640663073614
1.320220335578905 7.539770364761353 0.378437053734351 0.00485058320125281
1.3514687097879081 7.5397703647613525 0.38111737224536485 -3.6593251601112793e-11
1.3383512105940074 7.539770364761353 0.38553233598619074 -1.7282351012413145e-11
1.361634032280528 7.539770364761353 0.3895723888248704 -2.675789382675034e-11
1.3569528705494835 7.5397703647613525 0.4031510754243577 -3.550208920147111e-11
1.3497579724396296 7.5397703647613525 0.39357695363586076 -3.4217962668085235e-11
1.335202350222501 7.5397703647613525 0.3993750173459945 -1.8332316827357273e-11
1.3423997306490807 7.539770364761353 0.4125102033080904 -3.62815281033545e-11
1.3271031470088126 7.539770364761353 0.4090805258359228 6.544577078597718e-05
1.317397867010021 7.5397703647613525 0.39787507195210475 0.006604901650896568
1.30793666609866 7.5397703647613525 0.4060992218101641 0.02355885245991058
1.3276005704268414 7.539770364761353 0.38974629441104625 7.730327598738765e-05
1.299944815539643 7.5397703647613525 0.3773940405531836 0.05405606706037945
1.2806617325704084 7.540647623148403 0.3717863446450007 0.10746556835537634
1.2936036450018196 7.5397703647613525 0.3668450029787214 0.028124995109503993
1.2759448751450688 7.539770364761353 0.33918254674839265 3.851291056465942e-05
1.281011078111523 7.5397703647613525 0.3534170869061417 0.023726982715306825
1.2928251331394836 7.539770364761353 0.3315845653745364 -8.886339516507067e-12
1.2933619474879663 7.5397703647613525 0.3464779714664668 0.0043675845706154055
1.3067283702243029 7.539770364761353 0.35383841763108625 0.0041820295380397025
1.2982237565708545 7.5397703647613525 0.3187739618739185 -8.726322767910297e-12
1.3015053950364814 7.539770364761353 0.2769077350486453 -2.427558617763268e-11
1.3035641864897989 7.5397703647613525 0.28816735360839896 -8.324583284237045e-12
1.303168325547035 7.5397703647613525 0.2631509079115358 -1.9145279443090977e-11
1.2779496775764692 7.5397703647613525 0.2834090906956497 -3.310754140659846e-11
1.2779077888168975 7.5397703647613525 0.3083724013650071 -1.7411599381138967e-11
1.28489962910502 7.5397703647613525 0.2592380883978181 -2.7468322661942064e-11
1.2752853319733586 7.5397703647613525 0.2546264507299481 -2.901961659177126e-11
1.2933232015414795 7.539770364761352 0.26792458191598834 -1.8761032478432238e-11
1.2809071355447212 7.539770364761352 0.327463215331718 -8.20774268399913e-12
1.2878584340430885 7.5397703647613525 0.31383829218829995 -2.7456624564903148e-11
1.2917037871041526 7.539770364761352 0.293268779964314 -1.748788505566257e-11
1.2816277800180886 7.5397703647613525 0.19062693082102145 -2.6941047538293406e-11
1.2956061920494608 7.5397703647613525 0.2502731563171996 -1.8517189554373678e-11
1.2797130431892956 7.5397703647613525 0.17724586542688145 -2.850203442471304e-11
1.2901243105505509 7.5397703647613525 0.18160447357521406 -2.8566154195373244e-11
1.2855639331228086 7.5397703647613525 0.20214659426820758 -3.1788113636685484e-11
1.2828367966001135 7.5397703647613525 0.22389178196072307 -2.5494226635314917e-11
1.2902336336942173 7.539770364761352 0.23866889148990325 -3.270074343130319e-11
1.3034953135087468 7.5397703647613525 0.1857708400235655 -1.7522424127681904e-11
1.3042516410322353 7.5397703647613525 0.19713334426864343 -1.7128655321787474e-11
1.2994926930690047 7.5397703647613525 0.23065986795278082 -2.7133552812494896e-11
1.3017443904582797 7.5397703647613525 0.21665845607430034 -1.59461866953526e-11
1.3030473260632753 7.5397703647613525 0.24196538314754198 -2.0485072282048498e-11
0.9600115481454417 7.705839065495914 0.11967497924679539 -2.563713029955432e-15
1.0208494064496152 7.653054845144709 0.11964091839519593 2.784743584800607e-10
1.084606002407199 7.649031570266063 0.11963832223733523 2.085364568388215e-10
0.9805779689272303 7.762368308492402 0.1197114567043371 -8.89795586331076e-16
0.9650114109704767 7.670342932279803 0.11965207413390777 2.4669979666311805e-11
1.0252410317279836 7.702690842718048 0.11967294774669696 4.638028025403725e-15
0.9878660518303783 7.707369842275233 0.11967596703368255 -5.513046629557284e-15
0.9408952464957961 7.784409002671428 0.11972567922782208 6.161168366949163e-15
0.9902670025208332 7.6928003959066285 0.11966656559235508 2.2642725015573135e-15
1.0120475753654972 7.740815159778617 0.11969754878649808 2.052324047930656e-15
0.9699010729306817 7.803784541952485 0.11973818196753709 2.3651943681708884e-15
0.944531334085275 7.70558802464727 0.11967481725396809 -4.192909843709212e-15
0.9808170461319305 7.748498237504723 0.11970250655926645 -3.132447386045834e-15
0.9546163005560611 7.682959986174209 0.11966021572617647 4.171577849901068e-15
1.004230191421847 7.68541741847819 0.11966180146972755 3.3231687134884657e-15
0.9399560855839089 7.8145685675165115 0.11974514073460685 3.2813289172602725e-11
0.9835086678690627 7.653512836948317 0.11964121393031518 1.57870729306482e-10
0.9594535593068876 7.796441125743404 0.1197334433731605 1.7693119663933003e-15
0.9414008941617984 7.658627193861392 0.11964451414675648 1.678966387735946e-10
0.9663442964976543 7.64554177572642 0.11963607032619329 3.422543185580582e-10
0.9539820046602747 7.651409477148745 0.11963985666434598 2.847648391333484e-10
0.9944730773291259 7.67722986331319 0.11965651816536912 2.8348048899839452e-15
0.959540217640479 7.718933398259892 0.11968342881983257 4.326545952167509e-15
1.0207672070057119 7.714422876119852 0.11968051824875231 -5.618040813833982e-16
1.030726652565634 7.6441271119060685 0.11963515746522597 3.214053963245607e-10
1.0017457087560726 7.713564199457043 0.11967996415781018 -5.795170772897642e-15
0.971468184456546 7.70681633846749 0.1196756098661251 8.226589635720389e-16
1.032085626442553 7.675687276046361 0.11965552275735467 1.450657768555524e-12
0.9406373640530035 7.68113391011612 0.11965903738717268 4.552061281275e-16
0.9884785491909589 7.778979077474861 0.11972217537998486 -3.4965224670656873e-15
0.9464860059949626 7.642319232294889 0.11963399086811163 3.298911333194445e-10
0.9584885811844304 7.809830850894413 0.1197420835583956 -1.1358857147803103e-14
0.9773846666325257 7.729207067097595 0.1196900582614978 2.640126101415038e-16
1.0025374925814308 7.698302876232441 0.11967011625890961 7.979323328179476e-15
1.0708163609693413 7.6667769661253535 0.11964977307038563 3.1424309024258564e-11
1.0068938934484015 7.759600476897226 0.11970967066486189 2.0021690647979866e-15
0.9737326595954758 7.782498895279971 0.11972444666468168 -2.4996681094390676e-16
0.967411700561952 7.744136970300456 0.11969969230011775 2.258727445150415e-15
0.96182802839284 7.734684744570864 0.11969359292315018 2.6862972146958764e-15
1.0112773790680318 7.706694337374526 0.11967553114068225 1.7264431801678729e-15
1.0440445537749183 7.690206191931537 0.11966489159213256 7.861664396176176e-15
0.9648788817902672 7.688384556419886 0.11966371611854561 2.2141023356074124e-15
1.0259775749127924 7.689385585477174 0.11966436206731478 2.6678007012806304e-15
1.0540064285428032 7.698460756666228 0.11967021813674336 3.6129785181765355e-15
0.9383092322923623 7.772122017186913 0.11971775062365955 4.649167454823935e-15
0.9976985165777761 7.75047009579972 0.11970377896932222 5.227881738186579e-15
0.973328668317541 7.71865952395213 0.11968325209292267 -3.0686898402498743e-15
0.9725936238451757 7.659446682835637 0.11964504295048138 1.476468310223104e-10
1.060204446558815 7.682859077095157 0.1196601506110882 -2.3350496502117472e-15
1.016970303657427 7.678510997932824 0.11965734486198164 -4.250824748202307e-15
0.9529236749576865 7.664257690266384 0.11964814742013259 9.639030633370516e-11
1.052284902114452 7.656336191051581 0.11964303579761726 2.1605625353840284e-10
0.9486439634086831 7.8034172942214415 0.1197379449881826 9.674682224152289e-15
1.0143306207659823 7.6951281607392215 0.11966806766346638 -6.516313597969303e-16
0.9767299803106901 7.696478934669992 0.11966893929726327 4.65199182759479e-15
0.9995042478846834 7.657857837033633 0.11964401769254035 1.5059690723900808e-10
1.036179316662622 7.706136585694871 0.1196751712320379 6.1267461875053066e-15
0.9451065699826204 7.732458448481099 0.11969215632826966 7.0940113630166735e-15
0.9994339721955946 7.728601504755536 0.11968966750136285 1.568695648081771e-15
1.0402213076947238 7.661326474494454 0.11964625595134229 1.989707313879063e-10
0.9843819941853209 7.6829308032661645 0.1196601968948914 -1.2145028869062887e-15
1.0819794257571853 7.664195004138611 0.11964810696973129 4.129879568706339e-11
0.9505724322034703 7.824245284943382 0.1197513849726396 7.396662192486885e-10
0.9455868212886376 7.718991077388026 0.11968346603929343 2.002198976388569e-16
0.9509834982938753 7.694455763001244 0.11966763377547075 7.001710195923234e-16
0.947820499213228 7.7435316776386145 0.11969930171400334 6.699671826176631e-15
1.0116702983331531 7.724339131004358 0.11968691705664977 5.581466295016553e-15
0.9497019904522253 7.7763048645926816 0.11972044975123597 5.7445204679808305e-15
0.9856077818354199 7.7379883615969405 0.11969572469678477 9.333999187356869e-16
1.0569034173472909 7.6430752763357175 0.11963447873178953 4.131457879342864e-10
0.9602981754333849 7.7613816693132645 0.11971082004113663 7.105538371758844e-15
1.052635917742915 7.672844739012018 0.11965368851159999 1.6425475517503648e-12
1.0056861387986702 7.67225783510542 0.11965330979146863 2.435372946133006e-12
1.0652528340783542 7.652178741143061 0.11964035305865808 2.595535873835504e-10
0.9810141273829791 7.668927188262445 0.11965116057590583 3.927205973930363e-11
1.041703575287932 7.804109716866643 0.11973839179794515 1.0058471075641431e-14
0.9867029103576733 7.806291208947659 0.11973979948148282 1.0853154920777232e-14
1.0989312731214294 7.775999920945654 0.11972025297575575 -9.394746756759595e-15
1.0861308193585482 7.836943839648483 0.11975957915613725 1.580307041158074e-09
1.065800636329933 7.783691345629961 0.11972521613468884 -4.997695598008365e-15
1.0466358440436387 7.831080390848378 0.11975579556213675 7.845421922045987e-10
1.1002200410200953 7.843864662183023 0.11976404505726691 1.1524172429266057e-09
1.0606412230677693 7.794725998334265 0.11973233662762617 -3.8588596547211785e-15
1.024152947210105 7.779177050135166 0.11972230312872036 -3.5115431151916357e-15
1.0517260184145025 7.7842188795732365 0.1197255565442892 9.138294885426816e-16
1.072203504732494 7.803693420416276 0.11973812316820083 -1.8494528518703486e-15
1.0414253497636434 7.751641391244712 0.1197045347883921 -2.020505938447156e-15
1.012874608280943 7.798170767125356 0.11973455948433989 8.243830099327472e-15
1.0759692859169507 7.728510863636343 0.11968960901203235 -8.011124417574311e-15
1.0013720574556082 7.81294037508215 0.11974409008688461 3.885794728412485e-15
0.9786941596774634 7.843915431667026 0.11976407781803991 1.624934567879991e-09
1.0157034273333245 7.827946472574145 0.11975377329251616 6.776022953927567e-10
1.0300517519092278 7.832190392496737 0.11975651182925537 6.459620890105582e-10
1.075654829089233 7.6808468712234 0.1196588521653571 -1.0037315852385225e-14
1.0995222209797462 7.763517565544082 0.11971219830236823 -9.699983131245407e-15
1.059458856074927 7.828928674370312 0.11975440709234113 7.643201579767181e-10
1.066740584507806 7.843157123995979 0.11976358849367597 1.6243276310544885e-09
1.0968628908119238 7.726504951808148 0.11968831462775147 -4.897110155976978e-15
1.0830385635214312 7.768604925322158 0.11971548109797041 -3.9174509628009997e-16
1.0842511399038688 7.779367574727055 0.11972242607133099 -2.3305476200311513e-15
1.0576281325202508 7.816535963251492 0.11974641026504075 3.5541476614332755e-12
1.071221863098619 7.833396852318692 0.11975729033936092 1.282789866646133e-09
1.0517748379509086 7.743376573469206 0.1196992016276506 7.727568539405506e-15
1.0270194841099987 7.7433787448495455 0.11969920302880918 -5.648772012542139e-15
1.0948032462757504 7.675220004062215 0.11965522123387659 7.383248513981546e-12
1.0751508402107577 7.693632426448159 0.11966710248896194 -1.2634268975543315e-14
1.001044867229894 7.795772029693317 0.11973301161569365 -3.2848071674367254e-16
1.0632487893913045 7.7197409205915015 0.1196839499016657 7.916834540243843e-15
0.9908132828753702 7.8408064953615035 0.11976207166890235 1.6340082399346393e-09
1.039368478353961 7.776037767397214 0.1197202773974932 -9.004472675020871e-15
1.0890459092468776 7.809581607304394 0.11974192272531185 1.700843609679996e-11
1.0651054921182874 7.70810660270978 0.11967644245394375 6.777825582252245e-16
1.0877498074333996 7.733527547884532 0.11969284620179402 -9.278388923691482e-15
1.0988847185970936 7.660632360553353 0.1196458080502123 1.0646465250304496e-10
1.025233656091791 7.765413561331709 0.1197134217595061 5.317730443420997e-15
1.004408046442148 7.77356250195526 0.11971868014649041 -6.541572630169306e-15
1.0713064059695743 7.81658952211673 0.11974644482575887 1.973841928300713e-11
1.0901011275243626 7.693736458646652 0.11966716961935149 -6.414336276951185e-15
1.0719062570967401 7.756115365741942 0.11970742177583638 5.307287350322458e-15
1.095119255136601 7.742585930400089 0.11969869143774789 -8.09017051138201e-15
1.0594442865757496 7.771139576465833 0.11971711666965998 -1.350858938818447e-15
1.0296548711740834 7.8188500654272595 0.11974790351984815 4.068777629425678e-11
1.0599409709789127 7.731979077192134 0.11969184699729485 4.072015794747096e-16
1.019908701845234 7.752848176418263 0.11970531350844207 -4.172213543859928e-15
1.0999377018088776 7.82819963906722 0.11975393665698933 9.409874994713823e-10
0.9693012074177014 7.828872120632526 0.11975437059907745 5.966541361609043e-10
1.0330718404151773 7.788958541202404 0.11972861497558379 1.6493812626647212e-15
1.0503887514723678 7.723304875821772 0.11968624966756916 2.7085031021376044e-15
0.9971120879096697 7.824451215183558 0.1197515178562799 5.242037966915128e-10
0.9802386572669397 7.794693032119193 0.11973231535503082 -4.5161108345913525e-15
0.9827752720851197 7.817242033496788 0.11974686588139133 9.924993369606058e-15
1.067923283008033 7.739180247493541 0.11969649380255876 6.584141720590948e-15
1.102428850159131 7.688528864982549 0.1196638092386581 9.524108884083105e-16
1.0251055061220766 7.844213282709237 0.11976427001677051 1.554214490411689e-09
1.047940466882272 7.7622573468184175 0.11971138510246279 4.885026025806799e-15
1.0257825506913267 7.799490342325873 0.11973541098607243 2.8809037826422202e-15
0.95185604898992 7.846092878698601 0.1197654828913689 1.4758382673438183e-09
0.9815972527841963 7.828922764096651 0.11975440327853175 6.571425808506726e-10
1.0833400860975837 7.825147718723463 0.1197519672993815 5.607746296309204e-10
1.0834665980769804 7.798955935300151 0.11973506614137687 -5.6119746614807025e-15
1.0711547143873088 7.77309860203101 0.1197183807989511 7.457060430062326e-15
1.0032496670193611 7.834295741931443 0.11975787037910576 1.2508624899280288e-09
1.0169862649425998 7.8123720256405145 0.11974372333966621 -1.2528033957798274e-15
1.0939317713992218 7.709793980072669 0.11967753129279686 1.0374717094822666e-15
0.971031498045349 7.817044824878025 0.1197467386256802 8.525647782447377e-15
1.0370721910688259 7.733472317359228 0.11969281056237918 1.89006869782316e-15
0.9624844229710199 7.842876424331872 0.11976340736246782 1.6931503946205037e-09
1.1027540070960886 7.813613639987783 0.11974452453445028 1.540678195119917e-11
1.0965443858937138 7.7924085482383285 0.11973084121245697 -3.113344351373945e-15
1.080769589498042 7.717362963668547 0.11968241544236471 3.255172433205111e-15
1.0130649765731494 7.843096302213469 0.11976354924630819 1.3786771518725278e-09
1.060346930175469 7.751284607832355 0.11970430456150269 4.0849301310991e-15
1.0762016038147877 7.790907568051624 0.11972987265285613 -2.4477694377712585e-15
1.0837201768968763 7.744388501022376 0.11969985460905277 -2.4226050275110936e-15
1.0750292801241876 7.9470740091143846 0.11985249526820337 -6.1143384344878835e-15
1.087525189918376 7.930235416462212 0.1198379834650381 3.6728166667845124e-15
1.0321502929061155 7.913807432768818 0.11982382553208698 4.308325562919994e-15
0.9881385984468227 7.89495409831984 0.11980757738806545 -9.050764599810164e-16
1.063733660507344 7.98373009221625 0.11988408614243923 -1.2181796444323312e-15
1.0147748197193458 7.918503843674115 0.11982787298379799 1.3046917586927873e-15
1.0745144615421682 7.9845013414588974 0.1198847508189613 -6.192141770994749e-15
1.0700673411073773 7.970519182750746 0.11987270074214137 -3.858399130969676e-15
1.0744568878324383 7.857507408168904 0.11977530515440044 1.0757101708200143e-09
0.9690681044591082 7.884828440246873 0.11979885091312131 5.833284074088157e-16
0.970449255913284 7.873262964612108 0.11978888357740679 5.982910588226675e-11
1.0633703171564974 7.926645834636668 0.1198348898986116 -6.37768427119997e-15
1.0959824615754563 7.888786174597309 0.11980226176004065 -7.963069438588592e-15
0.9994515906457291 7.8907136613926445 0.11980392290296128 3.439152524802343e-15
1.0676674951498775 7.95777100606856 0.11986171413331073 -4.2685851940615667e-16
1.1002953471690715 7.911969241043851 0.1198222413452702 3.186006079524008e-16
1.0633843224349218 7.864210280249903 0.11978108181057892 8.467862372559727e-10
1.0028625546278094 7.921261471248545 0.11983024955703007 -5.797601676751167e-15
1.0362571695487568 7.893365469096048 0.11980620827871798 -9.44575135601658e-16
1.0608224339300487 7.907524503373244 0.11981841079009675 5.54304429781297e-17
1.058556286037462 7.968977101263761 0.1198713717484739 4.49317213999931e-15
1.0552397682127852 7.8473775441034785 0.11976657505465607 1.285960295516586e-09
1.096300494263168 8.026927545909848 0.11992131448795426 4.1328651089456336e-10
1.0820610291953963 7.957590177545984 0.11986155829202515 -7.444267156737127e-15
1.0876162696437426 7.861386606529307 0.1197786483175856 9.250793366003752e-10
1.021180543827669 7.861783505548908 0.11977899037232664 8.48927330297932e-10
1.0972270702582991 7.990929636408229 0.1198902908396103 -3.166610409539428e-15
0.9801627582940731 7.887557171586382 0.11980120258305643 -5.422698496524516e-15
1.0356338777330636 7.850263766674488 0.11976906245337796 1.2308531776669638e-09
1.075742669983943 7.934605826349653 0.11984174996318601 -4.639398057443958e-15
1.0258001857281656 7.887120542680966 0.1198008262883825 3.3611112348765426e-15
1.0729882770662655 7.871491640277742 0.11978735701811452 3.89213329553737e-10
1.0951404047704947 8.013584413190529 0.119909815135269 7.82983049770648e-13
1.0761491496424684 7.889307190187341 0.11980271078068298 -8.41551548959927e-15
1.0891168335926797 8.001222545629084 0.11989916145461335 -5.900279990577262e-15
0.9967181926797442 7.859788986382485 0.11977727145969835 9.973929212068766e-10
1.0248578272532871 7.939773726893382 0.11984620375318009 -5.384085824195887e-15
0.9412725573437164 7.850077849550941 0.11976890222664419 1.5416656935725721e-09
1.1013322748131846 7.930729908712056 0.11983840962738698 -2.7908615505098872e-15
0.9974309117069478 7.873291880862979 0.11978890849795387 2.9320324443778567e-10
1.0851032795418072 7.9898462361324425 0.11988935714569203 -2.598537497024037e-15
1.095484403804947 7.9438170821937035 0.11984968838977991 4.307083390788902e-15
1.068717253443408 7.916932831495531 0.11982651905713813 2.713017182487529e-16
1.0525332557360625 7.922008750929351 0.11983089357615098 4.01111358510479e-15
1.0972524442550147 7.963250386790782 0.11986643636254633 -2.03380348094578e-15
1.036529358526632 7.95999811090222 0.11986363349246634 -3.0599688112854908e-15
1.0136245133274828 7.890844381994631 0.11980403556033623 -2.464896564441053e-15
1.0496970523216345 7.9574216528450314 0.11986141305439518 5.457764044228263e-15
1.047736899979574 7.8588355700536745 0.11977644978829242 8.3727859046708e-10
0.9665977268935588 7.860476501379024 0.11977786397253531 1.2353724239203736e-09
0.995144452886439 7.908888024033754 0.1198195858968201 -8.962267891386274e-15
1.0075467562423006 7.879109183796671 0.11979392195465242 2.2678005036264782e-11
1.0697214175160974 7.995637436434619 0.11989434810667148 5.791602905402437e-16
1.0412026225250905 7.878323457373324 0.11979324480143463 7.175691448488314e-12
1.0501063573071177 7.941773076452794 0.11984792682872826 7.691485765761543e-15
1.0704551451925786 7.9000618947016825 0.11981197937920762 -5.750527650160124e-15
1.0988832167920557 7.868038813831221 0.11978438130994276 5.953144085512169e-10
0.9856554861879551 7.875033402212526 0.11979040937249576 7.102196731791148e-11
1.0836792332391805 7.915032333560131 0.11982488117370428 -8.076426517884915e-17
1.0249422870985327 7.952153347740906 0.11985687273393819 4.600606955790012e-15
1.0530597010807343 7.897637726149538 0.11980989018698146 -3.2293010107684756e-15
1.0888132852840895 7.849075475413255 0.11976803836251466 1.449235594375654e-09
1.0886753514237988 7.874802146598286 0.11979021007223212 1.8164631865502553e-10
1.0909235200413585 7.974931655533874 0.11987650349085224 2.0470417876625258e-15
0.9836149472175519 7.858048756628997 0.11977577169827729 1.0611843746068617e-09
1.0762050751845478 8.015036124972534 0.11991106624669312 7.981837874601752e-13
1.0083900348720625 7.853434669704429 0.11977179519485921 1.1661387415991327e-09
1.0478107335795996 7.908683920666831 0.11981940999685345 1.9177804995175738e-15
1.101859944201791 7.8992759155882295 0.11981130200821695 -5.569558674188164e-15
1.0360165279793423 7.926674183568 0.11983491433023247 -5.051050940744073e-15
1.0197428488187563 7.90758666354062 0.1198184643608513 -6.352587752392631e-15
1.061133882154975 7.876729189186278 0.11979187083232684 1.9386289475834856e-11
1.0638754264360994 7.889079860721279 0.11980251486404475 -3.1882185143785246e-15
1.082849494738786 7.9025812537460025 0.11981415060831857 1.3240542776561121e-15
0.9955248623945288 7.933589839790127 0.11984087436762558 3.413806829842959e-17
0.9905792425022331 8.0041421587158 0.11990167762988457 -3.458621842005507e-15
1.0287456277221778 8.01635400334445 0.11991220201806807 2.4996647880526515e-15
0.9453279422428433 7.931042902743567 0.11983867937129439 -3.0673164667445365e-15
1.0283303126732517 7.977269171647005 0.11987851800444195 -2.8309473046841295e-15
0.9854070284161109 7.9193485124107 0.1198286009345655 -2.1125649532561863e-15
1.0383503573276094 8.011972349333274 0.11990842582953132 2.8588888609516633e-15
1.0127954260544731 7.986445129851187 0.1198864260108925 3.495594671376958e-15
0.956789928069558 7.922640437281296 0.11983143797485406 -2.1730603337444085e-15
0.9734552329751669 8.037189194820954 0.119930158162258 2.2949547300086424e-08
0.9470768777643404 7.89742354325873 0.11980970560029913 1.3902643735307192e-15
1.0075241072072334 8.037181965608585 0.11993015193199225 4.024619047476338e-08
1.0369889349120434 8.050106569674275 0.11994129058912736 6.41336331746712e-08
0.9468037406239485 7.974429650820259 0.11987607085412645 5.846282172190674e-15
0.9603954822954687 8.038677477228033 0.11993144079090708 3.7784386652344946e-08
0.963456976297781 8.009553162800207 0.11990634093089916 1.1636923974054676e-15
1.0764889852723343 8.028624695454054 0.11992277712207318 2.0840417915664716e-08
1.0225625659462916 7.993558116194783 0.11989255611094704 1.0814011032850224e-14
0.971655799065009 7.995708200804574 0.11989440909268315 1.131004331537302e-14
0.9827634243776175 7.965311601915213 0.1198682127549554 9.539056489941122e-15
0.9429210256274727 7.862447829739946 0.11977956289890873 9.383812241722323e-10
0.9377556626853112 8.020441266180663 0.11991572449497508 2.1802738463453175e-09
0.9784376997736359 8.010588817134622 0.11990723347650309 -1.7736467015103225e-15
0.9755773017599939 7.982075966655021 0.11988266058716564 4.90099518220999e-15
0.9472242664862509 7.959142909922102 0.11986289646482118 6.453903828810821e-15
1.0639095685051392 8.029034879458036 0.1199231306260536 2.2228535454419684e-08
0.936797766207297 7.8792321887504295 0.1197940279625424 5.486010553948436e-15
1.0182828772826757 7.963063429823833 0.11986627523965673 5.288255561786423e-15
0.9471180062649686 7.945135619723709 0.11985082472922923 -3.2646446891892234e-15
1.0353378876089219 7.99235510951046 0.11989151933806644 4.090765642658123e-15
0.9696434625222055 7.952619434136656 0.11985727441560916 1.2834432127702892e-15
1.0528070774535743 8.038133308099038 0.11993097181612683 4.3593006829261184e-08
1.002863774189549 7.9819854418876455 0.1198825825712867 1.2118941663979705e-14
1.0804464271328182 8.039511487580047 0.11993215955608634 5.053565020391593e-08
0.9523916098834143 8.011773149226457 0.11990825415528272 3.3191569909955356e-15
0.9664075524351433 8.02464663065213 0.11991934875400367 1.6109169933234094e-08
0.9830416161902943 7.950626777339458 0.11985555710800429 4.763745063597359e-15
0.9573729348327814 7.981696353203891 0.1198823334294396 -1.5374084461503404e-15
0.9490249899085529 8.025456144658461 0.11992004640778994 8.1580314166898e-09
0.9516326741051818 7.881320248353016 0.11979582749000744 2.0210877984150867e-11
0.9385222232381062 8.043978318137807 0.11993600915130881 5.732321268442302e-08
1.048878840045452 8.019788686610237 0.1199151620901191 2.15030195107689e-15
0.985670374128989 8.019071965072548 0.11991454440655765 7.616297265207449e-10
1.0153441598077044 8.029286991387503 0.11992334790066625 2.4161664988672513e-08
1.0330114123877194 8.033090274491272 0.11992662563871265 2.802356500579089e-08
1.0217883944456876 8.005236559115428 0.11990262080390814 -4.687590842629789e-16
0.9550051547787628 7.998664028925724 0.11989695647872486 -1.8182663555810254e-15
0.9695601084986649 7.920036150687042 0.11982919355364723 -7.017424280986373e-16
1.0014945950368566 8.024498865720972 0.11991922140751812 6.996926877364442e-09
0.9457434077085866 7.986794591537156 0.11988672718328294 1.598814341815078e-15
0.9947743531667828 8.043405798858174 0.11993551574385689 4.604500732432046e-08
1.047333572857956 7.985056960546231 0.11988522966152236 4.473723184999859e-15
1.0106834998363903 7.949297298873941 0.11985441133945922 6.325423333057854e-15
0.9985835330095366 7.970592068828377 0.11987276355667902 5.1882745452169125e-15
1.0127159544419528 7.973623250646782 0.11987537588389754 8.294018993569888e-15
1.0031969778855696 7.995349967757143 0.11989410036097503 1.0472082135807973e-15
1.0565461308478632 8.001858143019904 0.11989970922392036 2.7352831219905536e-15
1.0461799819365056 7.996622874702272 0.11989519737516242 5.31270215973487e-15
0.9587085383343238 7.906037004615931 0.11981712883681121 -6.04005744511697e-15
0.9399867457605211 8.007946927673762 0.11990495664846691 3.443795230075023e-15
0.9708552961419866 8.049839216191765 0.11994106017906911 5.0326847875816654e-08
0.9493792691987615 8.048854192015252 0.11994021126744936 6.20702067961455e-08
1.0620161654000912 8.050810747622332 0.1199418974623968 5.571205972567532e-08
0.9422272876465176 7.920103456714623 0.11982925155919702 3.871782174800973e-15
0.9554554568400425 7.9680751043017235 0.11987059439120662 7.36738746611187e-15
1.0264280005136253 8.046434511492604 0.11993812594308806 6.465378280184826e-08
0.9934711712440047 7.955869179428926 0.11986007510477556 3.530205495794585e-15
0.9849274455222122 7.990523667651123 0.11988994096840572 2.1773018829870757e-16
1.0152709200570982 8.046141760814944 0.1199378736452685 6.666414626375597e-08
0.9639873918602113 7.9391798986084625 0.11984569198124267 -5.03651939820473e-15
0.9584558813998028 7.952697766961481 0.11985734192425188 -4.3875104468061484e-15
0.9682147285943675 7.897019450348074 0.11980935734573292 -5.851169327561745e-15
1.0123400707684502 8.01160809509662 0.11990811190865364 -5.584049740200013e-15
0.9887921602142871 7.9785816988481155 0.1198796491640813 5.1201869884124614e-15
1.0659870483360079 8.039521467054358 0.11993216815657746 5.0274147522639784e-08
0.9716988828706813 7.964007996759108 0.11986708928449555 2.066078637484998e-15
0.973717078400073 7.908386314290735 0.11981915351430528 -3.6722962065162846e-15
0.9818524923245241 7.935623259810782 0.1198426268057124 3.7994114140070676e-15
1.3016433684334625 7.5452851616598 0.12400409953175015 0.05289752829207238
1.2931746671058773 7.556919286470579 0.12037450025739498 0.04982630989617294
1.2867515289796692 7.567117168234802 0.11959317014631873 0.03583418519652128
1.2921076567059326 7.581247549134683 0.11960081349305088 0.0009703856118599011
1.2867776640386601 7.591864249721824 0.11960655623447544 2.691561034210203e-05
1.2841391475850317 7.636503157730003 0.11963070212651242 3.7142817949808783e-10
1.2810969559271068 7.619007225801006 0.11962123829994734 1.5344637882433706e-10
1.2823038003872516 7.5492630101138225 0.12276309549431369 0.051943470182805124
1.2669401002815777 7.631248009591958 0.1196278595336883 2.5055431459092855e-10
1.27951584833952 7.607265904219487 0.11961488723322261 2.429337328503031e-12
1.2666727889202267 7.615093606631436 0.11961912136138053 1.793100456944697e-11
1.2720486707515561 7.5647153986980715 0.11959187099115301 0.03615382172892905
1.2729722807482107 7.588926424412509 0.11960496711825583 4.1588896852648566e-05
1.27841918705615 7.575955173778028 0.11959795076343488 0.006994698302971993
