x y z curv
1.4602268999871066 0.21634570605574155 0.40141284410946443 0.10621368853523996
1.4627941473364625 0.19366492976888336 0.39758126085415846 0.10060766335610871
1.437984776755092 0.21824394506275524 0.39716128184157706 0.12119668361968275
1.4461291669233467 0.23664428014707745 0.39819212052739456 0.13979668673861362
1.4354802468164614 0.23038298837858148 0.3953073567253905 0.1354605264315337
1.4477066094368063 0.22053771029524002 0.4000904488399856 0.11051249470770436
1.451500745848418 0.24717774911418117 0.3958867258425647 0.14893384992710965
1.4603211743205256 0.23865444770615143 0.4005180150020929 0.12646818734793452
1.52091568617077 0.21807664676985927 0.40105037459116694 0.1637171452360201
1.4998711401813591 0.21105194986477388 0.3964332659519052 0.11717517502297631
1.5022092431863308 0.22688202786704995 0.39614845374571983 0.11621157452092082
1.5115623624256742 0.22213655491119402 0.3995669056151266 0.1299656009558417
1.4902178854227268 0.25674376573421803 0.3932300740494753 0.13942435042193246
1.466107761059634 0.27104531292399436 0.39118485215336973 0.1716000447855171
1.535761145977931 0.27226231676794194 0.3925592198857979 0.21939733443840814
1.5596778209150988 0.28810091288459005 0.3984551350161362 0.22067835630983004
1.3687221350658576 0.2741408196075521 0.39699211128312545 0.1305842047796028
1.3966758686748886 0.29314675758781195 0.389092012048618 0.16249592510504074
1.3725300849781434 0.28431222660722916 0.3976220401470253 0.14628126722063048
1.3934669571354155 0.2734496078006694 0.3918252327461172 0.1602032091957892
1.382824036335433 0.27769015763205984 0.3948825946804349 0.15758781729694976
1.3843942556756643 0.2951213929954621 0.3928721790591381 0.1799178910121675
1.3760612236017287 0.3017329752886622 0.39197621430039686 0.16280648394715125
1.3968629467526172 0.30431770790677504 0.3875846467982463 0.17115854030684885
1.3581992654608515 0.26926598246090583 0.39526804100996943 0.13989558658754975
1.3461536045804834 0.2648800590096041 0.39255708378325405 0.14251749598902697
1.3436042206520238 0.301094703911731 0.3901646580766845 0.1594964833134601
1.361838589766067 0.3074083175899045 0.39081553766917415 0.16816231930229766
1.3622427810093238 0.29222105845878477 0.39654447703066237 0.16276899823461966
1.4575220621270382 0.279356375865781 0.3916364962356028 0.1548278655674418
1.461241129022801 0.3015788136230733 0.3885210951518647 0.16563079444778817
1.4350953887570697 0.28624314692476266 0.3982558728240162 0.10874652244500027
1.4316028185657448 0.3001062078270249 0.394150282100123 0.1333533353449245
1.4459942636069547 0.3071632362760178 0.38914762410874404 0.17542649547148847
1.4350006809609264 0.26160612002000794 0.3944594043588693 0.14958263541694275
1.445091943563861 0.26455426871869053 0.3934247893844107 0.1512962462113067
1.4452308607722428 0.27709246928697834 0.3957440004676548 0.15373649214019627
1.4342682434264622 0.27569114894881575 0.3972042934042552 0.12903925782269687
1.4190798528705528 0.2682582157868269 0.39442434283768124 0.14673424920358702
1.4083391122420459 0.27355058999970006 0.3933120436025418 0.13951904160294473
1.4298950662839434 0.31431832569563284 0.38873400724744717 0.16853556154900548
1.334664552975099 0.30744344769911075 0.38812322345490347 0.1811836748942236
1.3539474005900856 0.32577087541246885 0.3885164698301701 0.17949025256564025
1.3418316033966404 0.339203200168964 0.39229368975528156 0.14702274642644836
1.3584632089040616 0.340433026772793 0.3868375131007813 0.1815177582417831
1.35006726638474 0.35107744767679067 0.38858227922752886 0.16578714382590853
1.341464370683279 0.36753509461833433 0.38386383446374595 0.18559197832401836
1.3329210772927076 0.3250059327409319 0.39148676565800233 0.17546040490932371
1.3313172848225903 0.33588466811252976 0.3932660929214543 0.1374999220977774
1.3215601478260957 0.3307112196518672 0.39076759210665474 0.17754258771095716
1.308759280706729 0.3340746726230992 0.3874426113102492 0.2019882612715509
1.3022758418808036 0.35554999967016804 0.38350256367441055 0.21211152990694843
1.3216848667368861 0.34696113848603405 0.3904875819389114 0.13786151695160653
1.3325808395007492 0.34762976598910117 0.3924382987367204 0.15283088555034108
1.313387000924776 0.35306187866788796 0.38725018691452373 0.17608318553891592
1.4024459369975482 0.3225693771621248 0.39051909515857375 0.13582524212535074
1.4123644712998447 0.331144129251693 0.39056222386376305 0.17245484290294077
1.4001569515663252 0.3386692273960557 0.3938847250603671 0.12172835634536704
1.427181745523415 0.355445521628447 0.3843623136084796 0.19951370899698587
1.422877898417029 0.34504787063031456 0.38664466655540014 0.18155536982403223
1.4284821081605807 0.33218602464936786 0.3859526461932656 0.20518758278603252
1.4164108702871905 0.35658277423886375 0.3863171795417246 0.20939348475359726
1.3737999733564275 0.32637162667763103 0.38794455894802793 0.16899443748713017
1.3807849590251178 0.33602522110255956 0.3895166969553619 0.16714832106913008
1.377856402592818 0.3510326602984146 0.38727865624486846 0.1683898215732432
1.3766635019994542 0.36163658492035766 0.3837602119343973 0.20120123819731653
1.3967069634641773 0.3485348779457501 0.3919479232276033 0.15522769679887025
1.3949741892535537 0.3592065532065919 0.38768357134007814 0.18783830415334177
1.4552223487877238 0.316032272875292 0.3885850044024756 0.15626049764987224
1.4415541729026935 0.32374935430022367 0.3878790445963931 0.17209500089002022
1.4389493740043224 0.33572326923113627 0.3873265445025629 0.17691954315715627
1.5304555746131077 0.31092262712102264 0.38867409154013516 0.20751446477854849
1.5489884450341576 0.34532487777593995 0.38790670222793966 0.237053718336654
1.5602998605802896 0.3443015307628444 0.38435647576574045 0.21329331952096425
1.531961556465541 0.36201277805314647 0.38669153922110006 0.1973515476338229
1.5506551394184453 0.3583789766062313 0.38496592065830576 0.2374282476941773
1.5181287462802393 0.31669185012904166 0.3883708122120508 0.21428748918047025
1.5079701799809233 0.32117528710448695 0.38761233143000595 0.19567243804595047
1.5118241439840934 0.34261901499352637 0.3892467311680507 0.19002547353081972
1.525952119009368 0.3417358847657876 0.39386759600521004 0.19354880439529706
1.501727332870713 0.3308581623822148 0.3870144862471702 0.16974817723961433
1.513849780148684 0.3545454129078466 0.38757043868385516 0.23310692287208662
1.509138077217384 0.3637089401508912 0.38337749748016625 0.19888303929125856
1.5201526937219612 0.364523302376175 0.38488893239665645 0.20808161614406248
1.3830435620951804 0.3755917899207342 0.3830302554846602 0.19936785972353538
1.3731714860492537 0.38278533913189566 0.385924045413728 0.1343744789746832
1.3688121264901985 0.39299319541847466 0.38851474231992256 0.017104378085341963
1.393014567307397 0.38031424195668495 0.38234581402794987 0.20714600596802196
1.3889005162091315 0.4009769236035098 0.3822813161891664 0.18103511834074973
1.3803728544496172 0.3960907554358485 0.3854464209729772 0.10811232698037468
1.3937206386459287 0.3906348422485513 0.3816238995834018 0.20427553080241542
1.376064521626481 0.40585716948179706 0.38531441825924095 0.11626818461956075
1.382619230106262 0.41370121916822467 0.38130971124211216 0.16188572674136134
1.3642001372779626 0.3776898150049342 0.3858002708841828 0.11082727863026559
1.3522121641756426 0.37059568536688575 0.38259268496914617 0.21189514732641035
1.3639410710622886 0.36179208379642436 0.38279124445724877 0.19946321090967906
1.3463885885352418 0.40701598542368533 0.38278485391412714 0.1299371183731323
1.3347452790905245 0.3993947783026853 0.37969760901602334 0.1765787326578401
1.3407362615561813 0.3884040042878146 0.3825738832816342 0.17660973381094405
1.3643744222364174 0.4121197606011346 0.38435323558257384 0.08730686152099641
1.3432701209454292 0.4163835574346467 0.37928578001859026 0.1699761173642394
1.3591219366813816 0.42286132514475694 0.3794828251008521 0.13588989894576323
1.418488151112946 0.3716586874254564 0.3829831035450959 0.19739525427866217
1.4156087802187605 0.38194148541805584 0.38445077435626507 0.17629908058392882
1.4278319812574343 0.38041911166932724 0.3860864734353768 0.1473631367666949
1.4075711566150575 0.40584235446955363 0.38164083031311025 0.1658940429931043
1.4262556877528347 0.395112623517604 0.38857777917946923 0.02106124762748793
1.4979132154508783 0.39238038936327435 0.3885585239207349 0.0887878840457295
1.5002629364333957 0.3749961102728061 0.3849435482964525 0.20146797684646728
1.5202625067785804 0.38185377638219953 0.3830825412505348 0.20525163564679655
1.5148674387066563 0.39124082892205225 0.3844542497890503 0.2122105885970437
1.5076721405783675 0.3992896722937352 0.38607374807212025 0.18470465588487694
1.5263533820595283 0.3958287093225806 0.38036328284949744 0.23049343349214732
1.512854900418207 0.4160986225332842 0.38039486179851323 0.22133288869381554
1.4986795004084286 0.417293591215537 0.3822852797252699 0.17788680317911787
1.4821999738119804 0.3862855421509772 0.3855033051318948 0.1439137321675127
1.4814258406797975 0.3746419660881698 0.3832076872833719 0.17507284559316388
1.4893477633629273 0.3980397797964691 0.3876938467674392 0.0610719583282779
1.4709866142988717 0.40684645805767405 0.38102701190435895 0.16860200053520477
1.4838181415588156 0.4203939588686214 0.3795109168844429 0.1707602451653189
1.4945184328422465 0.4274609380407537 0.3786393654648814 0.1904528360823636
1.5515662893312077 0.3920960632827542 0.38726555091075343 0.2787606198430883
1.5490645864195018 0.3752735556690152 0.38373159637725984 0.24115744995925806
1.5471018973867199 0.40546569351699024 0.3847043598713157 0.24607812245116625
1.559355824575315 0.4307574899615302 0.37737458280483266 0.1705742678962003
1.347232156750977 0.4422016126870291 0.3806557819922546 0.05910288336106255
1.3410480581183148 0.4270085347937371 0.3787903659528895 0.16102050408611893
1.3358163048273313 0.4381271338291889 0.38168812966208 0.021628890577780908
1.3505302455324681 0.4552404368271368 0.3794749153538679 0.018619312292454254
1.3402564874560037 0.47138200283932696 0.37750498300319624 0.0216662436655296
1.3426288058219873 0.48334982194240556 0.3726519898667092 0.16068802125045115
1.3386750966213727 0.46112201398030167 0.38159089637901045 0.01787096321065746
1.3623058816161349 0.46993614692587926 0.37441060015674993 0.14475064351228972
1.3138552892837034 0.4404699889836825 0.3793962005203994 0.11626667367431393
1.3254653792068145 0.43086915725396074 0.37942718724326535 0.11243370119230328
1.3301695383746521 0.45272339584491916 0.38408359753864424 0.016050325599514026
1.3123214595177783 0.4663346348280126 0.3770023522572855 0.017394216980717747
1.3280631951146578 0.4715581624534984 0.37764883719884745 0.016413355759369974
1.3213854490476913 0.47964011490195146 0.3735351928529759 0.12728578977055444
1.3909045857112856 0.434368038860787 0.38014096056632063 0.18949671074790675
1.397713733122702 0.42509561606071905 0.37947918833991556 0.2024427917696762
1.3795958587181594 0.4393691878028241 0.37929846992995675 0.135261837581086
1.380224624960388 0.4636256755082732 0.37831732200431767 0.023345310687329673
1.3840187130227544 0.4518389683403749 0.38055564842409195 0.022155375394156678
1.3665835513864686 0.43897073626590344 0.3760584853569479 0.1884332546728571
1.373573416649411 0.45482196860274027 0.3769380693466411 0.10227031495554116
1.4714227675333462 0.440995595559174 0.38136008321298503 0.01855652965841114
1.4679198778369196 0.4513489970585495 0.3838434164493941 0.018614772929676802
1.480029498328877 0.4324428042707348 0.378411280392779 0.154468800379661
1.4639889148219973 0.4173026785185185 0.3781039248662905 0.19978874709804473
1.4923685652717809 0.4586320481745633 0.37540873895283816 0.18559245927230084
1.4781529582363904 0.4588631881003642 0.37996157500078465 0.02995896945217687
1.4842157321201337 0.4738885184672772 0.37428799957282155 0.13850339966351627
1.4613246450421782 0.4381791509140337 0.3816953941520435 0.017016750042223465
1.4494513432563083 0.4530369942386352 0.3805739622256735 0.02163604462475785
1.431861402379481 0.4552278209911834 0.3747265451464865 0.21335522785705782
1.459131133785954 0.47408597537482666 0.37686454732999664 0.019508658601835132
1.459626032675508 0.46046136921263975 0.38202583857067846 0.0197935317299966
1.4478482091362292 0.4705100672844199 0.3763384811683624 0.06287502672994459
1.5296845866261948 0.4263771173016967 0.37969748226386424 0.19446038878642394
1.5416646310190165 0.4275792076897733 0.3780401997024625 0.2281978284608965
1.547477576296505 0.43607719822716196 0.3787138449479655 0.23323521289249077
1.5488363030033518 0.461733142994866 0.37790294355136617 0.2239202815079985
1.5506235663747798 0.45024476650228357 0.3783201314235981 0.1847776594983998
1.5308940533041615 0.4629615183423387 0.3813900927171908 0.2449890282360414
1.5259539717957304 0.4512997482355267 0.38407847473100265 0.20254178908544307
1.5142186494247403 0.4290973699524474 0.37808968871757315 0.206532526190869
1.5119249920456346 0.4396854300108716 0.3797063629068358 0.23732237948500481
1.4974257351431737 0.46949913486571004 0.3736582347844128 0.23584946132528734
1.50780551890219 0.45631755912654987 0.3781354652235963 0.21414734020248957
1.5003133377810398 0.44786416402875007 0.37645543968792 0.23238971788638976
1.521869862430729 0.4845162763753871 0.3725942113734664 0.20962525793922865
1.5229596413810171 0.47265058520150705 0.37719774570838593 0.21727747048964954
1.359026241135581 0.49920375843962306 0.37702126291413424 0.018296519574868404
1.3403584399272477 0.5100416351413051 0.3719482277163413 0.02007903650222798
1.3488895066120778 0.5037410069210672 0.3752365461236106 0.020331630088597567
1.44648524950827 0.4869136116322819 0.37341419795899206 0.06565720535772124
1.4319279119775137 0.48169583751815026 0.37472649720727613 0.06499347247514511
1.4586175389011853 0.48799002089806837 0.3717095534971362 0.14162572265872816
1.4551171054024765 0.5103071486711426 0.3724659630512521 0.016994439911899514
1.4433328546472453 0.5095349981061268 0.37632333388575334 0.015840207292017166
1.4376707502495916 0.5290682861012441 0.3721049434805948 0.031964004415406796
1.432348601819293 0.5392924291260751 0.3691700406535328 0.11194494279813877
1.42415751077704 0.49844369962428337 0.37689148429911545 0.018668102644218053
1.4086803231799745 0.500776906724407 0.37379949343115854 0.02062535687411344
1.404285044215988 0.512431306279207 0.37137919304684075 0.02122522884690743
1.4170840335334158 0.5066434413394949 0.3759961077365549 0.018250786895683355
1.4057773582127777 0.5242497615959631 0.3708096619396945 0.03439979458470886
1.4174098423591404 0.5332270412442697 0.36937951880665776 0.05938758961617073
1.5067676401096806 0.5024301699625091 0.3770608464371771 0.23075977679137313
1.5099572261602923 0.4858844025281389 0.37347053854095236 0.22297063257615918
1.5166217610300208 0.5074147885592996 0.37385751442733983 0.1997166400498028
1.5092925813567903 0.5339018425202127 0.3692205407024128 0.23274313660475895
1.5061005736102666 0.5207326329773849 0.3746565014317464 0.21711153758352064
1.4949348038754253 0.5050247452904526 0.37901919119148625 0.16853244321359154
1.4731110271040415 0.49110073235721674 0.37299153768239857 0.0923779019246691
1.4908341415334787 0.4919738306049622 0.3759383198106123 0.11349475902656021
1.4738128014985277 0.5035549633289065 0.3735847898023885 0.04839404624471382
1.4716793734365705 0.5236924652806719 0.3711571647247244 0.03834313670597653
1.4930996423195582 0.5386885379393928 0.3690959125627193 0.2088666325069953
1.4813306786109197 0.5193208657708062 0.3743774702181677 0.07956886410880472
1.4943793890712658 0.5238057948950284 0.3748556051877831 0.20089622751443786
1.5510071995914307 0.5003349361924848 0.3767327911357945 0.1510712645207321
1.5586926134319936 0.5085797363884257 0.3794793538621804 0.11328698771385314
1.5537040963101365 0.4847757133066565 0.37425127558022053 0.13447785400367404
1.5430020429624554 0.49297864820967124 0.3741019036586945 0.22527463274927684
1.5407054032106346 0.5200189333772238 0.3727543765820417 0.18406580059413657
1.560632787944725 0.5307851473924755 0.37245109605470517 0.09918788785326696
1.554977161807289 0.5180040508837577 0.3762843525633986 0.10702810194487444
1.3252256646596337 0.5492893271783015 0.37084563057394293 0.18925533076844261
1.3106298366447946 0.5511738126297255 0.36890491852502977 0.16452918251544413
1.4050831418995802 0.5396637040865443 0.3693300476692938 0.09381279634927643
1.3993988496761476 0.5641260517692016 0.374790387631031 0.17519086332112943
1.4151787880433455 0.5473557589537459 0.3691805443027629 0.16736504565611982
1.3914356039655824 0.5403949459654338 0.36936645942967394 0.10315153874441861
1.4743008934854465 0.5410315619569213 0.36893146633341833 0.1219422955786062
1.463242473208829 0.5417793699446161 0.37068560785403004 0.10746347884593423
1.45335870107962 0.5415535252149233 0.3690909961993819 0.09877949435378126
1.5491535719130884 0.5494442766128474 0.3689631819546122 0.1435408236082785
1.5281553872184936 0.5446328286353364 0.3711962141964045 0.24216441872116495
1.3368219409123752 0.2965622030815132 0.3828646366745213 0.15603488608151378
1.3421643153449658 0.2778809708741347 0.3861963942010627 0.1447478296136901
1.3495631519977143 0.27771479606790644 0.3949719255039853 0.13506278296446184
1.3164309885352408 0.2659319436483228 0.3915562533901361 0.11735748283397482
1.3069791214899171 0.27655788187974506 0.3918520791607544 0.12210230710861568
1.3034976633437285 0.2665172034427649 0.3921119408562225 0.12490487010702929
1.3104191281191526 0.2861542052664605 0.3911299692707295 0.11768539400264527
1.3319296720270415 0.28768916253980764 0.3890925191478447 0.13376336030461097
1.3137727097559995 0.30280866339866486 0.38859709711293716 0.13068262374378464
1.3024761536902383 0.3143351423280236 0.3872071404485453 0.15738171109145496
1.3267606804282297 0.379062302558047 0.38140364867773047 0.19107535620054483
1.3192696243387043 0.39103101117413563 0.3812894233175526 0.1713863441143819
1.3142910982832805 0.4004053551938025 0.380920781087828 0.1580266823078718
1.3273932158964201 0.4139475777042084 0.3784726979323255 0.1898110303894754
1.307632395776642 0.4137492922234195 0.3793972821515636 0.1475025365532492
1.3171595270717633 0.42159779155865573 0.3776736501647076 0.16983868042041667
1.308757000906597 0.1477667104483769 0.4016478302371336 0.06529474293677584
1.3089494842474438 0.16201534668810227 0.40148541006177374 0.06312910546670562
1.3081414519447079 0.17904447485451847 0.40044181656377764 0.07904841734131884
1.3167411637360078 0.18668040812229697 0.3987951235298127 0.08695098227394217
1.3037120350211802 0.47570783596585536 0.3728797364694274 0.17477481751025373
1.3139277163562482 0.49180159745203067 0.3722618337322042 0.052691002236426275
1.3274629813053362 0.4904305670017104 0.37168849559553724 0.1224721377475333
1.3046180065099948 0.5041013732936013 0.3725334031586277 0.01651368544597788
1.3243896892456766 0.5018480879326952 0.3712662598431484 0.05888399391962402
1.3305631968564748 0.5193399042225646 0.36920899925663964 0.019878226511181412
1.3030416816722505 0.5379523231284634 0.3679415946065811 0.08709302911970285
1.3186921576046022 0.5208203098808821 0.370058946214556 0.024892314716862943
1.314051536177229 0.5322534049406755 0.3683839619679432 0.03518972783068742
1.331804447702611 0.07307019318513344 0.4081806473640456 0.042629250162757336
1.313184191850707 0.059756737785997355 0.4091999860450787 0.047479710526636375
1.3262196483164 0.055179748932994294 0.40721459994327447 0.05879981245592915
1.3214374253983896 0.0859263066960934 0.4073557459709197 0.04729481264290886
1.3090422228820056 0.09146266976928868 0.4063840949359281 0.04640970702723376
1.318706428688519 0.07260288789034734 0.409294353995344 0.03825704583081234
1.3024546391954832 0.06343753009396114 0.41045150998418817 0.043620873321741346
1.3287312931825512 0.15982186665777895 0.40041795546765485 0.06776856377496823
1.3296238034529062 0.18752463921843923 0.39794660569646195 0.09365031230250802
1.3072018262254441 0.4875424838186958 0.3651434627428909 0.25079413927651845
1.31144599617818 0.5011435778227095 0.3638137016669637 0.2413514939778945
1.3309192546443196 0.0403120130845425 0.3961248270133303 0.08117189759412904
1.342909179972074 0.03778378959063601 0.3949909994082419 0.0803902602289178
1.4511562614801436 0.04570923460798461 0.4004290898761962 0.09123203387192276
1.5620757840656938 0.05553357487743183 0.40793974485696977 0.1734540213101405
1.3785549258191319 0.05272311562146336 0.41229370028636286 0.061920731968662754
1.4051739243003898 0.03942573829604949 0.4034662018539962 0.0928573841818981
1.3776918594208287 0.04393533911593029 0.4070332388544597 0.08876509605800882
1.3667391239818878 0.05080488059027539 0.41182372557264935 0.07103829392481353
1.3620870202505562 0.042064776894824255 0.4063477042306517 0.09007844314984931
1.3471578293201103 0.04494220406005008 0.4072050428237387 0.06924637468352914
1.4443680953468676 0.04855578499516575 0.4097309370830532 0.0786547149062758
1.4371475353408694 0.05487957647168468 0.4139738881845972 0.05496801520253049
1.427352472432881 0.048960384383207795 0.41053016541840526 0.08595168017799773
1.4272881698509732 0.038513782856299944 0.404213096633051 0.09259612092570427
1.4159422216868864 0.03718997139073095 0.4027511907003189 0.07547160800112122
1.4126655571333393 0.04774617262527564 0.40893958373240424 0.07899930502377471
1.5226117096374105 0.03780410473014479 0.40221108313842785 0.09465604787597429
1.5081964675522124 0.04239987365231663 0.40608219431010234 0.09024909187496913
1.4972060724845146 0.04070527806493467 0.4056991940143908 0.0814655234412429
1.4891637919354008 0.04717730763231713 0.40926340857357285 0.06995829289207779
1.4690671146463736 0.044489012604904656 0.406466380481701 0.07820976964516016
1.4897582571115358 0.057173674913753816 0.41533930085265636 0.05823150047384981
1.5481387664626203 0.048311643918966626 0.40959430279498465 0.20738359975595513
1.5451108117025114 0.03995607078302789 0.4043680488053326 0.18035795671423935
1.3277249144009402 0.04427406440208781 0.40534368279024524 0.07879303578076416
1.3066538850467144 0.04814891359330192 0.4054369901098328 0.05976576958032396
1.3156407199498341 0.03730795259388297 0.4012799026860404 0.07752323658936078
1.5559966684321092 0.03676176071166992 0.40158431240276604 0.1952599568939351
1.497323989955004 0.03676175983289926 0.39617327418908194 0.09937317323168748
1.4848186278375248 0.03676176071166992 0.4026767461579459 0.08062943042904044
1.475172360751988 0.03676176071166992 0.39480690424626025 0.08490049360636573
1.4412094609603587 0.03676176071166992 0.3998885404999761 0.06645275745541787
1.4659374284569826 0.03676176071166992 0.3990862489952576 0.07512813487948238
1.393517019855767 0.03676176071166992 0.4006477966979107 0.08135186597994198
1.3680918059886522 0.03676176071166992 0.3973599097627607 0.08739674715846883
1.3551806937734245 0.03676177200846163 0.3998001032601296 0.08136576085207232
1.3046430275466734 0.03676175416672825 0.39447812405033655 0.07533135212221397
0.595073348787609 0.5210542878597222 0.36154398460978243 0.23516414277344797
0.5910312680663621 0.533265561755272 0.36091884546188635 0.23540518478687356
0.5936843956800304 0.5078659940281915 0.36234055238429563 0.24280662597541144
0.608052204356214 0.5014128514379359 0.3636183824741666 0.22030826799013722
0.5874866104324221 0.49747983722181266 0.3633861465800644 0.24293212126333877
0.5861096427254723 0.4816875103855295 0.36540629540144653 0.24825577332383758
0.6008877938356743 0.48992841304398815 0.36470599732036213 0.25008387562335643
0.5995938796856918 0.19153910685758013 0.3907177943436076 0.08757778957707629
0.5877463910458673 0.17993494811460511 0.39144052649056804 0.06730773574568726
0.5911786604708986 0.1672238220550067 0.3925526909929404 0.06279535110578717
0.6031170823749739 0.16262348118894332 0.3931174254193128 0.06434317849168435
0.5900242939530669 0.06363653228288184 0.400602279427165 0.057943571706922915
0.6154071657850422 0.049932940901185434 0.39930566873235934 0.0971309790588705
0.6030727016303407 0.30263479166384866 0.3811366732899363 0.16204001107538402
0.5915234026060738 0.3114384770482057 0.3804091937861214 0.16825992120461283
0.5857238850329447 0.2967541297444828 0.38140397786846675 0.1558263520827774
0.6041785230061418 0.2763076917673789 0.3833176089124134 0.1396963412803355
0.6029193466993885 0.29046882623481085 0.3820731390050221 0.15738239273336763
0.5856073296959998 0.27088985228190904 0.383679175715262 0.13953521179111625
0.5914141901767712 0.255584939048096 0.38527311919700336 0.13519159653138166
0.5970785425902487 0.4211345923914648 0.3707587089749751 0.23596819520184975
0.5891985208839469 0.4290297029971918 0.3702229485315526 0.23764143717784628
0.6103918710269745 0.397395803007644 0.37271827650167644 0.2125938332587949
0.5998792674892466 0.3956085592855474 0.3723454175189145 0.20864764409875947
0.6093978933300815 0.38130196165061536 0.3741418461161421 0.20669745611380405
0.6005269331528709 0.3716867142224466 0.3751696334978373 0.21768669856170303
0.5901816056573018 0.38731431290684354 0.37287590134594384 0.19940286473758417
1.2996901312036286 0.28249123387813074 0.38254088834618466 0.12343016205351685
1.297413548027545 0.26963873576470276 0.3838478068622379 0.12207456225874413
1.2856360072163762 0.2608670385561582 0.3848215752305509 0.1256466195675868
1.297786540431908 0.2567140458904433 0.3851407622555406 0.12042665990006798
1.2759529883553185 0.29716540243152 0.3816297154158281 0.14790740442395883
1.2802187402582101 0.2751833330866197 0.3834584630187113 0.13143054272147145
1.2822322755412376 0.2851686185263413 0.3825633254839553 0.13481617906928964
1.2946781158064185 0.31421211904903984 0.38021658493941735 0.18133849289953935
1.2895787639603005 0.29350884493728135 0.3817476678030248 0.13654479300871125
1.288719078281356 0.36718944180634905 0.37569787690366635 0.210347062140366
1.2969046795492631 0.38098835659434344 0.3742488206521592 0.20294743398871662
1.2942857920154058 0.39550088510506565 0.3728389449836525 0.21455498043197943
1.273798335892815 0.398044514341476 0.3729533667843855 0.23162887859278036
1.2892920628566613 0.4187806305823173 0.3711201086231005 0.2268512745447427
1.2770084378095419 0.4135748948148417 0.37159655053143653 0.23287443641033864
1.2894640949616787 0.16114026225300043 0.3932286163381744 0.06460146905636338
1.2781016375763012 0.17331460931921494 0.3922899917221401 0.07658188009541901
1.291159891586575 0.1808574632225284 0.39145701235211894 0.07533672866161295
1.2925446083954635 0.5406854763353592 0.360705180251459 0.25960692001207497
1.2889798876827494 0.5209120845702355 0.36215669352141966 0.24809303516704875
1.2699448371475786 0.5166246132115396 0.3627760511431557 0.3017407503296247
1.2951879738976568 0.5069942268713559 0.3631960910370446 0.23052814295839807
1.2842435812198159 0.07308650289686314 0.4004964167543079 0.044994240510734786
1.2701501766715064 0.05166933269479782 0.399364969875849 0.07164227197061188
1.280848981098836 0.061670816768358144 0.40011471639910146 0.07043452355349739
1.2307516977813302 0.07926478251825626 0.404552094643366 0.04300545503571627
1.2309991645952731 0.060388218614453246 0.40973825847738216 0.0605137608282434
1.1998397517158228 0.0681414911412555 0.40137661243694356 0.05235981005400107
1.1557414964606685 0.07140830605149132 0.4057761356477733 0.05205932430560186
1.1613150340820828 0.08050792178290586 0.4034717059292165 0.04626859586473728
1.1393727650630872 0.05438183861664865 0.3998119159652894 0.09634713939582017
1.1486018633164756 0.059265567338677834 0.4033883950076963 0.09108867492134524
1.1015241053819773 0.07023054512059206 0.4077945598425209 0.048640782726257575
1.0747630273873812 0.0659848333657507 0.40050768444278206 0.061668758661476086
1.0789884888019659 0.05370394737223763 0.40147651421351666 0.0995916132966546
1.0645495850919586 0.051218892528223786 0.4024790133703752 0.0942345311759661
1.0501494430826548 0.0742577613280605 0.40565454675542767 0.04377564880849217
1.0083809197604998 0.052406914645664646 0.3994000284664011 0.09330549659643186
0.961931558070896 0.07592800745666842 0.4044207955627993 0.04212241254552157
0.9596844936050477 0.06545455939666178 0.405941259058324 0.057657426117378126
0.9287904625329901 0.06959114481087157 0.4053773432374929 0.05047423730591149
0.8790592698483309 0.055118010889119794 0.39981052667278744 0.09231672990229102
0.8855110817392781 0.06381175661486795 0.40255391792022954 0.07481362659386222
0.8551535820072553 0.08538622548311735 0.401797123927562 0.04829743428373674
0.8402890211208968 0.0657814995360409 0.4091752021392383 0.046842776392472814
0.8279159901843318 0.08658603639274928 0.4001686049524016 0.04846419287353365
0.8133254817756588 0.04684534443383095 0.3991826399679781 0.09248906011822974
0.807408963783639 0.07447996125144105 0.4024334742061909 0.04030226276082741
0.8128277539825923 0.06294074413763938 0.3999341719081929 0.07670292199619175
0.7817649818407235 0.08502695637834981 0.40316126996064555 0.04517250428953505
0.7816607528918144 0.06710646114832015 0.4093486352517078 0.040943489984542225
0.7694256554607453 0.07216817425692985 0.40611102780500197 0.04609748797789638
0.7092969755931122 0.07542842720560038 0.4057212291799121 0.04684069033940186
0.6887615936724891 0.06928597854647331 0.4022296245100918 0.05360446278329034
0.6491363441684961 0.06962826719358158 0.40844709848372357 0.04333246074986826
0.6669233663068588 0.0689101550705114 0.4059454827875322 0.049692695926884405
1.2550241582416755 0.10488276314456224 0.4033150002907445 0.058373700613412696
1.2509741031454937 0.1252801073101777 0.40143056662613763 0.06497000097556428
1.2571457346550186 0.1159720075926518 0.40421964686006995 0.06865510181747186
1.2654687977912114 0.1363323462649655 0.4001573041490495 0.06916195641274774
1.2890248217420937 0.10639888051818402 0.40207670870659545 0.05873540862020722
1.2818067513066658 0.11519812464108749 0.40363865735455295 0.06323448011998807
1.2748537489051206 0.1271568967259377 0.4030206420949538 0.06774574815657805
1.2942119742367255 0.1336969247799073 0.39739236669745426 0.0688561103167369
1.189876363775163 0.10221698536983959 0.4028014314367777 0.05250449070164212
1.2016705016781621 0.10474288421180478 0.4051236239280945 0.05041537900152884
1.185578664854205 0.1184907637255243 0.4019070727058755 0.05668060372968706
1.1973739617054353 0.1412295147561075 0.39783038626346423 0.07350463377894603
1.1919087350980677 0.13169476657802043 0.4004847053796866 0.06374218319341553
1.2111288375738067 0.09076197903261313 0.4015711759680478 0.050152325504315434
1.2222879858120723 0.09783077503122195 0.4011441255476146 0.05293835823927991
1.2119556798627187 0.10531878465402873 0.4041656917884262 0.05054797856253681
1.2269525439219806 0.12478695162148268 0.399529498657624 0.06072468621139022
1.2192267438946272 0.11655545727414775 0.40272553596913996 0.05326246392927925
1.2223547202636185 0.13937020054365196 0.39639812583209133 0.07162958566813976
1.214976650809253 0.12778484410316926 0.40193338808501855 0.05508172663796807
1.2098616492744299 0.13837057241502085 0.39882952297502416 0.06733038327012339
1.1115214139868876 0.11036263105301339 0.3997128851359721 0.05873836431108877
1.1129435003176056 0.1298480625106277 0.3984876262213288 0.07020866443146656
1.1332755956641818 0.12282086595160469 0.4048513249487616 0.06070169348256936
1.1453030893721408 0.1105186486854242 0.4053894640250921 0.05640724786046625
1.1536007141332656 0.1170918262251611 0.4028631898990047 0.060788288342133213
1.1669005682859614 0.12418010205899237 0.39797285461947063 0.061841811491073886
1.152239894848038 0.14080438690135033 0.39669735425097125 0.07457611955761557
1.1439935146374043 0.1307657578244654 0.40179902298391884 0.06629480069049401
1.0677794325224652 0.1033801371101987 0.4042753825986337 0.05362799528206981
1.0445850267127812 0.11866707079301071 0.3983902611909049 0.05544382055419677
1.0617121661957083 0.12237865543700337 0.4035791084039524 0.05977428511863348
1.068282822035446 0.14194257230936846 0.39773211722057755 0.0734366784815154
1.0733191368180703 0.11621393160258219 0.4075419923044188 0.060786675020694576
1.0802800226279645 0.10321787801256041 0.4040183336895109 0.05389462431535877
1.0922663165249444 0.11161235780319402 0.40213987878289964 0.05673211270415936
1.0755378796578747 0.14969759682723233 0.3953010756446248 0.07963323049369224
1.080842370805073 0.12489258693637759 0.4036751853503646 0.06230380107079456
0.9898442651299224 0.10086964196077056 0.4017856233260315 0.055501447147724974
0.9842849111189663 0.11026201000756486 0.4006453338226015 0.06335076463513681
0.99809325163209 0.14398222510295408 0.3961253941945878 0.07489571689783665
1.019158751360362 0.10992076182191987 0.40465599694969867 0.06270654903967561
1.0130158752341163 0.09940988266024528 0.40365226963799405 0.055328833358107864
1.0241599739525702 0.09412497844948675 0.4009156943259298 0.05472470629925831
1.0107599702343457 0.08595044966273233 0.40148721460594566 0.0540430744202641
1.0253575303775144 0.1364641109158367 0.3977840033315039 0.07575799879633988
1.018500294682734 0.12659972236655553 0.4025917965285647 0.0673529591783472
0.9337420869279276 0.09865618906431509 0.40277518630554476 0.059680333771968644
0.9343821277589378 0.11169975692545774 0.40531654157355534 0.06219613419790325
0.9354516590819982 0.12380230421319788 0.40404679396498244 0.0631041307529882
0.9315202611806319 0.14071167977642696 0.39709448933116875 0.08107189271880054
0.9542363718710771 0.09905361689334466 0.4026016518178466 0.05117191683476755
0.9677536217107112 0.12001281526430553 0.39961450533459697 0.0696602962884384
0.9539311993540889 0.12372483152873362 0.40358373866931474 0.06690936420409985
0.8575610999365929 0.10034435564213992 0.4013462488404023 0.055085553479925706
0.8710401675759968 0.11321044245931247 0.4058152532985108 0.054966630411947166
0.8556665580353354 0.11827357180109681 0.40043271063548774 0.06173687752801514
0.8479160108852755 0.12821433030276042 0.3970810968099281 0.06149991529241093
0.8679175717163483 0.14755435819296153 0.3947824478261529 0.07694530343012199
0.8633717690583222 0.13185948309525297 0.3998850062974441 0.0631025079419702
0.8838002207346757 0.10593906486559378 0.40473418714452974 0.05720716609630358
0.90010260039399 0.12448596538743706 0.4000635852616312 0.06386362488901581
0.9076054107026175 0.11498099285771386 0.3984709526935043 0.06228855440238785
0.8830354428504777 0.1316829820748384 0.40157927898394213 0.07158294152038581
0.8053754856580453 0.10748122125944451 0.4046998087901455 0.05731001731247755
0.7831024905214106 0.12401347497394365 0.39752126828072387 0.07036678080061202
0.7813482362365034 0.10500701963288511 0.39859831743300966 0.0556604201193705
0.8010183576338286 0.1415203947566987 0.3967280917869825 0.07246889344082134
0.8207541525991648 0.10275533447735596 0.4038235034003036 0.0504304754380261
0.82273776492734 0.11991988498290379 0.40441796012092923 0.06372844949460481
0.8310763834748983 0.10786643452302196 0.4027765445993721 0.057368442821709886
0.8323206520405124 0.13979332285891535 0.39619250988181975 0.0686364551460229
0.8234863677397875 0.1332069977526534 0.4001039166752851 0.06710955380003784
0.8159456746643411 0.14086724943466317 0.3984904963458298 0.07174713469410021
0.7411548068931753 0.11984722719603337 0.40531379324390693 0.06608436835299268
0.7430479733085578 0.13268230331583356 0.4011905630900207 0.06994357945844333
0.7265077282533504 0.13120584433928656 0.39901541866830714 0.06721572155797541
0.7557497615388971 0.0908802258470542 0.40159337603314504 0.05127868522410299
0.7505100670321325 0.11179479535425305 0.4063290096271921 0.05768459514149594
0.7608418118249939 0.11680208013068519 0.40367128952722736 0.06308062830375061
0.7667682607291659 0.13738180152382162 0.3971737290167912 0.0724584464236839
0.753297585331565 0.12540552495820528 0.4038587220422768 0.06532209381840481
0.682337923981268 0.09967455358179196 0.40434762723564377 0.05700706953765977
0.6713660343881347 0.1037764724736136 0.4033947178096831 0.054941448204975527
0.6551304386790708 0.10958290749890115 0.3994545791319302 0.06060947003941953
0.6669479393532332 0.13153132519217506 0.39979946183505616 0.06317610572522671
0.6826509430472092 0.14789071680165328 0.39628771397977863 0.07994629220330451
0.6580815686595338 0.13694588495193322 0.39631964875112347 0.07584736108553712
0.7006100551548958 0.11165659606375038 0.402564464994328 0.05835110542268701
0.6985652746460745 0.13595627053016435 0.39822412930305884 0.0744907360194468
0.7102589597946174 0.13473192754924807 0.3967536437594036 0.06699424620753405
1.2233724577990035 0.16230981183440227 0.39884946071710714 0.08266523765341761
1.217225943212044 0.1518547579137014 0.39593188136003304 0.07656448146948439
1.212423725676346 0.16778185636126539 0.395822710985709 0.08880361467886336
1.215742821932487 0.18460179227886842 0.39540656935190155 0.09331924206959831
1.226527969214947 0.18866731855581875 0.39566805453060383 0.09520411590939264
1.2246473785696974 0.20167388739577324 0.3905087850771441 0.10328177985690903
1.2417698573287332 0.1563352071023105 0.39879291457785687 0.07773780393210449
1.2390440861794974 0.1455405273863169 0.3972055207888207 0.07681141449797985
1.2630167200856817 0.15542122600365296 0.39528496440582084 0.07519324021651838
1.254672306020714 0.18208112246881578 0.39612821747967564 0.08205966127593918
1.267578194267312 0.1902788134320591 0.39126878428871664 0.0940228721871455
1.2571926699536766 0.1671628944688159 0.3966057763819879 0.07983634130399019
1.2494426546859174 0.20110742538146797 0.3903565577098567 0.11615711814236342
1.1611833828699138 0.14676982966729668 0.39639791752865444 0.07326154353720121
1.162150982929011 0.16953800890076592 0.4004258825426208 0.08843675968992182
1.1485490620374974 0.16137163826374246 0.3967556683647378 0.0959733114033092
1.1659153224434964 0.18406479610451387 0.39811595968112845 0.09519408886293454
1.1457717141971266 0.18810168507715444 0.3932913941118351 0.09273785765745511
1.157723292994954 0.20228347942461955 0.38997334756531044 0.11041521591054525
1.1825087762439024 0.14651250138228747 0.39604893205112934 0.07811473738400991
1.1893093906517496 0.15645709855059098 0.39683755272850624 0.0811860431794585
1.1883826673599196 0.17365786739305683 0.39725305132658223 0.09114615790417212
1.1979279212952951 0.17413456906009894 0.3941414025574227 0.09275027450177857
1.1833099571885455 0.1880186297922979 0.39541430189432003 0.09932364173755753
1.1050300700164282 0.1455628006161462 0.39757061121951004 0.07684693983623993
1.0900593701057835 0.15267493361943557 0.3965470568698244 0.07518245206794666
1.086578951328292 0.18765285893450928 0.39442460814739116 0.09599651596730138
1.0788808878366931 0.19437367940926203 0.39065026066986563 0.11468014122965964
1.098612411740064 0.1915705776450322 0.39494690950298406 0.09618561569606585
1.1267854497252032 0.15501544352237817 0.39617096315172234 0.07505838113922388
1.107595240800439 0.16047576942987718 0.40020476073741196 0.08068330091720506
1.1167259022776532 0.1742421259510611 0.3993265432398887 0.0840737620637578
1.1378113178633225 0.17570741190348746 0.3924173139148802 0.09443171984642018
1.1081089853033343 0.18586760247533157 0.3978883975805245 0.09151197040338314
1.1331087041359726 0.18884442895429251 0.39265883392243695 0.09663200290856708
1.0406870752629307 0.15707895009216413 0.3998325616327767 0.07722439091828052
1.0265050118858428 0.17141158563151931 0.3984826849789882 0.08644338309656398
1.0122631643867288 0.1885883949114396 0.39241804784996337 0.10222234341951177
1.02458955917883 0.18974344726695208 0.39415018319219264 0.09695678698941024
1.0402183091444772 0.17641877771117778 0.40169360777776786 0.09160344291822646
1.0558732840970695 0.14485867843786543 0.3951946801245158 0.07949770202769428
1.044793501560576 0.14813887791699037 0.3975474770541669 0.07858800054465039
1.0695808287277861 0.1684648138171725 0.39406455022399045 0.08945157207648345
1.0507646423198778 0.1849721945563899 0.3969517540642291 0.09375356383571334
1.0450108959810906 0.19457255522034841 0.3943205237145996 0.0978434643476795
1.0601903365737633 0.19272516409106905 0.39250789762544225 0.1097183461021688
0.9652476719731049 0.17897484144220915 0.3990508840645222 0.08994016783064684
0.9519887885143326 0.1674549793669423 0.3957806208345455 0.09181132855676621
0.9676300039714495 0.1901348180051531 0.3953381614692816 0.10491275350927516
0.9821350753940441 0.15113566148903407 0.3977307300765775 0.08183749277393589
1.0046621170577887 0.15903106534887917 0.3948356796288288 0.09050783412000162
1.0035443579013212 0.17066572961241283 0.3941904974335534 0.09347612402710698
1.0039225344052616 0.18098510670218182 0.39317769379935474 0.09872825984654608
0.9941628632004724 0.1883063491170276 0.3943158058796156 0.10176974097467122
0.9800329139541477 0.1842359687608584 0.3981618588737049 0.09756876284723985
0.8878012172820153 0.15090539206233078 0.3951020866270892 0.08137007406068951
0.9072601377335882 0.1692138681753012 0.4015770516511562 0.08577159964304286
0.900769629593885 0.18219854987797363 0.3979994633784913 0.08601485559368846
0.8930221821162941 0.19467572592460405 0.39207077609170515 0.11081457422587149
0.9166497184274677 0.14845260609295488 0.3972975014475196 0.08140494666716519
0.918794271159947 0.16458857931927595 0.39997349098301505 0.08929143475804949
0.9260744465811647 0.15340568650876044 0.39674194878147095 0.08221445283666184
0.9385899008090572 0.15679585734578613 0.39535619304761055 0.09035828007592771
0.938691702684439 0.19087981013882255 0.3917771502651419 0.09977674117187098
0.9231223156131104 0.19278741942385597 0.3936315883549446 0.095886186994514
0.8408269339923653 0.16321252215933577 0.4002398828928612 0.07119751717880927
0.8303280470374961 0.1535589271310855 0.3967883089037569 0.07324472904130476
0.8302435453329471 0.1798274469747109 0.3974023392399713 0.08551607553055551
0.8240160933988518 0.16592861710837453 0.3965993758321057 0.07588420780989585
0.8375094447814176 0.17371143502745123 0.400267774979053 0.0742233272748629
0.8147976674187505 0.18754119026732924 0.39176761594609977 0.09268364803042016
0.827752733263731 0.19344144357638415 0.3924954810005431 0.09689364257560973
0.8381116544506861 0.204507343703501 0.39007670117155735 0.10740823581614843
0.8394402961986333 0.1893508902130435 0.3959465820664902 0.08906131951173088
0.8490582371808537 0.14177573309930155 0.39644938135972196 0.06745890866174722
0.8550615040915843 0.15726755174242896 0.39839899707554816 0.0765162752321848
0.8695142714327158 0.1687839858590504 0.39561456978272247 0.0831162090712465
0.8774697534910364 0.17712931837059964 0.3923347978357914 0.09312488699384924
0.874279579963404 0.19166075744630176 0.3913801958918355 0.1089194060228035
0.8490398501168875 0.18060605259521179 0.399661053458183 0.07649617255272659
0.8577889312767899 0.18967397701913613 0.3948384265572167 0.09928530140714378
0.769359798608078 0.14844511255384968 0.3964752527415405 0.08065575743932202
0.7650366209315242 0.16913223304569763 0.3982767713400711 0.09271759101056073
0.7798521002005234 0.20380767398141147 0.3914572283274511 0.11804985194691835
0.7622222366569422 0.18631379471902124 0.39507443820260074 0.0994284644544603
0.7937680418241727 0.1500281882572881 0.3964565929507053 0.07941388785475956
0.785440671885989 0.16372501837447237 0.40032201300657805 0.08594560064141485
0.812574791649114 0.1734283212633369 0.39260320242599245 0.09072440356672493
0.8026049899114657 0.1695205845526597 0.3961477152664723 0.08350698567663928
0.7819053232443467 0.1866525468065605 0.39774951641656114 0.09488352687744239
0.7991547099336747 0.18889279597001063 0.39407174887055324 0.09768779869425187
0.7138650963327717 0.14925028418883918 0.3981271053863847 0.08189858999465234
0.7094306890395079 0.16730464034996942 0.40080161266229425 0.08590492159874663
0.6863036862399716 0.16562343736660382 0.39417961015280667 0.08160292682593559
0.6864071352870067 0.18240558937372645 0.3927636260894113 0.09552865319242032
0.6974850448711676 0.16892910749523055 0.397490922959864 0.08220904211417779
0.7038960823314782 0.18905576056294177 0.3951608172413384 0.11442659452203686
0.723402000415106 0.16189273299527848 0.3995062768735958 0.07713146940857829
0.7350505830945843 0.15097162294595545 0.3956374549213982 0.07777664240902495
0.7375504518907112 0.18004301064890743 0.3952392163010733 0.0969188111728553
0.7162106778345897 0.1992175475389248 0.39317035425273605 0.10720288142822275
0.722389771654371 0.18880213534709867 0.39603538483265166 0.09689820419039029
0.6580874132621967 0.16665097321088101 0.4004356163419678 0.08337561815651438
0.6695833535571896 0.1508411304402434 0.39567796679068673 0.08174303279817334
0.6456011045074936 0.16259715750283585 0.4001150001619397 0.0754534080542524
0.6339026422265984 0.16898208118195474 0.39795975959930696 0.08930782531414327
0.6206687266105115 0.15763239295620907 0.39468282343902034 0.07521151798746588
0.6429934059967803 0.17541495347298494 0.4003285363064062 0.08598858809609479
0.641565717163951 0.18563103025881228 0.3968865323072841 0.0920680149369701
0.6296759366175371 0.18854195279502922 0.39384191504338617 0.0883172852025086
0.6655657071739248 0.17700535826915645 0.3977309350430093 0.09100166143235311
0.6684060010491324 0.16388756573072985 0.39795009640065754 0.08282693223969291
0.6632500426156354 0.19746226660878977 0.3918319274071495 0.09997113089214815
0.6534580608497103 0.18785698674622028 0.39702675876428234 0.08752320448435724
0.654573897789891 0.20733842825651502 0.38957945248952475 0.1105407374576393
0.6767656177424872 0.19174364527886573 0.39173682509504676 0.10203122383128102
1.2406251706740263 0.21095994974983379 0.3902065787113557 0.11730957152532971
1.2571471521943853 0.21068302269032807 0.3927500107776034 0.12492435446286775
1.2643480095731996 0.20158834917124463 0.3921829451161204 0.10017056526080523
1.2533247068929487 0.223669376105958 0.39369013379167317 0.122013507878227
1.2420480372312068 0.22616984054591477 0.3898467707364163 0.12247201808433814
1.2649497767270956 0.23853788520189784 0.39412585366477626 0.12338881305152265
1.267369865016758 0.26111171645579523 0.386108230261814 0.13248974415506845
1.251093843342561 0.24266114079918072 0.39030526046221753 0.13045120101499563
1.252031877790167 0.252029283562535 0.3869670199610814 0.12887544018962802
1.271034126916763 0.21238197343910822 0.39444278797173227 0.09959454284588454
1.2908333979495505 0.2289945107189162 0.39090803623676645 0.1173064391705163
1.2709744109910481 0.24824712062735182 0.39067308325561734 0.12070792792198719
1.2758262435573875 0.23627537276860297 0.3943370990651545 0.13268502065240736
1.2842185382646423 0.24120881439633102 0.3911148204534905 0.12422323888420718
1.1771398843909022 0.2073021201466364 0.38977002305370423 0.11038745604550156
1.1912541849261187 0.1985637634101286 0.39035540449801887 0.10811608047262734
1.1719576253546862 0.2347561751879863 0.3874852157843867 0.1264065660862244
1.1837591946858699 0.23071712884833642 0.3916302940332745 0.12290327680121509
1.1836997406802285 0.21845906526205172 0.39266974230612495 0.11468955036380354
1.1824529577426277 0.25020284942781656 0.3869023734288299 0.1400977756998854
1.1912713509940587 0.23911647535120098 0.39248895891801816 0.11532967135236566
1.2056672955048167 0.21621166479257048 0.39520695559329805 0.10354758633947535
1.2074446994306178 0.19607568074954734 0.39116808357693966 0.10318317367675875
1.2209932847590854 0.23343054424014661 0.3920644124154698 0.1325022199826316
1.2130508643707407 0.2523011075183759 0.38798658913190376 0.13297394016997424
1.2092326056290086 0.23663377859495516 0.39445713949467465 0.1210988585450171
1.2236872363653015 0.2448490984541165 0.3890122119315651 0.13733764339453783
1.1248348147462182 0.1992349137554731 0.3902662620498695 0.11127512051225942
1.132925995968256 0.2111700687579253 0.3937656376559502 0.11052890544927542
1.1122592052279128 0.20655840604242645 0.3896583860571969 0.10942444059779606
