x y z curv
2.999489113008228 0.09534609295036428 0.28208221871088096 0.0016836494277309277
2.9989123666581188 0.08966432863196253 0.04329964241237503 0.03275554061710681
2.9984526740762707 0.08513570888692532 0.07019940302955714 0.0028329171216021688
2.9987135198862047 0.08770540770723233 0.1579205504455765 0.0027846868826899517
2.999044568005815 0.09096669820923114 0.0988590227927079 0.0021384422021591782
2.998902968596012 0.08957174447615021 0.05850502521206762 0.0019634357849980973
2.999883631856541 0.09923265957511199 0.15926946277257462 0.001650033194684757
2.9988020693411044 0.08857774462477838 0.13499638010153114 0.002431283832954547
2.998810798721875 0.08866374132709492 0.082324886482545 0.0020205020099444337
2.9996626200830896 0.09705538214960013 0.18207749755271102 0.0015308015702227608
2.999451243878477 0.0949730286558958 0.25122301907764727 0.0016423112823246333
2.9996172039989624 0.09660796971911657 0.11399662436759415 0.001921321234593865
1.7616676570126861 0.0 0.3709410021601122 0.006702921219186377
1.6394518835628122 0.0 0.1484156733004711 0.0
1.908800643502474 0.0 0.25411321866486203 0.0
1.607314290651794 0.0 0.32578824046538674 0.0008570292234524392
1.6710508964677697 0.0 0.10318090636735838 0.0
1.7622973722831956 0.0 0.283614070197554 -7.220909139412776e-18
1.7792250056511496 0.0 0.20324705469874055 0.0
1.6207408753198016 0.0 0.18642746505060429 3.9242984311042045e-05
1.621849855383061 0.0 0.2734601364549256 2.9631347445306952e-05
2.0107701886703726 0.0 0.33068972111150396 0.0
1.9430718075031987 0.0 0.29287260831809875 0.0
1.8479588403932956 0.0 0.2699601525233102 0.0
1.966899132998064 0.0 0.31977669485068694 0.0
1.8145636592648404 0.0 0.289325488220434 0.0
1.7297072571240912 0.0 0.17160285879053078 -5.9184364583455164e-18
1.7268741490132318 0.0 0.34068517791784386 4.190465179325401e-05
1.639155997107991 0.0 0.1777094639302146 -4.4407513791719425e-18
1.622646137511114 0.0 0.1609964972696576 2.3823644049488988e-05
1.6983557445203432 0.0 0.11917500963376022 0.0
1.6386615302558034 0.0 0.08959266247250215 0.0
1.918672538859378 0.0 0.3222642932564729 0.0
1.6843045300899875 0.0 0.14371121083280974 0.0
1.8360975121415306 0.0 0.20470233934317017 0.0
1.7464025667908303 0.0 0.33626179872240286 1.26323728233966e-05
1.74011302640209 0.0 0.3169977588260843 0.0
1.7875135496373207 0.0 0.168554457611309 0.0
1.7234209345062994 0.0 0.14803595352524995 0.0
1.827827806807461 0.0 0.34931703967216404 0.000427544486053665
1.6128146634940144 0.0 0.31134660901573097 0.00019727597806543023
1.6825981200498532 0.0 0.36659898922636225 0.002458129583044906
1.7498733791986387 0.0 0.29612747575152104 0.0
1.618373723663293 0.0 0.21835510069728856 8.29966661656381e-05
1.7703237033318817 0.0 0.24225186592601544 0.0
1.649431325441331 0.0 0.342036181242633 4.328895742775423e-05
1.7173514831918344 0.0 0.21184201149917423 0.0
1.6563746527255527 0.0 0.3322993470401851 -4.357367399827627e-18
1.8821327664168994 0.0 0.3421110345343308 1.8474242178825797e-05
1.8968251477833409 0.0 0.3203764159301531 0.0
1.8620021328145224 0.0 0.31211710810873505 0.0
1.7360026316886263 0.0 0.3478601705674669 5.958418280240116e-05
1.6172215905118914 0.0 0.13446006010255007 0.00020675928989708482
1.8399496555170312 0.0 0.3670353927451867 0.0037184780415510967
1.7360750838675383 0.0 0.28567452101577084 0.0
1.6367244547790265 0.0 0.13513780776700476 0.0
1.794915059150178 0.0 0.28784548822594935 -7.199869351186527e-18
1.7035959143985193 0.0 0.31564752994607564 0.0
1.6518086990274328 0.0 0.12144149017580093 0.0
1.8580123923225933 0.0 0.32475543964870995 0.0
1.635505373785364 0.0 0.24307742117351067 1.4923890864150322e-07
1.7726626220465458 0.0 0.1549239992421261 0.0
1.8280497371870141 0.0 0.30175434259404305 0.0
1.8974110637552646 0.0 0.2963991962041326 0.0
1.5999632565157285 0.0 0.15165153524070235 0.0016752086475453328
1.6066904681049952 0.0 0.10326311164012794 0.0011458945761266652
1.6457724755706944 0.0 0.326312029414836 0.0
1.6129971403698036 0.0 0.04009086511947449 0.052591293216390625
1.662387727358901 0.0 0.2538170767663476 -6.6369497007704855e-18
1.7716384865376844 0.0 0.32505713598696817 0.0
1.6982860362423873 0.0 0.21468798593344143 0.0
1.8101743218617485 0.0 0.1921814989730976 0.0
1.683457586657656 0.0 0.17325663888013193 0.0
1.7444277406708284 0.0 0.3569944773736487 0.0013134828373331045
1.6069793752003432 0.0 0.12640376517022864 0.0004289256411263907
1.8670026102856219 0.0 0.24145571406577268 0.0
1.6364143448441806 0.0 0.051622129897599164 0.025995432684923696
1.7707308888253375 0.0 0.29211511342778396 0.0
1.686799781172688 0.0 0.24371289453609377 -8.38413276628876e-18
1.6949172995644604 0.0 0.3524126080610079 0.000887448095800307
1.8728927200915746 0.0 0.33543078608573446 0.0
1.6922935207992456 0.0 0.17901854250514213 -8.929167440462692e-18
2.047958681969411 0.0 0.348106808858151 0.00012307619401862613
1.687404617452754 0.0 0.23281292195582756 0.0
1.6610973008446897 0.0 0.3014661771720716 0.0
2.0414137979215243 0.0 0.37034329222876544 0.004488663483410143
1.7104614972288883 0.0 0.18901677355715094 -2.9452034637278976e-18
1.7155176318545187 0.0 0.16498163220856693 0.0
1.6141665226842403 0.0 0.35186207204212777 0.0007752452250659836
1.8157855176507447 0.0 0.34655454031715205 7.269169022375617e-05
1.81458842789241 0.0 0.3098430623045283 0.0
1.7092815871518543 0.0 0.2239425794945265 0.0
1.8049075451517984 0.0 0.3521000357963576 0.0005871131671357002
1.6034096081926776 0.0 0.26778374835441926 0.0017127837969611213
1.7194304956640611 0.0 0.1957347869433233 0.0
1.62176902502716 0.0 0.04770356245600994 0.0252436114521888
1.6764351577365806 0.0 0.19792648542757818 0.0
1.923533326285214 0.0 0.25607031141854175 -5.5888734022469175e-18
1.7483442690578386 0.0 0.22251344824335542 0.0
1.7224608421587095 0.0 0.23137491919985761 0.0
1.6357346273439872 0.0 0.2585414805433724 0.0
1.6018546889330358 0.0 0.31037327750971233 0.0008332893983201166
1.7988345889774737 0.0 0.16962484598825003 0.0
1.9512320894065105 0.0 0.3463071582755168 2.141027259934194e-05
1.6619025628738913 0.0 0.3168634405432091 0.0
1.6760075417841644 0.0 0.07728837289655081 0.0
1.6904249058781953 0.0 0.2569399282586499 0.0
1.8236784680214984 0.0 0.3208010289113189 -6.1963602249646635e-18
1.6306686303683682 0.0 0.06173353348477473 3.447176401025521e-05
1.890837910165021 0.0 0.3103448610461376 0.0
2.0074391898427075 0.0 0.3201727042521399 0.0
1.6432799309865702 0.0 0.2679406463575632 0.0
1.6255756715405294 0.0 0.24863143686449288 2.519697146280142e-05
1.6553232831471283 0.0 0.1686142085433349 0.0
1.62034252873061 0.0 0.3408001917751528 0.0001684069497336729
1.761661868784394 0.0 0.30266183006136343 -1.8828920288415473e-18
1.9785671643551312 0.0 0.29759570241688504 -6.5516528670070495e-18
1.7826764615599413 0.0 0.2945383104331145 0.0
1.682194330156809 0.0 0.3075333209141279 0.0
1.8928466538663928 0.0 0.33517659067537764 2.5034340656939142e-06
1.7242172122307124 0.0 0.134337546761699 -2.5359447917083882e-18
1.8392428367694325 0.0 0.29124700899327655 0.0
1.6659867555395196 0.0 0.28166539115794953 0.0
2.0042789558543856 0.0 0.3678484342299477 0.0021527460774885257
1.803937745768353 0.0 0.22566275672784722 0.0
1.635513559578533 0.0 0.3418520611147178 1.743448049005289e-06
1.7913304847947795 0.0 0.34697643940514805 0.00020234703793390024
1.6393736362594742 0.0 0.3678418111596034 0.0037208750153771724
1.9131577501574515 0.0 0.298220751223158 0.0
1.7766844536675064 0.0 0.3457021311019719 8.774921291306816e-05
1.7800811388667923 0.0 0.2662767573189134 0.0
1.730921075191842 0.0 0.2009999720286359 0.0
1.7511229375739925 0.0 0.14624108700006438 -9.593628372428285e-18
1.7011270904002012 0.0 0.24216776617204366 0.0
1.6757153131673772 0.0 0.3328214310478542 0.0
1.829260537909121 0.0 0.1933761171173044 0.0
1.905780418909613 0.0 0.34047083955814317 2.2197955489087998e-05
1.7415084929155642 0.0 0.12832609469745646 0.0
1.7599568091499305 0.0 0.2527141742067216 0.0
1.673690272024162 0.0 0.1608620935626164 0.0
1.6113366617983884 0.0 0.27740720612944275 0.00030481586987607986
1.8508781288970464 0.0 0.3426340748317854 0.00010742139400830976
1.6241984573230175 0.0 0.08279573968470264 4.9852079411848885e-05
1.8236053176302502 0.0 0.2748701926664974 0.0
1.9349264864571711 0.0 0.36908954994523496 0.006452754954700308
1.8702936450750391 0.0 0.224569032585833 0.0
1.776631183127032 0.0 0.27995805819516506 0.0
1.6847452791118929 0.0 0.29609589349412024 0.0
1.883161025823553 0.0 0.32408829344253437 -8.250141289882344e-18
1.8501641832892743 0.0 0.2579317002626988 0.0
1.6269365821306159 0.0 0.103427777232737 3.546718090039274e-05
1.6686599671462456 0.0 0.1890405053020723 0.0
1.6304134377545692 0.0 0.19422018206785624 2.956514728291341e-05
1.68031103416449 0.0 0.3192901085071696 0.0
1.9022352547389016 0.0 0.30912594378475294 0.0
1.9705019430992117 0.0 0.3091044834917462 0.0
1.9514428442488543 0.0 0.3233196845501707 0.0
1.8724269785777579 0.0 0.28219689569550727 0.0
1.808037640030637 0.0 0.24400006471443283 -3.2909413185482643e-18
1.671669820698447 0.0 0.12337143960661462 0.0
1.7321223283173657 0.0 0.15691175535129198 0.0
1.8410074433744779 0.0 0.35050045895299764 0.00013730731213959038
1.7155453537125547 0.0 0.36549047484175284 0.003619214472502404
2.012217881319049 0.0 0.34292100362129163 2.5566162184977597e-06
1.7841554531864865 0.0 0.3282499468207494 0.0
1.6747829995212489 0.0 0.27310568788048767 0.0
1.8704114981815743 0.0 0.29492272699425015 -9.04413409683342e-18
1.611798293305955 0.0 0.14603439559736253 0.000294112047230905
1.9127240959892413 0.0 0.2644554474768355 -9.127285601488936e-18
1.7134553674024842 0.0 0.3102813959136658 -4.280636021401191e-18
1.7175590471576498 0.0 0.11536728025730895 0.0
1.9045422200514883 0.0 0.32903468042108264 0.0
1.6189291309992377 0.0 0.11957482847836763 0.00010923535494350161
1.7676198896952817 0.0 0.3555530479862636 0.0013073318668623195
1.891405669505326 0.0 0.35453990819333076 0.0003942806030053653
1.6622293602657674 0.0 0.23020696837593513 0.0
1.9960823758874353 0.0 0.3212337854075236 0.0
1.6474184716306408 0.0 0.10005205171964413 0.0
1.7674958729404828 0.0 0.1949826433684941 -2.9815349477401176e-18
1.7828500153372477 0.0 0.3080168773970923 0.0
1.7495192919943856 0.0 0.3226935088624467 0.0
1.9463483614456836 0.0 0.333240214759145 0.0
1.686189382925573 0.0 0.331254212578919 0.0
1.7314352725646778 0.0 0.219031718759618 0.0
1.7657424689415355 0.0 0.22902456816074587 0.0
1.682250479452093 0.0 0.3488754278773565 0.00023247925156757556
1.6512823003770476 0.0 0.06179027408197772 0.0
1.7240077400616531 0.0 0.18316068839730767 -5.337771918014484e-18
1.8103500896438942 0.0 0.20868084561489506 0.0
1.8367182230796952 0.0 0.27826805059570275 0.0
1.6468676373759759 0.0 0.2993792050900805 0.0
1.9230431227491787 0.0 0.27951399995360626 0.0
1.6097118189510986 0.0 0.3371268263668746 0.0005714225972479315
1.6522254157013947 0.0 0.1929455866392372 0.0
1.756278572632797 0.0 0.13537425301349518 0.0
1.59910040623393 0.0 0.25420665314396185 0.0018632695156968265
1.7786346454532551 0.0 0.22420853511120653 0.0
1.6871657263702957 0.0 0.12610378794536548 0.0
1.8101011428403662 0.0 0.2783454367505516 0.0
1.7555644028302704 0.0 0.36016445156687543 0.0011672069343426318
1.7523196046811624 0.0 0.15845945676677703 0.0
1.7395375157624207 0.0 0.27156099854337723 0.0
1.872443781331269 0.0 0.2706920229665909 0.0
1.877631093376817 0.0 0.2551751329323396 0.0
1.7413769605437648 0.0 0.16818707426159604 0.0
1.832458758646031 0.0 0.26580152093746945 -3.175631346780439e-17
1.695947871060985 0.0 0.10834879126857767 0.0
1.614654667617064 0.0 0.06850774067878157 0.00025977888958793967
1.8566497790764074 0.0 0.2771904847959462 0.0
1.632361094789772 0.0 0.21731442517434768 2.1527304372577248e-05
1.6671912774051698 0.0 0.3652458364418594 0.002323606661342963
1.6045582039184345 0.0 0.2161967451325135 0.00046336555001930504
1.8424231571378031 0.0 0.3169793019089709 -2.970848854097491e-17
2.029413895158521 0.0 0.33406862668169657 0.0
1.8835321535275311 0.0 0.36718419889666504 0.003491861784008545
1.9274749729967047 0.0 0.2938483962452151 0.0
1.7181801223708404 0.0 0.28462054763839045 0.0
1.9322827294122722 0.0 0.2628630579681635 0.0
1.7871502748951054 0.0 0.19577398845952873 0.0
1.6363355837931293 0.0 0.30728926972172543 4.457299223796959e-07
1.8342621650286681 0.0 0.3289593355304456 0.0
1.6064526641972159 0.0 0.08738435442497783 0.0002832169341725018
1.7944700639420643 0.0 0.2744361492141091 0.0
1.9849454718335684 0.0 0.35243384434724156 0.0002286832604879469
1.8831365927687391 0.0 0.27583900769242453 -1.6263477320308434e-19
1.647769157646867 0.0 0.35363712001580067 0.0005844007473221074
1.6894896140726237 0.0 0.28432715396491615 0.0
1.7609319983298966 0.0 0.3309798694410076 0.0
1.7083071970760837 0.0 0.3294542898481608 0.0
2.065888656403159 0.0 0.3585282394139348 0.0012791109221808063
1.815151749559595 0.0 0.23378483899508387 0.0
1.718667553680096 0.0 0.35358319336824046 0.0003320551735947031
1.6609972571226739 0.0 0.1999400067326946 0.0
1.598846494180651 0.0 0.13928731513213213 0.0014755409791597995
1.7636682730849988 0.0 0.26517702495505197 0.0
1.650991680537463 0.0 0.21286441904770484 0.0
1.6706449418160139 0.0 0.14178029292352565 0.0
1.6102355452770305 0.0 0.055935961637317774 0.002568026183005461
1.9583374149102923 0.0 0.30379121400151077 -1.547726242459033e-18
1.657852879696407 0.0 0.10838419407086466 0.0
1.848963262661438 0.0 0.2861128554609488 0.0
1.6723113143560842 0.0 0.2098626168721795 0.0
1.611276447397304 0.0 0.2051019270840425 0.0005296115596630284
1.7232961293101199 0.0 0.3223422531206017 0.0
1.837457554753206 0.0 0.24168568803850143 0.0
1.733886011286002 0.0 0.14257092706502156 0.0
1.6567795383620625 0.0 0.36795328211217593 0.004300914301868035
1.936273718723119 0.0 0.3249647703330723 0.0
1.7280617951021404 0.0 0.27307626228046616 0.0
1.7104445889526447 0.0 0.12342320665243903 0.0
1.758757403967314 0.0 0.18319373799107147 0.0
1.7987812454917484 0.0 0.18278769680226387 0.0
1.786657296644115 0.0 0.2367467427420405 0.0
1.6134970541705769 0.0 0.25178178045736194 0.0002033790370240719
1.6944833972382551 0.0 0.30480607973160195 0.0
2.0235488684596303 0.0 0.34872260977230524 0.00011549985053795529
1.8518755304313452 0.0 0.30116160295660893 0.0
1.6300068694422376 0.0 0.2835475237916485 8.964681648513287e-06
1.955324878409979 0.0 0.3679586105702303 0.0059117233127229316
1.6972281847970128 0.0 0.1592309768819705 0.0
1.677988377856173 0.0 0.28702227846496015 -4.205817489995856e-18
1.893238908160133 0.0 0.2840203974889105 0.0
1.6078609816790241 0.0 0.16349594216555308 0.0006968552350322648
1.6514109960012022 0.0 0.2338452146321329 0.0
1.6420552681994895 0.0 0.06989070374268505 0.0
1.8492795032718206 0.0 0.2297414258857705 0.0
1.9652585732349248 0.0 0.3423680333275977 1.7426853124619962e-05
1.799865655223146 0.0 0.23593394141973864 0.0
1.7787065916386502 0.0 0.18023962188144846 -3.415943532347053e-18
1.7475572989869308 0.0 0.20171859538137524 -6.74650476820008e-18
1.7338476697141287 0.0 0.30478761901333684 -3.567410688939822e-18
1.6778380238840183 0.0 0.2583086399228465 0.0
1.7910932391306935 0.0 0.26238430152933256 0.0
1.8746074658323222 0.0 0.31356148669577066 0.0
1.624206451723279 0.0 0.30581322779821707 1.0388813677860629e-05
1.7109928639682233 0.0 0.26703816278052084 0.0
1.8158420488544422 0.0 0.22173728981694074 0.0
1.7341518557542643 0.0 0.24191770031913357 0.0
1.7730122055094046 0.0 0.25623885025200893 0.0
1.6677387793437404 0.0 0.17836961051904948 0.0
1.8616402365595779 0.0 0.33637112559231547 0.0
1.8965896999077034 0.0 0.2718073316863598 0.0
1.854531007249105 0.0 0.3664103216654064 0.003615084722974391
2.0341852150747486 0.0 0.3556907690332021 0.002017120682355313
1.7572738847532112 0.0 0.342072740329732 1.3158253739573821e-05
1.8054698485707452 0.0 0.32876934390846735 0.0
1.9370871596256816 0.0 0.3559963072942745 0.0013217003398143766
1.9465117227574096 0.0 0.27711401424058546 0.0
1.6995926750039354 0.0 0.22826097969279052 -7.813398095353221e-18
1.684122157156015 0.0 0.20723501097942784 -2.5968582615163573e-18
1.6493008325697416 0.0 0.24773564005973234 0.0
1.750976405468969 0.0 0.28007689964638544 0.0
1.8116047741221097 0.0 0.26139658102196645 0.0
1.6001122097277007 0.0 0.35416038114224085 0.002167980103037636
1.7109148668159349 0.0 0.15301035770108531 0.0
1.6963087547344953 0.0 0.3412795059766917 2.804394979593804e-05
1.8238370134398474 0.0 0.20398150371939217 -7.41153134565798e-18
1.7271151181258415 0.0 0.366018581827688 0.0035490660334965207
1.6337416441057624 0.0 0.3528759830865849 0.00025515043267811664
1.7058342179271193 0.0 0.35070204195279564 0.0005642515822792534
1.667242378348118 0.0 0.34516503024345685 4.4677129889699656e-05
1.851753684297106 0.0 0.3541669697073756 0.0006584361170732058
2.0813433732170163 0.0 0.3693047015305932 0.006258899556505006
1.8103482265192044 0.0 0.1756399341281362 0.0
1.6174919136827206 0.0 0.29157995454159646 0.00019172092888852495
1.6943600339557885 0.0 0.19924145227122156 0.0
1.6549038121285258 0.0 0.08895060636720131 0.0
1.823293112506825 0.0 0.3370051649016227 3.090177272028093e-05
1.617887633358728 0.0 0.09681011053097402 0.00021892569947294324
1.7133837575120303 0.0 0.3415342744464091 0.0
1.7121440391227063 0.0 0.25416456294663803 0.0
1.6008929487051566 0.0 0.23140853949455123 0.0018407006436918442
1.9356741221897789 0.0 0.2797882655649254 0.0
1.6758476495194616 0.0 0.2234765228238212 0.0
1.7633810808347001 0.0 0.14953409451803143 0.0
1.6296030782939952 0.0 0.33172174670212345 4.689163268845197e-06
1.9057947715279875 0.0 0.2831793720177286 0.0
1.7379866903253642 0.0 0.328356577400631 0.0
1.7409584669366072 0.0 0.25381560482700494 0.0
1.7371549427846102 0.0 0.18496287314274537 0.0
1.8277705726066675 0.0 0.23475107738491216 0.0
1.7117623629639915 0.0 0.13602044802364868 0.0
1.8822987869764432 0.0 0.297179058795187 0.0
1.8972459492324214 0.0 0.2599115751946486 0.0
1.7835046081950678 0.0 0.3687843204840022 0.004523850882706868
1.687342618187769 0.0 0.10026364103166033 -4.5672414529823474e-18
1.6849679389114978 0.0 0.18980702889562145 0.0
1.974135581513202 0.0 0.35739219029983443 0.0013069840427059837
1.6233489128903167 0.0 0.32088378684460284 5.0195803863153885e-06
1.9234112662291447 0.0 0.3640937087854475 0.0019583838319430303
1.658953007804202 0.0 0.1549058594720909 -4.980834644136694e-18
1.6017100950091256 0.0 0.07078410662698194 0.0014542025514353858
1.6135166257250821 0.0 0.2287144798535365 0.00035042194043939363
1.9019244013017098 0.0 0.24246170977216056 0.0
1.8770772916390825 0.0 0.3564266575475441 0.0010698338114149282
1.863763802885431 0.0 0.2607075346720463 0.0
1.7940629110335045 0.0 0.25140438945049254 0.0
1.7707526352806429 0.0 0.16884372999028818 -6.855555928295842e-18
1.7976902584958498 0.0 0.21481544197639618 0.0
1.6598055955280102 0.0 0.07786866748022547 0.0
1.6411749577093477 0.0 0.2272409882417471 -8.317011770934958e-18
1.7568216428121732 0.0 0.16960841277817632 0.0
1.6482807646705253 0.0 0.2783140347815611 0.0
1.8126639936280828 0.0 0.3594071562628601 0.0007209726520052655
1.69200356657496 0.0 0.27087553633778855 0.0
1.6451435283503983 0.0 0.31422261402500923 0.0
1.6855943917033491 0.0 0.15981092669750016 0.0
1.914616580718891 0.0 0.3518539075918325 0.0005995142255807572
1.6547467935776343 0.0 0.1820501117162246 0.0
1.84956036043865 0.0 0.21717750005688546 0.0
1.789726349892394 0.0 0.3595337025584886 0.0011758350887120488
1.6973207951054161 0.0 0.13310320834155143 0.0
1.7031384123805753 0.0 0.2803877063708287 0.0
1.8863086370808082 0.0 0.24831198795712656 0.0
1.6255453299752438 0.0 0.2076551445793541 3.873959858388948e-05
1.7503082792310378 0.0 0.24547152146905202 0.0
1.7140376215673017 0.0 0.17621477357799115 0.0
1.922668825874507 0.0 0.3410412498856488 3.126648079031976e-06
1.8394425440880444 0.0 0.3050554021474567 0.0
1.9571017747383124 0.0 0.283379794630171 0.0
1.6361017643125044 0.0 0.1601082845071304 0.0
1.8278732458414166 0.0 0.21705685690493537 0.0
1.7032363487055087 0.0 0.36276806091493996 0.002874368575984618
2.0006412080246188 0.0 0.34673984673946834 0.00025427859332867236
1.6534093666869363 0.0 0.13478436214815992 -6.539197439865674e-18
1.62759283339242 0.0 0.23086326629855453 7.105895131969344e-05
1.7399926766088936 0.0 0.2118788821668976 0.0
1.7218663421736797 0.0 0.26375896520932196 0.0
1.7597695067332548 0.0 0.20781341168228282 -1.7409091219615814e-18
1.935382605639989 0.0 0.3111360413582934 0.0
1.6079531963484863 0.0 0.1836645740523145 0.0004323288487783651
1.6615032159377972 0.0 0.21915512027544298 0.0
1.6390382409389497 0.0 0.12013996057914672 0.0
1.7501334377119984 0.0 0.30936455737177243 0.0
1.8817411178788754 0.0 0.2373655325794657 0.0
1.7232891273516215 0.0 0.2522557470985323 0.0
1.751758898909886 0.0 0.2638658335625307 0.0
1.7972949756588699 0.0 0.3149661245086409 0.0
1.640010833809557 0.0 0.20641040657363297 0.0
1.9884735064947632 0.0 0.3652371877530263 0.00525588314042648
1.622903543062777 0.0 0.14559368657066082 2.465644005678638e-05
1.8648118585724895 0.0 0.3507677451105859 0.00025870598241994924
1.9829185818405854 0.0 0.3308405846059496 0.0
1.7642830781884928 0.0 0.3134744336852587 0.0
1.9916505081721998 0.0 0.33845644646368794 0.0
1.6736482435184414 0.0 0.24380911670411326 0.0
2.8091176816199233 0.0 0.3703147087013694 0.0029852405531208518
2.478338053418584 0.0 0.33117976663591286 0.0
2.5549859287141308 0.0 0.3188566316384588 0.0
2.278912950010003 0.0 0.3425246750182286 2.7622636221041895e-05
2.1488861283913305 0.0 0.3579233513302305 0.0013842531981156838
2.5016027618438144 0.0 0.24557258754242733 0.0
2.1769974143918214 0.0 0.3652412621572759 0.0021147866511903968
2.58729410036495 0.0 0.2715532716496003 0.0
2.5587428789473226 0.0 0.27778545079379124 0.0
2.494694085013551 0.0 0.2552327536468665 -7.07030298216505e-18
2.5387127013515247 0.0 0.31906206924327213 0.0
2.4965222494297907 0.0 0.3627768721529114 0.0014051939067551151
2.310414403124896 0.0 0.37000505158478036 0.007778776051500663
2.4858176808842556 0.0 0.3569089456312226 0.001343218280165811
2.5063270257220247 0.0 0.3307298944125033 -2.5072585346482662e-18
2.382461665958737 0.0 0.2796407883217118 0.0
2.5792739640034985 0.0 0.22250346521911235 -7.624759829144335e-18
2.3880969956463716 0.0 0.32207706893138127 0.0
2.6028958703393053 0.0 0.20427010488687797 -7.836548812424468e-18
2.3287565736124543 0.0 0.3534771476439415 0.0006046337221775586
2.45242674536318 0.0 0.36812018059397644 0.006002370011625552
2.5786070856063095 0.0 0.1688513250575906 0.0
2.527734477875214 0.0 0.24547019626108563 0.0
2.3678001447662047 0.0 0.262316852619739 0.0
2.617444666613905 0.0 0.2093433806997939 0.0
2.3611147618911583 0.0 0.3412331070290323 3.4808052166769573e-06
2.5744002000126502 0.0 0.18022051609210998 0.0
2.7026357520751043 0.0 0.11019911641768584 0.0
2.4441899209456803 0.0 0.28163386309348615 0.0
2.490463346003353 0.0 0.221865491346756 0.0
2.2698225924370004 0.0 0.3645851091005184 0.0027625158454211694
2.4826795592401094 0.0 0.2497772593713462 0.0
2.81518122251552 0.0 0.058123055966731355 0.0
2.4133736820058918 0.0 0.24378670616303566 0.0
2.71235255055489 0.0 0.13494280451795015 0.0
2.4721602894708363 0.0 0.3418559104601821 9.366586694513817e-06
2.5526146121654585 0.0 0.2139702779796882 0.0
2.6637756831245083 0.0 0.2156804652419493 0.0
2.722784237856734 0.0 0.1407999435714799 0.0
2.321120613774024 0.0 0.33065621485166674 0.0
2.5508667446162248 0.0 0.25247272180006375 0.0
2.463831494314289 0.0 0.36507779280271513 0.0018910342783045213
2.151816150176619 0.0 0.36922202096665185 0.004126185642635557
2.386412799527394 0.0 0.34406710397889406 4.840333246867349e-05
2.311285406329154 0.0 0.33729264892989547 1.1403885056865986e-06
2.4231889829516553 0.0 0.3698981007243537 0.003936611095560537
2.518939964465816 0.0 0.3092712333742724 0.0
2.231750489824447 0.0 0.3146548164368098 0.0
2.4558812626800015 0.0 0.2794037480267333 0.0
2.291621942068214 0.0 0.3109767557060587 0.0
2.285478982346194 0.0 0.36627247136511254 0.0035338255668267418
2.437929005831257 0.0 0.35830310575494284 0.0011966743683059
2.2777052829874114 0.0 0.29305023100584204 -3.322574084863859e-18
2.3138439763199132 0.0 0.3499086100068123 0.0002775360439469863
2.3598523731212726 0.0 0.3526818763860493 0.00017564994445407343
2.2359085192055104 0.0 0.37025863005365417 0.004860017447425007
2.37479827281739 0.0 0.34983462267145327 0.00017823218378619688
2.2355633586880193 0.0 0.3391947905011159 4.887873026769664e-06
2.5272762432295393 0.0 0.22306594890652354 0.0
2.5372418095066758 0.0 0.2533020223334752 0.0
2.7216523098013825 0.0 0.1730432933065899 0.0
2.6491042698837104 0.0 0.1499108281669737 0.0
2.3736080237565247 0.0 0.3193520175434257 0.0
2.512946572747326 0.0 0.26858138006563914 0.0
2.539707534258641 0.0 0.24043716810597496 0.0
2.7658846678158877 0.0 0.08668365670144149 0.0
2.4692261762214347 0.0 0.21954978503076783 0.0
2.4464140983209384 0.0 0.3504503322230452 0.00013289038074762856
2.610786333868609 0.0 0.23275438275814342 0.0
2.6745367543356697 0.0 0.1546213739838279 0.0
2.6441914819943753 0.0 0.19386037983029436 0.0
2.345842264866265 0.0 0.3277674000829095 0.0
2.754095146507837 0.0 0.08888835022923999 0.0
2.2072551788342327 0.0 0.35965167577071283 0.002210493701340577
2.4367575587582406 0.0 0.22173625262865856 0.0
2.6169664737656664 0.0 0.26431993420882416 0.0
2.4119584680154804 0.0 0.2948963066207567 -6.087321221709833e-19
2.4530782526370905 0.0 0.29258845977057824 0.0
2.630424847211393 0.0 0.16400143833656194 0.0
2.7469744064450805 0.0 0.10152540676806468 0.0
2.2897878570354657 0.0 0.29810834223616 0.0
2.450915443354002 0.0 0.2686456818069336 0.0
2.4062046405024025 0.0 0.31219600829171557 0.0
2.4730975199956653 0.0 0.241334989972063 0.0
2.695921124131546 0.0 0.195748978913907 -2.4611685718046992e-18
2.8652497350216954 0.0 0.04969885825541249 0.02907656933737373
2.5800612640167206 0.0 0.2620308487846927 0.0
2.4784577442325504 0.0 0.2736298488715482 0.0
2.6551468341355444 0.0 0.1384971009301766 0.0
2.404004115683911 0.0 0.36607865304801385 0.0031014719905912208
2.596351677255139 0.0 0.21895081640731856 0.0
2.394553265948324 0.0 0.2753670227973617 0.0
2.3399000878631173 0.0 0.27272935165514717 -4.2919154266490526e-18
2.572139562725788 0.0 0.2764075180401665 0.0
2.3576517779566215 0.0 0.27030321525531836 0.0
2.66531274204101 0.0 0.14612329696391216 0.0
2.633508630958391 0.0 0.18964441741550958 0.0
2.420513609760471 0.0 0.3265245317898535 0.0
2.5334272988063145 0.0 0.2788969237104867 0.0
2.5990837022925426 0.0 0.26877501289644196 0.0
2.490571070102002 0.0 0.26552992515602664 -6.015426928213109e-18
2.6448165269903967 0.0 0.23766987476836318 0.0
2.70474033159045 0.0 0.14460180121127256 0.0
2.47114740806239 0.0 0.2929595328613094 0.0
2.534535854847278 0.0 0.3077315419962958 0.0
2.2838165587190487 0.0 0.35465928055522233 0.0008257610427744893
2.5385346575687313 0.0 0.2063644268755716 0.0
2.472409237577746 0.0 0.26391913259300803 0.0
2.588201680347853 0.0 0.23962991493223512 -5.164677262824092e-18
2.345692193122974 0.0 0.35473395835289684 0.0009959698561251475
2.6627186909109017 0.0 0.17874977901733635 0.0
2.246731085227542 0.0 0.32134413894653296 0.0
2.279910715706606 0.0 0.3310728505074736 0.0
2.644684735110047 0.0 0.1677202812435244 0.0
2.8074917328079865 0.0 0.0722698550924744 0.0
2.5874422125892975 0.0 0.17668899591277856 0.0
2.3582094979188843 0.0 0.3084244426200154 0.0
2.496247237004626 0.0 0.283692745412212 -6.587704582775172e-19
2.7789014647108172 0.0 0.07536061685706749 0.0
2.757869191763281 0.0 0.11016402814329317 0.0
2.399203727148489 0.0 0.34577826109129006 0.00015344085508780844
2.553869098191946 0.0 0.18928390620781865 0.0
2.616284689192859 0.0 0.2445740612679937 0.0
2.2123872143202554 0.0 0.3284894935645613 0.0
2.5583012920691437 0.0 0.30666267115390705 0.0
2.663383682733596 0.0 0.1595659988651744 -3.2306801915149138e-18
2.537043634523654 0.0 0.2901465582074867 0.0
2.615621267752103 0.0 0.19377476075328287 -3.3856304983676843e-18
2.378938395105494 0.0 0.24925345244730415 0.0
2.7557790167301186 0.0 0.12957829855212594 0.0
2.456524183534724 0.0 0.25941574565892 0.0
2.4925919766068567 0.0 0.23566496466780373 0.0
2.4339346369048824 0.0 0.27441702617838465 0.0
2.6391591806137153 0.0 0.13796723244476 -6.170119490795707e-18
2.609131329512362 0.0 0.21875982594801374 -6.39766701073887e-18
2.204779794547568 0.0 0.345869510546707 0.00011261888491615203
2.1264661433585688 0.0 0.35766659348701263 0.0007302925274194295
2.302024795436542 0.0 0.34395651796653215 2.212988984662321e-05
2.4592781546184495 0.0 0.31876563768339616 0.0
2.445875131556962 0.0 0.3177867491950346 0.0
2.6794139990440384 0.0 0.1435006897023161 -3.9683876257798796e-18
2.7305203444192805 0.0 0.12554440478477907 0.0
2.518052197356691 0.0 0.33350934025174883 0.0
2.473777408723641 0.0 0.30707390899891096 0.0
2.5512346411238513 0.0 0.24054865271571801 -3.85635057740087e-18
2.6823818328418145 0.0 0.13223188080297632 0.0
2.2907509599174127 0.0 0.3353411090064995 4.99431062457141e-06
2.3280489617624687 0.0 0.32054600128848676 0.0
2.4969455019459383 0.0 0.2946774463358962 0.0
2.4425808189077163 0.0 0.23309224737195078 0.0
2.6811817923118375 0.0 0.18950589157636907 -5.127579135398533e-19
2.7387994331987198 0.0 0.1550184849499382 0.0
2.24278474510635 0.0 0.3111496774964176 0.0
2.7101907878639175 0.0 0.12051383334300078 0.0
2.664825410337156 0.0 0.12622813476961703 0.0
2.690477933943915 0.0 0.18154838273602522 0.0
2.5126887606606974 0.0 0.34467869430294945 7.2582315658712635e-06
2.3665760212183824 0.0 0.28003804825112055 0.0
2.248865826898661 0.0 0.35861654808445054 0.0004784920880451099
2.3112534197774566 0.0 0.3248835548962599 0.0
2.329785384582512 0.0 0.292432298440354 0.0
2.4697477247944017 0.0 0.2810337021462363 0.0
2.6282941163351623 0.0 0.24873876076013834 -1.6385869042982635e-18
2.6251710857311705 0.0 0.22170132247056856 0.0
2.6261003506951335 0.0 0.14970446318867747 0.0
2.4255252806583956 0.0 0.3567356596553492 0.001578703765358624
2.585343806946825 0.0 0.18875012800030025 0.0
2.398827655021093 0.0 0.29856804273563387 0.0
2.5043395827762445 0.0 0.19980713788716947 0.0
2.4618772037440966 0.0 0.23422742258525328 0.0
2.163069700659433 0.0 0.35913575217167404 0.0019333598003305498
2.374533915188686 0.0 0.27189677130370055 0.0
2.3106112140952266 0.0 0.285682086489407 0.0
2.3230048733475073 0.0 0.30317803283667766 0.0
2.5550592708014874 0.0 0.2295199481268847 0.0
2.2475034895613284 0.0 0.33386622791127063 4.171103064179892e-06
2.7938848005507597 0.0 0.0847268918170378 -2.5642887944081136e-17
2.8557126155177546 0.0 0.04283195658987753 0.04312631769117372
2.721414345787583 0.0 0.11487984256029951 0.0
2.8813678520348525 0.0 0.0339068490900028 0.06739041238450558
2.441034660143587 0.0 0.370515863267769 0.006403455573510333
2.805972233707033 0.0 0.09312068535120431 0.0
2.56296237732006 0.0 0.18137675748230475 0.0
2.5176403251479993 0.0 0.20125275580546556 0.0
2.774030265056903 0.0 0.10049680829148408 0.0
2.2678345661200456 0.0 0.3332953943543029 0.0
2.1830893411156564 0.0 0.33969141244385603 3.160622910724762e-05
2.4188176402802344 0.0 0.2654205249767043 0.0
2.5082752045052685 0.0 0.2833294016462392 0.0
2.6962314350941967 0.0 0.13161316562415323 0.0
2.3929803877882376 0.0 0.35850374535693563 0.0008032196657468185
2.4237031159169016 0.0 0.3152985018162664 0.0
2.2583323606456007 0.0 0.3166883582162775 0.0
2.6822713506429414 0.0 0.2049339217117829 -9.964253751983468e-18
2.612397521600778 0.0 0.15310503394246675 0.0
2.7039872663481637 0.0 0.15848995886042777 0.0
2.228995466760434 0.0 0.3297811532341031 0.0
2.4285617196341436 0.0 0.24103923494679702 0.0
2.678739441304623 0.0 0.17579140631984505 0.0
2.6113569338743625 0.0 0.1646112058030146 0.0
2.3934717763057107 0.0 0.24201541131717402 -6.776967375301086e-19
2.369260275664031 0.0 0.29264225342543193 0.0
2.561828438947044 0.0 0.2630308006980227 -7.495096382584908e-18
2.708501380092356 0.0 0.17297247253430767 0.0
2.4573346985528035 0.0 0.30341668125226223 0.0
2.4846067095972826 0.0 0.3456317766741702 8.811734976978224e-05
2.60509730095889 0.0 0.25056255136381483 0.0
2.5749716529355022 0.0 0.24357083379984112 0.0
2.605273148297683 0.0 0.17797483815474932 0.0
2.4815064846960535 0.0 0.21554418407981135 0.0
2.548755937415234 0.0 0.2646417148654981 -9.565418851400898e-18
2.5164309255960613 0.0 0.29725383454067256 0.0
2.5333279989080753 0.0 0.1964404987802137 0.0
2.2609890204598244 0.0 0.30290339504393704 0.0
2.565573862361214 0.0 0.23641349489254598 0.0
2.1157036283631117 0.0 0.36482235885803654 0.0027381525488456853
2.4367137316569245 0.0 0.32337363817802867 0.0
2.500088213335019 0.0 0.34241748811687517 2.82775640514157e-05
2.5885029418633194 0.0 0.20948371866964857 0.0
2.670450341842222 0.0 0.20056580915998606 -1.0851581305496661e-17
2.5142539577291436 0.0 0.25317007540142 -5.3316754157383905e-18
2.522892626621875 0.0 0.2743368342130404 0.0
2.4298384527341024 0.0 0.3038647918870325 0.0
2.562244206600895 0.0 0.19921121607168224 -5.911565664370308e-18
2.198333414658958 0.0 0.33490896173529033 0.0
2.456892170007835 0.0 0.22246017267064822 0.0
2.513352551020635 0.0 0.21393594011893105 0.0
2.407666209431517 0.0 0.2740250060181746 0.0
2.3462199648953623 0.0 0.34108661924670636 3.899365856532917e-06
2.6949868924318796 0.0 0.11878001944906068 0.0
2.547489019536784 0.0 0.3070878668470703 0.0
2.5981314636086426 0.0 0.16012376961815122 -8.253596826482783e-18
2.4831477027236146 0.0 0.294158538269776 -9.4770048452239e-18
2.834018056100004 0.0 0.0657289800360586 0.0
2.8448757917299448 0.0 0.04493089681139366 0.04046264670567413
2.5049534151370336 0.0 0.2603309692903908 -1.044032155570907e-17
2.344652915787871 0.0 0.3707655707314427 0.005375478592623653
2.334283009741894 0.0 0.3097552519781673 0.0
2.6461333119005066 0.0 0.2135585963824623 0.0
2.4714233922432554 0.0 0.31877865712758513 0.0
2.820915083400313 0.0 0.07035835272373207 0.0
2.409935225338806 0.0 0.3418191536450139 2.9789619362781534e-05
2.322927607390252 0.0 0.3637078314625358 0.0021051611459889665
2.5409702858314986 0.0 0.21969211423074092 -5.298508174392998e-18
2.4662631071138774 0.0 0.3538057272357625 0.0005314183816459759
2.189286448817254 0.0 0.35859774770747394 0.001269412364043614
2.6299587003825797 0.0 0.20615905420359731 0.0
2.4925637054268144 0.0 0.20795284452997398 0.0
2.605044599831108 0.0 0.18891487576302052 0.0
2.7428575593514775 0.0 0.113568080183955 0.0
2.4294931738547105 0.0 0.25975397309725395 0.0
2.4380611919549526 0.0 0.34145753732273576 0.0
2.502332674887065 0.0 0.22989177664686988 0.0
2.5058496253584317 0.0 0.30691497537714146 -2.9306646144550546e-18
2.3430499072965825 0.0 0.2860536815758474 0.0
2.40295557171009 0.0 0.2548471901666466 0.0
2.2166364199270374 0.0 0.35455211671893233 0.0003416338753581291
2.783288875000634 0.0 0.09204116213841204 0.0
2.1927536819110482 0.0 0.3704838198336917 0.0028160310150296694
2.519012304125193 0.0 0.18901862716375584 0.0
2.5143364782641076 0.0 0.2397024453277175 0.0
2.3851372334245835 0.0 0.2912217802263943 0.0
2.7690407094102425 0.0 0.11344644690863936 0.0
2.4015098225392872 0.0 0.2856512198023152 -8.913728792035931e-18
2.4933000742634146 0.0 0.30801563582220026 0.0
2.56627771472037 0.0 0.1706212377344626 0.0
2.3279989809092965 0.0 0.27679459358933406 0.0
2.5330925716417796 0.0 0.3371765589280485 5.594458021502371e-06
2.578779890395574 0.0 0.19826798795075795 0.0
2.501827926174142 0.0 0.3200460380625428 0.0
2.3718064382185577 0.0 0.33411306660917045 4.134919172749106e-06
2.549069686323019 0.0 0.28679232612478706 0.0
2.482752624581547 0.0 0.31531764357237907 0.0
2.8515751070559556 0.0 0.05459266048668781 0.008072651295713404
2.1720545247568004 0.0 0.3410368012737599 3.1789358491226786e-05
2.4551717077970707 0.0 0.3302427781336065 0.0
2.3973950053306847 0.0 0.3321460447279002 0.0
2.549553965341442 0.0 0.20078100634142884 0.0
2.3013782238416454 0.0 0.35573996313502976 0.0006624508463323393
2.4229716732795907 0.0 0.3436727840329452 0.00010560428566288625
2.4422134539411005 0.0 0.25972016374327833 -7.530849172525874e-18
2.502491194688653 0.0 0.21510092773348136 0.0
2.409641813539373 0.0 0.32967814704307896 -7.009206989159913e-18
2.1378084949510567 0.0 0.3528195280117742 0.0007619527496864846
2.362611022504423 0.0 0.32734104767499395 0.0
2.272355801155953 0.0 0.31846761755157116 0.0
2.7315944980931337 0.0 0.1084338621270867 -5.8004068187775434e-18
2.651648748594013 0.0 0.12816318930746967 -1.1294983610648555e-17
2.6508817996983045 0.0 0.17758028555744096 0.0
2.5322936981452377 0.0 0.18293893505453626 0.0
2.7355099285657083 0.0 0.13500642810878755 0.0
2.4660229600028742 0.0 0.33175686986880415 0.0
2.520608409551947 0.0 0.32222063947195034 0.0
2.373054775095991 0.0 0.36374651542986947 0.0032436841091941547
2.633438479751125 0.0 0.23221816216875593 0.0
2.4494595552747738 0.0 0.24542744378388293 0.0
2.3293895745438418 0.0 0.3403910067214082 1.3012017515990368e-06
2.7800499120488817 0.0 0.11134771500508836 -5.5555622591586045e-18
2.5277912301409637 0.0 0.21112529093934826 0.0
2.531386679149168 0.0 0.264893931012926 0.0
2.6184535801110216 0.0 0.1729095565162438 0.0
2.3479852091256506 0.0 0.29857611878970053 -9.227155826911768e-18
2.6575214658397024 0.0 0.19321796582468395 -1.0915095270788512e-17
2.569140908620379 0.0 0.29572992955645994 0.0
2.2920378551011127 0.0 0.3241247204350159 0.0
2.2791202708339 0.0 0.30743746053968035 0.0
2.3104595015188485 0.0 0.3071148754755869 0.0
2.3829562993790363 0.0 0.31074577822701516 0.0
2.230829858332247 0.0 0.352544237603938 0.0005124206345937673
2.215015009025011 0.0 0.3426231639117918 4.050728593670033e-05
2.6919824717877017 0.0 0.15125304653520427 0.0
2.6923859382811237 0.0 0.16586949997808245 -4.744768306233086e-18
2.474669671504792 0.0 0.22982525681089494 0.0
2.71603966158053 0.0 0.15759823372108775 0.0
2.5812451927103015 0.0 0.28709124289537014 0.0
2.431840937850526 0.0 0.28783255083815484 0.0
2.7258757485162524 0.0 0.15158916208024537 0.0
2.566847209776733 0.0 0.21962439439030718 0.0
2.3018884015019063 0.0 0.31680612763179455 0.0
2.4415944620510794 0.0 0.30671148450422414 0.0
2.2643452805810425 0.0 0.3538091873130768 0.00045237429325960005
2.053284004625195 0.0 0.15530530861186448 0.0
2.046932414429551 0.0 0.05396540522838639 0.01266058515474153
2.6108787372187043 0.0 0.02819633005540629 0.05722881793830863
1.7340791815331993 0.0 0.03371966133574092 0.05538693550840674
2.515155108928979 0.0 0.03935602612932774 0.084734097697019
2.302100986064937 0.0 0.06546170691788662 0.0
2.3409194493795122 0.0 0.2577438854986059 -6.589953229925921e-18
2.008102967006782 0.0 0.28327065119375505 0.0
2.43416761787262 0.0 0.1655341849303006 0.0
2.486106989300732 0.0 0.028282756930384036 0.08365458722721937
2.534375440763072 0.0 0.06426907398223443 0.0
2.0389390196358534 0.0 0.09123015888906409 0.0
1.8728409753257558 0.0 0.16468252113631743 0.0
2.475543605476655 0.0 0.061321898133399194 0.0
2.183216915946456 0.0 0.09357389974934302 0.0
2.0501534377960056 0.0 0.11692005568429087 0.0
2.5021259322058307 0.0 0.12636455910278813 0.0
2.0382692191907283 0.0 0.3222304309437252 -6.735711668736303e-18
2.644199228099334 0.0 0.040044242412363644 0.04814494700401287
1.9281324216563642 0.0 0.19650624307709566 0.0
1.7479865762519395 0.0 0.11309955390599155 -2.0088627764425257e-18
2.2635578190486205 0.0 0.2183834499682244 0.0
1.8088050106472928 0.0 0.11118767353375676 0.0
2.6725074896841554 0.0 0.04086770022062006 0.06636377885208514
2.5250765938681936 0.0 0.07220284345766885 0.0
1.893769194866245 0.0 0.09556202264589855 0.0
2.06928969770893 0.0 0.25347011992459517 0.0
2.7742752361265755 0.0 0.03291973471307038 0.07690698929402263
1.647174684154633 0.0 0.04653380421043175 0.045424419826281585
1.938097524859732 0.0 0.24719380061833915 0.0
1.9803792855628057 0.0 0.12375659318927854 0.0
1.9821247607740706 0.0 0.1831830537857403 -9.677762995470705e-18
2.0035396629542106 0.0 0.27250115860556967 0.0
2.5113472325458255 0.0 0.06111136104001915 0.0
2.382703823070675 0.0 0.14373602980747074 0.0
2.168566881980519 0.0 0.03729336304521006 0.05139989733581403
1.8301487760973696 0.0 0.12694831721212027 0.0
2.586206211474702 0.0 0.04447517532398611 0.04241030848290461
2.6473147789930334 0.0 0.1001152656538348 0.0
2.224787962058973 0.0 0.2717410712296838 0.0
2.448395969143967 0.0 0.09294221458791267 0.0
2.655549700964042 0.0 0.028876667572724665 0.08096680823345341
1.7894072240651613 0.0 0.09241699362783044 0.0
2.4194676287062733 0.0 0.22526130315650789 -5.830994104211186e-18
2.272121848872409 0.0 0.26023314935154046 0.0
2.1354227071840026 0.0 0.19655665261609687 0.0
2.2536467399025084 0.0 0.05616399826120669 0.008336301925606129
2.3336811508356208 0.0 0.07021954967347623 0.0
2.064751756064312 0.0 0.12093797952536517 0.0
2.1467069670415286 0.0 0.042857118737378894 0.046828452861185914
2.0640758096020155 0.0 0.1869431055321462 0.0
2.165856993357795 0.0 0.07200447591902298 0.0
2.36535383426592 0.0 0.15865521650991704 0.0
2.176343624461971 0.0 0.1730396082911584 0.0
2.032748686400391 0.0 0.23069994136575828 0.0
2.1312119838299344 0.0 0.2822491507897669 0.0
2.237753343928391 0.0 0.11256788257724284 0.0
1.8928626712282859 0.0 0.06723882591117784 0.0
1.7902809117448633 0.0 0.020349200177974494 0.06597403896177097
2.2434287131982367 0.0 0.29485683346296404 0.0
2.10857610239688 0.0 0.2835940374065182 0.0
2.198575728884479 0.0 0.09858757476087114 0.0
2.106214721769196 0.0 0.09367181920441148 0.0
2.0537406661193556 0.0 0.2046339301563855 0.0
2.269752405387266 0.0 0.02012916588214273 0.07647114885857823
2.184545571073208 0.0 0.19240008582543006 0.0
2.364660800141915 0.0 0.2059485302159798 0.0
2.6417858306882027 0.0 0.1190695665008614 -5.888465627951085e-18
2.671555925375779 0.0 0.056642332173922214 0.0007258457903304864
2.3086703786562683 0.0 0.10381125205114011 0.0
2.8260396421503184 0.0 0.028513418847334354 0.08253974491952926
1.695405853490453 0.0 0.06834935066324915 0.0
1.9036672053722796 0.0 0.12003209730564295 0.0
2.028991414224801 0.0 0.24382916627519916 0.0
2.2078448877351167 0.0 0.04504964452028191 0.03706664063573904
2.596776526146628 0.0 0.08936691769635272 0.0
2.794465653419064 0.0 0.045097275379989164 0.042815094823216694
2.1569068422821562 0.0 0.34000420062634557 7.958760941275564e-06
1.9174038290546445 0.0 0.1269733805576374 -5.202535232877756e-18
2.517370687377192 0.0 0.08080883819564016 0.0
2.569451775517014 0.0 0.08610755419848642 0.0
2.342534730194337 0.0 0.15543081132724457 0.0
2.209190606103859 0.0 0.09419199995591143 -1.0570548475045664e-17
2.0798308804210817 0.0 0.35619953758427547 0.0012516053416486456
2.173764656119526 0.0 0.08210401961277577 0.0
2.3352131767754734 0.0 0.05624833833550401 0.002321139277673357
2.3168232445393815 0.0 0.05004443298472844 0.016776274875736075
2.1893582479492824 0.0 0.21158391569461268 0.0
2.140488801299754 0.0 0.15805072810095036 0.0
2.3291127846592126 0.0 0.2059567587282307 -9.958705100521393e-18
2.318825438675713 0.0 0.2415551960727893 0.0
2.076361309568341 0.0 0.19189261740459823 -2.933216382073351e-17
2.312726300392224 0.0 0.062388087570103425 0.0
1.8764024425390817 0.0 0.20061994961642132 0.0
1.9889445023707193 0.0 0.07832766137441413 0.0
2.3273228834494186 0.0 0.09504083348212662 0.0
2.225729061378666 0.0 0.20957982093861524 -9.009118032413145e-18
2.1464858872010746 0.0 0.08802846802448125 0.0
1.8954514771959987 0.0 0.19502341384739547 0.0
1.930936154607309 0.0 0.10981646358382101 0.0
2.287745995349815 0.0 0.1757590765240566 0.0
2.0121018885791555 0.0 0.16240711009462172 0.0
2.414618443895673 0.0 0.08103929477280096 -8.390607264272825e-18
2.6666115038405995 0.0 0.029737316929658062 0.06118118233968741
1.8836862847164066 0.0 0.2142570383978073 0.0
1.8150203169185333 0.0 0.07227926355847142 0.0
2.297007172677729 0.0 0.08167915697054565 0.0
1.968360365948297 0.0 0.19304866319921493 0.0
1.814983769427383 0.0 0.09542787337404912 0.0
1.912026089373065 0.0 0.2376510483297683 0.0
1.9859426217695249 0.0 0.06514749144176422 0.0
2.364540684764719 0.0 0.22738240258489117 0.0
2.273764722599209 0.0 0.07635397025297251 0.0
1.8983077026229944 0.0 0.020061742078765016 0.09362897842769548
1.7066773982147567 0.0 0.03849291757162002 0.051886258158656176
1.9834308048306806 0.0 0.11316579221547758 0.0
2.092855270753639 0.0 0.35072279458877775 0.0001609136600992882
2.119666683107391 0.0 0.11713690058662561 0.0
2.150177744641293 0.0 0.1639397315882331 0.0
1.724490195653984 0.0 0.046683847931347014 0.03810328795355431
2.000636775362694 0.0 0.23623565162086008 -7.427423457108926e-18
2.022877547537138 0.0 0.26923652806186216 -2.598177677170718e-18
2.6896467065822716 0.0 0.09993278253361713 0.0
2.5464561473481675 0.0 0.08271727212511527 0.0
2.3018632842615165 0.0 0.24138918141313764 -9.379839329721873e-18
2.219249522601754 0.0 0.2189534801216685 0.0
1.741711814488018 0.0 0.09683181839355938 0.0
1.9882983623510815 0.0 0.23721993967664234 0.0
2.3286337495262512 0.0 0.1621421619692705 0.0
2.221367640985962 0.0 0.09502546654203767 0.0
2.170684636721732 0.0 0.025393778101216614 0.062124736997124425
2.0054467625719914 0.0 0.031245199107175416 0.07173883903107726
1.993172323979827 0.0 0.28675052443325827 0.0
2.112007047105897 0.0 0.33944607117033887 1.5558193458471057e-05
2.441690077013218 0.0 0.05700627880466584 0.00015026860349601887
2.360206990298836 0.0 0.0877945941960325 0.0
2.472066809275966 0.0 0.20540798492208417 0.0
2.0222542027328823 0.0 0.11064172310910218 0.0
2.316222461873314 0.0 0.20129532801653705 0.0
2.605393177717336 0.0 0.05764593603649203 0.00478339332266098
2.4870060740830287 0.0 0.12616102242852179 0.0
2.577695311137527 0.0 0.03566335463304313 0.05370153301943327
2.1156471221055164 0.0 0.05706024272983 0.005576481988721637
2.599852947222884 0.0 0.14839403128837753 0.0
1.8584789261246069 0.0 0.13914630219665378 0.0
2.562763252968305 0.0 0.03155369631576652 0.08448228524308976
2.5003588093648847 0.0 0.06411304240789185 -3.815565943832448e-18
2.2021616964858004 0.0 0.14914277828306974 0.0
1.965189376813546 0.0 0.2108110711472598 -3.1313065753916547e-18
2.3295150921287866 0.0 0.19529449829024928 0.0
1.8419354284851606 0.0 0.14420670431002947 0.0
2.2573095925215725 0.0 0.11969377160127852 -6.918897269388213e-18
1.973265189104954 0.0 0.03140647969289245 0.057842107798196624
2.217843002088774 0.0 0.0632690636630854 0.0
2.337217539939892 0.0 0.10110958027138166 0.0
2.6847914496815406 0.0 0.03293246914042746 0.07811173848510025
2.5254232786480024 0.0 0.1424954163873442 0.0
2.24125836210775 0.0 0.0737507324476787 0.0
1.981970505745515 0.0 0.270131600512176 0.0
2.030110847785177 0.0 0.036383337166654095 0.05465120974860344
2.135399820012742 0.0 0.3308109596420386 0.0
1.9620524286187402 0.0 0.12434503145794773 -4.6120167615586485e-18
2.309417939836371 0.0 0.2528664585704109 0.0
2.203804859106907 0.0 0.31822178613160906 -6.500431983279798e-18
1.6275255068927856 0.0 0.025838874145015588 0.06535657559189895
2.461397597726264 0.0 0.20082250988862962 0.0
2.2909370645113123 0.0 0.12274752060189408 -9.814920174103464e-18
2.0439104102734618 0.0 0.17546685203644768 0.0
2.628654458385882 0.0 0.039541368557494384 0.04150901816773226
2.0177164781262293 0.0 0.14514784830402735 0.0
1.9156238736134847 0.0 0.09465086083446844 0.0
2.4455298075130782 0.0 0.2144062316448716 0.0
2.1113973963069963 0.0 0.23942515229380906 0.0
2.2675380923754287 0.0 0.20411299075101247 0.0
2.438415954379214 0.0 0.0980218707140781 0.0
2.141090998386216 0.0 0.24703883685933792 0.0
2.3620618908544495 0.0 0.02942997715135423 0.06859535964763594
2.3191217811743288 0.0 0.02713613430789765 0.07661948422660177
2.302370770993772 0.0 0.09427111710443101 0.0
1.6937378617654908 0.0 0.030576581211758685 0.059184441760956406
1.9463091055641182 0.0 0.20618775935344955 -1.5636604284773838e-17
2.4180648029149654 0.0 0.19862189603118227 -7.94315753740113e-18
2.2490272013372694 0.0 0.044827256658232194 0.060140705534312604
2.724185637780356 0.0 0.04885982327333371 0.018396994561303944
1.9868465267779023 0.0 0.023224595134038406 0.08539074255197533
2.1153625482473055 0.0 0.17891884989834794 0.0
2.481053444677254 0.0 0.045165104373772906 0.03310520593926675
2.223637038773933 0.0 0.1449025502639514 0.0
2.4155095129104405 0.0 0.040242592941501586 0.04210861343209225
