x y z curv
1.2066620702477784 0.7001603245735168 0.4642481251223173 1.173270596381988e-17
1.40399264289166 0.7001603245735168 0.16863857371200094 7.464253096715272e-18
1.331096450550183 0.7001603245735168 0.23854866481204778 -2.3953850350108826e-27
1.1511206365720121 0.7001603245735168 0.4965587839861016 -3.731470642153173e-18
1.42268356573411 0.7001603245735168 0.3448344996230808 1.9085711496628996e-18
1.2087210788954446 0.7001603245735168 0.44703588264933813 1.0533637587261744e-17
1.0708988532585162 0.7001603245735168 0.584953402144402 6.5816664708784944e-18
1.0327167666913863 0.7001603245735168 0.5849763373976987 -4.784119911127862e-18
1.302199786760106 0.7001603245735168 0.38701753118964327 -7.707189885931008e-27
1.1567522021970735 0.7001603245735168 0.4625310710926823 -6.499835530750659e-18
1.4525432657079536 0.7001603245735168 0.1389275629385682 0.005965420847791654
1.4370845862983517 0.7001603245735168 0.1856834874088243 0.0005883110572260315
1.3442549655231486 0.7001603245735168 0.3141722299836692 -1.2129815806839163e-17
1.1234724743967899 0.7001603245735168 0.5048619920751116 0.0
1.0961386201909207 0.7001603245735168 0.5224462452262059 -3.687293139431216e-26
1.4443200551729058 0.7001603245735168 0.27168023826704996 0.0006261474258498717
0.9670546273869537 0.7001603245735167 0.6619970008357018 -1.6792656875869383e-17
1.266806913654234 0.700160324573517 0.3593860063043144 3.763735283697963e-18
1.0476861197401293 0.7001603245735168 0.5917105197632474 -1.3185758171699857e-18
1.0935484360546686 0.7001603245735168 0.5640552320288371 7.962188325371526e-18
1.3290740005413446 0.7001603245735168 0.3800968612805544 5.479283520716712e-18
1.3790781026722643 0.7001603245735168 0.30313182653057297 -7.601135205719555e-27
1.2939684907416757 0.7001603245735168 0.2457192872142353 -4.613360352536944e-18
1.1907867203325546 0.7001603245735168 0.4071615031425944 -1.3591135793998618e-17
1.414437312569894 0.7001603245735168 0.28147797286082893 -3.1847598648018684e-27
1.3743365252691002 0.7001603245735168 0.22832542093061786 0.0
1.1395701890996142 0.7001603245735168 0.4621628687752346 -7.483932258958062e-18
1.3417419192656606 0.7001603245735168 0.2628156448026334 -2.7089765552322226e-27
1.1744774681701824 0.7001603245735168 0.5220311643164782 -5.197024286223899e-18
1.357111825941996 0.7001603245735168 0.3536367103221596 -8.284030236088904e-18
1.181976409392261 0.7001603245735167 0.3972341320842105 9.273256155708422e-18
0.9580526610940594 0.7001603245735168 0.6545979450422839 1.2703548664843403e-17
1.2375111961952152 0.7001603245735168 0.4820468959002133 2.7106921396045386e-17
1.3988762476928716 0.7001603245735168 0.1924954158557351 -7.560670179656737e-18
1.1073432381066428 0.7001603245735167 0.47057955621999004 -1.5803611786418996e-17
1.4479960495822886 0.7001603245735168 0.29488816715153465 0.0025163313080949303
1.169316409176776 0.7001603245735168 0.44829215125845684 -9.856584761558112e-18
1.0618746110300794 0.7001603245735168 0.5656808655616136 1.4484184731661393e-17
1.3469660131885748 0.7001603245735168 0.2208975266881939 6.276072216219343e-19
1.4229401606963352 0.7001603245735168 0.07988814043873844 1.5868270075035622e-07
1.249035638712567 0.7001603245735168 0.42580923943935806 4.357043169937153e-18
1.0065339324199813 0.7001603245735168 0.617863288422199 -7.961586321423322e-18
1.4499508387105378 0.7001603245735167 0.04960420908264345 0.016142935676844144
1.2606046670687574 0.7001603245735168 0.4177655171533141 1.092456043723988e-17
1.0622555683644779 0.7001603245735168 0.6013545285657238 -1.5940318576194017e-18
1.1736089125452756 0.7001603245735168 0.4222650196119317 1.1819772889611324e-17
1.4154807662743536 0.7001603245735168 0.15058378615770032 7.111050261884263e-18
1.207743172662549 0.7001603245735168 0.35272037654098853 -2.560636447460076e-27
1.3229918246089867 0.7001603245735168 0.3256021308199639 -6.0560838474709905e-18
1.0891539225135745 0.7001603245735168 0.5094586510595321 3.27781578300914e-18
1.2901782383920481 0.7001603245735168 0.25836764909852883 6.527229488807619e-18
1.4156514836407914 0.7001603245735168 0.22966276078165584 -3.088605655407494e-27
1.118573408043849 0.7001603245735168 0.5148629791377206 -7.656980968094235e-27
1.104864435352583 0.7001603245735168 0.5379158057715758 2.993747515998762e-19
1.3875356259311313 0.7001603245735168 0.20858117489592598 1.6379575006333571e-18
1.2734530225093919 0.7001603245735168 0.4199291354339406 3.3501532660161017e-19
1.3365704780149072 0.7001603245735168 0.2795936479751835 2.6252189781007845e-18
1.3197249225348289 0.7001603245735168 0.26196068226327085 -1.14192615176981e-17
1.354045920468604 0.7001603245735168 0.4179544379139427 -7.438308567664344e-27
1.359287047533919 0.7001603245735168 0.2784622771881031 -2.0376719191455418e-18
1.2560196516511068 0.7001603245735168 0.3878405773931988 -8.427105612410144e-27
1.0705887147094506 0.700160324573517 0.5401426995440916 3.820337776152407e-18
1.305146623682942 0.7001603245735168 0.33730455132093123 1.0013125849906738e-17
1.4510949272789266 0.7001603245735168 0.2808083545437022 0.004861238443880915
1.3720171868313629 0.700160324573517 0.18416903704978266 -1.9147260385373022e-27
1.353876775694174 0.7001603245735168 0.183572076731329 8.079706628519437e-18
1.2096294713638303 0.7001603245735168 0.4238456332184301 -6.856115364263007e-18
1.2688152516522524 0.7001603245735168 0.26935239192901284 1.2880846172986814e-18
1.425398841712118 0.7001603245735168 0.17212574008169335 5.472638099670937e-07
1.3919115996265792 0.7001603245735168 0.3280055643530511 -1.1299923981208512e-17
1.2906631279013558 0.7001603245735168 0.4576990709221293 -4.321687339487917e-18
1.423765609906126 0.7001603245735168 0.2899421859901801 -7.35937561932886e-18
1.2525955890629896 0.7001603245735168 0.44512066910503206 4.352056860558647e-20
1.4283406801514922 0.7001603245735168 0.15355107200962265 1.488107870633828e-05
1.3025916550074899 0.7001603245735168 0.41136985839753704 -1.2043176403902455e-26
1.1872200946432494 0.7001603245735167 0.4189057397290172 4.297194621820131e-18
1.414363526994596 0.7001603245735168 0.38799285220349194 9.694182401767622e-18
1.2361175987071547 0.7001603245735168 0.31770137698727835 -1.5909334106871135e-17
1.4560666638630677 0.7001603245735168 0.11666394083691056 0.005345400294427317
1.3674639742388313 0.7001603245735168 0.2083226003099638 -1.9103439422311156e-18
1.2898847080818934 0.7001603245735168 0.3572363840037447 1.2081341962848982e-17
1.275799551554396 0.7001603245735168 0.37851563737049554 -7.289582114394676e-18
1.40623381078945 0.7001603245735168 0.1814413904978358 -1.4282762353385813e-17
1.3863005046565846 0.7001603245735167 0.14413905133762772 1.6884549584935054e-17
1.2951933944772207 0.7001603245735168 0.3999273304696639 0.0
1.3791568439153232 0.7001603245735168 0.16391404249090125 -1.2811282638618485e-17
0.9847149536854592 0.7001603245735167 0.6580279670891993 -7.219082266022799e-18
1.4462654275676206 0.7001603245735168 0.08818649253849607 0.001741368384565397
1.097204816915635 0.7001603245735168 0.48424074454223137 -8.303208324962177e-19
1.3268513015876071 0.7001603245735168 0.21112392849157732 -8.18347267956193e-18
1.415653324247111 0.7001603245735168 0.2979894824931221 -1.9002420181373535e-27
1.2602851370347483 0.7001603245735168 0.4344015368630434 1.0600099241778202e-17
1.3717902942573295 0.7001603245735168 0.39656815431220993 -1.3109749344123364e-17
1.1757308928630286 0.700160324573517 0.534220645121088 0.0
1.43000902940198 0.7001603245735168 0.35801020198712147 1.9324471416178493e-18
1.1103128863055272 0.7001603245735168 0.525116894730596 1.627101451591122e-17
1.2766079314679368 0.7001603245735168 0.3485809635633149 -1.7828427716897215e-18
1.4235008555129984 0.7001603245735168 0.26566175075252874 -1.0886127210063156e-17
1.125429208985784 0.700160324573517 0.49234292670973195 7.213796968443118e-18
1.3206773004357275 0.7001603245735168 0.2735127036945467 -8.046752794721557e-27
1.2781740543704454 0.7001603245735167 0.2549214337133998 -1.2926751461127952e-17
1.2190836016862114 0.7001603245735168 0.45957447294274484 2.775001125486325e-18
1.0782090405144338 0.7001603245735168 0.5535254996758479 6.514644961812057e-18
1.4488696085444113 0.7001603245735168 0.15648158761994607 0.0027967364961120306
1.4320171237769599 0.7001603245735168 0.3073118078491014 0.00012401516470595027
0.9936987177209127 0.700160324573517 0.6457695315369812 4.525997336452573e-18
1.27122603272807 0.7001603245735168 0.2861638314919762 -4.8935792293726004e-18
1.324567075041751 0.7001603245735168 0.3535592384606728 0.0
1.003648313282053 0.7001603245735167 0.605108501634899 1.0083453609055067e-17
1.359846403329236 0.7001603245735168 0.2245483044752829 -8.381217153698916e-27
1.3145156983904898 0.7001603245735168 0.41152492648060474 -1.0635635280660796e-18
1.0350497678291215 0.7001603245735168 0.6137303388565812 1.6839595141382223e-17
1.4504027954361214 0.7001603245735168 0.3232033363796398 0.0038958240116101555
1.3290560165390022 0.7001603245735168 0.3127276891722134 -1.1549151422699971e-26
1.4970578890015176 0.6749370579221148 0.23971688120227538 0.020756977533342675
1.4965508583625815 0.6757864458538986 0.0970670361307668 0.026972491176213895
1.4966243347403887 0.6760537487622891 0.2663681913971972 0.02986532099627003
1.4957426587493172 0.6779126980473686 0.16372848853141225 0.017231842298188062
1.496310898016859 0.6767705855163894 0.25119161123281186 0.022254051139307722
1.4960579699069059 0.6770793472003861 0.1362689699664946 0.025266782022179884
1.49678528927669 0.6750269053836727 0.02336902597906167 0.05394467905414951
1.4948966934840222 0.6795610179465856 0.10794726694200174 0.025595955248160187
1.4943874526259928 0.680178557976405 0.22072537417440963 0.025236778465404487
1.495833060635693 0.6777505000500221 0.2058070941710937 0.023566991150003207
1.4941268184347656 0.6804088948644486 0.3172100324283221 0.024686711457121868
1.4949616399529884 0.6792657192575033 0.1914798531995282 0.019667180404259712
1.4955543105074987 0.6780388851979949 0.2899891560492977 0.023107471159191657
1.4911505091537158 0.6850145666744114 0.15335455652288288 0.029889099358866557
1.491780056386819 0.6841433501729295 0.1289189172746301 0.027038825023171932
1.491501986393758 0.6844116565980948 0.08364297155441415 0.02305350475544583
1.4904501024726784 0.6859629211407772 0.17047155759631274 0.02566323394564382
1.4889708147579728 0.6876111636703912 0.03591561397336901 0.05202635085159728
1.494362165394701 0.6805999734821497 0.043107119619343943 0.04758039064679039
1.4930577408086259 0.6823429875806659 0.06382837073220318 0.033313900943245205
1.4976018814180978 0.6734382036460593 0.3013069994680958 0.02703433880410749
1.4986212183389993 0.6704654100707135 0.08148657768098688 0.02294738448790577
1.4990574951895506 0.6687217978597554 0.19845433931805756 0.01584797663025485
1.498752089606949 0.6698537306739112 0.15627237468717525 0.012694552645642596
1.4988801399235752 0.6695053459597712 0.1161296629127127 0.021856836010151412
1.4995962469089783 0.6642587504394057 0.13937831773207013 0.01352891598231235
1.4987721003089394 0.669812630873377 0.05421173960352578 0.020304405662704895
1.4991453359202573 0.6671131862645239 0.07056081135348652 0.01526704091072538
1.499848462197241 0.661423133911824 0.028429778807977188 0.06780867185637039
1.4993575448258785 0.6657512527101487 0.10070788966636085 0.01167615655944072
1.499472307688809 0.6643824721431043 0.04075350431551003 0.04759128043846308
1.49464053077863 0.6795081287366534 0.3631451881658302 0.021841559097508637
1.4930998460506881 0.6821766704669309 0.3393281823105332 0.016416170102584195
1.4928218522412366 0.682658169418551 0.4151416791176553 0.020490073439852905
1.4927107608181156 0.6828505852276374 0.44913420857960584 0.03051143240811234
1.4935337158037671 0.6814251867138972 0.4617369369616904 0.03359764808978958
1.4953683375714035 0.6782475315730205 0.40138107148137236 0.02063835568674189
1.4907265797796447 0.6855433687028688 0.32778735537287096 0.018531611012187817
1.4917013801543417 0.684568568328172 0.4383022784810044 0.02473844865809058
1.4900792451878757 0.6861907032946377 0.37318432222108266 0.030100669039526858
1.4995759979807546 0.6645072690805887 0.22579442261609534 0.010229909758106412
1.499652003850499 0.6637355507605506 0.25288273937821076 0.0072378684906171395
1.4998193751935547 0.6620361618565158 0.2989060561564746 0.008949629132908149
1.499596040668639 0.6643037675684642 0.1675478596244182 0.011037183488125
1.4994683338125023 0.6656004269028897 0.18645570265041725 0.01562979571988343
1.4996623425437585 0.6636305778285854 0.27053705476113404 0.007735655955070666
1.4744131183259754 0.697303045330082 0.17924346465373875 0.015418223659311016
1.4778595135416754 0.6957609687752756 0.0739680543366815 0.025786453984933948
1.4748024271968823 0.6972520644669395 0.2806018442804928 0.025309923149310843
1.4757600204562349 0.696648722049774 0.09062044942530045 0.020504671585885235
1.4754630791790917 0.6968803908329786 0.190504902297943 0.02695681323830405
1.4712064685164776 0.6985008749133739 0.0593842245142972 0.013012387770013512
1.4757593835226799 0.696840047593796 0.26623224691584657 0.019893465876980595
1.4766770725877234 0.696214634728628 0.04077286755957009 0.06522204992919532
1.4738446736219988 0.6976169789914685 0.2513744273997038 0.017551722214743076
1.4717187117292685 0.6983448866090606 0.11102970454442873 0.020947424272186512
1.4880152062113812 0.688671269802301 0.11923014793653473 0.038647675285890325
1.4914125923438588 0.6848968043852297 0.27219325108776804 0.022528673894397572
1.4878770198463476 0.6887231110214149 0.22896905092665065 0.03217805441084306
1.4885631331925657 0.6880122141892262 0.20127845425165392 0.02401865859753808
1.488540281905916 0.6880889943141839 0.14164065421002414 0.034581969278255145
1.4860242101777383 0.6902709724298883 0.46236495967622915 0.02582660938346776
1.4877978387906046 0.6885074142046509 0.48932245747900255 0.027791628679892082
1.487142380548606 0.6891508312748053 0.4755617172640828 0.027226022331146606
1.4892542412210423 0.6870392903410294 0.5023314802828491 0.033264089581552206
1.489247200592048 0.6872162067226292 0.5798011750652743 0.024692954499052705
1.4905014695196352 0.68583133190609 0.5359840695667258 0.026565804913151435
1.4911024793986538 0.6851720049475956 0.5169356354128392 0.022206089128333113
1.4602530454589593 0.7001423122996655 0.24227497565474784 0.005837149040198347
1.4648288147896187 0.6997520010819781 0.2256411958337245 0.011802641770446843
1.4612393894276123 0.70005817757004 0.1774271214511206 0.008724446279846
1.4607790159692278 0.7000974472342534 0.07729060535275908 0.011437657564124695
1.4605465440954097 0.7001172769882447 0.128769471310802 0.007985413189420318
1.464131144252067 0.6998115120881889 0.27707403239408945 0.009047857429263634
1.4819101860978734 0.6931356826401329 0.21121200731098094 0.027058645521473974
1.4814711392820068 0.6936687428311255 0.10256425884223119 0.026456610099333196
1.4824332745036226 0.6929091962953704 0.15929172119344398 0.03386788456012759
1.482634414663143 0.6928450927274892 0.1291246422245455 0.022300587501093115
1.480519468264538 0.6941963382092424 0.14574039054945886 0.02405347191816265
1.4994560734615838 0.665976605497001 0.34460392595935474 0.011413748276545658
1.4994621851007421 0.6661289010695706 0.3945221230859451 0.012932010914775251
1.499673918583496 0.6637943589580739 0.38068482752471333 0.014501471044726915
1.4994306786109823 0.6663437329843189 0.36621993720695056 0.012580273940341188
1.4992978137013544 0.6674186587148524 0.28556900340706914 0.018051755166694466
1.4997619256736912 0.6626224212646566 0.32876084374254666 0.011907315740689697
1.499995129758605 0.6602593007785105 0.5687377453924314 0.012565664284161
1.4997699745819164 0.6628988761659711 0.5896396964223788 0.009565962722617099
1.499505567021142 0.6659986214169816 0.5124674664150739 0.016116370272358096
1.4999809988504833 0.6604249625137999 0.636123272290221 0.012585285874331
1.4995063854089223 0.6659890271616998 0.48741492973917244 0.015978224167522148
1.4996510600078525 0.6642929546301044 0.5535140166683405 0.012478675803628317
1.4996275199234514 0.664568923534387 0.5258252840463724 0.012064459436973103
1.4922704002956488 0.6837361574813214 0.5555784754460572 0.017875831640949098
1.4924677402208792 0.6832992258409103 0.6123196084707883 0.026519208698453502
1.4907543473705296 0.685359671189904 0.6667673007871551 0.02761915636637032
1.4923591435626191 0.6834061117988439 0.6232540060358374 0.03258916634092835
1.493955129645212 0.6811330334332923 0.6842245083586627 0.02281744242538233
1.4934628320474213 0.6818666059968281 0.6551840974927329 0.024963293042628815
1.4908341144141146 0.685352540616182 0.6362038819580491 0.026042467000828955
1.4897045491894554 0.686626051486142 0.6988829648263273 0.02250396427084586
1.4654180915617494 0.6996993684604706 0.26269015411658947 0.01815484666529911
1.4841749990388995 0.6918067374208179 0.3551475661149579 0.025410506288435827
1.481385793683733 0.6934400295453025 0.34170013105038516 0.029988053456307374
1.4821002368851939 0.6931730251828188 0.39872031279829795 0.024358687980353427
1.4860309702508945 0.6904121181950112 0.25514128519297885 0.01965255390605579
1.4846195336817314 0.691431856610708 0.3167357463561348 0.03513421912678459
1.4845605719184853 0.6914355477429251 0.305536645023393 0.036229858982329576
1.478994731759534 0.6949581303440227 0.37192370512775863 0.02721816432067491
1.4779368864128741 0.6957694932688261 0.49880143864202675 0.029402638179176044
1.4782434729532858 0.6954787426602402 0.41361683613427713 0.02751739049991459
1.4827925252651162 0.6929424617828659 0.5181674065716273 0.020018890148736656
1.4778299084918087 0.6957560837655411 0.44010800670334516 0.022984145577554835
1.4770490011527806 0.6962708970098181 0.4833000120096933 0.026705108231220118
1.4782311394437873 0.6955410310065444 0.45598778133294326 0.02287133609479
1.4806992873607345 0.6942318277765971 0.5642023180765675 0.028694783214355087
1.480497684895878 0.694309528700946 0.5328574258883314 0.02619339330513705
1.473450070078888 0.6976166791569777 0.6193359095718797 0.01954485990371319
1.4727914253937224 0.6978766179836184 0.6311742936740588 0.02008329676971984
1.4796754107686654 0.6949620273727735 0.6892262774697097 0.020652609791201103
1.4758142452468261 0.6966010616639035 0.652743840182083 0.02460844506034963
1.472325737016386 0.6981190658101932 0.5856274225372944 0.015513088384383597
1.4748036506290234 0.6972667251793612 0.4256593889052752 0.022225911058459016
1.4751455630583654 0.6968497219012298 0.6787702425588819 0.024392265210465704
1.470338935433843 0.6986956818108138 0.523212648887831 0.017253861203120075
1.4702123394558742 0.698825414619453 0.6639411722608721 0.012093658916987559
1.472929052406118 0.697899553547188 0.4716753960454542 0.02374168060845434
1.4684416948125143 0.6992343854213039 0.4933136772219403 0.017016834122545732
1.4725085428098903 0.697976570386677 0.4005509279425056 0.025839950070475327
1.4692243972864472 0.6990350871824559 0.5405623332194074 0.02047056488198584
1.4670020460781565 0.6993555703576742 0.5979839279227578 0.011551347511988087
1.4669391117475965 0.6994007446702208 0.5641880845835461 0.008532630843510969
1.4641317895008379 0.6997160758187067 0.6139000498699705 0.01240501440223764
1.4634292248984893 0.6997208089160851 0.694303325761612 0.011135116386043808
1.4628869995707516 0.6998507332985343 0.6406728171470346 0.01522750571239355
1.4621785901028976 0.6999314094967083 0.6522054714266071 0.011482960811185113
1.4646914399187918 0.6995677367358926 0.6822995455423455 0.011363701232543889
1.4945355749094802 0.6798146866333346 0.4846400038275813 0.025002701905131146
1.4958642760915137 0.6776474830597234 0.4957382312786511 0.021754745571438316
1.4941878730477463 0.6806720346338583 0.5954728419124138 0.02154863719982564
1.497177815147523 0.6744763579630081 0.5456542247183065 0.020019794983636256
1.4967984287115983 0.6758056540959781 0.3882731394036228 0.02062244664651938
1.4971677244384458 0.6744237554558763 0.5749555822271033 0.01905812746842289
1.4965209069313214 0.6761241976137717 0.5220764323636409 0.01829108278504511
1.4961458340636455 0.6770600575598825 0.5105186416466966 0.02764476441270662
1.4985962527916996 0.6704376124778175 0.6242830795267909 0.02260189617623349
1.4988742264436021 0.6693474895013787 0.6013888488642992 0.009824359108567604
1.4982484730404182 0.6714956966569865 0.56367484695851 0.012723748230630173
1.497193479699944 0.6746924038366268 0.37602439362833157 0.023310422995443045
1.4989877455909943 0.6685038816744204 0.4757528485598283 0.019151641367443975
1.4979215221126072 0.6722841523237387 0.4464962612033406 0.018291257647747427
1.4851624526267624 0.6908981337205778 0.6773646676526398 0.03521064186727519
1.4810364531379379 0.6940878840595505 0.662473085042572 0.024483422787491327
1.482683768417333 0.6929988288575077 0.5527258815671954 0.018669231785225605
1.4833076893749544 0.692404563085803 0.6251744278889653 0.03840803595867411
1.4817221240685179 0.6935950016197231 0.6416162587396116 0.03196342832011876
1.483573962973288 0.6922288332775746 0.6072427993424183 0.029792098509186116
1.486226659491259 0.6902192821746798 0.5909701452129945 0.030367656149091902
1.4987874963242755 0.6692447012051477 0.40951416697413234 0.02251470160870057
1.49856911713356 0.6700719188137163 0.35452630916980266 0.021461214691733267
1.499086654591451 0.6683919762282126 0.3152196695444898 0.008437554646114134
1.4993207230715513 0.6674233110953612 0.4237578531951476 0.019458618269689625
1.498738123989311 0.6700119120575336 0.6803713882182174 0.017900293143614753
1.499434815105023 0.6649724302451478 0.6581120023460054 0.017313359179332043
1.4997525069396613 0.6630485899527335 0.6149618627071541 0.011119715580244676
1.4987776004801054 0.6698451665944796 0.6686320087721167 0.018877917789492826
1.4702009097208424 0.6987149924519785 0.16238821391333527 0.01289136837732406
1.4707054239271629 0.6985044387551795 0.23879914250738615 0.01796442756429122
1.4685212791956008 0.699138437815338 0.20281403596042666 0.01472668902194508
1.463919897318326 0.6997783820624621 0.4424238805202305 0.013921853216420586
1.4610587247902236 0.7000601764696196 0.6287466620735663 0.011735672649995286
1.4645018531080491 0.6997210657401691 0.4821747250697671 0.014280237651534496
1.4650306400047117 0.6996689859761583 0.510938382971225 0.016094631586505443
1.4614453545795785 0.7000220976361307 0.42920841980087754 0.01081195832035672
1.4638734678202356 0.6997829548635639 0.4153220554259599 0.011546171792546907
1.4730456877857894 0.6978101236806823 0.38652943225055636 0.01708454162839408
1.469986747976352 0.6986805174584677 0.3113582260935037 0.018587987048072595
1.472121552644607 0.6980716566894072 0.3609212828403282 0.025808148869056916
1.4690793225604997 0.6989414436884365 0.29461848240969296 0.019516456731014053
1.4727885065228263 0.6978676161871527 0.3482240399729172 0.020567172966614203
1.4715767728806197 0.6982199864079262 0.3339075994883735 0.01361266387314496
1.4710599459473015 0.6983678050607021 0.32275707642984985 0.012687312192237234
1.4657821405233689 0.6994475833332812 0.048793598451381474 0.03846451809167809
1.4673029020071051 0.6992116157866215 0.02484156745260869 0.07005702072119999
1.4658751009007238 0.6995779082047854 0.14429701269632006 0.015295479728460381
1.464648866089675 0.699671344857073 0.09874306395932832 0.01741820342808951
1.4669540799854852 0.6992753065301802 0.03674386497534384 0.04330273908019393
1.4841702866994488 0.691670697380128 0.0565518359826251 0.025475017089288357
1.4862729917924313 0.6902179167875097 0.17979962356924506 0.032238960443873116
1.481215211951029 0.6938953201414831 0.0236497722106098 0.05484976037951349
1.4901298500381979 0.6862041529086073 0.2966258895870204 0.02303594084150625
1.485546917769394 0.6907853216731425 0.3840902813360936 0.020069115939126025
1.488620115985445 0.6878221470839689 0.28436103807386937 0.029653480488979388
1.5 0.6040737163839882 0.25209918602531184 1.6544207973256397e-05
1.5 0.6117009863798357 0.20120049281215288 2.868843232296168e-05
1.5 0.5959655899192269 0.15941081504424356 0.0011732909071300612
1.5000000000000002 0.5896180481408395 0.3412358874127622 0.004682327307351997
1.5 0.6207410075597845 0.3569078437912103 0.0
1.5 0.5918564228015815 0.07915526618686249 0.0015921035249325014
1.5 0.6450654565544681 0.3192486958673419 0.0014894633204058899
1.5 0.6055168649008703 0.1917343639278861 0.00015644032377028523
1.5 0.6057677461549856 0.33432923088342664 8.630762882172273e-06
1.5 0.6013902161904601 0.11440406080192145 0.00012462607511624146
1.5 0.6070964158823949 0.2916762338898988 3.876804621510789e-06
1.5 0.6213715520863698 0.2996299610165257 -4.4808327970862626e-26
1.5 0.5893283360695896 0.18975928455108354 0.0038885174415525478
1.5 0.6159529359397792 0.17610194629012957 -8.610601199641456e-26
1.5 0.616815605781441 0.32356149429629033 6.6009844755650895e-09
1.5 0.6112512285146413 0.26099778167129545 1.444950077080267e-05
1.5000000000000002 0.5985787238592968 0.3117902481114515 0.0011359762001432769
1.5 0.6278760760162078 0.24265679147939484 5.823427984984559e-06
1.5 0.5991855956948215 0.22963478684191024 0.0011483299416551152
1.5 0.5847909057524125 0.13184306672806276 0.0037336059278757928
1.4999999999999998 0.6234106945339113 0.25403825153348786 -4.5737564551384814e-26
1.5 0.625382249238069 0.2788839489343666 5.516418054904232e-06
1.5 0.6143821471646862 0.2462811064853278 -3.944363541770195e-25
1.5 0.5989009972385053 0.20443955841360867 0.00023632659806634187
1.4999999999999998 0.6321382849629458 0.29824208995415113 2.0131384684555034e-05
1.5 0.5944154441801229 0.1784866750066183 0.0006613477288536188
1.5 0.6187813270676014 0.34573494933576293 -4.2207656179630214e-26
1.5 0.5887861651685379 0.3529650027472699 0.004547544063434949
1.5 0.6063409386560148 0.16478953856908038 1.7054588510045153e-05
1.5 0.625299775317635 0.21648713165719502 -8.314675282414911e-26
1.5 0.5928278130521443 0.3301707686772376 0.001307410157187883
1.5 0.6525758324510887 0.3497245456907536 0.0023697712400324446
1.5 0.5822554293305311 0.08608053430305318 0.0077051200660844
1.4999999999999998 0.5814627475588755 0.27742282554414094 0.007590247043821118
1.5 0.589816868399406 0.24226944904727662 0.003780993561596276
1.5 0.5876140484668284 0.2998055533454913 0.0011060670802526854
1.5000000000000002 0.6360558121960034 0.3325888163037738 4.111417658923368e-05
1.5 0.608884771607453 0.303589946230314 3.3797914113842113e-06
1.5 0.6116820984502562 0.2333071668285697 6.898207316212118e-06
1.5 0.6147911808970814 0.27189056676844203 -1.6929030404455368e-25
1.5 0.5873254877934528 0.09854628257409713 0.004359709709772454
1.5 0.629887687918192 0.2665645893149384 8.071541902051682e-06
1.5 0.6391302205570653 0.2736214792938929 0.00042447738742851666
1.5 0.6018361848403746 0.2679043060294575 0.000176701163367687
1.5 0.5818480478625135 0.3257884466850439 0.012718190633299094
1.5 0.5950555520042868 0.21919821760737776 0.0022252596762151714
1.5 0.5834125802163908 0.17639975603371663 0.009694005530883964
1.5 0.5861100883398516 0.20029865242475506 0.007718587118408649
1.5 0.5898953838161822 0.14762656079734507 0.0037983130091851463
1.5 0.6029644425111098 0.3480565983647203 0.0005017942773467128
1.5 0.6494291697510233 0.3309459333733393 0.0034689789917935264
1.5 0.58295965613991 0.11689524378044071 0.010871318129725022
1.5 0.6431356828611667 0.30363954619880795 0.0007806599411843305
1.5 0.623729981341644 0.33517547456239727 2.385788727792728e-06
1.4999999999999998 0.6399314954029702 0.348850614786505 8.600414696309813e-05
1.5 0.6004157747073826 0.281603641769539 0.00040941760221027023
1.5 0.5838108722882912 0.22683045093892704 0.0037892094316950395
1.4999999999999998 0.6237023071036533 0.31234728330810047 -1.4357499676310506e-25
1.5 0.5813555049443594 0.21628059284535522 0.010061843571987087
1.5 0.5855860067426953 0.16363741990976008 0.007731113038751851
1.5 0.5864939251592306 0.265289673920179 0.0040588786007756976
1.5 0.6579495582052454 0.31308099282264623 0.011010334250580912
1.5 0.5829516041755846 0.020697588430091035 0.05860971666282623
1.5 0.6585356021301596 0.15804386845614043 0.008604474956700778
1.5 0.6299288946729189 0.1593777968935021 1.4578548202704858e-05
1.5 0.6329628226440133 0.22447734284439014 8.426273962487979e-06
1.5 0.6518778218774878 0.22354200307241615 0.004642659052437455
1.5 0.6564315365432485 0.176717597184087 0.007720667748032281
1.5 0.627560384404021 0.05341206324180836 0.012386379261166744
1.5 0.6574668476076461 0.23648794261201447 0.0049927543692001326
1.5 0.598716405043323 0.030716212357264183 0.09192450290648108
1.5 0.63991646572344 0.15049805220541132 0.0005857407311565373
1.5000000000000002 0.5991584589704821 0.06583003728565827 0.0005258956378415865
1.5 0.6266568948998621 0.03753138853945037 0.07913083948935089
1.5 0.6098998672012095 0.0602132810073322 1.6412619270703966e-05
1.5 0.614206073321674 0.07030126065971867 9.065658484192566e-07
1.5 0.6486026093765892 0.06159300566015702 0.002449646463656648
1.5 0.6251096187091991 0.18210661634932748 -1.9027007113632992e-25
1.5 0.6394669199614925 0.21488079468295895 0.0007800210027732754
1.5 0.6513650061738588 0.261979914419604 0.0026238417519217835
1.5 0.6225073439475102 0.02408794061088728 0.07376678818669273
1.5 0.6518678783234291 0.29411124101436137 0.005266769281962527
1.5 0.6599468178815292 0.06018393257311472 0.008487624560181107
1.5 0.631845876034202 0.0880249292689707 9.252947947285097e-05
1.5 0.6218910134104908 0.08054520543528992 -4.1170740498983773e-26
1.5 0.6324482468606639 0.14228863468049666 8.061571963392592e-05
1.5 0.6410542764400105 0.1348970183439787 0.0006918965915804605
1.5 0.6307744008341615 0.1299815551251316 9.566873890946363e-06
1.5 0.6287020900557385 0.20245371291834321 -8.150436593621438e-26
1.5 0.5876613632428529 0.051335378295720116 0.01530000684181566
1.5 0.6437805140968558 0.23196575841085734 0.0015253957903863416
1.5 0.6432348598220982 0.09289458284123418 0.0010210698415102114
1.5 0.6311132101299545 0.17076307877157731 1.6672901437595327e-05
1.5 0.6027239688320127 0.07702193818892422 0.00022211704583163097
1.5 0.6546810543336672 0.09405087007138671 0.0035489031249191258
1.5 0.639812393527187 0.020389546866179907 0.07318155476309687
1.4999999999999998 0.6516220366161803 0.03476331353386488 0.053381879404247705
1.5 0.607381892221154 0.1055771229052525 8.528752108416196e-05
1.5 0.6323425997442844 0.07262666674152476 9.794330383288381e-05
1.5 0.6045942916138568 0.04683999480681095 0.03679092300735469
1.5000000000000002 0.6167504570204333 0.0912849828978803 -3.604615509238137e-26
1.5 0.6174196375757881 0.16271727495049068 -4.463217243143645e-26
1.5 0.616569732974606 0.1193732945864951 -3.095935982513835e-26
1.5 0.6514240685981838 0.07637308484218522 0.0036265637232298074
1.5 0.6539967120435197 0.13410557406542065 0.0075387559674936115
1.5 0.5850256467054523 0.040664355041978795 0.06116634597081054
1.5 0.6287974259005495 0.10129364535439196 2.1705758592205087e-05
1.5 0.6426282892380027 0.1786849571815824 0.0011888328236826008
1.5 0.6535621807182667 0.11880322262321938 0.005263202829757396
1.5 0.6596336064617143 0.20690041201037773 0.010417332941163935
1.5 0.6470909213370366 0.19559911924645082 0.001361572028149396
1.5 0.6520621660654105 0.24606992727836371 0.0015885188416486253
1.5 0.6145542285379049 0.14796446159292936 4.373702109041516e-06
1.5 0.6092980641645172 0.023612121137550603 0.09146102284508122
1.5 0.6322766784239799 0.19171148770817015 4.6556085725875955e-05
1.5 0.6475319019315341 0.047817410600581936 0.02803054366226524
1.5000000000000002 0.6404040526150715 0.2601571120257597 0.0006768738800397914
1.5 0.6399871599689959 0.11786564502070823 6.375788707267301e-05
1.4999999999999998 0.6176235846329236 0.04881268208102045 0.015604073497717648
1.5 0.6132893643971684 0.03813909727103491 0.06956293540105278
1.5 0.6070417654666529 0.1283444532513214 7.694233374019516e-05
1.5 0.6434598654691167 0.2856809638360802 0.0009067713177984437
1.5 0.5835595855544023 0.4554459653764637 0.008512206428526053
1.5 0.6191031462488102 0.45048576916610195 -2.2454204695315563e-25
1.5 0.6234497408917502 0.47230060690158565 -1.8163315346060042e-25
1.5 0.5926551469613716 0.47711898897529076 0.002403618826945312
1.5 0.595645958934383 0.3960843695731018 0.000945477171832958
1.5 0.6012789931590401 0.5036290456145833 0.00047275846594535705
1.5 0.6161818855035258 0.4610263014176565 -4.7175569351526594e-26
1.5 0.5907986142225485 0.42803744397150806 0.0016311989260376128
1.5 0.6405467341485012 0.3623692110008565 0.0012793946907560063
1.5 0.6207203665673573 0.5025468142194478 -7.932836172894195e-26
1.4999999999999998 0.5981935014016878 0.5945606563064351 0.0005626981656284014
1.5 0.5899396194025448 0.6240393225109926 0.0019718570351802086
1.5 0.6511169679809778 0.38474463319762553 0.0037965332411052464
1.5 0.5931330279800103 0.4635475066362674 0.0019496615621976189
1.5 0.613209828538039 0.41810090432852653 5.187410574264209e-06
1.5 0.5893318237384034 0.574108461113103 0.003557225331605114
1.5000000000000002 0.5835205935613876 0.44362796597635495 0.008663533855677828
1.5 0.5908648080452926 0.4086844423526392 0.0013211445209116047
1.4999999999999998 0.5846406641208445 0.48732333139137707 0.004898989375204479
1.5 0.6276318899139148 0.4192620782446195 -2.8854945322663335e-25
1.5 0.6063369815216413 0.5583063870214618 2.799087199993544e-05
1.5 0.6201190293107117 0.3977956253645396 -1.587274512523468e-25
1.5 0.6034970978453428 0.44001214616527007 2.431901664426629e-05
1.5 0.5818819930828674 0.5652855614930151 0.007190924287089937
1.4999999999999998 0.5915204228402186 0.36918997785714225 0.0009771633621311277
1.5 0.6082795908601888 0.39656103631642403 1.7440550444372787e-05
1.5 0.6515996095043941 0.3650293163741669 0.0034585962691188244
1.5 0.5833526203625332 0.6838806918769603 0.01033551302554749
1.5 0.5946107391171996 0.5269537479919428 0.0008334127628896348
1.5 0.6060344304797292 0.5433804408164756 2.991017298712518e-05
1.5 0.6194838182348179 0.5245773800353615 -3.869032142520461e-25
1.5 0.5821493089250985 0.5004786682133782 0.0033695116635068696
1.5 0.5811085808197799 0.5175586422543107 0.005728782473514503
1.5 0.6452405466761633 0.39649514488524307 0.001089279382651495
1.5 0.6034695479028913 0.4547013777691926 2.6502337144404077e-05
1.5 0.5819334720265003 0.5293968568760972 0.007125830540952734
1.5 0.6133882692589172 0.5347468533800384 1.6098740485524945e-05
1.4999999999999998 0.5947616369654961 0.604940644714894 0.0005034629905708814
1.5 0.6032161365048796 0.5721248803232305 0.0004200867349074392
1.5 0.6055405466162477 0.38390526563280414 1.8683179334196965e-05
1.5 0.6422088866200061 0.417289939081244 0.000861520180323001
1.5 0.5824966645836631 0.4715002850091456 0.005809156613487374
1.5 0.5901820917434336 0.5078614870767183 0.0031895806708142848
1.5 0.6409774986893603 0.3781735478620496 0.000555496392258794
1.5 0.6074094645033519 0.4695307683036348 -3.9304527202095313e-26
1.5 0.6371514054338085 0.4437930134511723 0.00020845707813123
1.5 0.6100824239381529 0.5120912292521723 -8.718437673454627e-25
1.5 0.5942353795308656 0.558105145266589 0.002108626995377523
1.5 0.5871279083442168 0.5459297924913985 0.004863495970604533
1.5000000000000002 0.6133040250744691 0.36565724294606994 4.0102266023156477e-07
1.5 0.6076965927397779 0.524826503216649 8.474491871950546e-05
1.5 0.6022137962512676 0.4058233646892596 0.0005876738386663446
1.5000000000000002 0.6340925660137533 0.3930918559385691 6.46619636037132e-05
1.5 0.5849598002372591 0.6493996521870775 0.002501877596716124
1.5 0.5799784066233893 0.3992643602054065 0.008947991623900834
1.5 0.5879712189693 0.5882160908326818 0.006395793105245457
1.5 0.5908590619014094 0.38143185803586965 0.0030815196731640796
1.5 0.6228751400862513 0.3867762492219544 -6.952529462716424e-26
1.5 0.6127360380557155 0.4825848791779832 -3.336057758480794e-25
1.5 0.624067005023548 0.43356560198628635 -3.012213131618829e-26
1.5 0.6244889324445315 0.49025823565777205 -4.021035108305661e-25
1.5 0.6019051383750694 0.49063527240473703 0.00040315345682646425
1.5 0.6216087547634196 0.6107551165316975 -1.081048825530457e-25
1.4999999999999998 0.6370669823482414 0.6651509919064024 0.00010835183598234957
1.5 0.6555120599626603 0.579276288393298 0.006257892730179204
1.5 0.6407357491447843 0.6401532145889148 8.71280221611203e-05
1.4999999999999998 0.6238139468158216 0.6902902895662539 0.0009500095531751552
1.5 0.6334859711102152 0.601714448106268 4.242497300660365e-05
1.5 0.6550608917374008 0.4382373397398514 0.0038844206969301347
1.5 0.6229192408193699 0.5813365154248554 8.826523891735224e-10
1.5 0.6521763560474141 0.46063533934369216 0.002915156293109226
1.5 0.6377090937688613 0.45641005847358473 0.00017730230507610062
1.5 0.5823218662421829 0.6964582465039618 0.01127987307103007
1.5 0.6557054139886394 0.5163668951702921 0.00528975022298312
1.5 0.6259629691090076 0.5937279963814598 2.363818804857289e-06
1.5 0.6503267790051703 0.6136358834510617 0.0034391433120821322
1.5 0.6296393972047869 0.5339519099421203 8.807280484789172e-06
1.5 0.6226062721403967 0.6574289486345634 -4.6357884790598815e-26
1.5 0.6353656671477542 0.6766018848453544 0.00012212545168782516
1.5 0.6213143049195659 0.5592306893431276 0.0
1.5 0.6561167235058214 0.5426297018524466 0.00373429366709548
1.5 0.601692343069043 0.615068501241461 0.00010468885039047628
1.5000000000000002 0.6431219521928535 0.46765985375543273 0.0014830875211598426
1.5 0.6551840682128176 0.4192274929914497 0.0032235757221510805
1.5 0.6582996945442277 0.47161390817470444 0.007850192318720462
1.4999999999999998 0.5973032859425575 0.6441133387924234 0.00024342868792396602
1.5 0.6411115706249889 0.5565301550094868 0.00048548809863729474
1.5 0.6488322945372238 0.5679351258063683 0.0019472893465810564
1.5 0.6335117310778442 0.5020122574654983 1.7869927477319776e-05
1.5 0.6492858455081442 0.6682804738691448 0.0037982438991870883
1.5 0.6241291097694938 0.6384338355473804 1.5272942978623994e-08
1.5000000000000002 0.6289264153147907 0.5153957926109742 1.1918264915123472e-05
1.5 0.6049836281641054 0.6526319176273676 0.00018886077016888538
1.5 0.6352125924225855 0.6136659441746286 8.978552344681134e-05
1.5 0.6375053301503524 0.588368240134739 0.00031676556425324286
1.5 0.6148904844976881 0.6296518175955194 6.482094024604751e-07
1.5 0.6498071419276654 0.5039002504819604 0.004569238616153132
1.5000000000000002 0.5901989219955256 0.6606438699808032 0.0021557267937325755
1.5 0.6376150381831855 0.5446417136547612 0.00034032169548591727
1.4999999999999998 0.6425247768295623 0.5203244407255927 0.0007769055116207792
1.5 0.6441506718269728 0.4326337370186155 0.00023986552046609152
1.5 0.6510753988340527 0.6499825936526252 0.004570638851697402
1.5 0.606864853047666 0.6876625702562105 0.0006394385724315713
1.5 0.6593760331532825 0.6956435484328413 0.011275211972813762
1.5 0.6391745563339168 0.5745331646743221 0.00036497785798937995
1.5 0.6524083399551439 0.4924483431380502 0.006204673391752138
1.5 0.6364819263655446 0.48917863857268984 4.670371557590637e-05
1.5000000000000002 0.6094713015903959 0.664327791795929 7.158738437636876e-06
1.5 0.6451370966644451 0.5987500051831591 0.0013489286625837594
1.5 0.6185452462331954 0.6802048815104048 0.0006762725283767342
1.5 0.6401230775015836 0.691328857356647 0.0009662025484104481
1.5 0.6474924416991273 0.48251848814987286 0.0015956480745030243
1.5 0.6179598861435232 0.5707075360343868 -1.3425133587518261e-25
1.5 0.63923444700054 0.6510376346114364 7.165812055141763e-05
1.5 0.6029122728713726 0.6268061010141255 9.934495605613257e-05
1.5 0.6448863011300012 0.5355574678952788 0.0005740542751956912
1.5 0.6568030411095853 0.6255783816685724 0.008692908060238728
1.5 0.6152900424909982 0.6473098050055245 3.9384987891965636e-07
1.5 0.6331071796087888 0.5647003066701312 0.0001087046270587169
1.5 0.6123600108764364 0.5937109137405485 1.565391953131202e-05
1.5 0.6589038502644516 0.403629897834563 0.010805942576028254
1.5 0.6279609794134001 0.6250896385969253 2.307093950928139e-06
1.5000000000000002 0.656419752786312 0.6821852222669026 0.007717974755572124
1.5 0.6079201075869052 0.6058777491361714 1.917119303565011e-05
1.5000000000000002 0.6012065224741865 0.6739860107428072 0.0005151684071990886
1.5 0.5957706323723982 0.6902022626493312 0.002091306652132378
1.5 0.6163362396792822 0.5478160189577722 -8.847287104750966e-25
1.4775319122965833 0.5442657319305995 0.07206425881354511 0.09897177833392327
1.4775749542294707 0.5441943661498525 0.15404682482062101 0.07877805455398776
1.473063930902828 0.5424522354927294 0.037865876938099195 0.16112631832679103
1.4740690583397549 0.5427118988330231 0.18187303706669283 0.16384083826981302
1.473682217132682 0.5425986843031694 0.13865415032570474 0.11871985662657067
1.4755963201452407 0.5433287369408376 0.1963735100773964 0.10888534369647171
1.4751507533821129 0.5432449918899495 0.10370971276347107 0.10839002976949486
1.4802306521503272 0.5458087347199142 0.2757115626258004 0.08389306868710004
1.478903185999521 0.5449725865982319 0.23229574444366158 0.09596211770028229
1.4828053811533264 0.5472474504139532 0.21900059484833434 0.0702483109485312
1.4777728661467306 0.5443249311627736 0.24483583576171092 0.0801300537982323
1.4854405846350478 0.549218943657317 0.2038126266968811 0.035006562453215574
1.4836805244982592 0.548019124529357 0.10927926967646338 0.055968723919149095
1.482353843656651 0.5469773440328358 0.12419347260373982 0.06439410408754913
1.4840862558049102 0.5482197714658759 0.1786977244325316 0.04290689780431859
1.4814760955794068 0.5464144825923836 0.05478898195286078 0.05375157676095143
1.4846739857241533 0.5485428183511935 0.25893694185006405 0.03205856749933576
1.4821990930125555 0.5470171787169549 0.02473482754692946 0.11954815291100662
1.4865042094354752 0.5502363121130711 0.07761158737671117 0.02928054600305073
1.4735851351299674 0.5425099994446989 0.33396731180240397 0.12714364557090785
1.470958711976845 0.5415580951339216 0.061654857298476334 0.14230178959115117
1.4695877895593161 0.5412833923088731 0.25756552997574056 0.15344866254525505
1.468944178847368 0.5410802220651014 0.23662924165185856 0.14638639490957725
1.4696546679658569 0.5412417487698735 0.16425181501637484 0.13607042822761384
1.471048002621804 0.5417283339403647 0.2807080791050908 0.13281234544236872
1.4687433739169529 0.5410082474524389 0.21703258416550203 0.14118964638936563
1.4739425919952023 0.542601735033666 0.31348343377851323 0.15305305254699106
1.4606786934682172 0.5400543115270704 0.5688164500067632 0.010483281573044527
1.462319212029283 0.5401942470769063 0.54387550549685 0.008828594813952486
1.463482659672005 0.5402934886761503 0.45868265669560315 0.01772773666317338
1.46174532730593 0.5401452949490787 0.3952300077995134 0.17537582489046513
1.4626354261478052 0.5402212200094847 0.5801754975826275 0.00911056215779124
1.4635296156724142 0.5402974940034239 0.4418015922925609 0.01264214477244033
1.4632443320959383 0.5403656183173252 0.07129381521755487 0.1613947778771424
1.4668763365674038 0.5407871924368672 0.12314123399221646 0.17212242485319698
1.4613200852622958 0.5401646296086006 0.023335751210514795 0.1897306379305379
1.4694966434509396 0.5411789655641284 0.08025864131694599 0.19414632769160528
1.4839973722708526 0.5480438923881554 0.3161052911491588 0.029087042264079693
1.4780762471821582 0.5446253196310419 0.3725980623294536 0.0719346446085072
1.4808920161437436 0.5462510091610234 0.34694115817116705 0.06264359167317134
1.4864529891853946 0.5503433569317479 0.43916439903633253 0.027271037442976313
1.4860127732799928 0.5499031410263461 0.41430162261259246 0.02645984317553879
1.4852451824774495 0.5491355502238026 0.33683958228638433 0.04078868915785665
1.4860967659899251 0.5499871337362785 0.401111348265925 0.02898759224686159
1.487169864738278 0.5510602324846312 0.45079990344326715 0.02373540297738506
1.4870179474709622 0.5509083152173153 0.4270271857739301 0.02622026339091979
1.4648641712757164 0.5404749441095009 0.2026892212588963 0.1579045578217777
1.4605172118606902 0.5400468075278728 0.05077046875479435 0.17537816013619847
1.4616526171406021 0.5401586347820274 0.24740507747073295 0.17215665003879213
1.465220031599825 0.5405099931652096 0.2685339504128374 0.16070556250444604
1.496190223229629 0.563631006269068 0.04842000830878944 0.029780298904531356
1.4966370902314732 0.5647686295351456 0.026036337961418535 0.07896448675494887
1.497970613949991 0.5678972708837857 0.060590117769567194 0.02486848571831387
1.496366129954136 0.5637220287734775 0.17544617326878692 0.020939762251762396
1.4969662919055091 0.5648845904085916 0.2844648342701667 0.022820208180628267
1.4961803211580755 0.5633782415548767 0.13554980177265263 0.019295037929766373
1.4953146073396306 0.5613718327416324 0.10372088617837402 0.014297102202002185
1.4957029341539316 0.562177010921597 0.15409807564108507 0.021523409990476278
1.4872594377749697 0.5508481204480069 0.15750243491009971 0.03389276293931677
1.4845111135165345 0.5483900003682334 0.28798943283402195 0.03739020818906322
1.488423502337223 0.5523057527970517 0.475603791675411 0.032683950468711
1.4855031300396209 0.5493162842637549 0.5448379084041611 0.02852563674245239
1.4888133342799261 0.5525624417065862 0.5331554333761822 0.031194760671102596
1.486895746760693 0.5505683435456444 0.5932262398554944 0.027088775151032057
1.485768409765531 0.5495339602435365 0.5638276371084003 0.029540221450307904
1.4997148276928969 0.5766149331822066 0.2919428735453531 0.014063284165354135
1.499696236905693 0.5763969866750125 0.1569543832912992 0.01696027412685449
1.4995940198526285 0.5751986592751391 0.23700887681751787 0.018182224067257335
1.4999883085447072 0.5798210478982837 0.3134778077328487 0.010684395386780763
1.4940387830324804 0.5593936543406224 0.11918349472299106 0.020307007421050773
1.4907359596717478 0.5547786476766687 0.2401825748055727 0.027929364520678474
1.4934491252865234 0.5589461679409019 0.250496000602362 0.02560466297683992
1.4936620926207218 0.5586478746058198 0.06903101158824229 0.026572150827477815
1.4949127972739675 0.5614127707841663 0.31969653191655356 0.023316172444249068
1.4942994876792306 0.5601105036062535 0.2123866392750886 0.025373598240884424
1.4935344571940665 0.5589036658352049 0.20023298861136862 0.022698552640561084
1.493798956947308 0.5595204304544402 0.2625825464319752 0.021799761940259527
1.4966377976224436 0.5641296321493768 0.34583831708063234 0.02191180325060471
1.494226455961129 0.5600611467437018 0.23041826162128815 0.028870312556943546
1.466762338828117 0.5405798713412339 0.47284753232005095 0.014702444224848144
1.4671369366335079 0.5406395522835089 0.4118382903973388 0.0761284251351777
1.4626324177857926 0.540239804263404 0.36350232163410495 0.15629015527141063
1.4642113301636412 0.5404093033772496 0.30817776146244885 0.16622364624661823
1.4855189263884703 0.5494140282086531 0.635160046886358 0.020152380502649822
1.4825100150878388 0.5471435666810094 0.6509424324291035 0.022575884534282994
1.484817070922726 0.5489665448275081 0.6726253317262392 0.025063182819569624
1.4832709186556001 0.5478146181633248 0.6868103783629751 0.028514697553400047
1.4998922512953643 0.5786993071901805 0.33684686126003693 0.011803123983274806
1.4992676726234893 0.5724707131904786 0.44672083633863835 0.01864466814151461
1.4995756478685234 0.5753462709715839 0.3477147428519205 0.011657354940760254
1.4994966266327794 0.5740925890621548 0.2549622823898774 0.013907862591745061
1.4993573727837664 0.5730574700300817 0.3604465762278485 0.012070005115442345
1.499417360846271 0.5738241481201047 0.38847601445665725 0.014098866477776409
1.495532757028824 0.5622499767541914 0.36807782601825867 0.02588724450934301
1.4956992371266962 0.5623145005831758 0.4544763917283422 0.02334459097993752
1.495366567980719 0.5618198677654735 0.422048597733614 0.02329624296294385
1.496583651241706 0.5639823963850815 0.3811138427670029 0.01975228685373322
1.4951727458871535 0.5614509930921088 0.4396411049845921 0.025892484562622765
1.4964213939901208 0.5636464141224155 0.40813192452476194 0.02282769386243753
