x y z curv
0.6355027537266479 1.0213191557439782 0.09314051434513596 0.00032803070138243904
0.6161526993773612 1.0541350091455748 0.36596944154061195 6.055207608040646e-13
0.640354661774718 1.0130907807560097 0.38408114777260244 0.0005029367702835832
0.6033398591158026 1.0758643686652747 0.3448656672542695 0.0004931565414858762
0.6005870799673335 1.0805328205131357 0.3923105675199225 0.0004346623436154781
0.613437609336356 1.0587395438486542 0.43500773473643406 3.42834983292343e-13
0.6254940144662937 1.0382930264305323 0.4755346935196114 4.842736075843706e-05
0.6239785360417047 1.0408631338274876 0.21482666181926613 6.48963136379349e-06
0.6234893757092865 1.0416927032679015 0.1528428985680602 3.5352108610452416e-08
0.630950644014019 1.0290391012439306 0.43750069062536345 0.00023587822222432243
0.6323071417260797 1.0267386100279858 0.46262103580944547 0.00026185985865869577
0.6320928532101762 1.0271020229877947 0.6042239153507558 0.00017663157964369322
0.614721763700418 1.0565617400763545 0.28196848021432336 -3.610390984492467e-13
0.6384324258162204 1.0163507102775855 0.48349556173675073 0.0004871348409251818
0.636015475173536 1.0204496288923621 0.1326858256445444 0.0003014320016365845
0.6285543223578529 1.0331030350578796 0.19699022407492905 7.235100949551512e-05
0.6122735676361184 1.0607136479570363 0.3144686078284137 -1.4609681305203475e-13
0.6261259489776027 1.0372213255501008 0.259355175075122 2.697482270644117e-05
0.6223486136169536 1.0436273273734655 0.5647738872345823 -3.214614112285665e-14
0.6348949259789578 1.0223499738441015 0.5668157965063754 0.0004131923338238825
0.6303069812050335 1.030130692202718 0.10382031752192922 0.00021636896448646873
0.6340678214460156 1.0237526645348298 0.2926760640540027 0.0003815205344029965
0.6250721290425183 1.0390085040188106 0.5384523494784239 2.9935469499649266e-05
0.6344528121239691 1.0230997569294735 0.3546762346816002 0.000391172525968187
0.6370522384177428 1.018691376950537 0.4708976770387465 0.0005110946107756228
0.6384592284333355 1.0163052555859267 0.3693856374158707 0.0004126577618229497
0.6389554728965553 1.015463672132856 0.28173364710957177 0.00046539161058793574
0.6395907371624577 1.0143863243050504 0.5028640590771905 0.0005247846002603465
0.6368378605153272 1.019054941501376 0.6301491197075397 0.0003980732227301502
0.6017998155571574 1.0784761361952424 0.38039615028598933 0.0004424858089106064
0.5985380365525349 1.0840078034304843 0.3567146850594354 0.0011921363694695373
0.6018829102483854 1.0783352154951469 0.3658152236383248 0.0010393968281433546
0.6179059262789381 1.0511617029241376 0.34664177927980655 -6.506330340240211e-14
0.6306450899583215 1.0295572918865532 0.1208541982322858 0.0002161096001410168
0.6130747816604383 1.0593548651086382 0.46935200903539653 2.9577613355900184e-08
0.6358350636869854 1.0207555896296157 0.5891607470390672 0.0004301208417662001
0.6379960981252716 1.0170906805785869 0.20394175674139953 0.00045019149589334696
0.6286994172367353 1.0328569679312052 0.4066141370603728 0.00018418827807104767
0.6389939574522648 1.015398405983439 0.08335566300078032 0.0005988034527545185
0.6115084442035004 1.0620112245914837 0.29549668128484463 5.67768933724006e-07
0.6324747660595326 1.0264543350872628 0.3037023420028363 0.00026541828411890306
0.6220285867091568 1.0441700625979382 0.525853329819747 -3.1924992635542186e-14
0.6402280344041629 1.0133055287434705 0.0334363300976401 0.07962162302488004
0.6198569151557973 1.0478530111853197 0.2905018971086144 -5.127679237531789e-15
0.6088980232578343 1.0664382504552425 0.337221354586704 1.472861407646537e-06
0.6298326809492054 1.030935060365341 0.5034153095362045 0.00020279739202867596
0.6357185682356292 1.0209531548449198 0.3279680311865582 0.00035919564034447745
0.6222861720366557 1.0437332223600233 0.20391486264113765 -2.415241757456799e-13
0.6200548304614873 1.0475173656341383 0.4710560634017652 -7.290881132181738e-13
0.6210383510460091 1.0458494081836571 0.548893450437929 7.553440720842164e-14
0.6210226433915522 1.0458760468729666 0.43024679736151983 5.863505448656883e-13
0.6349546616011189 1.0222486679054046 0.11046390251770703 0.0004632612881283898
0.6284346195263447 1.0333060396851341 0.4224153178191429 0.00019336709654834683
0.6158183462121493 1.0547020403412446 0.32376498130634346 -8.4519567876989e-14
0.6151820000408172 1.055781222977849 0.24365929941120362 8.447944963926491e-14
0.6211751337678391 1.0456174376854648 0.3369924178478739 1.7277671788870995e-13
0.6066691331619627 1.0702182362534267 0.35657358077286083 3.6155289306005925e-05
0.6122862353124425 1.0606921647817598 0.34674361667309556 1.9558323446504968e-13
0.6263291654794366 1.0368766896740154 0.3649385675734893 4.765121782153665e-05
0.6379949551759435 1.0170926189120364 0.6133072003489272 0.00040632556076155977
0.6301389859447666 1.0304155962000698 0.22001185977072923 0.00013843253281438706
0.635965304132913 1.0205347142096626 0.4144864998183674 0.0004476245660210055
0.6074107793415573 1.0689604748091377 0.43051213218966233 1.928704222913882e-05
0.6328832304651247 1.0257616182704663 0.6204855089356255 0.0002860888142972437
0.6298826889297938 1.0308502515823645 0.1486534404748945 0.00019077951000717237
0.6316885551231483 1.0277876741242187 0.48153052363682947 0.00025840198340945853
0.6386695300572978 1.0159486040159889 0.39960080989989394 0.0004552329188212673
0.6221938407510459 1.043889807446466 0.579819909265777 -1.1941080603830313e-13
0.6076839029724961 1.0684972830851451 0.2731333558082234 5.258740759703212e-06
0.6360871201890903 1.0203281257541823 0.6724949641147745 0.00035714969561806756
0.6208651043035645 1.0461432181957502 0.3567125145360429 -1.061026731748955e-13
0.6179602216702458 1.0510696231 0.3759752500009311 3.2210784562176533e-13
0.6304565254092085 1.0298770794431527 0.5189095100948211 0.00022450600209331152
0.6325502683273188 1.0263262904158408 0.49392568135504505 0.00036918990299645253
0.6333067378614238 1.0250433899709186 0.17123349099056967 0.0002510196250655973
0.624080883201289 1.0406895627705615 0.4399870343042479 1.1331822163584293e-06
0.6085898993160962 1.0669607993803816 0.3828299329973742 4.854434794678259e-08
0.6352200779562437 1.0217985469887942 0.15815436102409103 0.00021201823792511135
0.6306098633397778 1.0296170328841285 0.5442678653956857 0.00013706553086985281
0.6381002950422375 1.0169139725089178 0.5148225798335627 0.0003903237697235968
0.6172355038685695 1.05229867562399 0.2316157905154038 -2.470640120352292e-13
0.6391679018406169 1.0151034128301821 0.3056165958818594 0.0004889177048187309
0.6264044714668878 1.0367489778753893 0.5916235141306123 6.732679226243546e-05
0.6148063328562856 1.0564183188243437 0.4814595989151368 -5.90293340522051e-14
0.6068381112253605 1.069931665515358 0.30782312536154743 2.7211006871690057e-05
0.6378349518653341 1.0173639693222187 0.3173295640376951 0.00044051035358553354
0.6174605932113133 1.0519169454882287 0.5012832441682581 -2.1734197273948739e-13
0.638085619132929 1.0169388614564998 0.1213402728605147 0.0004651903096355111
0.6213491911338802 1.0453222529327828 0.24195746391055656 -2.948743253616117e-13
0.6035714248964228 1.0754716551063106 0.42288315046619757 7.925804103616758e-05
0.6154094246205893 1.055395532501998 0.40365621920053196 -1.843696428506483e-13
0.6374274752255199 1.0180550109821205 0.5386920642168586 0.0003683717245548398
0.6228445785846899 1.042786217918175 0.39875152035658146 2.642093771016539e-13
0.6350095859289516 1.0221555214646865 0.2565240227633112 0.00032967603728884643
0.6400526440465868 1.0136029741231256 0.06361741510365895 0.0005718647964095538
0.6363519084292394 1.019879070060883 0.4293637681961695 0.00045196036216648496
0.625136045486965 1.038900107802808 0.27566053007001196 2.5575188411051228e-05
0.6296550966454475 1.031236226469237 0.376520641635052 0.00022028772376636528
0.6228994841297348 1.04269310333128 0.4541400676951137 1.010532619967436e-06
0.6267396387941664 1.0361805659382217 0.3902462304856484 1.7247267417510278e-14
0.6288742025246623 1.0325605486921767 0.5747177121833386 9.166959286798137e-05
0.6266884352905244 1.0362674022146905 0.1329187724980454 0.00010714631051173551
0.6323919298494167 1.026594817427955 0.6502710390842824 0.00017383811368839715
0.6065642481642353 1.0703961112426807 0.40310513919121665 2.6544158124444177e-05
0.6370584027167339 1.0186809228852218 0.2229406920812554 0.0006553443211675452
0.6268617824061642 1.0359734219791963 0.28825649154652094 0.00011907378750585271
0.6277655184612434 1.034440771508977 0.1838531187316008 7.425366041919463e-05
0.6171478253047917 1.052447370136339 0.5130439022193397 1.584353465681448e-13
0.618180530265571 1.0506960006575612 0.4146627558804862 3.261628421985045e-14
0.6190003372160271 1.049305685973263 0.30994543771401045 -1.9412351905511057e-13
0.6351374943867842 1.0219386008749405 0.39049306809595485 0.0003934978976028247
0.6226531843700526 1.04311080431861 0.19171594552709498 -4.492003845076757e-13
0.6368143329372419 1.019094842038057 0.18343985057461992 0.0004406319491426427
0.604824594467088 1.0733463985992244 0.45173118858293904 1.4351722752130782e-05
0.6405608638839205 1.0127410815735398 0.5765500887046185 0.0004871467958841153
0.6065983827087438 1.070338222298893 0.3223491817394575 1.4997836683652934e-06
0.6296208163815377 1.0312943625392825 0.2313124858219857 0.00017704289721666766
0.6176898620977738 1.0515281272434929 0.39204423552913414 9.649309375196171e-14
0.6119333788680837 1.0612905757805544 0.42057532902671485 2.67789700077519e-13
0.623497978695555 1.0416781134207045 0.23082123681099245 5.007921946629337e-06
0.6377033091344232 1.0175872228842489 0.343182887970708 0.00044480286985727464
0.6089261527103836 1.0663905455767724 0.46119092288814767 1.0437061118625568e-06
0.6206629615863775 1.0464860330351125 0.4896910962848228 -4.557784289169145e-13
0.6201728453970681 1.0473172235179815 0.26794906000554297 -2.623095036369904e-13
0.6180756748855405 1.0508738254180159 0.5338787492678698 -3.6799607812856545e-13
0.6387732098379852 1.015772772960306 0.24148304090604905 0.0005291750855879047
0.5835287312312625 1.1051555728230187 0.06450776444299729 0.021238430728627838
0.5853808993760655 1.1034923223708801 0.09433821619368028 0.012646447334464446
0.5827575592735322 1.1059836030524586 0.15783246884631366 0.016625022177508417
0.585666590242884 1.1033329307226936 0.17475395770838092 0.012245259279410566
0.5859885512112901 1.1029134293791618 0.07820252971253966 0.014161604536016089
0.584729193158721 1.1041588332357701 0.14726376451287904 0.014607478952697157
0.582789656588961 1.10604221977877 0.22657998003154356 0.020704458040026946
0.5819907876744798 1.1065492703977016 0.049586730814307506 0.025979187694672886
0.5834491341997362 1.1054762660261872 0.257691030760311 0.015389075784840304
0.5797998154259189 1.108357711745852 0.19988737330673795 0.017929806960092044
0.5794407385062111 1.1088362361796573 0.028736563862647946 0.05535476852844346
0.5779734207982565 1.1095327752625397 0.2878241628136025 0.018637405618499223
0.5804428474515116 1.1078029262735556 0.2763344823053197 0.018455877071205273
0.5772525472481234 1.11019209982545 0.17366286035123982 0.017101928522362423
0.5806578682652672 1.107697044819144 0.24126901814304688 0.01919709178178869
0.5801568917357325 1.108206342145162 0.12302997214594584 0.021066314702367053
0.5777667046189727 1.1096580749565508 0.3036373951571654 0.021338915116111783
0.5818924345278325 1.1067043759383217 0.3328635146766283 0.017619226506512382
0.5796559956266767 1.1085442317234833 0.13525167109212413 0.026332134272246146
0.5752538860329955 1.1112228193073248 0.07109019391215868 0.02094294125808472
0.572616378008105 1.1126573599671925 0.05778120555358143 0.02516213694637037
0.5761544385346753 1.110892899105119 0.18834557977957672 0.01648207020267315
0.5765220823663789 1.1105397040122462 0.08218207433097081 0.02165821346071812
0.5744269735138965 1.1118823634716524 0.21480187528270614 0.019961229964889166
0.5724099470203612 1.1129055257574336 0.15253077613521607 0.01587348178996386
0.5885120937320245 1.1001628763005744 0.21187760289407967 0.011858461170840391
0.5852216715604807 1.1037468142084603 0.3170429025659554 0.013446450559413502
0.5891979798855024 1.0993633236620877 0.24792355287633544 0.011390275627650668
0.5933054763564126 1.0928511418194664 0.6688907389772816 0.004445797674668134
0.5927861840157926 1.093692502203491 0.4061132639784649 0.005870762352966168
0.5932696353567136 1.0929092116096628 0.5624951683311746 0.007231843943550902
0.5930292989168426 1.0932986060673273 0.46719253407221634 0.0041296151894285845
0.5923393895011135 1.0944164012003483 0.5479255863037117 0.007373939323905502
0.5905934468016337 1.097245187425783 0.521992084263732 0.0075085305103031125
0.590462126734983 1.0972385969170286 0.11257691610935883 0.008006984018440811
0.58773607995108 1.1011784765548607 0.035765848759042165 0.02552288175044526
0.5898948532567434 1.0979870493257233 0.058897158794869106 0.011418335926193336
0.5926202711979469 1.0939216342647122 0.06894525203585414 0.004039708142455742
0.5915644877055087 1.0956191439789806 0.1297860402059416 0.009010525514992788
0.5808472105564215 1.107430084783324 0.3850958829112151 0.017165986360075478
0.5777966526380316 1.1096233130853879 0.362627328746695 0.017051665406175146
0.5785056222557425 1.1091135924793658 0.4347845507906156 0.01418011347792053
0.5755591937727008 1.111231955910546 0.4064623897665913 0.014904973139487958
0.5764036113481479 1.1106248536771919 0.488572321790739 0.014360814179689553
0.5809185640722097 1.1073787844787684 0.34964611398156237 0.019062324140738995
0.5713959759605176 1.1131527317299748 0.3829887629383788 0.01833511622357861
0.5675964883801403 1.1146878367181445 0.4712474351553965 0.020411083409944127
0.5702996371419607 1.1135956849318176 0.45455046484082906 0.0244654766626504
0.572449779510245 1.1127269640306425 0.5021461892303855 0.02536866980208262
0.5729498328481439 1.1125249277409797 0.3263600782552375 0.019695551064036084
0.5742948696450807 1.1119814932244638 0.42316958792755865 0.013506129977261912
0.5672349808741897 1.1148338964074858 0.43246485481728925 0.023469192415338434
0.5692285819026055 1.1140284228223247 0.3450535790094419 0.02190272333192805
0.5663413312129655 1.1151949572146607 0.37146088570016966 0.021443912048094215
0.5655165716629005 1.1155281843861047 0.2961873160557561 0.020273372401586793
0.5669468105835631 1.1149503256999167 0.3569174366551676 0.017983789782737042
0.5723915266740411 1.1127504998937134 0.2704634892487408 0.014542010895688216
0.5551175604103273 1.117352573495031 0.25619425324810535 0.02028503638792296
0.5503119193406063 1.1173297722510462 0.10511173109983371 0.018914537285937935
0.5526832110804338 1.1173997836804304 0.24190509083731568 0.016351740081339106
0.5525369789819818 1.117377811965282 0.2147686625541424 0.02368589883552468
0.5537163918676976 1.1174070525346662 0.2768938487395646 0.014518917221283763
0.5551414970765739 1.1171683427019703 0.06167574079944147 0.02690553298349375
0.5557623206747017 1.1173105531628515 0.22871307629680482 0.01800671006164298
0.5499397616881442 1.117287427626014 0.05042752978062871 0.035957727331355716
0.5519432186493605 1.1172220009867222 0.03403947593397651 0.059476310515162244
0.5521249252958026 1.1173736013029905 0.19942498588448815 0.01710600471261108
0.5552394326739849 1.117188300715819 0.08540347006501767 0.02204602400362386
0.5538213000946519 1.1172759465490207 0.14078769606610075 0.02116704162460853
0.5557889214087383 1.1172411685823833 0.15591844523251955 0.019461586910321613
0.5579992882609922 1.1170253759223159 0.1777472973962522 0.01936456599191123
0.5602849752916899 1.1167171128119577 0.1248474527161188 0.03213482461938972
0.5636528641588058 1.1160784469787604 0.19644641141867575 0.022001186938129563
0.5592294078351578 1.1166895089543394 0.28707883116119864 0.025098708931669284
0.5696132226909704 1.1141869576357784 0.04587608725257114 0.046058568029855626
0.5684431239467971 1.1145418486014438 0.11363773368854153 0.032020076368157686
0.5713552047814631 1.113217709511969 0.22982848489109534 0.02466280718171988
0.5692397485481903 1.1142476836892674 0.10145173319999551 0.021923192432855735
0.567320551686928 1.1149424115244777 0.13982997084201038 0.024095707599571418
0.5697953093435494 1.1137998151099282 0.24975465203377578 0.01792560433140114
0.5717736769147168 1.11320951149247 0.1288961362192043 0.01895096706538853
0.5678713709328536 1.1147383973617455 0.581281438806903 0.01951530275863745
0.5663538358228013 1.1152846519191808 0.527543540334742 0.018867717956673427
0.5708498378460262 1.113599090670502 0.6436923011909087 0.023091628617649355
0.5685449688106663 1.1143996325267742 0.5434049215499691 0.01975559537629832
0.5374389442272489 1.1149734791644506 0.34614061097444676 0.013056698799717907
0.5412255804931003 1.1159398646667915 0.29816660029542297 0.023123504044503668
0.5387658362956826 1.1153121146097584 0.20514396254664094 0.011371023811506297
0.537438133625241 1.114973272291127 0.32362875984968204 0.013641816312761516
0.5419438852946836 1.116123182867373 0.24968839863618025 0.01362519880659932
0.5388810779194931 1.1153415253655579 0.33484896170482986 0.013636531251440515
0.5629758506249068 1.116016319471317 0.029893376598606927 0.06588877680322326
0.5899396321731468 1.0982497484382276 0.32894774909198005 0.008179716040812295
0.5893664875101754 1.0991518255806672 0.2704801708615794 0.009685879751975573
0.5915658916133505 1.0956671494903163 0.4288332294669688 0.005796260378619017
0.5914618575570438 1.095806038106361 0.34694303469170873 0.007504374240982198
0.575058653762296 1.1115662591568274 0.5624436730776157 0.01813953678286818
0.5750218564334963 1.1113862906142369 0.664726208587468 0.028637444478911037
0.5743450055800379 1.1117187472030714 0.6854271070250213 0.01611242378109032
0.5761896720589311 1.1106475935518816 0.7133337849824006 0.025289822092518132
0.5751656600359083 1.1114332534389242 0.6002616511376996 0.026516128609905605
0.5743779244464775 1.1118339034376565 0.6173413641419361 0.02293059860484967
0.5439181047356053 1.1166008512297814 0.3986577621935107 0.018940684715184477
0.538222040372698 1.1151728529785712 0.35836464969943255 0.012618236672335028
0.5402504840453906 1.1156802712680909 0.37856367063499213 0.014741099980409128
0.5641272878446066 1.1159729388841915 0.33256590090467725 0.018444502917024524
0.5578774635383276 1.116883076313282 0.3805906959261335 0.018891496949771977
0.5634345144115307 1.1160738247652056 0.40510967326709735 0.020872304357459615
0.5629331544607501 1.1161468358506843 0.3902403303394465 0.02037368372594384
0.5617478963852447 1.1163194403407921 0.3139333686910707 0.020546382061132965
0.5606085682054035 1.1165247099027436 0.4597433796814283 0.016014717361452935
0.5614397617218148 1.116450230507819 0.509056172412933 0.02163283869522477
0.5564566809284711 1.1171171416816081 0.41649847427919606 0.014870723605608396
0.5607944057958179 1.1165227515012661 0.484307419816372 0.012719934663835293
0.5572728560945942 1.117090202561661 0.7047356124767096 0.022562411506096294
0.5565143709161908 1.1171857807185739 0.6235258400425588 0.017396790725583134
0.5537172834457404 1.1172348330837312 0.6454445120046085 0.0188808894516508
0.5508647503213082 1.117389351538581 0.5571102420718316 0.02823793303008921
0.5535035040456574 1.1172725964895727 0.611089229177269 0.026100189762516882
0.5571301496817017 1.117129790785802 0.6665701214915187 0.01676994541703557
0.5549720170558041 1.1173146611056526 0.527743965459036 0.02081524019406534
0.5539670976992246 1.1173935952262206 0.4706737588696025 0.022746683579344923
0.5561693931947491 1.1172390221418222 0.5762404043159399 0.02230651506262309
0.5548262547451386 1.1173027846395065 0.5441743594544219 0.028536473691229115
0.5542100822333333 1.1172778409713615 0.5868712776915448 0.01581637777837187
0.5515645962855844 1.1173840786557538 0.4395323781607515 0.017203723254539362
0.5489128969649444 1.117307132476337 0.633550793822981 0.025994425607278108
0.5498320894376185 1.1172904927192104 0.49473229509432093 0.02235298856705489
0.5478857921646882 1.117269509634887 0.6957831902688878 0.0164663949227155
0.5499414398237823 1.117362105051165 0.5998103981953222 0.03213676455813508
0.5466276533378166 1.1169831886163684 0.7097216702735989 0.023444492543763552
0.5378430170260603 1.1150597998619955 0.7192727674741108 0.029229976363031294
0.5456726081356499 1.116983779333543 0.5158890607552736 0.01792096563043485
0.5453251129067126 1.1167378841957396 0.6740721578263673 0.014248605765415367
0.5445203760800104 1.116623973475858 0.6170651239352133 0.01973178584245884
0.5447672357424717 1.116634021857665 0.6576870611012333 0.019744222825350675
0.5790071793039315 1.1088722855427227 0.533936275361383 0.018745348808548386
0.5782637436670004 1.109294385786347 0.4711043789992363 0.021437970613619465
0.5796984744141596 1.1085697709922533 0.6531218278834833 0.018475174070173815
0.5807843074075524 1.1075133863421684 0.44786123454447796 0.013857423142953696
0.5760910564540545 1.1108765432796384 0.5228516481553932 0.016261981876251753
0.5855385266631006 1.1034568724077198 0.5602667919582542 0.014006533691614052
0.5813369311336849 1.107212829616338 0.6412667921764343 0.015601964079771102
0.584000365414358 1.1047366408628854 0.6642440639715578 0.015191636622043493
0.5831233830021835 1.1056091052196722 0.6120946664253025 0.01599996977956238
0.5862585842448311 1.102745053097451 0.5995509506299295 0.01731748360004014
0.5840933801419661 1.1046961835348312 0.6291379300541484 0.017832613254846422
0.5837515657655681 1.105166941660834 0.5068217000856992 0.018068633398350065
0.5849349050278994 1.1040302892176614 0.5455152763395767 0.01638899520559948
0.5812481606836459 1.1072193094763976 0.6998435196997815 0.01615566454467072
0.5834365076806726 1.1054708893674616 0.49548991475872134 0.01322159842867896
0.5847269468183518 1.104183437815779 0.5750816945628019 0.012588563147071383
0.5846582729423901 1.104114400282471 0.6781797420856084 0.010103875998001237
0.5842224288678985 1.1047668295090292 0.4815064882726817 0.01682474093893196
0.5605415760297581 1.116711444050592 0.6780381675568184 0.020895973587009196
0.5671096357001532 1.114961413255037 0.656719184013987 0.024633174317350133
0.5625709673778027 1.116259215624642 0.6026993998258894 0.021505836711775257
0.5675242354485788 1.1147931610508068 0.7002661934043403 0.022646324293091807
0.5650330569013827 1.1156404301254286 0.5657854985409028 0.025694784670351682
0.5871349928686409 1.101680424741606 0.5334020310415175 0.013196991156905098
0.5915941673064394 1.0955818798614418 0.311318618825209 0.009058836242134527
0.5926673311902225 1.0938644078870126 0.08370930905364977 0.0037644575373188493
0.591932962738895 1.0950396778090807 0.19143583202739153 0.005842271685911048
0.5915241092590079 1.0956939994872184 0.29353245474198536 0.011690108088114225
0.5918013396226751 1.095250325051977 0.1559858102509372 0.004161776335401703
0.5932758326891983 1.0928905731478067 0.17597724582241286 0.0025466806455036375
0.5934553828277904 1.0926032243693984 0.36311213660581526 0.006987494639759948
0.5933869592637782 1.092712728197618 0.22343031801874091 0.0031801427484853964
0.5934776289932104 1.0925676220105929 0.14168889256643918 0.004526107045316259
0.5862173976272473 1.1026029775797535 0.41619683635164323 0.008805006406383828
0.5877051154998071 1.1009696877063377 0.37704424981730256 0.008818717161914716
0.5870263119503061 1.1017245795378823 0.36192321408165096 0.013561504594327641
0.5874812451034639 1.1012127290501035 0.3922658622187386 0.010476676643352851
0.588951936996946 1.0996185506744713 0.2838932998162311 0.010795259654502228
0.5880685551000192 1.1005493103345085 0.44040915316162793 0.008068828734286477
0.5895700479454868 1.0988849692166092 0.455239086447553 0.007561544523091611
0.5872797037100302 1.101461680261937 0.30309911075663415 0.012571747803140977
0.5902939515715376 1.0976069553205967 0.5879901107873364 0.007266002361647535
0.5919821236293499 1.0948387919643103 0.6957258174396576 0.0046091635590912484
0.5898080974770536 1.0982195429862962 0.6402507786417707 0.0042053366492018586
0.5883925894522729 1.1001972139098066 0.7052414711250479 0.013364168961789208
0.5910226846420266 1.096306323948017 0.682306385973922 0.00842781193971765
0.546716038312752 1.1170653901203065 0.18870223289858218 0.01750865156404456
0.5517882653492691 1.117367891627665 0.33723794363762394 0.021806219344640505
0.5469067089037736 1.1170241370549367 0.2669460915524162 0.026584521580754056
0.5475226043005871 1.1171468103599231 0.1663191075810059 0.021895755164946344
0.5405201215871169 1.115741357875731 0.4512173844529572 0.010757793358124724
0.5375042836187023 1.1149893958125812 0.6038496590406324 0.018553027676116336
0.5374449470086613 1.114974600959484 0.5892840577874552 0.012541459487784876
0.5402051493306737 1.1156628234218675 0.5683754471532116 0.012887935000849178
0.5432482879324403 1.1164215925617884 0.4617820448491049 0.015491825469858894
0.5382908872871486 1.115185525751789 0.5513989810906962 0.012420797919361173
0.5463387816204982 1.1170086499238856 0.41206040123415255 0.01604595217847188
0.5496160252300617 1.117219182657776 0.3553925779367928 0.01892233007188739
0.5481584976106129 1.1171270523321088 0.38822293491319265 0.02255966731856248
0.5460778358277589 1.1169666676623382 0.2885348055458875 0.024527928131772035
0.5455650628139564 1.1169596130784534 0.42882776865016314 0.020441232810480596
0.5498518978151234 1.117227492869864 0.31657464771792937 0.0227242657694308
0.5504874847919559 1.11728026870883 0.3662310738151582 0.027145399449721865
0.5421262006268041 1.11613794383772 0.13630444051818602 0.019202468887202444
0.5465342794561284 1.1170430695732738 0.09262124013877002 0.017127099016047472
0.5447186570742815 1.1168156801680127 0.22640116980899494 0.022881143051208294
0.5459006204049881 1.1168808801812478 0.07335898227260415 0.017611949332478973
0.5421069480074617 1.115999718954003 0.029583251067195088 0.0586524229857658
0.5395879375130039 1.1155189562840677 0.08358829351244858 0.022004377009805728
0.5442751214291914 1.1165915101900694 0.12481962185880707 0.021327741400447273
0.5450794472491971 1.1167967014102071 0.1487272471973532 0.01700972827543814
0.4676177711165699 1.0746408167562052 0.33270886393638577 0.007906465290583942
0.4656059358943977 1.0733009065039252 0.2682587510088528 0.005212290508333871
0.466200006799815 1.0736965659933193 0.319356882362519 0.007033668155813
0.4618953456773011 1.0708296017871655 0.35342368992416384 0.015039243583624844
0.46588202745271945 1.0734847873235303 0.38672548095315495 0.010847183451919583
0.4674756893519524 1.0745461883239287 0.23881218672628332 0.007034105247380401
0.4657592383562033 1.073403008076663 0.39909825071719696 0.009863585625073105
0.46783931660238365 1.0747883691325213 0.41897003970783153 0.005468458911833072
0.46800682821929285 1.0748999342002756 0.25702016520112264 0.003978955970684252
0.46470038133491215 1.0726977945666842 0.18946552402712658 0.00990299857315945
0.46345639250976345 1.071869280699262 0.30300190018015577 0.009081532086363192
0.46761968252634245 1.0746420897817104 0.36478648637701744 0.01050303864194866
0.4656036712315889 1.073299398206982 0.43071549799745834 0.00924783050439748
0.46758463315460164 1.0746187464124257 0.13449500946039183 0.010453240552597654
0.4656901753482965 1.073357692070595 0.44339895987041045 0.010022776944612151
0.46518000371862933 1.073061225630466 0.5250531592692507 0.009830959978904964
0.4612082902785315 1.070424089067663 0.49649126065888716 0.011778760569151172
0.4606016420512197 1.0700563084705166 0.5628083838690181 0.010854386666031238
0.4672023427824296 1.0743686443706137 0.46820705416959113 0.004025600121705957
0.46137464738003886 1.0705147761459854 0.4577867808249137 0.01174453585625008
0.4601212864010738 1.0696997309594725 0.4834073065254741 0.013724246493800604
0.46000378270933495 1.0696807766319583 0.6017678669945526 0.01744553124534765
0.45100079529524206 1.0588979708620347 0.1514580793463074 0.026429224909938667
0.450805951773659 1.0587757815725043 0.2882872334878012 0.023603144214450342
0.45116786654982904 1.0591480926505148 0.13465577805370343 0.018638276622503242
0.45168602913330436 1.059945652352533 0.09763533428401537 0.02709706788759778
0.4517992215508998 1.0602907915188893 0.20775186768551224 0.028971274221932693
0.4516488821743629 1.0600691702643814 0.22525837759506626 0.020821004211698295
0.45065802990521653 1.0584929530721434 0.2607164216582257 0.024349952681225737
0.4667758777596996 1.0740954646167704 0.04397022918712941 0.04258824222839087
0.4656220330235432 1.0733634239527188 0.02230138873886973 0.04701296902500335
0.4610239004035655 1.0703208935239477 0.16862353252169515 0.00955917372024817
0.4655733870228262 1.0733034413006528 0.07545739086939393 0.006284901162124317
0.46109348515745074 1.0704041995367917 0.09722030300390436 0.01057494515893781
0.46034638970441 1.0699160820813378 0.1094324790996987 0.01232151162706031
0.4626643022502752 1.071354659758411 0.21236006738636515 0.012122286954732008
0.4482354643395614 1.0532838497776895 0.04172066223882968 0.04930504960851626
0.4467256954722743 1.04912058812373 0.23476796988209045 0.024203853850434946
0.44849633204835376 1.0541066486471977 0.06168272927467244 0.0258532051293059
0.4469452045250486 1.0496337214824485 0.15919109939534082 0.023273254371998568
0.44746349962418563 1.051026329890846 0.0740461275452028 0.029208937559547482
0.4487742519771188 1.0548699629606997 0.024567333843128324 0.06764396807262557
0.44799190237147857 1.052838870565261 0.18968902162090429 0.022924351436898405
0.44783036834409085 1.0523182367298847 0.17158529566094977 0.02802880435836966
0.4469844389418941 1.0499371621010911 0.25481238785183447 0.02547383629533563
0.44769714531778904 1.05175175157855 0.08598907165677797 0.023036438064824666
0.44742652134166383 1.0511638486978083 0.20221430332573684 0.022651735842333185
0.44566924221076115 1.0322098019318366 0.20048288106387646 0.1560133751937787
0.44540746206488735 1.0345273176433336 0.08134160786499396 0.10682647086999472
0.4462671137674766 1.028045232632913 0.050131195668099544 0.14971918116387173
0.44595239482155025 1.029782580069868 0.2995850249868183 0.1843711216207054
0.44586474098717377 1.0307578050109216 0.1850977894158019 0.1471528424524561
0.44607699586445404 1.0292142704125111 0.15607150542368892 0.17603249815862276
0.44508846303904415 1.0371228996928417 0.02170589464942643 0.10956812584644311
0.44547668807509705 1.0338668082886042 0.13069109685826 0.13583947203626845
0.44558644983675194 1.0331973479876393 0.06748137696431596 0.07074770012511962
0.45598443543659095 1.0655471864631585 0.6677383577705314 0.018970356817862705
0.4586830313717863 1.0684427450588152 0.41243669108193043 0.01441460979911789
0.4546087197236337 1.0641106041044266 0.7182984408178896 0.030365024802231314
0.4581273150114628 1.067844722982444 0.4685239001376781 0.012817255245385737
0.45865411900028596 1.0683061183216283 0.6277271141219124 0.015045255517926662
0.45946275761709665 1.0691591433580856 0.5806797164298179 0.01297156161012217
0.45730445981514456 1.0668840096897887 0.7029632755909794 0.014312917740860765
0.45875072435147335 1.0684654270463474 0.506573072058899 0.015078626261958106
0.45654264245610876 1.0661455019525297 0.6162039257095939 0.020058703722341996
0.4598829874388035 1.0695373197996485 0.6873007198896874 0.021293718250957473
0.4594093661016968 1.0690745341836323 0.6407208278803236 0.015131665545474621
0.44579798460278597 1.0446823779255292 0.29090337987719755 0.05277008820896072
0.4463856454797719 1.0472382522031594 0.38191300844971404 0.03132307803515001
0.44610177755639974 1.0459452364994686 0.35535968770936127 0.03941828575015356
0.44593246923599394 1.0458268508817485 0.14494996614980768 0.02415680035136116
0.44603798556057095 1.046652992595557 0.05183814666175607 0.03349983910574112
0.4456361327462156 1.0437173276962073 0.3436649170390505 0.05903047630558588
0.44663205402791945 1.0483240613986087 0.41586492921080026 0.02598123265268856
0.4458031298704878 1.0446707430357751 0.3018378397987419 0.04000884942373221
0.446469691572951 1.0481880182137198 0.2207977132757088 0.025994722038981087
0.4455230858985414 1.0430738874981589 0.3713939995293415 0.060958300254502634
0.4568478135913192 1.0663861484232502 0.2729686693905512 0.018100154609193085
0.454261789902596 1.063737349965853 0.06769353465027311 0.01664859228296843
0.45798897183543663 1.067655118547978 0.313959220582281 0.016838747812240002
0.4560590896287975 1.0652659076822248 0.3651038210276525 0.015871494903055755
0.45479523046490217 1.0642690031902438 0.11733749910043811 0.02531142430480515
0.4527950081688339 1.0616566960126013 0.23772549499583523 0.01910532797459888
0.4544626924174312 1.0637260780222615 0.19116431457916327 0.021301745781317105
0.4520621074175312 1.0606218880873945 0.32029502701066126 0.020787120640132432
0.45461811917112827 1.0639404428983914 0.17617401387375264 0.022195858601717425
0.4570984960265733 1.0666414393030428 0.2935990793821615 0.02457955644661782
0.45322647214041667 1.0619463190677036 0.34742848820255984 0.016688490194019443
0.44541642904280476 1.0419572911684933 0.18727586240206853 0.048047778166426844
0.4455185465500494 1.0423040255357894 0.0960575123185665 0.07733459544537265
0.44558924952524726 1.0431299931115858 0.10719069576152257 0.045086497569210626
0.44568913042843405 1.0435996224309378 0.03451579049018936 0.07706349976570587
0.4456422507559569 1.0438207137785733 0.1246086072928647 0.04576387968858552
0.4457581679974447 1.044574324845403 0.4960599231276597 0.025904370934922715
0.4457163242519504 1.0446800442434292 0.5708983213767148 0.019202905511153275
0.4458459696471464 1.0447285433996625 0.4338508658858181 0.02757708494052842
0.4459532311083759 1.045957344822647 0.6202042392501615 0.026389944480727828
0.44584030407744396 1.0447530252452562 0.4465477422422239 0.031087829421278197
0.44561646201116817 1.0435195264271433 0.3932438229311397 0.03319338552187054
0.4464949115214324 1.0275455603868344 0.16815960594078144 0.15177733113362815
0.4486262306116945 1.0217163917728587 0.25485869699018293 0.2070100556921643
0.4488094120001731 1.0212452509803245 0.28671868424413627 0.1710523560725161
0.446709891552019 1.0270094400632361 0.21928756185241205 0.13694050151227669
0.44717518721436345 1.025591438120431 0.11935292067450384 0.15089436802798334
0.4471511041755481 1.0256239126686342 0.09107824853914093 0.14328170603414592
0.4453683851642174 1.037822296627831 0.26795873536227494 0.10720721908303747
0.4453016299602789 1.0377734397807614 0.21457771467851766 0.10542494507450294
0.4453501523470206 1.0394105934289155 0.3256129325784247 0.10073536671263825
0.44561051725248113 1.0334150753925655 0.2548221941529818 0.13226211342542227
0.44540053602922636 1.034540704726265 0.14460701152987102 0.12482589381038231
0.44562319238778825 1.0355643656332996 0.36147267821260853 0.12060734047589719
0.44525411359264927 1.0392522581713952 0.2448443268108127 0.10831227872063141
0.4457142648147824 1.0337572346992878 0.34979120068585257 0.12339052488211256
0.44572460316845003 1.0321719766081634 0.2862217949820518 0.11961302429928779
0.4456959830582942 1.0332822416287732 0.31435335257509 0.14685092227692156
0.4453346090368997 1.0374810258069633 0.22667308175622936 0.11848371347649614
0.4496362146535735 1.0562688156847662 0.364797524209594 0.020458669932781837
0.4483137982060118 1.053399322862736 0.40207128791031865 0.020301098959283864
0.4503453452811636 1.0578270474962541 0.3325104651358252 0.02107639393575096
0.4488706547572382 1.0547327226591836 0.3074767678314262 0.026752954355480585
0.4484431671287459 1.053882126603799 0.27095502782315883 0.028425376595737156
0.4485756689949955 1.0543979642691936 0.1232018601072574 0.025365484263209268
0.449914090546045 1.0568227925902258 0.3878614327514765 0.019339142663024673
0.4488523310955388 1.0210412682062584 0.20654492075990732 0.1526422065109001
0.4475636267400872 1.0245082267315098 0.10477418328153848 0.17637902225309868
0.4478406358449577 1.0237629983370837 0.030391332078032574 0.1837710634592301
0.44886775563836656 1.0209997720709898 0.19576132323793566 0.17019490636492962
0.44531620686665646 1.0408700291791002 0.5578454800952113 0.030093022098575003
0.4456985451531731 1.0444962205377766 0.6041964949828447 0.01996709048000244
0.44533918189272387 1.0412311082962251 0.5424762692528324 0.03928967178039415
0.4452478087052482 1.0404105155867416 0.5255647422693251 0.021097653078280317
0.4459395404201575 1.0461359713362834 0.7153112538104112 0.02671510216595046
0.4451465465510998 1.0383495407719021 0.652838150807288 0.019663992747887007
0.4454930071284767 1.0418697566622113 0.6651316090966728 0.02515001190359746
0.4519437498179001 1.0604929320323666 0.4252074777681863 0.022877534074624267
0.4561791867904544 1.065441260339604 0.391225879087673 0.018634579102604385
0.45268325517048663 1.0615980699720007 0.5387417817577937 0.020785075816402977
0.45462616224983415 1.0638729539011889 0.5256080041011768 0.021873272385969946
0.45413578222868917 1.0633838522327304 0.5710639271523985 0.020753016030979513
0.4553763639407428 1.064461162658767 0.37678817610207394 0.017840337869988464
0.45752773423100324 1.06712622145604 0.43461682011550706 0.01363813243191301
0.45320319855925284 1.0623305150919404 0.5964865620053397 0.014849941262942206
0.45056587438755524 1.0583296519329586 0.48747204317192266 0.027210795230108754
0.45037801709411596 1.0576994208880945 0.7099422185432627 0.03311677620243075
0.452483766397067 1.0613778821788917 0.5579671607351518 0.0211474683707637
0.4512584574950007 1.0595782260963031 0.4107053307721612 0.019862177261073508
0.452519131797016 1.0612553100287447 0.6829123284747761 0.023241126662916157
0.44955337489175384 1.0564364399693822 0.6466580253994539 0.0190376832145026
0.4515777070806931 1.059690689079805 0.6955823122424071 0.021191202779559434
0.4500729259828012 1.0573834948882221 0.5818644235840145 0.022304329759009922
0.4500697383449848 1.0572623461058752 0.6620302400721406 0.018048575868735508
0.4504897012835474 1.0581808151822631 0.5038779236891212 0.021703433716609922
0.45914642889630436 1.0688673302741007 0.225142578806221 0.015695979612958794
0.45932799481287123 1.0689567882571733 0.03025612692358249 0.07333114653278061
0.4557998491812242 1.0653451021178988 0.046630555958101276 0.04906637454960929
0.4588451861399806 1.0686151289856451 0.3396058915443881 0.01692863166769198
0.45912166959794737 1.0687579484189944 0.05611309343071 0.01534994068034779
0.45960237152935385 1.0693468006790838 0.24865253779207575 0.01698483609082146
0.45815810184684147 1.0678067190195186 0.13134145366363165 0.020067181088205006
0.45920927622054775 1.068894281615282 0.14960590005892235 0.016960767172315608
0.447541929203931 1.0248241183958557 0.3328464954094806 0.18203396411274705
0.4492150049222803 1.020107416127776 0.5485816395938594 0.008518392963872096
0.44870962390817437 1.0215321763758234 0.4762570915847919 0.013675232059013304
0.4477821338575412 1.0241469381450992 0.3800151439117297 0.14842127842285296
0.4486826284352192 1.0216082814839897 0.5867367244379154 0.011868297024671242
0.44751207530707876 1.024908281916639 0.42026060558578926 0.04423968107162815
0.4491444754629865 1.0203062513968368 0.6142538780729894 0.011486136447004882
0.44620345782815396 1.0284289496462582 0.5186587587925402 0.021475831689762227
0.44662604789057314 1.0272399525845384 0.5587722163161055 0.02124896924261156
0.447151609851075 1.025689804213796 0.6636384222291734 0.015273340828233032
0.44681994200601133 1.02654509159532 0.6921070462699139 0.014925659031109428
0.44775198128187044 1.024091949795234 0.6503191842320226 0.016163859151606043
0.44633210097599013 1.0281057580163648 0.5010386587482757 0.015268421969383193
0.44875868431390237 1.0213042314747598 0.7114460911412663 0.01886982151057565
0.4464663093747888 1.0275645035542071 0.6397335208648708 0.01384867997084769
0.44552913375373826 1.0364174397928698 0.4120976842669108 0.03990600272059606
0.44511350526555027 1.0370236421413543 0.7033976175918462 0.021097637989658316
0.4454499103470614 1.0356255910727508 0.5085463895448552 0.02498165595048582
0.44526877957906097 1.0397019444542233 0.4635656261608706 0.024011214871724484
0.445634575527492 1.0352964025893443 0.38182008776023596 0.09059820585440022
0.445214510955553 1.0379524398822357 0.5840732117347727 0.025987072828117665
0.4452719547141346 1.0359480535493824 0.6304321904215325 0.024992849085262944
0.44533573047433717 1.0394555087264628 0.42335229448996614 0.024222519963670745
0.4457421107106704 1.0331320173587517 0.3969926642706835 0.06703066766388634
0.44525174510025317 1.0396561673804754 0.47868958203116396 0.030475345777802785
0.44601986401261384 1.0296176182125252 0.5715123871240557 0.018159758364224374
0.44584039391386615 1.030897323469173 0.5374536607103236 0.02215637345537568
0.4459372928207882 1.0300247444432502 0.48783362589272655 0.014882330985858836
0.4455982174388856 1.0329228238886734 0.6033186101937222 0.026848086938630195
0.44560680222649185 1.0330680945855781 0.6822567354895217 0.027427318318823186
0.44596120520827665 1.0297231755061027 0.4433009706932408 0.015591341421518568
0.4485499956667351 1.0542504164464521 0.6078348478503502 0.02731932457446929
0.4479200025664828 1.0527434745960715 0.5485399210096709 0.02311303911872695
0.4490239708129008 1.0551075133230212 0.5174593934695295 0.01967534067840349
0.4477388657744528 1.0521981130485312 0.47680279366584416 0.02594909903215634
0.4487809219853127 1.0544524589286515 0.45863189327491855 0.025184188246947577
0.44929822164056515 1.05593770586125 0.6282620483483782 0.03160805613052048
0.4505703116411154 1.0583554900568641 0.4430097615213176 0.016966140133182612
0.4478122330878471 1.052362642731584 0.5924855337956175 0.02835126987369795
0.4476470386551792 1.0520410638604132 0.535756136665233 0.03364126564631436
0.4483390098591599 1.05368749096868 0.676296817291018 0.019503903441945882
0.44633701127528036 1.0476044015405042 0.6976467987436905 0.01986727419652084
0.4911600836577041 0.9476858123586377 0.030789755402001455 0.2494500309672747
0.4498085231352407 1.0187303610492584 0.1491748666549 0.1647781414595325
0.4555548424345701 1.0088578276769982 0.23972941686751362 0.08738901955656254
0.4791509727025261 0.9683182106818577 0.0434361556094054 0.17397728527686515
0.4518925646533226 1.0151498483132464 0.03835448601968396 0.25791111359949503
0.47760282623443473 0.9709780224457398 0.08765147013415232 0.0037779357596634945
0.47270816345227346 0.9793873570381435 0.04143449443487979 0.1650941661150868
0.4524273557752841 1.0142310439580189 0.11966438796765823 0.14189993502272968
0.4841976082957469 0.9596477773633467 0.06057807204508918 0.00398339867688218
0.45341367213754297 1.0125364912026327 0.05911702466804419 0.10209918978104662
0.47896643947014544 0.9686352502336246 0.056637077158885496 0.01409879533469599
0.467983589451074 0.9875044685432417 0.11916466150829551 0.014917169366501224
0.4591030395970064 1.0027618046276698 0.14142729751901614 0.04757590543240037
0.47253697424189656 0.9796814707315149 0.08279360197586971 0.005755014998029252
0.4669110892199191 0.9893470905369532 0.04443121113435905 0.09408242079037804
0.4888895526045471 0.9515867256959215 0.07230563668586357 0.0056449214536131885
0.4549707654190293 1.009861308257788 0.2061195849805709 0.11559242402373084
0.4565883277180699 1.0070822357859797 0.0930985556344042 0.09554611345512491
0.4622534923800157 0.9973491311200179 0.12083354467714766 0.03971346195104222
0.45044721062417953 1.017633056284149 0.23184201656549008 0.1384803791807222
0.4570693380840022 1.0062558301091102 0.16916463955145364 0.061791947319681594
0.46251124697573914 0.9969062927193689 0.06078877690569667 0.031615832224854874
0.4556671281775287 1.0086649137982449 0.07494684493816091 0.07894429911308895
0.45032591353491996 1.0178414522154042 0.07797199243118288 0.12063081883190134
0.45047147907944013 1.0175913615710688 0.02113243027707362 0.16131732638516028
0.47877401066381103 0.9689658548717174 0.12921773624116767 0.004310552362719496
0.49469352635180464 0.9416151384020846 0.0450811510791994 0.15957257454053594
0.450331922309412 1.017831128767714 0.17545449019123482 0.17386174538328178
0.4572165778038175 1.0060028631276603 0.04100395212881053 0.1663000345359625
0.45966991363855947 1.0017878798244042 0.21710140178359608 0.05395420060829018
0.46210588853110696 0.997602723697861 0.15668864573821323 0.029563738076533584
0.4825685203586729 0.9624466515969774 0.09279488611942156 0.0033602802388352235
0.46074830496801883 0.9999351365579996 0.18882309160072905 0.044165215746804334
0.44987324666189515 1.0186191620114775 0.13759292165311796 0.18319725436698017
0.4867638523641137 0.9552388107037193 0.022816381862934776 0.19350847009122163
0.4797073456863491 0.9673623273478327 0.11017341589627024 0.004154500537567843
0.452816226428842 1.013562940028397 0.10666608155022408 0.1560709296111308
0.46001226687479846 1.001199695706222 0.6705204537280487 0.00045762690221785054
0.45555275482337654 1.008861414322658 0.5592481148917557 0.0037581928392811333
0.4505302388963846 1.0174904085568846 0.35105025212823926 0.14696231887416042
0.4734608392084642 0.9780942133518274 0.7037222639365722 0.003722257097214881
0.463868742749064 0.994574030687495 0.7148970809443466 0.027943344224893224
0.45748428384703527 1.005542927522284 0.37796816135976496 0.085560174281486
0.49554087588484974 0.9401593392883922 0.6865728483615265 0.0002559041788064862
0.45596759068438086 1.0081487005543415 0.39971414993692067 0.12967511671415313
0.45063920550693565 1.017303197153708 0.629931342508497 0.010097789410518997
0.479469313792408 0.9677712809221439 0.5587692848298375 -2.81164466018174e-13
0.4814391009951853 0.964387064194414 0.706907282896483 0.009117597008913647
0.4717176419853002 0.9810891344245436 0.5733618906917513 -3.681209859146583e-13
0.472025250420507 0.9805606440320028 0.642755259260636 -3.0379767649703707e-13
0.4535407688407913 1.0123181311744194 0.44347648041487575 0.005390008034364746
0.4678341929322878 0.9877611410392496 0.6680105469975683 -1.6481276457045214e-13
0.45193079628555244 1.0150841639950936 0.5984358679892877 0.007466960521577717
0.48773617202942793 0.953568305142805 0.7121863166494301 0.011883769729832173
0.47086504725447964 0.9825539451137134 0.6788706501254389 -4.289649725206006e-14
0.4556353738795926 1.008719469653873 0.4545923216312757 0.003994126681597724
0.45083993652716126 1.0169583287966266 0.4324461126377096 0.02731233236735338
0.4823630717737927 0.9627996250230713 0.6265219714295927 3.815525870542814e-14
0.4531749145869741 1.01294669150009 0.6574953186935671 0.002838143639293862
0.47265396777729635 0.9794804685730187 0.6614336334155373 -1.13113425880644e-13
0.45629506424598687 1.0075860806411279 0.4986841411713376 0.0036211668277011874
0.4657616320965162 0.9913219292501626 0.5646726530844695 1.64722755592241e-06
0.45149744318566765 1.0158286915296293 0.32061935614923376 0.1391022232890165
0.477033824010291 0.971955603598845 0.546427645976725 -1.587621098585539e-13
0.4570281870257501 1.0063265301824504 0.4832709611786449 0.0020250105173415553
0.4790834239718118 0.9684342635956433 0.6483343962894539 -8.663647414965461e-14
0.4506445117541021 1.0172940806915862 0.4923205262568971 0.00777640328699429
0.46638362480712736 0.9902533071508777 0.5918418021905638 1.128476725670191e-05
0.45425327456892883 1.0110940020906447 0.646307757838944 0.002855305170524897
0.46147985874389363 0.9986782817454294 0.5548317940046619 0.0003849333648466003
0.4646851829572526 0.9931713357132113 0.6098414457372172 9.779910011899346e-06
0.4659942941534986 0.9909222013891849 0.6214361207248563 2.3930276125733532e-06
0.46097102262481365 0.9995524937940384 0.6962841773885288 0.000786066762684674
0.4497859371690266 1.018769165141683 0.4620514900847322 0.01034646408525614
0.4688318718954282 0.9860470666299916 0.4501492751737035 3.827245528690401e-14
0.45910401553905267 1.0027601278986336 0.5778104893033217 0.001288410023497259
0.45670838041518913 1.0068759777976917 0.3498094274155713 0.0992461647430669
0.472792141915427 0.9792430768238276 0.4803027504078634 1.9993809312258514e-13
