x y z curv
0.1620230356113657 0.16562880847553355 0.06859601963176538 0.014539283455149618
0.27652038077059915 0.08748247990045788 0.06597355019617324 0.0051975704475951704
0.4027089493381533 0.019354247438685218 0.07021740067639395 0.09277738626812125
0.3623724209001233 0.05184325048850681 0.06716526002130128 0.005577350213317488
0.5126800737289086 0.046328288471139435 0.06716467608938366 0.01314684899127543
0.5368913279468182 0.09206913164804996 0.06710576087835082 0.0008980190645727457
0.6966274694505757 0.03775480749917973 0.0689920080225261 0.010550350849178911
0.1882247068687526 0.07973808406439666 0.0723591985307894 0.009364467974779455
0.19267362601043295 0.1337869609178136 0.06565047165439779 0.0004701664247919245
0.7288710015633116 0.013964752866000286 0.0653070429919149 0.057761487612937576
0.25051209076117165 0.19671663543014117 0.06683152331430676 0.0014212682685901892
0.2022427855177096 0.09811196578840875 0.07012507313145741 0.0014753810842161013
0.2907249612920352 0.06088692920734936 0.06624701896414581 0.004667517771305244
0.10530584757411415 0.23466918838319997 0.06525660345176158 0.00192327022526006
0.2080979698778652 0.23026986678961286 0.07707051649814166 0.00603002526658385
0.26417714663486475 0.02096841978792209 0.06655147637152865 0.04958257728687408
0.3949706343938577 0.005264349798976723 0.06397135974187043 0.0844132094761613
0.3749988166409352 0.1650119781110684 0.06858865248172988 0.021475359361516313
0.6666230773913848 0.017490354900887174 0.06948944018813201 0.07265517263846832
0.6111496333632666 0.011415380085254563 0.07158339061306294 0.0450040243167964
0.259306479679774 0.10077041692809793 0.06820244583534672 0.0019205932274512269
0.08513440503736812 0.01076701307133466 0.06505788178416148 0.06406756622968972
0.22771439882605687 0.1820362549425275 0.06265841688126637 0.006003357100441103
0.7290165582970582 0.030699019370065504 0.06929591666184445 0.009213700908314786
0.48221294038770657 0.01838171453303834 0.06772596769733087 0.07222160002032145
0.26671128824634016 0.05250663546339165 0.06716434184502781 0.0019040494243789312
0.133077279148593 0.22857964510477913 0.06652038816599919 0.0018749634078775756
0.32381030999026933 0.15358684355027538 0.06511713940617063 0.017486535728927194
0.1777012042386445 0.22252844860218388 0.06674740958011942 0.00042675739031056354
0.47681525007745595 0.09160436927818526 0.06507753240632956 0.0060412996354268075
0.405201186411391 0.12284034650120954 0.0747807091750967 0.011986541254711937
0.30836605108666026 0.09706757636676865 0.06573592578858926 0.008808865688392155
0.30444755434812587 0.1391387736995711 0.06698215833623286 0.004869346843777057
0.09328712980051097 0.0017989596156095728 0.06426300265999542 0.07696572210790573
0.5376472155489382 0.0161593909171184 0.07342123257946967 0.027609679940942884
0.3804830445849558 0.03095498228309183 0.0671768864787742 0.08403620422236838
0.503089360245851 0.005971481207961151 0.06415623958055239 0.03593115205068823
0.18534593761985493 0.03304222256096243 0.06436703157628061 0.03177768586223399
0.1575678972456466 0.05489651643323188 0.06882132721425055 0.006739178401726588
0.29117926190169957 0.010507358072870475 0.06390442414758012 0.08367222532334592
0.3491085468658556 0.1343934331286972 0.06492043454676295 0.018525413258857468
0.6400939909412761 0.04501758977317792 0.06942232848174276 0.0053811919056982035
0.19186409889921213 0.12220855215386425 0.06708546533631925 0.0005625851754289085
0.39023367128677533 0.14065591269749939 0.06524103669835246 0.00299475366000016
0.4510091997426488 0.06602605355742573 0.0700004467389094 0.013538031106721122
0.45185751134105406 0.032189757720831394 0.0653320330903861 0.04795055171921911
0.2953013819683911 0.1604472571347839 0.06240353091610198 0.002812042513018249
0.2740500046742309 0.23733146541036956 0.06511720724017468 0.004076166315397372
0.6873873291128101 -0.0022868377116576095 0.04843313469323157 0.047219351539469406
0.3822291253405582 0.0118244171648152 0.06660803961773988 0.0832790384029368
0.6384217370226997 0.05884844044628187 0.06861595284108514 0.005444212429002388
0.14676488945218516 0.004310104777944423 0.06463687573508305 0.0966329856964915
0.12513676359478512 0.0886122426552139 0.06771563535483051 0.003939410411172062
0.37891373599921485 0.07386625385603421 0.07017632509284669 0.005795293264713748
0.08932480850978021 0.057580388904308805 0.06771422000531033 0.004885056326749876
0.29879195763275296 0.0949555609110347 0.07147661976211886 0.00861261588854068
0.16076108556374 0.07866148470974918 0.07156839379288144 0.0072221254923126015
0.33534638884064877 0.10942613704131801 0.0649066095608345 0.005066665188010415
0.3483672452489347 0.15930861478361447 0.07758760354749092 0.0038591245687479136
0.2942007934201376 0.20603164639875438 0.0639461618314959 0.008373479712467796
0.647593937683771 0.029988351288645652 0.07018316490874452 0.03544583673438652
0.2802256837593547 0.018541404495957862 0.06465959602810203 0.05529693935002187
0.34992881662697156 0.018908440348756675 0.07482873763691436 0.03168588680738634
0.6900724573061651 0.007340297104822295 0.062150625839822074 0.053578742352051144
0.1916030561985418 0.1801977257668618 0.06532452725064276 0.001520436386193349
0.5470559712939848 0.05048996793143777 0.07062394949279757 0.005647488446247835
0.6280821325897508 0.08019486664772994 0.07494857088741252 0.003480026125441297
0.2938776037277276 0.09101641296625895 0.06714839316001617 0.010017210699854768
0.528393241670846 0.0653111962683955 0.07012590253208584 0.01016785519684089
0.22716854424214233 0.09635291065917619 0.06607179717474862 0.003983790963092994
0.30562854289151004 0.07400550807453499 0.06996123213650758 0.007542177105127238
0.10418552925804878 0.2102817679535917 0.06781888628092043 0.004198478721291519
0.3378479167286233 -0.0006358599295912754 0.07445767052475363 0.045390637066816335
0.24667994820859568 0.006187074378913686 0.06492626613688092 0.06234845673939714
0.6194357135265159 0.07354473715781436 0.06907290792029715 0.006418355596583685
0.36194724797404987 0.09816603539532824 0.06860362178588665 0.0044171946373932755
0.7613961146189895 0.013684985594964711 0.06503978108664171 0.0507958693203827
0.10898173081825958 0.24717616723011276 0.06647947851907234 0.003240590065403466
0.1635673916688767 0.12776678141286354 0.06891969122889642 0.004273321958720536
0.1604971274506859 0.20778822304868438 0.06883534425396556 0.00036096021328328926
0.33613700641998867 0.023689626144867748 0.06950271608466937 0.025419920112114074
0.42646528859414595 0.044461627341357515 0.0775715974289816 0.004999971229499625
0.5017306981171249 0.12814409893229994 0.06754545401577136 5.914112274595194e-06
0.31012791112659943 0.004140336618579073 0.06100370906944862 0.17165908771324573
0.23295971373998178 0.03842871794435632 0.07513060583973673 0.005046071375545253
0.11047426509343351 0.12490977546923054 0.06954884949163159 0.0038843672469224006
0.7201343281829296 0.04013139067663695 0.0691820608240958 0.00967699008563381
0.12897269636102596 0.210448339251938 0.06837316855415236 0.00340212815999464
0.12893714384915783 0.05933096631450061 0.06932257768798664 0.00427915178262805
0.14957489462761148 0.2714823814877295 0.06254268204310198 
0.168489950629984 0.04822498991240115 0.06365396408168214 0.0032831957434898205
0.6768974539791656 0.06912237989509736 0.07205248141258414 0.0007127120498619193
0.5658577100894403 0.0656522895772463 0.06364678783650078 0.0014237626877887791
0.4546880870014346 0.11613525150110793 0.06705307011822015 0.0014536068898151932
0.234258492606729 0.24275914798016407 0.06611902275593079 -4.953606779362328e-15
0.6270770701908118 0.013787228925790743 0.06249236287797259 0.07017114906367448
0.8525868553152669 0.0017140834267115538 0.3756989172734915 0.008408308871348585
0.8613118049366593 0.0028521910700397895 0.3374050494904827 0.04639520387737716
0.873040949476566 0.004213500341216662 0.31105709193531744 0.042002963884499235
0.8664950738318745 -0.0008287850272274516 0.34087471048188367 0.038493967076165016
0.4325778780297542 0.002765629194695484 0.048637301524122684 0.08778694674289425
0.1372486219497411 0.0012900303488230403 0.006370087428744175 0.022133439442857256
0.02744536741448489 0.0006931940046588801 0.037174343123130664 0.01096606299858535
0.07762127129839513 -0.0010271463349098317 0.007659410745661791 0.008545092372571136
0.34924600562156055 -0.0033041856162808947 0.0389776899717046 0.01064870747918951
0.4190584338116894 -0.0036250217749620485 0.06800857539864624 0.03970056922848458
0.21610417387181685 0.0031846334018797023 0.01849357631678796 0.01207827388859938
0.06992734083729095 -0.002819336472262755 0.049417886879800685 0.01507858491604265
0.6125448722047795 0.008201155949313355 0.06322955268559186 0.07577043045158538
0.2672016023510657 0.0016355259699702344 0.03937733912119952 0.05808489152652704
0.1259063641491514 0.0020685436729025656 0.024552588772127973 0.016025024515898233
0.6528524395222898 0.004353157988686361 0.06590577252416675 0.05693864943191131
0.23471483548421374 -0.00860918501975388 0.03469506738484078 0.015732107927493178
0.09944714742280669 -0.003814451210418832 0.040087924680754644 0.0650050898159756
0.6808859441512346 -0.00549646074141047 0.0642776654078167 0.02409183765074677
0.11409508239540518 -0.00866505735802011 0.03822620981709913 0.013611067084163313
0.5742096863394768 -0.0030477010152149325 0.05575919894870582 0.08833140127957173
0.773328157519899 -0.007808481546566975 0.056728390252602734 0.04139670314725122
0.0646026798766902 -0.001279081307458563 0.02850292031201626 0.0026860242819621524
0.5093684823054345 0.0012426816229772519 0.05152335039041165 0.05742612289181117
0.19234232631939172 0.002767229939360561 0.054477321219655005 0.10130249872883347
0.3947820376479566 0.00357658472469288 0.055321744060656236 0.06557425458561451
0.17878825108358187 0.008518160589774861 0.06500358281550984 0.12264301210164272
0.03914392675463645 -0.003188929309477988 0.04398024406820614 0.010796302544819952
0.4869278572833764 0.007112834667702293 0.06057199206030238 0.0548172356124083
0.02754952127750375 -0.005356564605840246 0.006577734626180853 0.011274841740004602
0.14674535170840297 0.0015020794000295359 0.06498019856184359 0.08109901700509241
0.5254669364743104 -0.00029197805510561617 0.0614981909521602 0.06843631419371324
0.5278021333423177 -0.006475416556037942 0.04509205836779903 0.037225603668529124
0.3809886813479848 0.0007305924651479004 0.025821418323262287 0.007615790663843513
0.4375585105111547 -0.0030458356575803224 0.03022311853521404 0.008668870465879507
0.2115265937491978 -0.0009741051176683916 0.04935717357552546 0.018823347206004985
0.1679152465723934 0.00214624585492509 0.055065168275167636 0.12231602902670405
0.3443374356291796 -0.008902128299416607 0.03963961199211005 0.005644360489393129
0.45818128601279257 0.0012816452799145497 0.04280271902653006 0.051351525863211664
0.37772099366775336 0.000623291412160535 0.042044087013852635 0.05158515874098033
0.561945851005799 0.0019700627340233194 0.06347264332378005 0.03821966453046078
0.3586795746185425 0.0008621919573487593 0.05540710178147745 0.07501361589201923
0.22673170302914986 -0.0031846385188672205 0.052137169442338864 0.0816265261915487
0.32053206903579406 0.001160463566208972 0.040311010597598645 0.14478500059663288
0.31440509837378394 0.0034988184329282526 0.04219189776403014 0.13922515316282275
0.19208368192718348 -0.0002396669580669375 0.03349775412369896 0.008170338613548598
0.15701007923013285 0.004131732276791535 0.03392137986639044 0.02177869501208983
0.195631166482283 0.0017620323881403055 0.04434675539327932 0.07058067294620343
0.2932195118986923 -0.0030643485261354327 0.06491544600405466 0.0741228362096071
0.47854130364021086 0.009694167788960975 0.05847368159528943 0.09155726825836094
0.6953903390124873 0.0005180280246848572 0.055889287595430416 0.05421087793891628
0.5550595362187648 -0.004277572665892977 0.06836001827636291 0.02655135100253146
0.07438318514009312 -0.003231432475023078 0.011703142774150006 0.00674229711494201
0.15120981581930296 0.004621747203064605 0.04571062337963769 0.12614363400062567
0.39009683926241157 0.002826272638523365 0.04901370188740247 0.07770088022908482
0.11158793334852114 -0.005640241832662725 0.007016596638246723 0.009013182962841254
0.18134574296658826 -0.00047935131344110433 0.039459042119978464 0.007054895020644971
0.008671997688278003 -0.0018348121014789946 0.016302871282098393 0.019168826548275404
0.2485630415592928 -0.005199784896918127 0.028411894863022882 0.02754099942285359
0.17176731986528856 0.0024552997278445 0.06150978234167958 0.14020493093574687
0.0963804998092415 -0.0001922315116217612 0.020209100084657903 0.014470570824972412
0.2900013144101227 -0.008387337372233768 0.04880672197313208 0.0507020575369632
0.13317099715348324 -0.003508381433495522 0.040275661922382376 0.024414126324540153
0.04605978439039192 -0.0028707583541893096 0.05102399461367394 0.0071651778844481736
0.04669052687841074 -0.0014574551731148658 0.020843962413180508 0.004810789169889533
0.600328860865647 0.0021810601102079247 0.048405610054732345 0.0684754021657705
0.04989856497007235 0.0009369703285077935 0.06487950589706033 0.014373622010210276
0.23823479325027092 -0.0014708252765637704 0.04340025261283162 0.027493356458769276
0.4042230699333667 0.003447967652541737 0.0392353314483738 0.023665857769106794
0.11557093418325254 -0.005865371308501215 0.05592798242972105 0.10330173338368642
0.6295533701663539 -0.004589531170773583 0.05792084587974 0.028588779797843793
0.5085289946354764 -0.009159034311053213 0.03780583802588833 0.011579125681609844
0.06077188789790302 -0.0023191540695335603 0.06213870411316095 0.018373738555767502
0.2630066584260912 -0.0039140799547878 0.06608218249136212 0.04354032399880357
0.727874259441339 0.008621837827401523 0.06127364493550279 0.05770565338755932
0.8743753568148639 0.0028574476385161197 0.2809850385864545 0.055599799995746844
0.8770045929115033 -0.004576566330508121 0.4279135876078435 0.014303297961038604
0.875022023405585 -7.357962771154388e-05 0.39355016780136814 0.026116891355191067
0.8904261357631454 -0.006813609692941229 0.3014783465172267 0.013412556051746715
0.8785780127923052 -0.0030499820048529303 0.5516407719566166 0.0230879161116653
0.8903433280813495 -0.007638876998594566 0.22705978506926405 0.04571481806983327
0.8856511051674049 -0.00062049933422565 0.3553705189036078 0.036130029995853796
0.8710661038143653 -0.000651773759010221 0.4618166253546639 0.028771528005389672
0.8843138799212854 -0.0014578881597077302 0.4009512092137622 0.049200597827984936
0.8843291193733603 -0.0011776059827554666 0.25815446893659827 0.041640760867575226
0.8824858813331274 0.005595042595356283 0.32687340615406524 0.03911236738493684
0.8951402140319551 0.0005080814597431967 0.20610067060301487 0.053121617761586394
0.8857427535001234 -0.0011040177644034103 0.44245896285323255 0.06580075404574923
0.8695934667438786 -0.00149258060369587 0.5423881249491701 0.08482938057410846
0.8986461513727001 0.0008780832958509658 0.25672614654135006 0.06682166236439842
0.8913393024841667 -0.0019950274531530267 0.1830257707418299 0.057575715833428416
0.8784272082488238 0.002970024332341451 0.4960183552642756 0.05733587697485733
0.875220740094822 -0.00360878529658772 0.5677993806013274 0.052656625567578705
0.8669952706388181 0.000470608234783404 0.34845981938078474 0.029970737809742104
0.8786360961611551 0.0011050855664334104 0.4537271609274904 0.02597315058407927
0.8988330240933187 0.0002352226627541942 0.2912912205060088 0.03936518218990037
0.8580533144933017 0.012368581032721763 0.484659815153063 0.07119010401551598
0.8569271837182336 0.018307087531863577 0.7030787400106951 0.027912651353142255
0.8557759543837606 0.012550326330776714 0.6514058089879349 0.02530973273908724
0.8652683192288053 0.0022050264390871023 0.642162577617084 0.051895753466969986
0.8595197903194154 0.004420322522729412 0.5053518986368541 0.029901753985154
0.8631608651308098 0.02169849288380943 0.6045213851772039 0.02415573051430751
0.8499601707269318 0.1240921548351789 0.492795387470634 
0.8652398503135378 3.8824198424538e-06 0.5989692083696542 0.03561858872161797
0.8543943093626011 0.04321468387134872 0.5138024765658895 
0.8621019450498233 0.00649653052515624 0.658389880660389 0.05290317634513275
0.8546985440458715 0.012983731386049694 0.47129043622521244 0.06840970220358962
0.8684861059663962 0.0074512372898415365 0.7016279460675947 0.053395563334114
0.8577065920899811 0.030900752128658754 0.4815621557573439 0.05591615371922568
0.8596086509140007 0.012705062808060998 0.5724803420771285 0.04519297490843665
0.8603143332976073 -0.00609764137296981 0.5491652924832644 0.005001186013843951
0.8584757632598818 0.0343432598485923 0.5512554763010883 0.00015450641517098844
0.8535532471769273 0.028768623647089646 0.5787867499142724 0.02103520563143033
0.8618216041271072 0.01177449521243477 0.5960840025298227 0.03879052376626241
0.8514924546530553 0.143960968726143 0.5237392759588184 
0.8596937038628925 0.02908980054307123 0.6608294746901648 0.02413865782235222
0.8516068379004236 0.0897921613437971 0.5429987992343774 
0.8572358327723539 0.06923291281870808 0.5834379743622068 
0.85583371786073 0.005953101927871539 0.44894040197267276 0.039839350355178105
0.8738419651868191 0.008118226869031287 0.6882547384946798 0.053358999865781714
0.8558521863496569 0.027123655516915614 0.6234585688453089 0.023513131038248394
0.746730880845556 0.137950785110879 0.4222055548279662 0.0034983928280073306
0.7209781257394733 0.16396510433435493 0.4245370005439084 0.0023704155508284777
0.7881938568529553 0.17468008807481303 0.42155495362565637 0.006473063087821937
0.4675035598225825 0.21238705167407712 0.42361888931304825 0.0031881335554436794
0.6844844631081529 0.2703314435582797 0.42702608648598067 0.0009510627487096223
0.4808436786928273 0.16834765837846202 0.42089518679586624 0.004823164640861403
0.6203682644874765 0.23344455216437243 0.42157736153552516 0.0007897544813941673
0.4056835674339708 0.2942044511370121 0.4257396829628347 0.0008232989010175657
0.5632444159664959 0.24354232971311396 0.4235050522808939 0.0021639417125937873
0.5274032256534369 0.13736439008931273 0.42850655268510346 0.0029241473062345392
0.5847468831908289 0.2750950665922377 0.4210914451455872 0.004044336560286515
0.6153207164251103 0.09637626347650803 0.4232184446172907 0.0018685810594921178
0.7194174487626889 0.127406834077291 0.4267536244366834 0.001442594747694318
0.3363741092223974 0.27637192210536493 0.42167075519403296 0.0010949385300239225
0.21465682229605632 0.282706556716001 0.42575464537153795 
0.7674759371905432 0.09474897392835688 0.4230704412009736 0.0002926991122597891
0.5189122577423618 0.23156904427649969 0.42351054993814596 0.0014585883842245415
0.4044636152326197 0.26992341242916923 0.42375798503835205 0.001175382631040825
0.5567860950541772 0.17511771404198198 0.4243064642389287 0.0008662775343916744
0.2519434563841248 0.24780376695128417 0.42416094418269656 0.0038025865504649134
0.8121598492948443 0.13652911501549672 0.42099225579320676 0.00420634877722077
0.7050778362377459 0.14894355087088798 0.4240830621353282 0.0014237616561063012
0.29460253447431245 0.30347325327164537 0.4293088070653404 0.05488786619252402
0.6275024024232962 0.27809358299746856 0.42306406014779613 
0.5347795035201494 0.254652543808421 0.4225196708290855 0.0015438674364900064
0.4285032222871972 0.1793075524615579 0.42561832069962385 
0.7496203804237221 0.22486404887188277 0.42394341740216757 
0.4839231657456426 0.15863998257146958 0.4205301691257181 0.004263369659655938
0.7855986688368818 0.03412676793911995 0.42072237774655485 0.005267108903176901
0.5250970121189371 0.2926034445222448 0.42101610347529034 0.00041844544956278276
0.3096004538895421 0.30273911071347803 0.4278306400240943 0.010215334634653505
0.4423466234295161 0.19631819352221905 0.4247698346813731 0.0046829646569545875
0.5365019486679076 0.18758176055756917 0.424936223998315 0.0009014814590053386
0.8062525018647541 0.16142477954365345 0.42373101103776606 0.007768307068675627
0.8393725522073192 0.016961674424873764 0.4204213729209238 0.12024053808174648
0.5003979184554631 0.1599686196195866 0.42278820112959326 0.0027499341347212818
0.6837118926097117 0.12352677384595535 0.4235005701645532 0.0026334340661317763
0.6989413273681259 0.2698786301525017 0.42536375959607753 0.001402064287342821
0.5048529817093 0.24930992004405797 0.4241106696581613 0.0026936960845451623
0.344268829566503 0.25698358848315406 0.4213693173682225 0.0036656121075093104
0.6433606822494117 0.13753830871735837 0.4250067787860304 -2.3651513702287414e-14
0.801693184001874 0.07877777027409778 0.42666812448734115 0.002033777184580381
0.5816555412053576 0.1460309527104936 0.42168227080635645 0.0005214656661599503
0.8066508975701803 0.1019342932629807 0.4235877579584313 0.0006408815772510748
0.6099167969103574 0.26005169075062684 0.4249338744893843 0.0005758524501352691
0.49504215336505775 0.3107563188680909 0.4226561106018835 0.05981800377648336
0.7422381845659127 0.06357694485387934 0.4251742272747948 0.0013248832094932476
0.8283378775115282 0.03298276062152656 0.426547027503089 0.008765130732623312
0.31544449301145955 0.24009978856804137 0.4244015356863885 5.3130539865019816e-05
0.6175224624273404 0.1465689066925465 0.42931678686421393 0.0006458581514488078
0.6392562054368012 0.26597375824993574 0.42529370321126514 0.002406936023113288
0.637310145986296 0.2245172712591802 0.424624049807988 3.094884408210005e-14
0.6041768942387199 0.17813207407450798 0.4213335586601192 0.001503613777179462
0.4506779939449282 0.22834539224392708 0.42854156176656993 0.0008084881382715486
0.5702749847850304 0.26540560744482683 0.4216637828929242 0.002927295043716536
0.39516094277557867 0.2432238161042005 0.42163438133036524 0.000543084133329138
0.3774988712545207 0.19871375225866592 0.4255471469357529 
0.33497989988511445 0.25278277127770005 0.4206363490859568 0.0023509588500349884
0.6458573627035783 0.2022848092905515 0.4214593498057166 
0.7675351309233748 0.1318054966609972 0.41831019680391407 0.004141678385585604
0.7645719345914521 0.20482929666268251 0.436751826920525 -2.781817846423199e-14
0.5106601492286134 0.2651533087102865 0.4216540781305165 8.772839216566428e-05
0.5585830576886408 0.21912473136214897 0.4247412707764505 0.0012203171949489412
0.8071507212361874 0.041431441485619266 0.4264889576455058 0.006152833878131511
0.7721257980454066 0.1738354910513038 0.41862915354694963 0.008446420513134252
0.5999749634763264 0.2044892149412997 0.4191167332056284 0.00017475572284318588
0.47981770511376937 0.2554218559388382 0.42456301651638195 0.0016747789628210785
0.748355783201881 0.11407804091252081 0.4212634581235194 0.000589297467712019
0.6077659763929377 0.22714306684772936 0.4215524129883187 0.0013388601191685744
0.6611506724714079 0.31961710143462213 0.42738270973689463 0.05353166951686017
0.27013550936321484 0.2703826253234467 0.4181054679768678 0.00026433818677201027
0.5375864975362438 0.17902008057357427 0.42512871338430325 0.0003338488869768952
0.3007924471485594 0.29981409669056647 0.42753838209361505 0.003960995296972667
0.776358756932247 0.04912495491012883 0.42618408847293404 0.0028723606027372143
0.4468290821308801 0.2871138846924652 0.42407339866465027 
0.6953180314410531 0.13463724823707457 0.42654404731618106 0.00014817758455105149
0.2883188226992561 0.2755825533762572 0.42118226236443185 0.003628984467986938
0.7761298453689432 0.06770158318970744 0.42842389030672456 0.003961595456064949
0.42763598835765315 0.22929817350236742 0.423677587298657 0.0006803723120335642
0.3777717392476284 0.2923056208277886 0.42358159583093324 0.0026991068605962533
0.7469772382543034 0.161003547518308 0.42572196050031874 0.00020852642020269727
0.6696832354501868 0.2523361547419797 0.4265582850122506 -1.7304266511622324e-14
0.7634198455826146 0.1478703964919157 0.4193707715420385 0.008344931164557257
0.6664868793111516 0.1514634355499411 0.41976236103074893 0.0014220403663832324
0.2876696597188332 0.25599855654189374 0.41849036150731467 0.00247452532683448
0.536341241051267 0.225526874319276 0.42533684160281643 0.0007801407169187184
0.8168674781029388 0.021129801084500636 0.42308965938207427 0.007474953464793624
0.7240944548811241 0.17810458812438779 0.4244693479531702 1.7462459315104414e-05
0.7981014592448893 0.2894932702888892 0.42367131622818593 
0.19936250304706046 0.312977228050709 0.4325249351866551 0.0013820141669674425
0.36004332101273284 0.2585411239397997 0.41793349419856257 0.000752706097559854
0.8584675709308465 0.0070230004087560634 0.4258119472724151 0.06242796433053847
0.24521493908852918 0.25417216452867225 0.4278488653889875 
0.7349266326585068 0.2779558577032758 0.4270751657154998 
0.7051690028159423 0.11126463398948325 0.42532152034166004 0.0014200047412542289
0.6929762970805446 0.30841837537676153 0.4312566737503383 0.029248403436077902
0.7239969972025891 0.22332254052052403 0.4217618431005016 
0.7902451790411499 0.19843417622236276 0.4300619642042735 0.008831282717680158
0.4101948264106523 0.22506234499186167 0.4204255890401074 -3.882980503696718e-14
0.7928544041954498 0.135126280800434 0.4206763024674861 0.0032459231136711775
0.5072136359937524 0.2007081277347936 0.42341491627921596 0.00034754368473057033
0.4765158726707088 0.20180691126458628 0.42211387324890987 0.002644732843410202
0.5596942650024017 0.2695510871644611 0.4255075669966411 7.040952784514731e-06
0.7957820934275223 0.09720194504472725 0.422625902874688 0.000730594062584512
0.4923201160010634 0.22938792225519297 0.42151025167985845 0.00019609942107896177
0.3448342253972609 0.2697714412987644 0.4228737452536725 0.0022280062477016485
0.1696368309154532 0.26855543624463296 0.4280088150734651 
0.7060713587727504 0.3028522968218912 0.4264554976039127 0.015144369149949091
0.6648659745448592 0.19658384161190628 0.43290345952482645 
0.5665412719235591 0.2191248894157777 0.4219365140031323 0.0004837437178119141
0.799977646225354 0.15032114464603474 0.4238408218250079 0.005425222015358106
0.5268195319257114 0.2123845431061878 0.4230392839266277 0.000294015619301969
0.706773325751579 0.2346737558696833 0.4252299943640525 
0.3655445222943007 0.2850603305098029 0.42232394817749835 0.002731998035496755
0.7984413615910733 0.16545269113282204 0.4269417383555709 0.006103507296388595
0.5242257721368839 0.17381038224710793 0.42466571148705934 0.001423126232711628
0.5879378860240412 0.229660415134457 0.4212676331640848 0.002455410864281243
0.5663488517816981 0.136417539911068 0.43218286770446573 5.733496038425644e-14
0.3861583757149193 0.2654628009845558 0.4204173396791675 0.000533969161143786
0.5864544847670108 0.17027650989916213 0.4228257012065811 0.006737476653518643
0.5333223747049397 0.15227798703348244 0.42670086266571566 0.001554274195247269
0.43181450428266255 0.228584079812453 0.42555728042329394 0.0040352644610058015
0.7087895831057996 0.08181205879060136 0.42719045504137526 0.0012780495115735048
0.2610661896759682 0.29591212581550036 0.42971689054647233 0.0022656312358330885
0.6362703929740725 0.10147473398905468 0.41988438774881803 0.00041521860061183926
0.4234818247899347 0.3157082526422204 0.427020984065714 0.16220768374323816
0.6908921616566518 0.17750389434225552 0.4237141538704284 0.004338873167520763
0.33581787854651834 0.32570747302081515 0.48507866671983213 0.2332489377243574
0.7198399302839098 0.32655503798492125 0.46779802506918344 0.2507992392497179
0.7817881125066733 0.33236067712688716 0.47193811269715635 0.22052067811618864
0.38529008019878497 0.32527302569511335 0.47613114314959987 0.24106009303868348
0.6061935515090858 0.3231983925560421 0.4591749812245395 0.1170903481693095
0.29080455284002743 0.3211338759350098 0.44075058202766376 0.25175257718599053
0.4134785858957381 0.3282560101784527 0.4564579107131199 0.19253444242460302
0.43681210374152346 0.32099612305405295 0.44616699066673304 0.19927186761884022
0.4064211342079126 0.32256542531457744 0.48621200804842385 0.19150378014353817
0.7870149331384267 0.32514733435614124 0.4588100432372916 0.2286155907074987
0.5887785519669259 0.32799423084018237 0.4836047306439747 0.23036545367202424
0.7976149924489871 0.3174227186319086 0.43446912288612666 0.2607762112112044
0.48928390355066687 0.32948101856135564 0.4789088545606419 0.18277046759690196
0.6645277204651453 0.3234962058161629 0.46684664393577924 0.2246977810756769
0.3803419327095139 0.32660432195097405 0.44446095892634474 0.1705898016846731
0.25192084671832415 0.32671011607470163 0.4518368233497933 0.2288500176607849
0.3149550083603124 0.3301489891285777 0.46974175121092243 0.20364414045038678
0.2586089521321042 0.3275170567008944 0.5007308879286094 0.08094395233241453
0.48485817776145 0.33118631043786007 0.4474943159452832 0.22593552261578664
0.2783551395928541 0.32077319565852047 0.46231922650002255 0.11306212535122655
0.736037874534371 0.327299854685136 0.4370225602108851 0.09099208765114984
0.25686766972468345 0.330556953850739 0.45518832075920185 0.17721923538273227
0.5753247613144907 0.3246131492711744 0.46221279701918633 0.22873036205594452
0.2246348683874864 0.3307490570774353 0.45095048417102057 0.22414354044951806
0.5299007888545204 0.3300419126744569 0.43915882319319804 0.09547197763759621
0.42574611465037265 0.33119429636381786 0.46201586809714934 0.26427335702395394
0.33942034847908925 0.32952872764347996 0.45137978391648004 0.15658621122950694
0.5170212772171772 0.3350924824192152 0.4379927310576454 0.22510032204672126
0.3830898382255539 0.3208658162700326 0.4956212496357668 0.09276485794531075
0.1552437999408121 0.3294684604121643 0.4448886047452015 0.10921126941033397
0.40687696393792067 0.3225411307108258 0.49038686966059847 0.17892689325292027
0.5142574899254035 0.3305670713226888 0.45989309089754804 0.23973572807068447
0.5333929144078048 0.3294683845086797 0.4551528017456011 0.19211535776607092
0.5692996752241464 0.31895804841934217 0.470902890457027 0.008628824070512475
0.7593723896730454 0.3277052002289614 0.4883861762026594 0.12820027625136915
0.29221177235820184 0.3213332968750886 0.4632670961417823 0.2158579471305206
0.4682254765867496 0.3320577872672283 0.46716895669854946 0.1506114501321064
0.449272678357644 0.32389632388328243 0.4878036313334427 0.13492171095815542
0.6389549451012754 0.3279771647642952 0.4529671068846406 0.23669180111113225
0.42880431576396383 0.3284352666646071 0.47324170142208494 0.23387189929622204
0.6789056797482648 0.3359082209689975 0.46773756623210055 0.2498058435068443
0.5579587912698316 0.3279402418071855 0.48530584897370005 0.07289725796393269
0.24544261997562966 0.32586869014813624 0.47874993271277305 0.1681648574892766
0.3202245215471342 0.32832030016270936 0.45372552640670544 0.23634377430763626
0.3633723091522968 0.3370869641619729 0.4654019824275009 0.22032581112596836
0.5163011408249717 0.3295145798918566 0.4771474366577665 0.18762431392675252
0.3501718636170108 0.3236861830714189 0.4828598409102695 0.12279657616240397
0.3090548593453535 0.32928878478584495 0.49588547508888997 0.14166652090317328
0.49722030199289574 0.3314750731891537 0.4562266715245142 0.23433379575661215
0.3603627817869115 0.3285923194032122 0.43235597003422643 0.08904201660144331
0.7098741606586776 0.3186072735815538 0.475750436391906 0.19009557275133984
0.31339646611458416 0.3288024597178871 0.4783015289416412 0.24569206570902408
0.6044195962272882 0.32139262559583964 0.49421093581268577 0.11765272246042165
0.28029540683924 0.326220949804627 0.47785540026897705 0.2024965933233877
0.3482710156997262 0.3328176187946055 0.44693509683108007 0.22145580560476363
0.16564953599411722 0.3284802020552254 0.4506428642979297 0.15164385511748135
0.2368816016366934 0.33146109094536363 0.44507428473367006 0.13005143982730832
0.7501458513299898 0.327244938840804 0.44406444831858904 0.1315741852593338
0.4449064319735914 0.3276475621343001 0.441261614385866 0.22507558562398325
0.7368844198787404 0.32863854696145084 0.46915782652198523 0.1739093186855992
0.5545382827593036 0.32654656606772503 0.4537667572049879 0.19312210598358254
0.7749711869174783 0.32839922752184775 0.44797559708645146 0.22899685157182473
0.5267997111519956 0.320358694373177 0.4713004346379676 0.061666089402700394
0.38548874349084755 0.3277722680344334 0.4614774075542507 0.14075148945770255
0.18911355873609215 0.326797586637877 0.4617732422125588 0.20570900968609676
0.21844798976363838 0.3219331832779661 0.4686698553100003 0.09294496728467225
0.47379086139181664 0.3226219896923723 0.4359106833779981 0.19678765891995822
0.6162312355641812 0.3241593680394772 0.44956889020934115 0.17297291885097932
0.41873668353407484 0.32421894831641773 0.4938349057728773 0.16089519839288557
0.47934420160830327 0.33057905698068296 0.4798620313643682 0.18994580256455992
0.3993708931774261 0.33201567603761784 0.4492469623350605 0.19125064703531416
0.7459953400169822 0.32076355359323294 0.49865905486400913 0.12356954096606197
0.42500658714887785 0.3257680648915638 0.48424766368838856 0.2480146647900271
0.574477640700804 0.3253054496473445 0.4738304250842131 0.189016545809501
0.644750650575665 0.3297623392676202 0.45364964694125837 0.2582190918887825
0.7997034341403665 0.32938711634589046 0.46134202601497937 0.18250212420544903
0.680482503461341 0.33124536077579736 0.43988779636101155 0.2373366591624839
0.3396465366692514 0.32538956658602686 0.48961235317584834 0.20343528140053155
0.5840003853032476 0.32798474034515995 0.44232072125123256 0.11877915960881584
0.6171960283037107 0.32815173006873044 0.48499935082363765 0.17366120312832362
0.29384402797002684 0.32447017421765034 0.49023717136037476 0.16813933457516778
0.4966173436373734 0.33321248398135755 0.44236400168192086 0.24342558275780476
0.8164716806572081 0.3292625204461692 0.4986264802497194 0.05768299799451071
0.751690613160534 0.3281296321359686 0.45997200824446344 0.1319600496232401
0.6498250552040088 0.32762188496019806 0.48111787336762674 0.2636209356439339
0.5985199263783824 0.3226126547886401 0.5025914429713093 0.06935687582425448
0.6531588180422373 0.3282759604011707 0.4958211381636521 0.1055908304789802
0.6454009080782065 0.3243421586527801 0.47830121094299305 0.2102391183335905
0.24488514473469727 0.3283046993747128 0.4610827634005108 0.20630502678973855
0.21397795533949826 0.32763579202639326 0.4841137309750272 0.1806400096981004
0.7891247624939077 0.32557389403553955 0.48057739585523324 0.169559136247194
0.30358120876816547 0.32918636440525567 0.4792232453055324 0.23024970848055257
0.17540287491994008 0.32254737670149547 0.45945959076530846 0.22844792793649063
0.32487521396525754 0.3221099150805177 0.5050965078980411 0.08406381926350034
0.36798758638988616 0.32384458620354883 0.4862454150329264 0.12217775731670194
0.7201737740965803 0.3245026231121959 0.45102014862018125 0.24877741940618495
0.1328687026575427 0.33042855493646317 0.4371634292445144 0.10896010757231037
0.3258909273203432 0.3327830767537125 0.4677005822228599 0.22031813013621204
0.3354921079210493 0.33134804974496274 0.439737799832949 0.14952800397229934
0.439196911540846 0.32928965316071823 0.4608650202363208 0.27568868569509164
0.8072458304042966 0.32465415634722855 0.44231976464581874 0.20204569579746234
0.5592180326435718 0.32137645714480234 0.4477154651570053 0.17307226512499166
0.722127245131865 0.32121947191376315 0.48752316548545016 0.1785501638763741
0.7704113888498162 0.3353691448902321 0.4574785107026088 0.23372822624243642
0.6954278237748229 0.330252609194972 0.4528517496584641 0.26527310306429297
0.4502367641431173 0.33202320918610256 0.46374620803043 0.17845762933272485
0.5151871319123782 0.3275407202019991 0.4286171875250276 0.2641189614790683
0.5016925688770475 0.3259612749015912 0.48175484249271094 0.22023991775405546
0.46421435590845705 0.33547473494870084 0.4530009440429569 0.1592484400725485
0.4657166200037069 0.329759901775579 0.4945224901745327 0.10181497199109825
0.8166707261549723 0.3267062572750388 0.46731357704855336 0.11785833902249096
0.6729453087933737 0.3210308573817292 0.4973364346350127 0.04352757504285427
0.7710381591470697 0.33090289807526746 0.48620806992092064 0.12819158516998425
0.11008753711320422 0.3270745644039305 0.4851623901724802 0.20270259367781873
0.1995376741798837 0.328055219523292 0.485937758347753 0.2424023592341913
0.08398463390890384 0.3255487637817769 0.48373266988165936 0.0674066644816086
0.1905436590514876 0.3258478424234573 0.5059466487116172 0.102438518815335
0.11687311934027282 0.33195369613036957 0.4734994186292786 0.1965188910584284
0.23744289367751437 0.3299982875075537 0.4909582875745259 0.147654489066021
0.12335134519997125 0.32961967921829166 0.4558187549786457 0.1367292486211903
0.1414421351794556 0.32873193806687817 0.5015610320258168 0.08220877572528357
0.1762556796671738 0.3271943893281386 0.49632976559494424 0.13607600473485992
0.18785123465856096 0.3305034140976394 0.478981598253408 0.2179372110184966
0.17393529075701375 0.32433080618070737 0.4842563306121484 0.15224725141300877
0.15362115063566054 0.3303647029377889 0.4629952495719818 0.1272269856882829
0.14223655002884822 0.32695210368697886 0.4826139776794591 0.1585661905154426
0.20290389126769645 0.3273883676517437 0.4961228175973358 0.17312627012873597
0.1560387442042248 0.32747024944858427 0.500295448568986 0.12421868743649722
0.1597858232246011 0.3231208340606496 0.47447518813279177 0.13515745408019414
0.12743384811710184 0.32386512994059397 0.4912826865996224 0.1001076962040583
0.09328388047140339 0.33491020434288177 0.44563464962336335 0.09866502911966658
0.11387048825124614 0.33001594319873023 0.4550629513808079 0.14800998188015813
0.16068220653431883 0.3258026834378937 0.4830259723290093 0.1447353528541114
0.35982144715037256 0.006407921195466647 0.7185874133984532 0.059852414817447915
0.6188605609473697 0.008608399109222141 0.7190043390982681 0.02728965986857373
0.22813585531053143 0.0026757640872621543 0.7242645770135012 0.039217229864922445
0.7057898083359129 -0.0009499310738183798 0.7204734605755018 0.03478803088465574
0.6551966693881626 -0.0035173517289570047 0.7289131794402423 0.044994619412377514
0.6381274017102471 0.00723438665640168 0.7190216655365239 0.0640583598802941
0.18620953641466065 0.014354844347181345 0.7217877413372716 0.02878636693348031
0.21405580127786872 0.0018119830137873975 0.7275086857833379 0.04233563541883799
0.20308813773795106 0.005490770907182283 0.7260209689124838 0.03700270141020881
0.6721024787637091 0.008391617093975288 0.7184267451676356 0.03617882739469798
0.6419467706540308 -0.0012195684944396336 0.7237562488219872 0.051948583158619895
0.13561797443741877 -0.0038831657643487523 0.7169468430124702 0.0032478123510033237
0.11630762814465395 0.0004961994934419948 0.7226296043312288 0.008734679233379209
0.10040751187385943 -0.0021201051729788623 0.7099938411570319 0.015589588031567025
0.3427004029417536 0.005084966701645425 0.7196782269101694 0.03552346413402356
0.524957106466522 -0.001175226192246994 0.7229219423558813 0.010424115580907665
0.3823502153136147 0.020893242741402657 0.7179697987237671 0.04458086442140707
0.49571013947276094 0.010660903521373246 0.7177547038153204 0.01757252507012166
0.4641789587419049 0.01035662697056568 0.7237399033074355 0.004249175058509424
0.5139065062542688 0.00890099606465876 0.7199821968511967 0.01807328274897135
0.047893833462167364 0.1953000085535008 0.49198538257869145 
0.04383501659390603 0.12042070859237107 0.5208146471045738 -7.63460307283888e-16
0.04631279697337493 0.1644875038163294 0.4917125931459935 
0.04684292216068783 0.17188490574263368 0.5100402510556967 
0.03657622479898601 0.01805544704533589 0.6398114274576193 0.06396284653152574
0.040942521313416184 0.05964672980744601 0.5340535260480004 0.0002651616829233609
0.04229465347355359 0.08863773815619345 0.534686278044813 0.0008180027212843367
0.044065242517243294 0.014713760723398493 0.5068386803081812 0.10528600762632086
0.040896019434102315 0.046198008104052654 0.5418416811080634 -4.3030808966217977e-16
0.04160751545194084 0.08397664537758083 0.507706188296489 1.8656590573947665e-16
0.04808962552711515 0.08953522170255934 0.5893696031832225 
0.045955962678354334 0.017827012431096523 0.6748646025618602 0.03585522253854133
0.04400148224264949 0.006884593156315326 0.4662178908456841 0.013768251302597104
0.03841757195164529 0.024503501051851805 0.6208538546558187 0.04159061821310837
0.04218307419102249 0.037327182184462473 0.6070520928072913 0.001971893318015719
0.027873356367070813 0.00023364666867070486 0.6253673259638148 0.09581438915300867
0.04118187251315137 0.007451339492419559 0.6995000627441216 0.02073172643790048
0.04191454842581725 0.013986554298548889 0.488511701533575 0.10137771491670242
0.03371475121111088 0.008454529532898675 0.5725592548646795 0.021442534519306822
0.041718648355901236 0.0378893246503414 0.5156023307796567 0.0006792864857646515
0.04808976826183448 0.1150200337865814 0.5509089769092453 
0.034888517227992 0.01114178066855474 0.6777104913903517 0.03304760229001466
0.042430942318401874 0.06635931852564458 0.5570784186304008 1.2595302472677676e-15
0.04071919217361605 0.007078591493220817 0.43763642532756686 0.013317813475952178
0.04013044355578489 0.04222777120948753 0.642319264707505 0.00017737034256808104
0.042357002806519876 0.0015683783540564992 0.6020001003542758 0.03237897617989576
0.048744368898962095 0.00972549646865829 0.7035305836520926 0.022832127807060967
0.04456356310009242 0.06711181758906525 0.6241903541503404 
0.02962729728557853 0.004340938707953597 0.6785818327313001 0.03073259695870816
0.03567103585548358 -0.002903115679401609 0.559837981261906 0.05910784633273135
0.043967327174986394 0.007787687488490524 0.445156890714322 0.015230652095856587
0.45618965205882006 0.11106039998358304 0.4269688371527389 0.004267971540906161
0.7215739771254122 0.05024685007817892 0.42526316109947254 0.002995381984626507
0.7989191897303536 -0.002963177451059636 0.41582958087658 0.09577644618336444
0.3587663106087591 0.03491221642595909 0.42548245972371695 0.011833096665525424
0.15479354996015005 0.031487727995373554 0.42297569976344673 0.030337753632327318
0.1671900244085925 0.004205990279771559 0.4174632706748831 0.06705329798640551
0.35342587561301897 0.06085746743290219 0.43116296068455984 0.000999767819143201
0.35656083028424523 0.16121634118857475 0.42308588764127375 0.0063194097175669275
0.2777903652221372 0.04347551868162584 0.42624342840678936 0.005399860363265633
0.24389912535550337 0.09235173794376432 0.4261907236397341 0.00028474651648193876
0.39738982112066273 0.10617817739586999 0.42507512454992974 0.00473174197411021
0.309675621767344 0.13955432587705185 0.42443575170338205 0.00300634782933938
0.42674413744043915 0.062110602639574915 0.42091077181402936 0.0003938993711938709
0.10863250394301857 0.1324096586304925 0.4291358746620878 0.009107949639532584
0.4071297366314586 0.027736498036036374 0.41831843936663893 0.03623945060259694
0.29095836020873406 0.0006719108190783526 0.42185296963624047 0.09164282925421234
0.3891660371705754 0.004837579467940424 0.41704471079731187 0.04676790168111246
0.5427861640535656 0.001184325742063416 0.4167975243255098 0.05387054237330984
0.08101822376580632 0.29507540826178097 0.42870816317926635 
0.48351619626865305 0.04615485632427148 0.4187248290080059 0.0027894511769259497
0.5724417102405961 0.06911871664253402 0.42776041240791557 0.005533421563447074
0.17947795159482766 0.04241075371718125 0.42279476435892505 0.006696549533562632
0.5127126398614282 0.09199847815539576 0.42738983038443873 0.006438870571269539
0.1543808383175505 0.2284700865225871 0.428212689881046 3.7125187491164455e-14
0.21716782431227186 0.17648878122490208 0.41986603500525055 0.017485729389539614
0.3224546952544543 0.04018189898146365 0.42669396131401616 0.0018422748083754261
0.46444294720873797 0.0649054325805755 0.42163247891472455 0.0013370756776553041
0.39198094328136285 0.1264994601100897 0.42811587656364025 0.003251768025269115
0.4457504350028423 0.030025409057672835 0.41803387841609335 0.012574188057841775
0.3312659370544789 0.015476158435661126 0.4209803520873856 0.0289971460265475
0.492449290588686 0.01858072566588013 0.4235201149471231 0.057792994540509915
0.6014705965768704 -0.0029904399124171793 0.405261903234458 0.08797964395853718
0.5672538458040178 0.012201118709723489 0.42584236639103157 0.048476735275904015
0.515681558783608 0.021474046624030314 0.41664515911864014 0.03293509764799349
0.2444537135394403 0.16883009839017263 0.4216677122354927 0.0038584455536826673
0.7697952282283345 0.035292508664610374 0.42366958019530476 0.0041351607089563135
0.5884052754641758 0.046120352354557526 0.42807376999197383 0.00485818050460185
0.42620380137138325 0.010046904351971715 0.42337348383104384 0.029304888350723226
0.3017289756140226 0.007214338739477859 0.4202188432165342 0.08020429611731386
0.4613264855960489 0.09525656062447428 0.42690057552761784 0.002387151222802255
0.7954881698725911 -0.0004895125151409656 0.41511304982726266 0.08741489043561987
0.19429597512945257 0.014533006845240736 0.4237826797274902 0.09458444252161906
0.21038411245318228 0.003201824522829017 0.4201540805173657 0.11827851436593471
0.6733277295270278 0.00678485917546978 0.41915480118835574 0.09603588174286656
0.6807256986121478 0.038861477440240495 0.4264957656076462 0.007135661558609416
0.21909186329018465 0.10104271602533045 0.42077382300975613 3.573003346039267e-05
0.44986966796193334 0.0065994812841093636 0.4101295240099258 0.050792385791043705
0.316703916174448 0.16364161727494006 0.42170965267665134 0.006323348274174728
0.11538655787223498 0.025054997560475106 0.4230328941128466 0.03469610619976208
0.37741381581464867 0.018271768162403685 0.42352838419762173 0.05702020208384542
0.45132903681380454 0.119640622062281 0.4252225277622609 0.008470242884023467
0.6964128505854457 0.02085581985955099 0.4213972814355319 0.06337235413151932
0.6532719433358632 0.009344559752769542 0.428340004896169 0.024215569943220532
0.290853768543722 0.03289469715951551 0.42110261592480686 0.006117809778756559
0.11333601692507252 0.14772522461582777 0.429333733228126 0.013271902099702429
0.2781199608131581 0.134076373523532 0.4239777874780828 0.0037739122782314036
0.12725918397491448 0.2785007035788276 0.42528395035003724 
0.35754155725725373 0.009009753365733479 0.4143895514839382 0.0725919276269428
0.6142328168950509 0.04203701754933075 0.42172454960817884 0.010467815446952447
0.16145511567180404 0.13944889927832346 0.4236241509853083 0.008326207228353323
0.15033844048743386 0.19966704537676278 0.420113989446269 0.0002798422327684353
0.4329299132140339 0.010284675974195563 0.41329874394950245 0.09192829635960746
0.6737980120552145 0.06486888964029329 0.4229992003799443 0.008403199849823151
0.24256686362608637 0.03044537207578801 0.42930697338671236 0.0032768532761937867
0.29320211436442717 0.0616143201701415 0.4240540954403451 0.003793380611308633
0.28665679263571714 0.037835635617471136 0.4220922379789503 0.004344650690701552
0.3311557901713085 0.16850167365636043 0.4185116391824048 0.006632982071712297
0.10155436695690269 0.1506769193639527 0.4263202973645698 0.00012045643388133627
0.11218306168270074 0.12208589151620458 0.42720270238282193 0.008543565091767274
0.4125376428986002 0.10653969117800383 0.42559055027547815 0.004715750686384997
0.32771834512907594 0.016533114397886448 0.4192718059043153 0.034418607030702306
0.12923179587705957 0.24396924673201228 0.4242261499434263 0.0018179773169284942
0.5222309366201813 0.02034519161652671 0.41701499238884204 0.03923322323092846
0.5825887185727829 0.09227076089450735 0.42380708407888557 -2.3488180009278758e-14
0.339482994172419 0.13449151431571635 0.4197149789753046 0.0026754745198182338
0.49444447563707994 0.06479710163395208 0.4208657863210779 0.004982624552034704
0.5569550845174098 0.04240560246131788 0.42275151766700964 0.0022641591709477867
0.7008855172532648 0.05624154606748948 0.4211976213084496 0.004933534571486498
0.13792588852720325 0.02393973813224872 0.4189661445058417 0.06663622949812978
0.5107866536019869 0.14686521079248022 0.4272110176534312 0.000538004413912198
0.6224805861300668 0.011468234407958805 0.42144364734730144 0.038724791788026736
