x y z curv
47.67878958258974 0.45628856353229946 1357.759460920037 0.05013136041289336
47.63147457247275 0.44523726200623215 1357.7517623457352 0.04818139802668893
47.59870839757755 0.4470445605441516 1357.752190576671 0.08410452709253587
47.61273595062604 0.4522119830040719 1357.7551085225248 0.06837694084194737
46.425773051006495 0.42171684286205136 1357.7530031685355 0.015524119265046477
46.73274069929264 0.42679819261886526 1357.7482382390172 0.08797588404086394
47.39916871305305 0.44427323644870353 1357.7597162376467 0.08418307287236565
47.71179153495744 0.4428332149059289 1357.7519274303056 0.046998393071283645
46.797632449853566 0.4238435120069145 1357.7484806219938 0.019738898947594244
47.4307177263916 0.4334523405935741 1357.7523560943685 0.03595176854178266
47.462566395850445 0.4420295305003517 1357.7533373581355 0.05353823951772767
47.798343884438616 0.4548220782948514 1357.7557280597969 0.05793827097809586
47.59615319704204 0.4427512092708214 1357.7509676628883 0.07820465277844149
47.3904390813049 0.44186863828733614 1357.7546103053878 0.06572201519064844
47.29910865683282 0.45191584674861957 1357.7484995858067 0.006982597671552935
47.31219731276233 0.4470827994437823 1357.7498818767567 0.018702122398056062
47.727658537850594 0.45603574237153083 1357.765793876303 0.05743398934857114
47.71064288429359 0.4421445769105898 1357.7481461858774 0.04279519011548073
47.48278297251555 0.44282826187126806 1357.7548270995392 0.05068126953197549
47.191717873201405 0.4373308780237683 1357.747444651096 0.04256563449871072
47.63071584845459 0.4358944949020467 1357.7510121547632 0.03922868492479078
47.51237543826604 0.43749008440302534 1357.7536340419872 0.04824551572784566
47.84692690740796 0.45518454313785095 1357.752256456673 0.07256717382117518
47.756306274928065 0.4355731179404045 1357.7482553449443 0.0248149054312525
47.836382713581436 0.4510092470749723 1357.7477572065766 0.06838630084323481
47.81251858065479 0.43641669598023214 1357.7505740669717 0.025030616767352236
46.98890769490198 0.4430335756444309 1357.7588281145802 0.04516460147193793
47.477375985162865 0.4431069928567282 1357.7514228862676 0.05977199002105953
47.87787189516104 0.4386943070672461 1357.755649889191 0.02540420030408602
47.8915088550208 0.44271273460715393 1357.7518827771096 0.07327149494535432
46.52188913420165 0.45366718331664724 1357.7616652807735 0.030333776909930294
46.77988125686043 0.4427812397848419 1357.750325287983 0.0725647507600635
46.98311586831089 0.44854621643456577 1357.7513371223974 0.0377001868905317
47.25409415563627 0.4632227136110385 1357.7619603345497 0.015770180447241038
47.65328138193349 0.4499287430353963 1357.7624393698432 0.0773425905364714
47.24589571144553 0.45172874082335096 1357.7537996977344 0.034482243289856516
47.45193558529885 0.46395384283594 1357.7659096811726 0.050115953413343184
46.88204995421623 0.45466610764546533 1357.755427382527 0.04298557394441053
47.38190017725025 0.44961641409726766 1357.7619342003968 0.08721947111033312
46.67114090831452 0.43588476886331723 1357.754305669459 0.02802493228055071
46.38811880443544 0.45204103612117663 1357.7565688177876 0.021445053140556076
46.97423732786609 0.4546386426027582 1357.7580072593425 0.03444814175140021
46.401523733913244 0.4515640523476421 1357.7607896462507 0.05861292027120573
46.689341068993166 0.4289502948173369 1357.7532748453484 0.05883072279894128
46.46334386385243 0.4579306625797542 1357.760059864855 0.06942293271709102
47.22118837242923 0.4501216187559686 1357.7669535537934 0.04585274001549989
46.40885517869526 0.44541588075249455 1357.7551655273394 0.06679299398993202
47.40699689134862 0.45382822421281993 1357.7620905476383 0.08627881030982505
46.64245598994266 0.44256145296684773 1357.7508431094848 0.042567494485663326
47.05274502425176 0.4467373067510361 1357.7594207596103 0.029515876755929107
46.57667869494364 0.4563398971058182 1357.7534800100225 0.03545121376873631
46.451648179871746 0.45214232912250757 1357.7584028912001 0.06877027068256686
46.88893451189662 0.459753804444268 1357.7600590611048 0.028626749488192483
47.28871875100362 0.45025476857307356 1357.753912676943 0.027541557922311565
47.520143114357005 0.4542804415423828 1357.752319836044 0.08644943208767261
46.82356176334266 0.45264959743076894 1357.7554303875056 0.09217981525856213
47.336701430642265 0.44242120457064876 1357.7497275007183 0.06251078868013475
46.830376284376406 0.44609678967523464 1357.7523098410393 0.09640190905098432
47.56613520206176 0.45481144541938123 1357.762307214154 0.09656189655482689
47.19481544125135 0.4514068557081903 1357.7636655766605 0.05647060371018634
46.362136573242914 0.4455301464829046 1357.7530905739393 0.020926276449908895
47.59166974130645 0.466410560802984 1357.7562147519188 0.05930336972394169
46.456555449611876 0.4439448982580629 1357.7536122678196 0.0715604242507113
46.34814728564124 0.4594737024280005 1357.7480110830522 0.017990860584813723
46.75377260599031 0.43376047259010037 1357.7555763773737 0.06965242721584627
46.329707817840124 0.4612744399107482 1357.7539140934925 0.03094883075853671
46.995210016086524 0.4440922290805022 1357.7517084148851 0.06236661700976455
46.736308366430364 0.4371074317056654 1357.7490687822383 0.08470312684557499
47.72489680538391 0.4594936583554944 1357.7519252310246 0.04181521568952348
47.40621274756815 0.45468313068007354 1357.7543655343845 0.07003990323716035
46.5583963630409 0.4553446931065171 1357.7526915764518 0.04156815767043725
46.944619597416704 0.4498068887806188 1357.7580736824793 0.016385711348491108
46.84738547322558 0.4542318575587973 1357.757262705628 0.04899562844539256
46.53234960278145 0.4464086442868535 1357.751404656643 0.020207445407367408
46.867108856728294 0.44712758137310815 1357.750727111226 0.051913039213560136
47.77020157031571 0.4543573201989307 1357.7592013531926 0.065167902597754
47.87834011745766 0.4637993704416702 1357.7626850229817 0.03139025822007285
47.17945314330981 0.44250344215656107 1357.7566642721633 0.0646365504915771
46.393921165687345 0.44517359757290537 1357.7408115169949 0.015341711520489512
46.50745124247963 0.45990008476352673 1357.7480919056798 0.02579962331534014
47.26087788793807 0.44358617687631924 1357.744571749262 0.01769248033797344
47.16387611340322 0.4459810428403223 1357.757609111017 0.05052828276083205
46.63181562956124 0.447412704173108 1357.7551152201825 0.08603496214229851
47.01046179271203 0.4424084780001442 1357.7536695203275 0.041559613113015724
46.783916427320754 0.4532210855734586 1357.756680294959 0.06407131511384377
46.591019323764655 0.4476564704986613 1357.7572941503051 0.12572966865382765
47.0491939472737 0.4479462289380146 1357.7629954176314 0.03400912510264302
47.214890638444196 0.4416245380695321 1357.7568063120696 0.05369097221048089
46.360363151731356 0.44753296960973776 1357.7571845533298 0.024744352705519525
46.92596090981268 0.4515831022681837 1357.750007461153 0.013059616753140074
46.704642435443425 0.45268582960608794 1357.7577456283109 0.09420269601306282
46.774388595583645 0.44676594448995005 1357.7466806974817 0.025058239913296733
46.43345188775238 0.4390745066712072 1357.756289301943 0.09007701156652521
46.71073996526265 0.4460600322512592 1357.7511880811371 0.09126923199072562
47.027365556656754 0.4643746638149775 1357.7473434557917 0.042888694401034724
46.90253410305696 0.4571799571909765 1357.751409067152 0.024186936456699632
47.206586717654545 0.14792608854652955 1357.7900683301268 0.06780140537219015
46.86590357307246 0.13856550263646003 1357.771355049736 0.05263147785015931
47.042630356547825 0.13481556682784784 1357.7831719606454 0.03648356278046932
47.32855496906103 0.1434046241378517 1357.7736953447372 0.04176630855712233
46.55914910805266 0.14466643959006145 1357.7599019968602 0.0268440874451563
47.44158371614373 0.14515616691114094 1357.785082902117 0.050101066356584525
46.384475925031076 0.13152944880687736 1357.769673612532 0.07930865175285028
46.32810528325984 0.14145899379845428 1357.7747814752145 0.038138752998314485
46.675040762659975 0.12916951650906 1357.7712609081068 0.057820909844705025
46.51573258088132 0.1403700725967746 1357.7814853566374 0.025799373116394544
47.733907410912664 0.13154164884139313 1357.79115714483 0.017831447346720132
47.21825203151622 0.13845904893691197 1357.779310507951 0.034401293653758526
46.35114321896348 0.1444227885340253 1357.7756380111869 0.053107090811319965
46.5446069350145 0.14232816656116673 1357.7693376282582 0.01261346220716157
47.68625282916799 0.14082285702661768 1357.7839845298981 0.022380238918446288
47.033249684149446 0.1355964843482169 1357.772780550694 0.03632286961543737
46.37746061935603 0.1340097139925492 1357.7661046302296 0.07005735933553499
46.60038370000628 0.13797372136285815 1357.7662880346745 0.046656720549837286
47.0011264172016 0.14068073466518424 1357.7713824590091 0.06463772111359796
46.38974064412049 0.13807198630173578 1357.7818286382317 0.0691039799106378
47.30424288206931 0.14224248360154726 1357.7817892664132 0.04240868784582208
47.11819928589067 0.14716810831053073 1357.775936938077 0.029227278612856105
46.798565522279 0.131513744266896 1357.764565103934 0.06544145371931571
46.3530958545355 0.14770529371013705 1357.783625079666 0.04130875415968492
46.47320726487376 0.13395570589182976 1357.7719625745976 0.0397095456172914
46.73761591055938 0.14083461288213683 1357.7683826489626 0.09400960130336014
46.36694875056649 0.1381316567804529 1357.7784494050165 0.07147880130330793
47.19036240042922 0.1378690623181179 1357.7802470814465 0.06858507307759901
46.47811339542293 0.14290129110780345 1357.7668502388208 0.05051639687136582
46.50180108310078 0.14485829648166462 1357.7799513205973 0.03759898872153586
46.77981545002825 0.13769189643226779 1357.7709155123732 0.06323123122015888
46.960886603712055 0.13755941716228712 1357.7730880379258 0.11378732078230049
46.50446825428573 0.14395528319658726 1357.7568427805127 0.030878747833224335
46.93352618357992 0.13617992047443464 1357.7775634316927 0.044420593969507496
46.816075134823635 0.14080766482771115 1357.7820793365338 0.08685332491857038
46.98850820841367 0.1392638593283349 1357.769719374586 0.09332750724486726
47.24787810013302 0.13742639620754862 1357.7806914859386 0.03916505635038834
46.43369760891499 0.1339255607831431 1357.7741826518834 0.04909990834465496
46.49235642359442 0.13252023612866368 1357.7768126179913 0.02433119914574671
47.281337379337366 0.13315915877619336 1357.7731998718198 0.027887992761085577
47.05006789423152 0.14527479980487715 1357.770616068193 0.05477630013979805
46.461023798842746 0.14068036556240013 1357.7630352634696 0.06881889237380664
46.805210875814396 0.1389075698928482 1357.7824671268663 0.08000724045058182
46.62729682208598 0.14509552384952776 1357.7864121871464 0.06029487880011002
47.71384386443369 0.1384581679391559 1357.780849640419 0.04298958841092808
46.75318597944856 0.13482411894580934 1357.7800442066455 0.05008503123828402
46.84376064018281 0.13488472467243962 1357.780477678968 0.03771457285490956
47.094158378044995 0.13965421958678279 1357.7718202650376 0.020039742291313237
46.33399877679006 0.14096867600160382 1357.778393556577 0.05050052910667594
46.31935515069388 0.14438656374207565 1357.7723183657688 0.037921949607306056
47.082664391423734 0.14491836864700242 1357.7872144812543 0.04982992357338459
47.38195891320398 0.1382165075385792 1357.7877597575 0.048798752522838114
46.412920359139974 0.14185945660978805 1357.7811117750553 0.09067637322426994
46.612792648849364 0.14854886497140124 1357.7856554912735 0.104212407948606
47.313048238503384 0.14157796312909132 1357.7886362495337 0.0436904904146201
46.54177634319769 0.1368204807119601 1357.7775544452288 0.009678737875537077
47.792059917985426 0.1427931733491314 1357.781336478285 0.050825654929179356
47.168821054920656 0.1322521611692198 1357.7817028517902 0.050968188109264255
46.71759742175798 0.14152949309130194 1357.7651168960606 0.06601925375912074
46.69719720272433 0.13803767575227427 1357.7780475964275 0.06937587273449028
46.725545986069704 0.13104139752604366 1357.7887061002355 0.017423471196114867
46.58570168438331 0.14281144859758105 1357.7788329501939 0.04115662398545999
47.13478032616716 0.14095913525002987 1357.7792169637657 0.02052835753491181
46.47108306104761 0.14234426183543872 1357.7676046828565 0.054922699287996146
46.59318267540147 0.14052412679612256 1357.7696018014167 0.05204985702665107
47.43115797304251 0.1402703477263571 1357.7870650356608 0.038926031940353094
46.65165749746637 0.13591006963274288 1357.7671210288402 0.043054526911132165
46.44347211427698 0.13949654849002363 1357.786559914329 0.04507167561947017
46.41091308703443 0.1355246097265213 1357.7725464579512 0.07543062741143622
46.59783196176475 0.136142223665043 1357.7802525647796 0.04105802819464279
46.87421347647003 0.14145760894043222 1357.7752416827973 0.05139739743307487
47.50883152175787 0.14029106281187448 1357.7807684115323 0.04045436022465232
46.7783853529997 0.13682459124315996 1357.7787700623107 0.07160085844606569
47.1625764348614 0.1303115444288402 1357.783770457032 0.05058544255793305
46.3362953994341 0.13116157296997338 1357.7659777864217 0.03446925718593738
47.01424523281379 0.14396973835802554 1357.779247422458 0.03481844384595556
46.522751142420006 0.13985650019241666 1357.7538808156412 0.013134526494123071
46.696919559324364 0.14486817601031957 1357.767870883494 0.12111310173081223
46.711695228044974 0.13227422296563704 1357.772440716697 0.038444605655469644
46.830817919493796 0.14080260424944566 1357.778630291149 0.0831424662719781
46.426566910707265 0.13386609813987918 1357.7951659484527 0.0208569360740698
46.40519792201088 0.12909424482857965 1357.7839555823575 0.03865061250971397
47.28477867391482 0.12953872516232767 1357.7816764241645 0.016639883646369178
46.63876221454008 0.13991056968820875 1357.7612448304826 0.061665311981048236
47.3812642280302 0.1376285000895646 1357.7781067733815 0.06753166229199153
47.34480097668635 0.14343063155146504 1357.7848675001026 0.02943818576720245
46.45741543947617 0.14146443384854954 1357.7730900564775 0.08547932801617623
46.922019760977726 0.14322978374625042 1357.762956105259 0.10347346013908647
46.90428414774516 0.13561389031027127 1357.7741031385885 0.030755814816021437
46.793483977077855 0.1452548329792999 1357.7782782212528 0.07446710913457727
46.98553049002708 0.13704447197248443 1357.7871269311725 0.03085215017741542
46.901851180468896 0.14716424986120427 1357.7820666508462 0.03760746055456316
46.40296366574735 0.13609124952587479 1357.761089960448 0.06665127665674764
47.68691153632369 0.13842037056381862 1357.7805316606457 0.02295513487413374
47.5604795494963 0.13733219798598245 1357.770496220298 0.023279377450228473
46.96987902051641 0.1319379697043192 1357.7603954743972 0.08492258630628893
47.763267055976854 0.1454957498922424 1357.77870447369 0.058237342976313486
47.21922756805125 0.1399990152730166 1357.7642743438475 0.0351137918202942
47.421932720667044 0.15043740752245627 1357.7681702777484 0.0625310764303577
47.51437918738972 0.13437187413104407 1357.7553738120523 0.08667915896198455
47.85042559617415 0.1399669636898299 1357.7849194758537 0.03284149799252739
47.44500789627811 0.14041193033686936 1357.7641605865617 0.06792429600839309
47.629828765337415 0.14142626523334148 1357.777255124891 0.06519405740633524
47.752404180550826 0.143304871627615 1357.780294478528 0.041975327425418096
47.803507721316734 0.14226187831009346 1357.7898668902428 0.04700506374248381
47.54854040567703 0.14003634166272536 1357.780431107375 0.0192285552396636
47.46287156195119 0.14342243068554822 1357.756358873885 0.061305123206597346
47.91039992746007 0.1408546244200082 1357.7713162347866 0.037819075940271604
47.6358938576116 0.139576072193043 1357.7660733915648 0.05266717821813196
47.50390612432591 0.1391169661954718 1357.7772382108997 0.04224368769199082
47.53096360289097 0.14166833735146567 1357.7699796466006 0.0982614218620895
46.82015862097325 0.14446873377513902 1357.7738339756038 0.12593624592391153
47.69497329961018 0.13505503586086168 1357.7706463669874 0.041059243404836195
47.14194252910167 0.13962346802674228 1357.7549441280582 0.04005539397023814
47.83515245417598 0.14458815012040027 1357.7870986522619 0.06025257966072729
47.360164329845446 0.1364923522671832 1357.7632623855243 0.046202451213190165
47.78037744622871 0.14581521868848196 1357.76316628786 0.051221785625042614
47.295418696012845 0.14020831253395735 1357.760642632084 0.08142564427055098
47.61438824913691 0.14701180080753717 1357.7604366851722 0.04896236376050354
47.443517589856526 0.13822727690738482 1357.7674458803692 0.05521415081146245
47.77003893585207 0.13721142584889892 1357.7642905434286 0.06251906715935256
47.114652248132494 0.14976046050516487 1357.7535915314472 0.0370571869246542
47.57618841524973 0.14235653997282585 1357.7791792647713 0.022104610927698873
47.122770125741816 0.14484391564705054 1357.768511298971 0.036219397058144934
47.767071747044184 0.13884226553689533 1357.7536249761888 0.057694383630308696
46.93852096732396 0.1348545106646689 1357.756786647559 0.09545614233829129
47.875464237237786 0.14726918533466757 1357.7628983382565 0.013821789812887363
47.43903306812577 0.1323970115671391 1357.7563042231045 0.045801277831823986
47.364848387216135 0.13527494207412336 1357.7691865023178 0.048826047346524196
47.2179594095329 0.13483459614996599 1357.771064446841 0.031779142328878886
47.34076272597423 0.13071712451556614 1357.7650591507313 0.01956179935910757
47.68755405613303 0.1382389690784306 1357.7626095452738 0.054869204312010325
47.07670874715474 0.14737622054376012 1357.7718650350253 0.04458530814822724
47.0776624009102 0.138160525541746 1357.7593545356324 0.0420150863267411
47.47680365518807 0.1346268699564333 1357.7826203337447 0.02912115878654713
47.392111157026626 0.1410987870205803 1357.7680840178803 0.050603959741016155
47.40725041048402 0.14414321334061525 1357.779717530135 0.05071863294732771
46.87038776268038 0.1432357757838231 1357.756615826802 0.1033958518172914
46.62495960210949 0.1389668800058568 1357.7644503941387 0.055565893569024874
47.617063993269696 0.14599401154260325 1357.7641396497552 0.0429198521082431
46.831413422988106 0.13417330014893392 1357.7531571540503 0.07552293866281073
47.705719206707414 0.13099183765445316 1357.7646973813626 0.02514071008672059
47.820562092123744 0.13843810415783248 1357.7866856763992 0.037860277144674465
46.74336780021607 0.13164885872236687 1357.7577641931782 0.026966996126184483
47.60173154923401 0.1429964167762461 1357.7782550159488 0.021766717269493068
47.23963859136194 0.13655403946484684 1357.7756560442556 0.03253901216845275
47.78534389710301 0.14564545203873125 1357.774230571704 0.04683620149859697
46.70126791478867 0.1425971597186333 1357.7605091851149 0.0750787199068477
47.02880271170078 0.13551151692290478 1357.7675444716367 0.09531146617667448
46.568588982374244 0.14750256924901167 1357.7592756676665 0.037355104856389376
47.68928629925064 0.14145407099132115 1357.7564676896798 0.0461302106808034
47.48669747927904 0.13386245480496248 1357.7707850422678 0.046927806004563366
47.72103009777468 0.13994970461910564 1357.7692231050082 0.04084894449308519
47.73260291036476 0.14204717878607656 1357.7684003962063 0.053409819795763536
47.66911068950798 0.1454202696832209 1357.7809619739587 0.040851560208300365
47.0058791644689 0.13714094310598607 1357.7559831737226 0.09197719603928715
47.822093168828346 0.14141827005518964 1357.7752479026867 0.03887499936715938
46.947140660753995 0.13884274922725529 1357.7623341029544 0.12899404990896232
46.87830634619952 0.1409876060642673 1357.767263204536 0.06425282959761233
47.16201501175207 0.13284813433939313 1357.7640565515992 0.05524562657874348
47.64116258256681 0.14108179998104603 1357.7697200106672 0.053530077623245895
47.29305785995583 0.13695049213560753 1357.7566027768928 0.07161978325188165
47.28591409138089 0.1432392295450375 1357.7614288930506 0.07969216760539187
47.591500629104566 0.1506595494069599 1357.7599772243466 0.023744202965488903
46.98889296260455 0.14305067788437614 1357.7669263926539 0.10792950990747241
46.8038993795628 0.1316399742886811 1357.7573646563253 0.060439526040123835
47.18471252658749 0.13273032037728152 1357.7659101500074 0.10467109668927363
47.138499570014595 0.13474633897403424 1357.767597621279 0.016112008376620905
47.196769768481815 0.14568924260701094 1357.7619710239312 0.10194573674813949
47.59706935438755 0.13949857160305473 1357.7832949521826 0.027442263505921997
47.898329832421375 0.1373148807304761 1357.7747394000253 0.019499694980185677
47.77474125237642 0.14743639323159347 1357.7740504792257 0.06953449451708546
47.816242754943175 0.14350716371678732 1357.7569995127772 0.024715661407938256
47.57318292036941 0.13838765309814569 1357.7675415950116 0.020393049190978726
47.83806698769115 0.1440174460350286 1357.7640862141964 0.01722157412511502
47.545667203244975 0.13569629135918126 1357.7683483265982 0.02897545430368136
47.1774360254035 0.13798481457547776 1357.76168278538 0.07239428271809009
46.91133007910575 0.14048426152324348 1357.7686878440925 0.07411788651801739
46.84092072643638 0.13692845301922857 1357.7703084506288 0.07761623626914793
46.78452908843516 0.15073584144728144 1357.7513643890272 0.0823659104837179
47.659804796286494 0.145818344694461 1357.7707966905964 0.057088198452328015
47.09907300020127 0.1415701298083456 1357.7588956338045 0.02857992702846108
47.72917140584952 0.14203506016391446 1357.7549913001592 0.034523782592395864
47.25070273730734 0.14158792973986342 1357.761438409219 0.051531846865095744
47.87191827096977 0.13766041188492717 1357.7776488494842 0.01270270767989102
47.04001913723207 0.13616772555211387 1357.7705069590254 0.04163920126735758
47.808056704380974 0.1398737816601879 1357.7675572172466 0.03192366707012372
47.898310338956655 0.14033417620762792 1357.752695731753 0.026822625812147782
47.88338547926759 0.13985382766470583 1357.7706457337651 0.016655019793214144
47.83595308974852 0.1429454971554937 1357.768822494519 0.019341751258322624
47.8653926709268 0.1519762604734881 1357.7704114724413 0.008244451083483128
47.52834876345133 0.14581981353916262 1357.7787296298834 0.08854126145063529
47.49055222209299 0.13664226630893705 1357.7693465748382 0.06690376609015332
47.6087042785896 0.14128608871048387 1357.7882612379187 0.018271185410066716
46.79979415388808 0.14230944416698088 1357.780726510392 0.08528707467060603
47.76713605743354 0.15329256500666236 1357.7856416369805 0.07501405823585237
46.60443004142458 0.1403996455225386 1357.7825415163152 0.06223136035256109
46.38049034955013 0.13319133845117362 1357.7815971968244 0.04923112729042726
47.02440570602053 0.1490629440906808 1357.7882890390454 0.032703533012963956
47.13914257039229 0.13692732631579715 1357.788150759512 0.028255679199275605
47.62672457601187 0.1340492475630278 1357.7840590710537 0.02445849405527587
46.57030587628918 0.14783528036361435 1357.781820139128 0.03597351688342364
46.526197239068516 0.13628288517108883 1357.7953952461492 0.014217189655919216
47.33256527292456 0.14881087232409987 1357.779686485695 0.03834991016703716
47.263433399769276 0.14608542737490843 1357.7909991630515 0.058405206614503144
46.60064384102368 0.1444065639834129 1357.7906690515997 0.07768863341619862
46.65656989952246 0.13948402250299435 1357.7837786872042 0.03480462379152426
46.87523794165068 0.15444531678488613 1357.7892702746622 0.04438008394208614
46.94421762261488 0.14856445229842472 1357.7901769813993 0.04789200026204105
46.712871483784795 0.14173751778928653 1357.7840228515936 0.02663219401598261
47.122492808025775 0.14784277275581528 1357.7762013787924 0.03413110967448479
47.46082723170667 0.1380509513251138 1357.7920689954785 0.05342361869370342
46.45237875898247 0.14773440759290493 1357.784035338239 0.06236044930119128
46.514296488987256 0.1474225153208028 1357.798219978505 0.02482956827927773
47.25926553340862 0.14779385084447122 1357.7852004645742 0.09314745452916011
47.64158029177402 0.14482272770889573 1357.7837696349977 0.07796380399866663
47.88936376402747 0.14311184432191024 1357.7805344645699 0.01963295158489698
47.87139569340632 0.1415616058041532 1357.7851147028503 0.017223174598179732
47.635930928339384 0.16698972966489412 1357.7546557012322 0.04972704391378566
46.96526022384569 0.16940959303007805 1357.7505574454167 0.03713005367693039
46.91289302657565 0.1638933524952992 1357.7452752709355 0.066587778797935
46.839811086652226 0.16558366209567543 1357.7524659448159 0.1001494143756772
46.93955094587828 0.1698928431748382 1357.750388587496 0.01766651263340116
46.78659525332153 0.15397231936534367 1357.7468163162082 0.09134911576331116
46.460981512332566 0.14652277208069545 1357.7479528188487 0.08705803303548396
47.31196665817065 0.1588532135511123 1357.7647746012499 0.027751365073964345
47.176085844362824 0.15581386535785519 1357.7579445486535 0.08421026180372962
46.71619559722659 0.16796168104967993 1357.75318768067 0.014772305968613543
47.05226863023149 0.15202513778949786 1357.7580508087658 0.07604322986650026
47.45023283236172 0.16238513374635738 1357.750478927489 0.08203861962307848
46.78114013638334 0.14772881979384567 1357.753819355549 0.0820346152081486
46.84812990232226 0.1593971679127982 1357.7600467820578 0.05717470150040231
46.437217497266744 0.14518276874413474 1357.7579466978452 0.06629404978678963
47.68280840269767 0.1795856494953816 1357.7448065150497 0.005401100510420428
46.540855139579776 0.14864032205880376 1357.747757534057 0.005536637555325938
46.48200041669573 0.15172280373421665 1357.7567628298345 0.03838265859411143
46.75180799066913 0.14521175892749263 1357.7478344378496 0.0224077290779141
46.98143367112921 0.16268020641909556 1357.7502169385966 0.053525928506415556
47.062170975530314 0.1596779710645877 1357.754216943088 0.059188175005762116
46.428862613926945 0.1597203722203586 1357.753712660804 0.05533756361933574
46.681347861139926 0.1471532916017698 1357.764467812023 0.1028408641094155
47.522459874130384 0.17217781226243553 1357.7507814295886 0.1278556064566619
46.418038509018686 0.1454866337050127 1357.7548932334746 0.05214116570908107
46.69068208306873 0.1457857915484183 1357.7647009981781 0.12057225283129558
47.68993666808418 0.1632219486265674 1357.7459216967343 0.05151539821207996
46.818194736320294 0.1520422954675093 1357.7543475154587 0.09373433438753233
47.079881436136986 0.15335974792756846 1357.75205853214 0.06315406178702153
46.37631262777734 0.15360712876546392 1357.7509604293832 0.06140546183760572
46.61378640711602 0.1636997914498483 1357.752794165943 0.07080672095830061
46.5835340734045 0.16165147097926647 1357.7569960491317 0.04724481921599776
46.431859060736215 0.16929007591777975 1357.7517897585524 0.01702028187298196
46.66298041618854 0.1500309195151676 1357.7543587993982 0.04176972251600144
47.226148744072724 0.1515992267117939 1357.7508914082223 0.018107337957292555
46.60819526756991 0.15085277356486398 1357.7529931045067 0.07490948758676258
46.68999535839578 0.1723730961602664 1357.7497086499288 0.0219618312172754
46.94376285406667 0.15408871798432586 1357.7519066944258 0.10554127202465613
46.62588237347092 0.14588311425120015 1357.7550032007348 0.06422761466023873
47.02305727929608 0.16777352794127262 1357.7461039841958 0.0138203201404065
46.896410272880395 0.15362255425265228 1357.7623139475716 0.07213817532664854
47.18633970839067 0.17082356916276104 1357.7554538093204 0.019707732890415514
46.32973638506078 0.13558167714993943 1357.7552671356752 0.03435069978386936
47.41051753716163 0.16325163727329045 1357.754537023655 0.034244547955510095
46.36050716275178 0.15639159723567575 1357.7540113601422 0.08548497725221932
46.68166392692439 0.16058484545882826 1357.7508500459396 0.026444704843680986
46.80928194934904 0.16474331251716437 1357.753011772228 0.09654020351883857
46.606396031131005 0.15491038407147475 1357.7528396651617 0.06717625207310915
47.30594433085126 0.15499925102814477 1357.7462398689347 0.04965256829608796
46.402458388042234 0.15907105136617677 1357.7513146304746 0.05214777394589801
47.85201364659856 0.14192298337817555 1357.7486525516229 0.023529071610314714
47.633257243210295 0.14487244393120646 1357.7586863412018 0.05554538024280535
46.64343046006383 0.13656298982421627 1357.7528532465087 0.04004707547933538
47.02555341070641 0.149144943859797 1357.7553184161131 0.0771583980306501
47.752401619080196 0.14139236393537863 1357.7637493640564 0.0611931351760287
47.25215401224228 0.1453113126195809 1357.7491432867748 0.054591784362912815
46.52878498010134 0.1438109693625248 1357.7512293409852 0.011291124111313878
47.48950061638613 0.14974993790568852 1357.755107990809 0.060989746298391795
46.58831387724526 0.14692835480721947 1357.7597518953546 0.056855139777064835
47.3369102120212 0.14138717189416164 1357.7439502737316 0.11076295950858277
47.12216266374484 0.14977703128713882 1357.759777789068 0.02887625526409327
47.32514944194881 0.14632827197737183 1357.7499182157267 0.08235578434821887
47.157434599721284 0.1431998163765413 1357.7531584563947 0.045388509482705494
46.684870685027896 0.14970948883475305 1357.755900813758 0.01709091038942418
46.76853034601562 0.14941928153380143 1357.7530228326148 0.05977935094220863
47.73512657923923 0.1566835925332954 1357.7522677096854 0.00715110609623568
47.264778500803956 0.16254349111289382 1357.7484905089646 0.01749265192308874
47.84754714831525 0.14489308191914813 1357.754446279501 0.015805667596628114
47.894236460647 0.13960700567364454 1357.7531865565936 0.026880602644436494
47.40307002557447 0.14956879047751812 1357.7581224038665 0.06868251220929243
47.6063418398353 0.14449964463403875 1357.7557227738816 0.040993646378657635
47.83596818648492 0.14702017286547672 1357.7594250469813 0.013636875656032242
47.66653266220616 0.141555703898127 1357.7508398841758 0.04941342652546595
47.14344442998861 0.1453867931114319 1357.7476304181307 0.05852533254276496
47.60842400278986 0.14755183556322882 1357.7601593456607 0.042008121386324315
47.06900578958215 0.13943136348467547 1357.7571702203572 0.04714228767449413
47.46885406145722 0.14912838064706552 1357.761016376793 0.0496897550869954
47.35436524293694 0.1481993498045575 1357.7509899147828 0.07360500725899694
47.53428274459524 0.14422926338931136 1357.759135996647 0.11369052238925265
46.612725960280926 0.14064742089646456 1357.7618803300327 0.05550934623954428
47.65190174295408 0.161447153815857 1357.753932249414 0.058723622623369366
46.960252660812664 0.14670167106351562 1357.7563665489968 0.11571003216253004
47.2742303465831 0.14331052381582168 1357.7607570956711 0.06506658976809722
46.91992260197362 0.1505393322408609 1357.7555220479305 0.1173903213341727
47.233730586724064 0.1432931529750834 1357.7526909025303 0.03165518901858006
47.47447267212435 0.14704016914699075 1357.749545164527 0.04642161219897854
47.36887048918778 0.16083487198365384 1357.7542680367117 0.023237452887398632
47.67910378792111 0.1488341291294654 1357.7652492985342 0.09102143751855234
47.39099833933229 0.14961217106824867 1357.7603839460771 0.04914773643278111
47.63009435012532 0.1470936701754887 1357.7573741032263 0.04909093849436791
47.43333154165661 0.14783060359391326 1357.7554648572204 0.07645696126757213
47.03801174998723 0.1406132400691087 1357.7586783822926 0.0745019283647232
47.55448041357367 0.14299158836850007 1357.7518629881254 0.026649078667464528
47.261410314137954 0.13537679632191535 1357.7636439271434 0.05645041263193602
47.38143956598091 0.15397614742638327 1357.7546303583267 0.040703320580970065
47.581753259327016 0.1430110453493543 1357.7410714999285 0.02182170570658631
47.80965207124375 0.14330777318299304 1357.749835139397 0.02095522374083495
47.65672662477015 0.15098249509506065 1357.7664408206017 0.06454741598498029
47.516118762249654 0.14983720715933976 1357.7530179101816 0.10660771247361861
46.554959992004 0.14554383205244797 1357.750776799734 0.021886128022879408
47.701086833253505 0.14765267305150173 1357.7555501153329 0.0698422640535451
46.36362677884025 0.14271926374307953 1357.756578895231 0.07852476350374946
47.876146359958305 0.14199878030982194 1357.7528419619039 0.023427835783269756
47.57834682512071 0.15149832964535576 1357.7561518985208 0.02344548722327792
47.788095126145976 0.16228910295003077 1357.7528384528675 0.02357230900170183
47.19232621467812 0.1506454185881527 1357.7559306161595 0.08863760526336899
46.905136393152624 0.14084068233181554 1357.7510109757566 0.05306273765922042
47.3298389639114 0.14116625108288625 1357.7448973297742 0.09300522772458455
47.45268400012273 0.14365095233685984 1357.7523733765497 0.063397507736223
46.87564610528083 0.1452318148588533 1357.7497660042561 0.05559585999962484
47.230443157180446 0.14871200451666153 1357.7607717273913 0.048799951966395534
46.50601456183124 0.14467530384821742 1357.7416569564193 0.029144820956554785
46.33666639797123 0.13757522896446206 1357.7552336434942 0.038249702862543214
47.43206928914507 0.15123975486542152 1357.7546866167374 0.0779717993711742
47.20884448087546 0.14916734146279215 1357.7653286233415 0.08158472788036567
47.91447653996017 0.1480218236976868 1357.1274286067655 0.09113884230003297
46.43484551968813 0.13686525158263557 1357.1295955973053 0.03174595116040817
46.596483721653264 0.14213581961505797 1357.1329797866736 0.05460404199168068
46.401683021492296 0.14727894818559092 1357.1177243328004 0.032780196609626853
46.5747217616059 0.1435691177847114 1357.1149109231378 0.02201071482735472
46.57705264834867 0.1381706518727438 1357.1211838596078 0.0184974103964865
47.55109483521524 0.13112683479289916 1357.130554576855 0.0251767950192235
46.36726936901688 0.14249772941083347 1357.1276618566997 0.026224022388798108
46.37427330897792 0.13345013827975633 1357.110576877862 0.023035457489010588
47.01464151799857 0.1423997733252597 1357.1151183026304 0.06422411039743592
47.15100829595944 0.1366902584972353 1357.1370632877574 0.07006996635035706
46.62690093326366 0.14750109660511565 1357.1104094532327 0.02748799117708186
47.17513938302941 0.13952429541444503 1357.1388084876467 0.07171441068490793
46.32646373895126 0.14293925991354856 1357.1107382686641 0.016075374939548935
46.66588785384307 0.1487508916128497 1357.1370550556178 0.10120995234980372
46.68187290956757 0.14007547514663318 1357.1147845477726 0.04568835651347821
47.60665429293363 0.14953894392541947 1357.1388333363848 0.0383387405578407
47.09085651628028 0.15123873080760156 1357.1376209868756 0.04637045606776157
47.71137281220353 0.14100461935105343 1357.1380074809879 0.04286047903544727
46.85645070071515 0.14017125662952729 1357.1236691453578 0.039615700106324585
47.06451456820065 0.13615839855959447 1357.1317529421954 0.034074757991820505
46.80468713330828 0.1459423744599196 1357.1216293485609 0.03787916477539489
46.718051690832226 0.12977413515927286 1357.123598303034 0.03190344399778681
46.79439143963063 0.1437368180561976 1357.1255052158588 0.03959319260104028
47.3999761978097 0.1383664131711761 1357.1315614557832 0.03531005951835354
46.689917572001924 0.14212003654070413 1357.1131631762914 0.053517226675301774
46.36046707796858 0.14060268044688773 1357.1137236658396 0.020149133451116394
46.66504800661581 0.13475406780918464 1357.1155107734571 0.031460498084229196
47.41238481461982 0.1435310419441442 1357.1234932913076 0.034109205853770454
46.65653676298392 0.14977098586803894 1357.138237329221 0.10921293530439992
46.694285479225385 0.1356984040942428 1357.1296760533442 0.04275492655289886
47.32536909803384 0.14422523725896458 1357.1331396909054 0.07458105314126902
46.49441106488625 0.13608116080995014 1357.124765897615 0.04219264194085508
46.448425568798626 0.13437677250082664 1357.1094187535523 0.03220301210178668
46.83741805101979 0.14175729725777805 1357.1260575129365 0.06063648573756456
46.47683133285735 0.13406069984824218 1357.1305195824693 0.029819969851333318
47.12005059822234 0.14158807973004728 1357.1320681495213 0.05893882546079778
47.80379226956498 0.1415901514003121 1357.1345963655042 0.03270127752244236
47.09590792294093 0.14106364722581044 1357.122366156999 0.0529155575797512
46.40249542917833 0.13841620497998164 1357.1325442236819 0.031115013606088038
46.99452417693734 0.1402483566526468 1357.1181779590802 0.046273941049429085
46.46746238735551 0.14487943310032747 1357.1350179016147 0.030717466395845813
47.85897057239078 0.14033060025542482 1357.1308802091355 0.024127249077096957
47.10258478119838 0.1317406160476671 1357.126001419045 0.03992043861784285
46.89501840128454 0.1423462937402378 1357.1368351010938 0.06490234935454885
46.47627985018202 0.14316991646927332 1357.1104712198583 0.1387911194932812
47.03954236333085 0.13429007113167274 1357.1248330783583 0.03428549742323912
47.203743318243355 0.1396630882529379 1357.127396653578 0.04002065494842101
47.4448819036828 0.13825292946404025 1357.1376071089148 0.017095577948461362
47.758298084617564 0.145247673992409 1357.1307300473377 0.042279428650443394
46.967841855691695 0.1316332306509082 1357.1355903118765 0.032486751484011554
46.78599526617452 0.1381586780470718 1357.1172477798632 0.028035780428712704
46.34126663931355 0.13767684409322045 1357.1132793887132 0.019642844491056757
47.234237485005 0.1422177113928786 1357.135481630302 0.028657554070163214
46.43374831546198 0.13486038346192167 1357.1140999610006 0.02600438619890384
46.94903929867164 0.13901659156263155 1357.1282704970065 0.03832244232626707
46.87950927722847 0.14018519329489704 1357.137278004455 0.021468716036820535
47.511015111234286 0.1416346801461867 1357.1397668865827 0.029692684607694565
46.416528512474656 0.14183961419338018 1357.1342818510593 0.046354992839658174
47.254041631469896 0.13679854362186888 1357.1287996402739 0.04087880685518859
46.764591584341765 0.14413095724991756 1357.124257691301 0.024679821873923122
46.37922956057603 0.14139408619148536 1357.1152703128346 0.02385844749772284
46.53057983843157 0.14336074825253056 1357.1140645269159 0.0757222853997802
46.74839276229388 0.1427387158137375 1357.1256324533288 0.03410319266990661
46.64302738177867 0.1429080599078324 1357.1186697426836 0.034505898418888015
46.601642483421784 0.1441769614671301 1357.1307636166237 0.055330975688937994
46.39294579136865 0.14270758889280263 1357.1116846573732 0.028924636862505806
47.02818839982552 0.14167138102993768 1357.1361673762246 0.03217028493470505
46.54562566962382 0.13968861382010136 1357.1054708769439 0.033902986153017005
46.72388855535013 0.14499736955731146 1357.1077573191644 0.01682985505799072
47.01027384313926 0.14461113478227794 1357.1369001030105 0.05196032353212622
47.50364143024656 0.13541989023650713 1357.1338285976954 0.028901656830093304
47.07824827569342 0.14723440880810124 1357.1286402746812 0.041997380960853765
46.95488181341663 0.13284042061579165 1357.128113756893 0.037841536413230195
47.162591939837064 0.1445498362964486 1357.1252685888958 0.1225886488707402
47.683008665043985 0.1456733557746886 1357.1293752042618 0.0406750030502275
46.9174212314395 0.14398279660596439 1357.1160536309862 0.03378331262891673
47.27109302669675 0.13952087168557362 1357.1278471883304 0.04241285236955456
46.521754303955646 0.12792400551500183 1357.1235432955284 0.06325769657423035
46.325363314124196 0.14391319847692305 1357.1195918170176 0.01646897549311274
47.636553065270014 0.13993852486093525 1357.1383788057738 0.013955106020222435
46.4833811107736 0.14419274539314106 1357.1083593031767 0.12047250636473246
46.93959232599608 0.1473549669623566 1357.123536555798 0.03051817621585158
46.74655677540109 0.13893282306576402 1357.1310297146426 0.028099655019128377
46.51801537197889 0.13325283930315948 1357.1296107654557 0.06826800874139174
47.67469116837278 0.14278027443242186 1357.1306590243084 0.02898084725405278
46.36004005722291 0.14070823429639823 1357.1247110252827 0.021451133702549228
46.674598236612354 0.1408719474499656 1357.1225157686447 0.03070466943493619
47.36742802690301 0.1339799910310769 1357.1395140865582 0.03762480179105697
46.62589030609369 0.14250786171324412 1357.1247927291568 0.024452897620905516
46.59621766193668 0.135063283041759 1357.120644401223 0.024601917596189293
46.82131157078995 0.13473398308842233 1357.1270392773206 0.029416391560009584
46.85481268994213 0.1379161042435939 1357.1325418824774 0.04042798159771621
47.286219526364796 0.13596795771191741 1357.1383526709362 0.056048224525714486
47.15267973043898 0.13665045496940253 1357.1270600193373 0.0288360952959388
46.82947025302948 0.1378279989783893 1357.135666789505 0.041164802621083234
46.45132362918948 0.13608512452189447 1357.1298965005046 0.024963643773664248
46.532530170420266 0.137768560010358 1357.1249921487217 0.06725156061296879
46.51106092612306 0.14690250776538838 1357.1370945517451 0.04522741921110618
46.41303023786284 0.143284083080344 1357.1070492788228 0.01998335297639283
46.79433716998352 0.14029938656763538 1357.1351968319377 0.03783885687209172
47.067818906810615 0.14478427286520446 1357.1201507376188 0.037968930459448234
47.0504921701535 0.14138436798430215 1357.1358257244822 0.047865707698946845
46.8894802850254 0.14670334832508153 1357.1237793266423 0.019318569845886962
46.919268151469204 0.14262097374302318 1357.1284854056373 0.03618541243799987
46.35008466583164 0.1357627961889244 1357.1255447274384 0.015788824254395817
46.45518739608926 0.14034054439381927 1357.1203506790507 0.03433728740982115
46.760799240942994 0.1344901936713695 1357.116445314595 0.016688340329093616
46.55979544685281 0.1374089021845054 1357.1185805896164 0.026540515092838498
47.31364448765354 0.14840251969616697 1357.130850595128 0.05752256572085776
46.39633695185377 0.13779029037062718 1357.1278823535204 0.026354885771833668
46.38513143881896 0.14814342012976825 1357.1360048436757 0.027510755839789635
46.824536194157766 0.1361057669868497 1357.1146791548101 0.0450757457583192
46.98698116916388 0.1290724359908177 1357.1286147006883 0.02480735432867591
46.60775400552909 0.14319876358223632 1357.125569477468 0.034871723871582126
46.54161959192544 0.14064443893212422 1357.1239451138242 0.060578532337603394
46.33219935252422 0.1500871720159495 1357.1300180967808 0.015620295740979274
47.1426633811335 0.14552388946741138 1357.1296970114897 0.09271923844771336
46.70763370711743 0.14433445888847898 1357.1107729503833 0.03865269058860758
47.21277015437775 0.13757021922596113 1357.1245830275088 0.04162270640485355
46.645442121429376 0.14125822097446034 1357.0990115151478 0.040644671803110106
47.627820739688474 0.14616773220820148 1357.1109993840505 0.04632553545479925
47.48529689458358 0.13654963178902513 1357.1316041384844 0.05245404308900504
47.482805769651954 0.1432061567600718 1357.104391202981 0.05107812678928364
47.45034747251781 0.1386353858857179 1357.1270455926324 0.02376562794170943
47.31326361536661 0.14209933411498016 1357.1118760863678 0.02637884881195707
47.63761137888991 0.13991165733449987 1357.1272192985446 0.013804112617102212
47.3822650227215 0.14273050517688649 1357.1291445273775 0.04744943525500888
46.533829673326274 0.14223595487821958 1357.1061342404557 0.08422937038493593
47.680362129834265 0.13825095249013158 1357.1234301278369 0.03636262304321991
47.85239901558151 0.14639796849875097 1357.1347098893177 0.032085030428988935
47.233352156921754 0.14344482436109332 1357.1167739057478 0.03838156983161826
47.89534236882692 0.13986005066487425 1357.1166056380173 0.03200225527919363
46.922910849435816 0.13464037546566557 1357.1024498381432 0.032704885447097765
47.442945141914656 0.14375200257844334 1357.09855793586 0.019827781998950692
47.610544342890975 0.14280064359564446 1357.1192558957255 0.04001740417578453
47.02527441491437 0.13944453658664435 1357.1114818382607 0.04833485201895946
47.59782264262405 0.1416277529308054 1357.1324363621618 0.04476577129206629
47.79853342430436 0.14092295939716584 1357.1094121827377 0.038277104663946605
47.29463698666403 0.1386537462775898 1357.125850853554 0.033109020621567106
47.106420058284215 0.14331046303263884 1357.1086739015145 0.08541496371148581
46.55615666807121 0.14240200245806073 1357.107554666525 0.018899474093160694
47.72848381891084 0.1391844230352688 1357.104264619929 0.013726408268919802
47.81384637609341 0.1471133114408003 1357.1142757636612 0.04799638010456741
47.609440463349976 0.14216035314622555 1357.1089139215917 0.049496594672742186
47.5930362342754 0.14490081567331747 1357.1117618129804 0.05557322590572866
47.899096910013725 0.14001653577724207 1357.139121959449 0.03953093165102559
47.15819873598185 0.14540434227146065 1357.107618976319 0.03477844268975541
47.04690767360824 0.13251764173509487 1357.1139485143028 0.027954251337263925
47.732439835355784 0.13294768813690883 1357.1260910706867 0.016689003858339446
47.70508041354985 0.13920935564845394 1357.108889375218 0.024374382513795135
47.672314679900495 0.13614075432567727 1357.1141145450572 0.030798324553737495
46.99455022400956 0.1501579379119085 1357.103634939547 0.04266889590817667
47.83941154743812 0.14577897406018928 1357.1108220641113 0.07314664236286471
47.364101448162714 0.13638449147644338 1357.1225069444383 0.02880931377347417
47.86769583337594 0.13330777612793926 1357.1234846017874 0.022089793099533996
46.483742982851105 0.13796776285771928 1357.1111079017371 0.13005283496019865
47.119962696222785 0.15012369971270556 1357.1132720160201 0.08898811962351877
47.32574809794887 0.15097320081135585 1357.1197295740733 0.03665198195083398
47.4662506792686 0.12400130954610442 1357.1009205245753 0.010374295803659561
47.870360565813016 0.13658027916759127 1357.1121682405042 0.027527934762879187
47.33934865277195 0.143965349150179 1357.111571930869 0.03283583020539422
47.797038568014386 0.14509158484559084 1357.1364927199068 0.026360028845363905
46.9742599378152 0.14297397691725394 1357.1131026825672 0.05030538564759942
47.56568437317638 0.14273885864912364 1357.1127054138326 0.03648294460371325
47.279344221267515 0.1437644206029309 1357.1230165865506 0.03873353978040543
47.2410379529005 0.1402497684255032 1357.1204763109483 0.030018565844542787
47.69736469318898 0.13766464880690743 1357.1253039441535 0.030739198305430728
47.49915001301877 0.13898341430642117 1357.1106225866085 0.047413994596507116
47.78722451569796 0.1416375252966306 1357.130425352935 0.029749426721413633
46.90740480086673 0.14141397910949552 1357.1083547795995 0.031530463217646035
47.69368956542378 0.13525602086548993 1357.1131654066173 0.03259673715163855
47.033499057936204 0.13664512366762388 1357.1051163108043 0.05141916647105954
47.63600464629327 0.14387295019088972 1357.1214067555222 0.01406679901539267
46.86303937331104 0.14469776091437483 1357.107277623454 0.026981709247756013
47.536409806443196 0.14307424337932373 1357.135609233362 0.061146598827773915
47.266263580729 0.13008210967942285 1357.1144252246106 0.020635256620398088
47.714188722423366 0.1444327363111025 1357.1218799374767 0.018250325678891333
47.59977141505853 0.1387142411088573 1357.1279038055027 0.05540236233863943
47.2032712321465 0.1468936771697717 1357.111928891801 0.030114485806864155
47.403270422629944 0.13600507325402 1357.119244666478 0.025132993345975654
47.37836335343709 0.14131576917984812 1357.1097465672851 0.037965790755229066
46.94046126999684 0.14431168766211194 1357.1081454101586 0.028812009701932505
47.82785162106778 0.13577068606294668 1357.122152864633 0.03985824245569753
47.21704959737324 0.14125217278407529 1357.1154416955835 0.047703013067871586
47.64753291781506 0.13718765329012148 1357.108605867023 0.026906168548969434
47.77911333129754 0.1398154395347858 1357.1163967994385 0.024794269340274618
47.46202379186268 0.13540603843120985 1357.1226241923268 0.02134978125117019
46.76429244066736 0.14279839279677878 1357.1060000829514 0.03236211211737157
46.79133870179321 0.14736294617589699 1357.1118422560626 0.030713939038945266
47.74413450037823 0.1363542038658222 1357.1290714508923 0.025987590629450337
47.58341797097841 0.14285121309391036 1357.1299185945932 0.05251374195756352
47.54649574655316 0.13892386067569162 1357.1277284697107 0.028782946865531227
46.755401764304196 0.1402495245286611 1357.107685725976 0.02908258666461158
47.654874320978706 0.13407773545793428 1357.1227313294205 0.03089461584736437
