x y z curv
0.3788251823806903 0.4464708943863063 0.6863832694927652 0.02284073615679446
0.7384414587832885 0.4490911576969604 0.4440863450561341 0.011175927974243178
0.7507684959435218 0.45156729283340913 0.16310425100644296 0.011232804376272592
0.6157293008691753 0.4504339391744586 0.5785711304541642 0.010621164067531394
0.6945797675857267 0.4491755544575733 0.6839460028883573 0.015684139044163697
0.41776260039406327 0.4472171806605893 0.5710306753177787 0.005299994618436379
0.7343535620161596 0.45152073320009556 0.76430776369658 0.010130957423546636
0.7064420989316208 0.44967460120679875 0.3070946944865714 0.011935243959430297
0.6337241333447149 0.4532896516775166 0.4826307027514457 0.015726277566837102
0.5725546931721746 0.4445451964019382 0.8331117363162501 0.010660766212988358
0.2596031750391979 0.4494405465242076 0.8022442346089975 0.005509904720252999
0.41394333165429925 0.44823488383337495 0.6116171607040259 0.008104823415561785
0.49681698618702774 0.44760056427100303 0.8450750102630266 0.025734711681336186
0.17108091776164072 0.4506384342212397 0.8183369731401912 0.017041388538130777
0.18156505078267018 0.4462248380228283 0.8048089001205626 0.01210302669042303
0.4770087506097278 0.4543933727164437 0.8671575221153196 0.018468262506169387
0.6004651406841635 0.44926253704414615 0.6649327830211782 0.004844827043080743
0.7543365894134689 0.4535515186928685 0.7368467169914867 0.006645978429967322
0.2554595696134871 0.44789811740009433 0.7746143376270551 0.0067667093047404725
0.5122887750432183 0.45075680238062943 0.655387237169147 0.01250786778011429
0.7360269254162677 0.4506891045313015 0.39182877098980645 0.01122374662322563
0.7732025312919105 0.4487623988075318 0.4597218043524431 0.013338632602368792
0.6727901088541834 0.446304183525676 0.35269447193446035 0.008792538055248036
0.09561869782532012 0.4575348696512512 0.8587038701919413 0.007135211627840993
0.7479204070160891 0.45002356769597396 0.6109213790120042 0.014928714417722097
0.6863442766139092 0.4472015429278487 0.5812308905956453 0.005227912311251077
0.22105586777681996 0.44618812725681045 0.779299369897346 0.007364297747769607
0.5580268074971803 0.4466236220372625 0.6825611649825428 0.004693186539550476
0.4094736534700021 0.44464441052094994 0.7611635327631565 0.004576863867083198
0.6222674726666787 0.4498163713467851 0.7719825410503032 0.004837536384196909
0.6813795638036977 0.44824198674463767 0.7265420742275938 0.00350504477424576
0.500693886707662 0.4571283715200159 0.44324774688012 0.007574877108800412
0.06952923282622171 0.44786945169804465 0.856841665065844 0.02012041456576373
0.6305303201351862 0.45339855312685723 0.862353896195947 0.016973046728806656
0.37545714091244714 0.45227895945876206 0.6674418810586592 0.022789783197370374
0.4824994730119612 0.4476190972046071 0.6831070027777234 0.010070892266593412
0.5811590777440188 0.4542792267272328 0.5306068618087232 0.011325735360141797
0.34842898559785274 0.45726181236132785 0.7945737127839287 0.0046574882125752035
0.2546934861213999 0.45138611765623876 0.6737161424484743 0.017883664911061598
0.6258240262133627 0.45413930380672046 0.6773793413962813 0.007994625392944583
0.5394082204352307 0.4480805131196921 0.5794762318419732 0.007563712906632641
0.6305849461824989 0.4524460299133416 0.6605205518125847 0.010261463693444188
0.5858619947114831 0.4519945642332591 0.6747240693312113 0.009299646649785465
0.29195970105470004 0.4509529750502548 0.73411196825097 0.018708275405303156
0.41003614479356176 0.4452583736530232 0.721686082762036 0.012477848812902209
0.7007161261469159 0.44670473576705066 0.7618184122125055 0.004488911580832119
0.6137217000642096 0.4469965479157957 0.5893586029746576 0.008310363372076222
0.3767040915923873 0.4501702927301968 0.6120223312492543 0.010794818067730845
0.6175436914967676 0.44998365234169746 0.534487794554281 0.005647260532601723
0.5013254712301984 0.44834944817420086 0.5224618593286532 0.012053535707884373
0.4739511342214711 0.4514396117843922 0.482217678516702 0.012014515822240026
0.3786767444146367 0.4438520271647674 0.7715772343600477 0.0027194390038779554
0.6773816295967521 0.451347863696355 0.7509465663313383 0.008866737018401462
0.5557271304719102 0.4465552071198621 0.6183504878404928 0.002839593527084072
0.6462694505813193 0.4528389353189282 0.4297236770717101 0.012462515117462164
0.7054893358260715 0.45221399682233426 0.7468388395440635 0.008606871852214487
0.5873215986041206 0.45516552687880024 0.35177297305314426 0.004485652868217412
0.3137054504630648 0.45631961527449727 0.7816897280798084 0.00941945271471238
0.6320954222933456 0.4478715784651582 0.32262452385838875 0.015901886140524752
0.15892603973879854 0.4554065385660706 0.8070928830253822 0.008449344472468083
0.7512886344348948 0.4496146730577917 0.8570426402062775 0.012875113409051035
0.4789807202544177 0.45479256767425347 0.7855433279219292 0.012191490983460796
0.3185557074573121 0.4461621992270712 0.7005578362130813 0.010359878249698196
0.4267508957153313 0.44635832415810295 0.7555359590460414 0.006607207987218327
0.6286051471665887 0.4514621849336792 0.570285161458092 0.012546461621384983
0.5722448711531898 0.4558798435798131 0.567538935922232 0.005317937942688946
0.7234117153180664 0.44822384650916813 0.8061787290010669 0.011038292491467042
0.449204657777288 0.4477945280085025 0.4817699502860437 0.009527951752596709
0.6074765592253945 0.4561018836848424 0.43898051269914584 0.01641983016637149
0.7132279750614374 0.4502415887924093 0.35034254125813535 0.005292573345801142
0.46914657910295504 0.4498266259150128 0.760002731202272 0.016153310298788297
0.5279873775813799 0.4528959771592427 0.7024725386844615 0.014519889515932135
0.6035452033766997 0.4512302021230214 0.40346771953646676 0.0165587457102641
0.34413671484548947 0.45136957361694335 0.7470744196212056 0.02471175699375827
0.5464615051832126 0.45372919843622556 0.453541087497606 0.018729205079596637
0.7084453566258623 0.454893640411491 0.4879764299273357 0.00499160295325733
0.5956850602992844 0.45588293919672923 0.48160393344913693 0.018327726481282475
0.7343515583639075 0.44731426275137176 0.5585585757267679 0.004506339123011269
0.7376863991729244 0.44707565939750366 0.45636251799943783 0.0054974341919764415
0.4722516454854679 0.45118129774183735 0.48840738052112487 0.012287826538157465
0.7486383997191013 0.4479802859861823 0.68662426409955 0.012621583894997438
0.48792410196446634 0.4516302160606556 0.6912793273131029 0.010786798442011868
0.2086127384847473 0.45513399777812336 0.8287530657985527 0.012550508699325917
0.2369006108989063 0.4584463481858317 0.7263295466084753 0.008949301258212127
0.7108887159942874 0.4483510430994533 0.5515067764160603 0.007454386663314485
0.532471998989434 0.45240020822004223 0.679497381832508 0.005743823226567718
0.6595212951082212 0.45461521698714624 0.6815050129930692 0.0016724266611437
0.6231810003699364 0.4453478618849472 0.316398218343716 0.006179050631752729
0.7405428754689569 0.4476109567083139 0.3346526140514746 0.007950378989120833
0.6351669729186005 0.4493569125416466 0.3361463097137294 0.01599992476236529
0.6669223112195537 0.4492662887667057 0.5107725832601516 0.01571787690023778
0.36540684050504785 0.4508491666469879 0.7325212912820841 0.011971489399044598
0.6571559964414033 0.44990076541521723 0.5996338710202402 0.01588150486153857
0.46828002142448877 0.4464009104038473 0.8109461759135327 0.016405987203068646
0.45505340073578965 0.4495049696564492 0.6501555267101506 0.007654248738144132
0.7674941162290653 0.45202477933164503 0.29177035714238164 0.013698177835850292
0.35169711479636934 0.4550607340447179 0.5815941954936971 0.011268198140274455
0.6429656039009859 0.453549035203191 0.7010861662857647 0.005867333461845301
0.6890490175910806 0.4509925524026438 0.7090673989861749 0.007832817132744583
0.7634367271000468 0.4545734768682664 0.83161972039011 0.010637570176221892
0.2670383198476388 0.45078059854784064 0.683882407393831 0.011015492930163762
0.5962252616786975 0.4549807515795312 0.8000472451537521 0.011493163721321675
0.39716734089933176 0.44869289741993185 0.6734618119947758 0.016153103579080435
0.7845635400724278 0.45422210616984665 0.6160935985473569 0.03507846755200903
0.6527451502968766 0.457313800400226 0.41563589267770673 0.009243301656048619
0.5947707976070629 0.4536531759105801 0.31962801897477594 0.007755480465176815
0.5765531859061315 0.4508942603651394 0.4167052514491104 0.014157648195252457
0.7318102734455307 0.4528266767962365 0.7905680076869964 0.009466863367589652
0.2451677132207366 0.45270735365166 0.8206582455250157 0.005736826046004846
0.5644885275481412 0.4531453853981244 0.7333448560392442 0.0317233220808837
0.7451423914036475 0.45391532930463263 0.2608715585999698 0.004340075342810806
0.621920685414817 0.4539582838118188 0.3478722018459909 0.00566104159454859
0.5239820509630051 0.46015515961746295 0.8876251691420035 0.05731152566644452
0.33305116187194383 0.44833132990725627 0.6505837761855834 0.023184629861072614
0.6790965866235402 0.4476376387418606 0.29671902713127113 0.011121808287264867
0.7697676948797166 0.446382338509992 0.5097725045614548 0.01362711920993395
0.5034030696665726 0.4448481530983409 0.5428417090590016 0.010366404472029482
0.4713129437552766 0.4576503385721344 0.6116961804594072 0.028290790208592494
0.7526145641485761 0.45285480118512933 0.5320619875610881 0.010978460618105718
0.695978323277038 0.45328864030357935 0.27797882382954 0.014297065649288886
0.7081876343448701 0.4538101546970414 0.27593189574190136 0.010375336641481575
0.6654306845076584 0.45234111324682374 0.25004853552375433 0.00658124780845327
0.5149650605833158 0.44746219573373414 0.5512387336640874 0.009308305388801476
0.5040690470204918 0.4571481726979231 0.7659882165148537 0.015617932693676477
0.7115455510389509 0.4519259862134642 0.8335000666531593 0.0032631875219551183
0.38872172618399115 0.44964816989407774 0.5990602317793493 0.009771826695413467
0.4300415409293174 0.4565022211836609 0.5396193415722582 0.008694055120036948
0.4959648937204719 0.45063278077052943 0.4681386319328815 0.006689663890453533
0.46282858499062995 0.44677821270724866 0.7191202204105777 0.01216751399642897
0.3966220220918004 0.4567540054351314 0.505854445284018 0.016527482161343535
0.38333890771794826 0.44682411178203135 0.7343418219183029 0.012139926608663048
0.44548884925513554 0.45238598084491255 0.6858492354072177 0.004810045902263343
0.42693927127177944 0.45319999333133065 0.5023816042475879 0.012083228774273045
0.5278416403173365 0.44882533220137927 0.40922695863813835 0.004676820741930008
0.5529488230129747 0.4570249606713021 0.4040720888586706 0.006582494008883814
0.7708012810252056 0.4458930404720076 0.20415826833126513 0.012662290248314988
0.5837741671925931 0.44989310331845805 0.697285224612628 0.011013321725019903
0.43268558442196026 0.4529893582241596 0.7840545999530366 0.004015816664834383
0.5504336710244636 0.4515876665782288 0.6756733765714917 0.003735392321969138
0.4931911896565889 0.4485600017639114 0.5829518805882296 0.0073994462170651355
0.2890924850758588 0.4477657566348366 0.6818669895626562 0.007560660299894025
0.7594794987602704 0.4471469791327133 0.46842397361662086 0.004272522468669353
0.7297523627203385 0.4502135881750897 0.8759510128435218 0.023889829217492276
0.6510671874075826 0.455481553549704 0.5913307109014736 0.013395713873689716
0.42067435089815497 0.44693176505399873 0.7389689306660544 0.006572974341221282
0.7447485909203635 0.4512306383585413 0.5703609140159921 0.014907019920621857
0.46245867279623554 0.45251957541049165 0.465785501419932 0.009124901229467814
0.6195791850861909 0.44688841982357946 0.6035124361707236 0.015530616134841337
0.2902112986869208 0.44845830893445665 0.7184352624621254 0.01902841519486256
0.3843561690993048 0.4462850645319086 0.7595428934267278 0.00877469564093186
0.5848420737382576 0.4514585699491218 0.5526331324819718 0.008648083800006165
0.7427252828178219 0.44991740169326894 0.4193896359253877 0.010190846611181043
0.5626305854983894 0.45071184446417767 0.6028020137511511 0.00712186207058354
0.3550393656808913 0.45467428335628557 0.7042414349881567 0.020683601102490366
0.7829233455991288 0.45116289492450146 0.7325821391788694 0.011821990347354872
0.5997333557245876 0.4504974658166358 0.838362988114545 0.01969458600745534
0.655141482038235 0.4461890503103878 0.5498382611166887 0.00623239542323833
0.7282180969275355 0.45909987384014317 0.6517128889952524 0.014732211710411074
0.4274903579066748 0.45107026631455344 0.7412145227745376 0.007783174835069283
0.7107140282515895 0.4533046607831017 0.201960282618696 0.003993401743060561
0.6358058444010317 0.4596024140580537 0.822345266104822 0.010737690212787915
0.7511738959583936 0.4466701307706287 0.327087918210771 0.003286434377340528
0.20569223811472653 0.44962137982028166 0.7873035239054486 0.010194132265838447
0.2074801835111899 0.44748887307327934 0.808925331690146 0.007901233205191191
0.33458931876868536 0.4551465927270916 0.7503719308645005 0.020346932163620626
0.4578071953872651 0.45422415969212393 0.7434887105088219 0.013097697840331367
0.729152369704081 0.45553247845124206 0.6230347858090782 0.023558101227800294
0.22827532804622172 0.447511555811136 0.8668646134085394 0.017879307297204362
0.4484062806632563 0.45475004144501596 0.7427390613216996 0.009746050021053327
0.6362929230419075 0.4464262436600137 0.30883387956250735 0.008696947792122772
0.5861984989731276 0.45461386529151515 0.8051739384658728 0.010716534237043208
0.5570569605348271 0.45237231924309795 0.8405678592139684 0.015253906829015744
0.6174750856573712 0.4490571521673027 0.6105049435413951 0.019745477234971148
0.5189792373641756 0.44938707905242625 0.6081269041158315 0.012617330927523894
0.7520951913534089 0.45670864042260867 0.29055799850943936 0.009773191199795106
0.759032568224629 0.44862518564038095 0.25683505910083804 0.003966088447831259
0.5159784417299217 0.44985112092968016 0.8152577016275414 0.0195299642345367
0.38993289062780223 0.44735513806415905 0.7877114136256768 0.008267190952645954
0.5351838764703969 0.4565451603051524 0.5328334943209746 0.001651278294245837
0.5984960491152931 0.4463240297492061 0.6013088702002588 0.013442552137941181
0.617841166751467 0.45180814944814623 0.8370525110015395 0.017385366167463827
0.7330508746700343 0.4495774882635765 0.7525006525068864 0.008279320403929726
0.5550372395543104 0.4451548500165658 0.7572644490843863 0.02613687878341258
0.6698153043688304 0.4515509470924666 0.39785266302984473 0.009985475959142771
0.6223850898940277 0.4536454688163675 0.4968393827043807 0.010451729145866137
0.5690378402414266 0.4537538208915632 0.7973156625612502 0.008149331285328203
0.36836951208155344 0.451255302493827 0.8205571845478703 0.01872789632189929
0.6930248915986625 0.45754504028046444 0.38454675902387014 0.0053298679958925475
0.12562443192368908 0.44284187248553397 0.8980131705360928 0.019927136335881696
0.28792109654975795 0.44593538572303454 0.6716674420597771 0.011070883847938534
0.244942966329361 0.4496475948005536 0.8699188939392389 0.01688216708222086
0.4271902636076058 0.45146117352780685 0.5166265883729824 0.01680472974312843
0.5863879407910654 0.4543267138305447 0.4920567129639185 0.018404344902204134
0.6354752461913996 0.4484022375161682 0.418001332760974 0.006119956424133553
0.726310760983293 0.4491030708099473 0.1657257999595704 0.0070240328596215765
0.3631372637556862 0.44961856920047133 0.7662771074414527 0.010297518511404927
0.6690747778283539 0.4530738798627948 0.6304722202124092 0.013171576381839759
0.7612539708544297 0.44782159853617043 0.23477892606580233 0.005955523203025949
0.19936592027255953 0.46018240619011763 0.8918825797739071 0.017072447784511988
0.5943647530351466 0.45813733793529554 0.7379858182939327 0.02113457129610711
0.614382648102754 0.4501996309064754 0.48321120755178093 0.007648208695187072
0.4805818494922424 0.44731908285235783 0.7531620382627073 0.018321175948020012
0.7564398452116875 0.4510403262307017 0.22783671997271893 0.005720896249761389
0.1510352464768549 0.4555576206215113 0.8456502281406585 0.01516065598771338
0.3327957438812984 0.4490262045271384 0.6479622503236139 0.023940399094566397
0.5458938599692272 0.45317506919871575 0.5527955362972724 0.0072827552249651005
0.4797788723347543 0.4504970367713201 0.5650051852066189 0.007972135463548633
0.6239411242503163 0.45093247743404846 0.5436963703343612 0.006288420330354584
0.6302768623005841 0.45252957309534897 0.2767901090474485 0.005229359635042264
0.32096145991955943 0.45262268191215943 0.5966835744596857 0.00981819885831429
0.3785112714307555 0.4441521036774547 0.7524562553627254 0.006481152563828856
0.5056649697928068 0.4457106463189167 0.7089445792752291 0.010337218979395156
0.2893668625345602 0.4476063849400798 0.8983647571871135 0.0557327214644318
0.7157516833974684 0.44645269502953977 0.8012808741111657 0.008542560760457922
0.7391760908619986 0.44565861246469674 0.831510773870599 0.004563137222160652
0.7003335848144601 0.45565404867712317 0.893789970840721 0.026713071419360582
0.3654563759116579 0.45294675137349055 0.8301162308327311 0.01901222610910872
0.5317666831726354 0.44472808523272545 0.5711643825414999 0.005620633319024292
0.4415549932646876 0.45028822987116585 0.8537300080985185 0.013091370898443278
0.4486129650548155 0.44935626133564577 0.4728072148434629 0.010786408293167835
0.5994710512841026 0.45642789504638426 0.5819769554960397 0.005210672183102929
0.27098267775710666 0.44575059527271044 0.7670381033414018 0.0027368511573132174
0.7630187309293753 0.4497962826346006 0.43912244437387526 0.004919590569587621
0.7063716378465115 0.44803077330180463 0.28875674887910757 0.01587435768448149
0.6498417366402449 0.44581803312566115 0.49743278191858914 0.004071567342754883
0.11022049652348424 0.45530921690784265 0.8550414054761991 0.012316613396328956
0.5721230407190376 0.44761034939372824 0.6563799043150269 0.0060569694546134395
0.701036772546862 0.4473647586361673 0.30515530012191155 0.01311398916851174
0.5688179116436063 0.447470512721749 0.8230451890621894 0.011094604951466799
0.6875856167394413 0.44702562694264875 0.2896917773071411 0.013710646789476082
0.14961437354266108 0.4482585022008658 0.7798103867047801 0.004620610919768854
0.1473698657789244 0.454320183165259 0.8191789634007774 0.008479765595756875
0.7413975583382226 0.4514455265943939 0.8969422824023912 0.038253537273752754
0.44112138434397385 0.44268045703719117 0.8878783452380699 0.0504276335870156
0.5347926784760185 0.4492191856749998 0.8052981442785758 0.009405683913113192
0.6378785920718637 0.44522524925742896 0.358021596386176 0.013385946272903624
0.7116645922058092 0.44845684988498974 0.6565496975985495 0.003916787819076772
0.6188114963773936 0.4517470023684477 0.7068096920776834 0.006321299172971631
0.46149299215381384 0.4490574074045051 0.5220410997661692 0.012736611370082472
0.4646733487285373 0.44683058793525277 0.8578953864734086 0.019971174986362743
0.7256742600668366 0.4514850600490587 0.8518039307816578 0.00647704215533886
0.31130877051473466 0.451654223620387 0.6934377735426385 0.012253367208401781
0.4534276189417417 0.44362316733881124 0.5426744047583352 0.012159663262386183
0.25162009366504845 0.4523424656499199 0.8570898044365091 0.011136204230232092
0.6499433360499024 0.4468283562520681 0.2926130225734027 0.010987717214740497
0.6404758148388808 0.4503758229873428 0.4339588520363973 0.014364318356946093
0.7518784347524402 0.44862278955996643 0.5808924438535337 0.012211071245096137
0.16127315687557273 0.44868462574260054 0.7427008870250956 0.015035715331637075
0.6469954357626684 0.44665704464514383 0.525449786149155 0.009738865383523587
0.3774430729147929 0.44873277268172207 0.6542483079178315 0.015819851288229613
0.7263547349678922 0.4545425028980564 0.7899688570674388 0.0066558113767805896
0.5172273602536565 0.45057425304107757 0.8709257488277135 0.05411816901349382
0.724936870099554 0.4544379875735374 0.23143098656853256 0.006284040975181028
0.33748338380334214 0.4568168170315688 0.8254130878656891 0.02403467569342789
0.5460529994402483 0.44721415898552624 0.8105899668276898 0.010052966929359173
0.7951064833298487 0.45474596179617266 0.7813864834697407 0.01568873227756373
0.28625347242644 0.4512708312495658 0.8309209646424519 0.01106036546567046
0.40782912556350887 0.4489014243267298 0.8571740782760937 0.011119685618925394
0.5073245941876653 0.44809632147104994 0.5558679030826488 0.010151426823484947
0.19645300639042926 0.4479844877032615 0.7330461807250781 0.006965671135420235
0.5944012568213811 0.45185311772411146 0.5591008028948204 0.008398914682485102
0.5827595289758492 0.4466551372039616 0.6015035737989664 0.009795798027155545
0.6881359932867455 0.4499545182924018 0.8200499918212002 0.00911837526604463
0.2417220552438403 0.4508450479221436 0.7596458728124788 0.00724275102989844
0.2882061854594108 0.4532289818207545 0.7562744317287023 0.012243641453561377
0.6526810889605881 0.44630523001722433 0.903069138317216 0.04556752666989027
0.3889672617875643 0.44531446107253525 0.7222395747676578 0.015514774076342728
0.35312049798575573 0.45291555328456556 0.5939858684172097 0.010050549081012605
0.6509501254645517 0.4529885529102597 0.7792825810998224 0.0048853890279511435
0.7421195895757386 0.44708932267456264 0.3609861160563626 0.007333622893387476
0.21237102702130894 0.44919755048725385 0.6850573183098692 0.013649411235938241
0.6821658879405728 0.4534507766466176 0.27660301781700414 0.008911078487255345
0.5192768426694736 0.45345830683440624 0.4597363545854266 0.00624342452169473
0.07660130421148316 0.446485639531047 0.845141877341882 0.01290688562920107
0.431352801860518 0.4517397651199369 0.5877060087150873 0.007079545706593638
0.43960194232875327 0.44823493445074614 0.49701647561147194 0.010535986082919302
0.5776868583129459 0.4516091429663155 0.321770594997724 0.007958246933740703
0.6921578197033881 0.4455442541909254 0.8962158457461876 0.04935410799542001
0.7738976252735549 0.4510764633478413 0.6912046104459981 0.016757507369837048
0.2544828000884536 0.4524876834887475 0.6875935139561558 0.012172505997782981
0.374644380518706 0.447433850828474 0.7906963502573603 0.010578206088123696
0.4549308815838892 0.4489406163011595 0.8408721820001417 0.023116994926973902
0.7014981691238625 0.45086359294471423 0.7713430126034045 0.006687222150920616
0.6412117834587744 0.4496446010612279 0.45207517969880145 0.009488667293466386
0.14110454483357676 0.4522154452587795 0.8638483121245765 0.017376040992937693
0.7172133732834837 0.4537987729331163 0.866923851750911 0.008040343905035701
0.6529891074007329 0.4490406567190732 0.6596766788139526 0.010046525999088908
0.7589115642098925 0.44486902166841513 0.6791125657596676 0.004200082302330197
0.5951303820616626 0.44919955925641974 0.82470804306407 0.01707917217399404
0.6266272336229124 0.4492515222487514 0.7324727563180105 0.010759372150480449
0.5500708599642914 0.45296777465680077 0.6424747897804352 0.0038079999362848364
0.6852893184448454 0.4508245499181819 0.23387033141605748 0.006920036816288291
0.4688065806726973 0.4463539930791378 0.6971698275241223 0.010012586774316797
0.16062733059288464 0.4559558636269221 0.8766331450689581 0.020192402857226253
0.6507092975002786 0.4498618428796656 0.7529786531083114 0.0042160702622290325
0.39224885885915756 0.4480578117497847 0.5849396182759423 0.005407937226898736
0.5778436229793471 0.45005893628383337 0.3584148293985483 0.0025496305577195396
0.3432872870322711 0.44747598983083375 0.8764450093854552 0.02697245215932302
0.46918271212750134 0.45272016287845696 0.8001755443270987 0.016314148565469578
0.4028146378788683 0.4468760619629549 0.7340465302762432 0.010097754223974206
0.3929935122531987 0.45313338996441316 0.709424716462325 0.018652110229913678
0.7664152333312287 0.4502452168877606 0.14075699986193885 0.006837782619876409
0.6390654255115685 0.4482547625202396 0.6053152496582237 0.014784815842145822
0.26933270252110314 0.44944647860054254 0.7816057978299659 0.006307939125111009
0.5380706381860966 0.449688708381366 0.5904101535260474 0.006596180193978382
0.6186732941498951 0.44824896679069703 0.29393130191526334 0.0055720137206367384
0.4550106299117583 0.4477508923844541 0.49499476306549545 0.010404093916233283
0.42712362506655505 0.4567690240563098 0.48820768197984027 0.005430750132919969
0.6137869714293508 0.44771151360746325 0.33120804095583695 0.0062335522254763145
0.6060441737959203 0.44826794568733197 0.6531509078924868 0.007145003660878961
0.7780788987128011 0.45003295684563144 0.7200590202648282 0.016478225221754742
0.5726512545228694 0.4524037490867515 0.7958022165764911 0.009902855966301477
0.3311744516657558 0.4456688571388008 0.7211272446027358 0.018898289602576012
0.740315921822791 0.4519999429311506 0.5067626911652685 0.010359734950370278
0.7423755422232248 0.4487975955981263 0.3319968820338447 0.008756254556255717
0.6985816721607551 0.45392639544502605 0.5581784896518195 0.007545532922420449
0.4128143374857778 0.454270397609772 0.4311752145566075 0.009429631581972813
0.44373310375752484 0.4532133835784051 0.29968760498884056 0.007575299735321388
0.12596210161045124 0.45009360997939535 0.10857089118728207 0.00424129076009562
0.6607726685990416 0.45666545967439587 0.3361129434645943 0.010053724334212501
0.6263925762724969 0.45072801610778834 0.3382963495501866 0.018890685959820498
0.48018090047679396 0.4533477669728615 0.4992401339629843 0.008631557237151624
0.4047155243231469 0.45047441247672043 0.19652250746886135 0.009216864116970957
0.6867860409128788 0.44863406838342634 0.26049986362307737 0.009796098328277535
0.07548642455107617 0.4527592044456913 0.10489638601913619 0.012190043731982823
0.4631536673203119 0.4475554957014637 0.19029991625407747 0.00673857117184312
0.2007022276195935 0.4476900746868939 0.10964378139389966 0.015096809096440412
0.7301367269979395 0.4507168625983901 0.3371918500704433 0.00501626852836676
0.6537258106274548 0.4527359535643288 0.26812888362261017 0.007472039500525424
0.5605635990321012 0.451823012940921 0.6523026826470033 0.006597848717344077
0.793213027295369 0.4499025338234967 0.5153203749865726 0.02213016082672818
0.170390638869404 0.45285707330115366 0.10201836149926151 0.003515005221573969
0.46246251782530917 0.44891663660382153 0.32206925277890047 0.017005040372794412
0.5282102287327338 0.4489685557766256 0.5537559398190116 0.007068480302927746
0.5985564206960315 0.4500065318110288 0.621556964669175 0.013903994532577445
0.685814864767438 0.46011489418116336 0.5108719649138277 0.00622034665082948
0.7772698959693184 0.44971721570519185 0.6990552160848759 0.017085993034016003
0.7528143370470183 0.44581062538484456 0.40894467741678064 0.008883290995221
0.19234638908672383 0.4498854355342488 0.09768859829076351 0.021277012164276528
0.5515741546265395 0.4473247124973034 0.19859700357993612 0.008975431363182984
0.4359959082708469 0.4587279329602922 0.09881753067670657 0.010945241554920831
0.7463749449708528 0.4545233188860618 0.7646468286641295 0.007526243830499501
0.28990792953641165 0.46216083499604466 0.3014513049550308 0.010332212016019334
0.668912601797389 0.4540557367992122 0.28593009912538786 0.009315203170949514
0.23062542830361238 0.4536479052515534 0.18061629082627723 0.005276225857814546
0.4160253687881756 0.45083335822866233 0.3991552645036702 0.013632097007640431
0.19444040239446952 0.45671160799046384 0.21574823762321965 0.005742461037665596
0.5161993377291 0.4548588211581899 0.3843351833757778 0.006301253700246922
0.6576291419464854 0.44803312682544055 0.11526458460250326 0.004608127924659404
0.42029233014594897 0.4548500254812397 0.19467471971292485 0.004956448488746754
0.29379471543516844 0.45866046256874204 0.2921239953831151 0.014006343550483307
0.775981177753017 0.4510977243595402 0.3424835241867876 0.018814939374898847
0.6159564939902515 0.45205433132057066 0.2546246654364483 0.006585682495397655
0.5278538919520491 0.44648271135173245 0.19226753556670023 0.013918177993223367
0.46587941397182103 0.45741295834769297 0.45542430029974307 0.0059111601998328555
0.5969126888579807 0.4535646886474657 0.3916675088651189 0.009583025041307739
0.6566453595153685 0.44817509404037775 0.24634788919292874 0.006206472064591513
0.7013331032317093 0.4532484322982305 0.7291853590990799 0.014505481693046184
0.49737603518131973 0.4513274213830014 0.45228279639636537 0.007681798337973589
0.6206463405637341 0.45637092510005745 0.6279728408532436 0.009844553887509919
0.2992207780307539 0.4583594222494935 0.18173509199509727 0.00234287939052966
0.7872990174432186 0.45286917004844435 0.11309355913087932 0.007065826296592188
0.14685786426506167 0.45044374986429137 0.09927881503768321 0.0023277911066333945
0.5777670612239528 0.4618733008999023 0.5097881362392218 0.010608621549665222
0.32474781105740863 0.45118473055565655 0.16233526235419016 0.007992425962673605
0.5988551336780192 0.4528313557295615 0.321631468493418 0.007208843334114087
0.7508043063768944 0.447987641538789 0.8261213412387207 0.011252513067029955
0.7101446927524994 0.4536251411585187 0.4300695075562029 0.011992517074665704
0.2588620763836249 0.4496265142624077 0.31055848303658495 0.014998671043535914
0.647359238542375 0.4519801051049849 0.5179390290491809 0.015410396875646335
0.5344524997976369 0.4456843048791748 0.19640614961272407 0.024171679834947224
0.27027689082795686 0.44971648862066754 0.1619091418599004 0.01411994629388972
0.25586471796294397 0.45474569419534766 0.2924482561394238 0.01662185563282763
0.27528283497777123 0.4503404862181659 0.22374318517314873 0.014744436075326033
0.49541010980891137 0.4492977915159623 0.17865029640050062 0.007128860702630644
0.23853737230562738 0.45150434918578836 0.27953771861328364 0.00870608194816996
0.2253861835567975 0.45568687257114376 0.30718012016427293 0.0035954872653177817
0.4880726447284622 0.4498939427308777 0.2063061509741106 0.00933530881008427
0.38799696469806033 0.4579492527890718 0.31295695386742417 0.005327700205582192
0.33374870938608253 0.44913164006387335 0.24806525150585887 0.020108849782706887
0.6842221652581509 0.4480665971073714 0.7749640169817804 0.006075889858088
0.6782614604434322 0.45101327308531575 0.6892537529871033 0.004315012387018153
0.7243319115865884 0.4526726727721615 0.5829966350794743 0.01574980034931062
0.5466958224514353 0.4518766839330666 0.5037023648607813 0.011561756484751702
0.6053167987594706 0.4490025435374097 0.19833402953319068 0.00989294924628749
0.5700777250527564 0.45550814072177126 0.4228758651534297 0.02571083148902897
0.45534257501805936 0.4509607219460684 0.25743493087037916 0.004235545821878851
0.6762689518378212 0.4480636824099423 0.3808681651438852 0.006773395986378497
0.47840380629283985 0.4602371787312534 0.3726962898961222 0.011785020462228757
0.3864490120978943 0.4489739135922727 0.4598170389709399 0.011136294292449068
0.28461935693260554 0.4578639600580885 0.35555010383912306 0.006533354756963605
0.5873340999184349 0.44974156254345754 0.2732550024686598 0.005642520493437242
0.4295805314221515 0.4556414328271998 0.24095233988534134 0.004386200151296695
0.4479565092507012 0.45212698937357004 0.11647376434063202 0.01669554551799917
0.7725773956671647 0.45355193584567055 0.4253146188272634 0.00721759783345521
0.6680253394112649 0.4502933684212413 0.4370031534483806 0.00677361893143635
0.5838507157039707 0.45468395725473415 0.12416698015471694 0.004656878618272863
0.5849139147648662 0.4558544394239747 0.1657091974395079 0.0096366554166471
0.41729599434854936 0.451009683952212 0.4772802335195465 0.010138127225516644
0.3289778186264067 0.4497322802277205 0.10603621697833174 0.003542979844829449
0.3953458275508837 0.4477924122402028 0.4654517217647845 0.009047172721517071
0.22203180050637694 0.4541074186145448 0.18139008979129903 0.006425070898877877
0.5660254072338117 0.45323362191018113 0.3310432628507756 0.006103547330393254
0.20699389982537283 0.4619561053847863 0.24460894245416678 0.011221735089043595
0.6655591065295329 0.4500284750412381 0.3501507070465424 0.01078679480442272
0.7788791445801463 0.44627723871615427 0.5145146199831577 0.01323926456537222
0.7255691884758201 0.4585099448770171 0.4173491470403336 0.004386127355455326
0.7428044777686112 0.44963082699398904 0.5125219686584251 0.009481486256009891
0.32335318632118887 0.45205535603695585 0.18948647335612107 0.006960982110675467
0.38808413981551454 0.45714738271379185 0.3566770990260056 0.010474094336218305
0.6992492068747422 0.4516730359093415 0.17964475349098222 0.01099775352807225
0.5238170828225208 0.4493637570974515 0.6211959029371199 0.012071854454270739
0.27285143100196996 0.4506371296537972 0.2713229758346132 0.01305770579809938
0.6840406999928029 0.45364913935752554 0.10882344134905238 0.010978172031877608
0.5807924703215588 0.449920839388902 0.5787109679569712 0.009033176486101784
0.7687234107358089 0.4569211665407238 0.5910463439109228 0.005260294812102864
0.4139993489468129 0.44621886989820075 0.12245613825134902 0.012145797055706994
0.45629601194096 0.44786669300461857 0.34518279401861507 0.011159219519229576
0.5031431110323255 0.45873447053995997 0.3768955537055623 0.003955170171218136
0.17962094834465103 0.45215566032585225 0.0966900315958297 0.0034470449901351477
0.6536912612367954 0.4548164125419805 0.3892399800658919 0.010830539706737025
0.4463601672804222 0.45269307496710937 0.5175186389473144 0.01706603186839092
0.4832351832912571 0.4564130153582372 0.26441476494893745 0.005684344387458204
0.5883769957131447 0.4545880607218777 0.22674963974623294 0.0065733263819484355
0.5792909164285652 0.4502191266749736 0.176249714250793 0.01285691441198641
0.7870905426416831 0.4510664472845977 0.13707452397130024 0.010908472834935023
0.7670756248545259 0.4514171386973694 0.31811867515633235 0.00720840308927235
0.5680486554617541 0.455265840675506 0.16649005410561865 0.014553487700786285
0.36551306981301956 0.4538140202892809 0.4244631183257423 0.013171078830455922
0.5755732108098754 0.44998522702166416 0.24806762000776708 0.006721859578138726
0.23856164602978558 0.4514333754489712 0.11853654634750767 0.01942323084066801
0.557646769684421 0.44856548707761157 0.48940836920872327 0.011518208168912759
0.11476291067868269 0.45280950948766635 0.1546027086273995 0.003419489095182005
0.687571463555525 0.4483416196136186 0.5648857538412604 0.01010560657770623
0.18402756612369936 0.45008221678190263 0.2703056465423668 0.011165212415071865
0.6674930302241415 0.4509939776899021 0.5859969544076741 0.009560729621953616
0.6081667083013105 0.4539028314918803 0.14031109866414443 0.009499339065657858
0.6301861403866137 0.45578585145344447 0.626064118591177 0.01250879987519605
0.5602420943913624 0.4484215103858899 0.6374171669327591 0.0037313005288718186
0.3596372640122994 0.45290597083127687 0.29349608794723464 0.004834721449406101
0.5156205917656402 0.45142307311769514 0.5011610869832875 0.006440196412687482
0.6842203209114562 0.4579438204719866 0.41893321716189813 0.009587792127873482
0.07768382095462448 0.4567602633977552 0.14952229961005553 0.012231454157768714
0.595789577462449 0.45411896346952907 0.5297443762423977 0.011804480582097585
0.3589361648949703 0.4508265028487509 0.1039158819496476 0.0018640346066911974
0.5648311744466764 0.44947232133735204 0.14257335903240206 0.00919031190263907
0.6973764385765525 0.46176991765949815 0.45220598544079366 0.009938790422423299
0.7537435488179265 0.4532112414818957 0.5427665094163143 0.010218541423267178
0.6245485579386814 0.448189630956411 0.3598847991526973 0.008187188463888603
0.3559629017289472 0.4572474968314116 0.2521000868629942 0.008730469686830326
0.08138027141326191 0.4569075002768811 0.13032558487424403 0.007543152822414369
0.3492256072485755 0.4572278920282168 0.4315341615714592 0.01235679381258286
0.6754020528607352 0.4478234942742352 0.65062987816244 0.006976155705161217
0.4234219366671505 0.457664642542724 0.3548703124716333 0.010645589202497616
0.6901113801691438 0.45353603973353074 0.0944948163980868 0.009607952795876385
0.5414456011683906 0.4483884632615808 0.4886319077153193 0.004036227505809789
0.6241092476571086 0.44979899016444724 0.10456360777288108 0.006178410225906023
0.6725064507984941 0.4549808905331933 0.1738144453102543 0.006560985714187337
0.33930113931234807 0.4545723600190158 0.3381793060185994 0.02119213285393318
0.7064665621251104 0.4483952314926552 0.618722354520273 0.011830315275389889
0.5404208995022084 0.454650095913243 0.4781136468626187 0.0177295492158012
0.6767776575408594 0.45764686591810805 0.4824834192636435 0.015706370146973386
0.41661410035437463 0.460729027277491 0.1627253753223679 0.007161317862003772
0.7281194819099847 0.45753793913475094 0.13177146767151562 0.005313406649393787
0.5509705454614249 0.45209582725440417 0.13538766823375534 0.004909031461353944
0.7939611150716286 0.45828611441091677 0.27746447713702355 0.006021549561432131
0.7381257824569388 0.4501945562493361 0.7834774583785098 0.01300358650165861
0.33080952989268847 0.45419046511470024 0.39549939800478917 0.026264696646892925
0.5220203618657353 0.452033180659011 0.3724480364254091 0.00621928417229838
0.7207026101439896 0.44725050078636414 0.1529108038029405 0.0072579109902714545
0.7462378390928316 0.45196108016480874 0.2284940588574413 0.001681726619790645
0.6437625972873852 0.4522170277801256 0.665865069660915 0.006498931532290379
0.43494703313280675 0.45837051009472 0.30825769887012766 0.005250917241933483
0.6408702091989354 0.45090029952778277 0.38052793122400247 0.011368551670079005
0.4499435207052918 0.45634280744050276 0.16740545211302033 0.0028962856823028064
0.7846628575099739 0.4517203738721988 0.3323831389691217 0.05318855677814688
0.7252684019045889 0.461224457616712 0.6011490519112205 0.006093910237802212
0.3432168143029675 0.4512723944338874 0.21772889266210343 0.002273211479247378
0.3010024273432459 0.4488307842855574 0.14995631475749327 0.00894229597913757
0.43040623484885515 0.45029552999401884 0.10921735610560901 0.017216403415147383
0.7423766255430685 0.452372996236758 0.5698511010235298 0.014903092977175252
0.7116686227547832 0.4556346205434833 0.7217267494213049 0.016394184721204075
0.76870516422549 0.45959423739022126 0.36389329572707413 0.012478211434810775
0.5653194900870286 0.45518546399735027 0.19747296500764736 0.010038438262004958
0.6077410725703295 0.4515600100023223 0.3783853012369139 0.010461845426245269
0.7581484156461006 0.45644426903836915 0.28792685965560877 0.011051394386145958
0.5153538824277891 0.4514927163541519 0.49420469365570546 0.00447109054213952
0.39141756485761686 0.4510235486698173 0.33031287391141534 0.003962541519544694
0.6358782119147601 0.452767618202587 0.5549209510111305 0.005332097405090124
0.46442057136201753 0.45694530420166884 0.5103478663453429 0.007584329440800098
0.7551376646488724 0.4540376393197844 0.8494909031149614 0.006551798913870261
0.4021075896535771 0.4563661603237487 0.32113113072300425 0.005834824634623077
0.7503459309630478 0.4509981451473491 0.6409027736869024 0.013326749960453832
0.6987988731438027 0.4559172009331274 0.34164993799792875 0.008440428771047876
0.5707338657073603 0.45287502951950914 0.6216689280936545 0.0033757897731150495
0.5711580301373113 0.45301625776988785 0.3459423373129487 0.005888929582442829
0.7835723862623468 0.45468877717382733 0.25219300608442186 0.01172413826718364
0.629595159173695 0.45443852980952676 0.24688466122048944 0.0024101763114469845
0.5808033141094069 0.4488781048256342 0.3026455387100351 0.011660914496146315
0.40664071931321655 0.45400956276360527 0.4513853216673575 0.007897977669208772
0.7654646617634419 0.45362263680827564 0.16198236591689424 0.0150112121135898
0.2367611766029174 0.457967373403985 0.2634756938605586 0.012089496867715016
0.7735491316118647 0.45304200664777916 0.8134551862744309 0.009915663423389114
0.7738393905423177 0.44607572472649404 0.1938563669593422 0.011220243544913239
0.5054236054811831 0.45246771975834377 0.5707530140051348 0.00479858869694187
0.7217522595582802 0.4610663604702358 0.6912001818977742 0.015844960837987334
0.7116094363116341 0.457012750140384 0.736987868686532 0.0062220534528415
0.327289603811046 0.44522829692493443 0.2573423629150884 0.0137902989276476
0.5155389539268126 0.4492936115633334 0.1983985400692364 0.005525198781198545
0.7015238966880918 0.4473291117029353 0.6030793322022925 0.008677199942425573
0.6398461822576129 0.4568673192637943 0.5878860625489666 0.00672646132192748
0.7840841371200953 0.4562076920071941 0.30008774717618364 0.028439793649676647
0.49607193652161513 0.44850354178647506 0.5321762097931925 0.013627491612422446
0.5735395786895412 0.45356305884827786 0.47732916822237564 0.024661610020560196
0.7930406403458019 0.45319963796213264 0.820289979431264 0.015589402944606184
0.7131632506454054 0.45590624484098036 0.7266167364900871 0.01394136537015066
0.610557898002261 0.44741385740822764 0.49400224363413664 0.011090645692563674
0.7626800134024329 0.4498371748635249 0.8657888048331249 0.01509716259745061
0.41364917077326285 0.452293677060862 0.2047912077192132 0.015533518393507301
0.7297336760100742 0.45712076698285514 0.2909420346037478 0.0051380698666150006
0.5768111925663993 0.45394912789605607 0.20726094291963934 0.008438321374564477
0.6726301135426819 0.45014926602903443 0.12219382617818204 0.01506501642215099
0.7489313644520572 0.4499045176867213 0.5908428658217061 0.013548928705126428
0.2625955736123101 0.45444676567259207 0.2012139753519362 0.00822774647555444
0.7549511378037037 0.44814940536338965 0.5669384902524617 0.008641155369005489
0.735085427043612 0.4512606955594791 0.4001787633746011 0.008402074813770078
0.7775367651519545 0.45009000704869695 0.8240093411769273 0.014382586349017401
0.5691190466625548 0.45220992802944376 0.47036995824742267 0.017527962603493572
0.4198640291551257 0.45402303648454095 0.45916398917262796 0.012647975884395899
0.7072761227347829 0.45833428002384363 0.44803728840834667 0.011144175534389743
0.6783521338733981 0.45514599701572045 0.5459739053399789 0.013484974213796606
0.7491630473409201 0.455635388471087 0.4996145401379582 0.01951285571186497
0.6973392642843181 0.4521956334240733 0.7055514386345297 0.008336656199553916
0.49076989402638305 0.4560467231317256 0.40915702892507355 0.010123627435538074
0.2736087413490079 0.44623041346014014 0.0862042592541412 0.0009711138160558881
0.6949631732823566 0.44996208730020487 0.720396805965071 0.007033745648435512
0.7260410661801853 0.452499836290025 0.3233139740951922 0.014509452025774475
0.7654029432221733 0.44618399553266735 0.6257817365200948 0.007246874300372277
0.31795599246772965 0.45947456263485953 0.41696338390320015 0.01471301226323083
0.44920676971056894 0.4485910392864545 0.41205780139311726 0.007060981813087293
0.686749077650479 0.45437549522175963 0.4431361170080158 0.011299698112673706
0.43568139408148354 0.45215953016810045 0.20400139213393947 0.007593108793160522
0.7916971622243659 0.45600842308831047 0.38188312798255214 0.05571911724556997
0.6554007836077198 0.4480618004575538 0.5290064815489078 0.014200109384934828
0.6587928540367876 0.4523987152621894 0.20597451082052118 0.005160856043594102
0.4224383031639055 0.4495038632360082 0.5063266456378489 0.011637253435885564
0.6629216655796785 0.44670411885934974 0.2180756096826343 0.0055894035718227165
0.20799961783954515 0.4516623349291143 0.2576184888838348 0.01368090236227202
0.7549962716716796 0.45874237896077114 0.788435347660761 0.00712017691225137
0.5718557365748627 0.4546717030537501 0.27058428511213706 0.011091949536567582
0.28196780409094435 0.45245842219597704 0.31164627579030035 0.03188573944153269
0.6639253337336234 0.4531108127852916 0.5608098549706122 0.010394147633714431
0.6708801909704527 0.45087620426476094 0.7295922240162377 0.0032704021144065913
0.516434049783508 0.454557043010054 0.13201265229416506 0.004410935823409991
0.2711010240959436 0.4474020678199739 0.1237701318715325 0.008354000488155947
0.22642034818884157 0.46249374191450693 0.10136075176309532 0.0013670708249384391
0.3654953192077634 0.45271926386050865 0.13895174830570825 0.0013537703508614838
0.36754134848951303 0.45409769667505795 0.16943959193865202 0.008351676782450941
0.6826427436252431 0.45022556177585676 0.6745507100868319 0.0034777991240345137
0.6674876592159152 0.45752068771583543 0.32149933593099944 0.011428411473342719
0.35675091780153384 0.4567227269016313 0.21659366766327784 0.008133064993304451
0.6624961145649656 0.45072583292516 0.6108276393644381 0.010850296663818725
0.45460472959184006 0.45004087698086226 0.3014842304530003 0.00641563292915648
0.7280353718706049 0.4536447545380651 0.26003949062178866 0.011105128857505017
0.5644648352528627 0.4518070808345928 0.542319524847566 0.007629864329331773
0.617840715991537 0.45251772864872664 0.20177804002199967 0.00821022379097555
0.7071720054631683 0.45179145657115016 0.37543031193894844 0.00842860927874866
0.5117094019569102 0.44813226820491625 0.19890894979415766 0.005599203990221407
0.745983921435018 0.4508058368296551 0.38268371673288065 0.013292774536565239
0.7765727341467928 0.45126006088326304 0.6645570184657165 0.011929007681628424
0.2973548363540143 0.4530170132397038 0.2655596853066887 0.029882317633261574
0.16187397382022078 0.44963723023187535 0.23029411741658043 0.007400121985358061
0.4746603673047993 0.4524238689323084 0.10029535711532034 0.006153629400290458
0.08669896486988964 0.45144690689223554 0.10332579391930233 0.0062519039519911114
0.38202671345339073 0.45289053012988423 0.3704672880030735 0.003100522823401758
0.5055403320213488 0.45163694921492387 0.5877327955434046 0.007894849352623667
0.7647288988122565 0.4508776497768355 0.394571714918296 0.008680363244290216
0.6583021870877429 0.4615599069639014 0.629325594738889 0.005462643710055008
0.3070524985652835 0.44730781431123695 0.37519630353753436 0.015020611826153238
0.6973578897284654 0.4507243358203268 0.14371318095867155 0.011865999103239008
0.5841584362580352 0.45334043838106125 0.3130626839451547 0.010256491581536704
0.6841636537055388 0.45199750902555497 0.22109308768625702 0.004393654420818571
0.7428354177790399 0.45071310617261273 0.19678836374880165 0.004680798037830048
0.38242550360763033 0.456283757953281 0.4249324868580022 0.014142811463714508
0.7399626721143105 0.4511005874737787 0.5435066819192667 0.005833982715737302
0.6215525388186647 0.45097692319002247 0.08983475460344834 0.0006880542222556826
0.5891849883897543 0.4500979162564335 0.6489058717465374 0.008896717248515153
0.7660621310627497 0.45580092894501406 0.1056221206834519 0.006259829108606878
0.15245395619516117 0.4505679166778906 0.23924141932754606 0.004376658009242828
0.7230309792680507 0.46266315315082895 0.6983381836717493 0.018021512862342003
0.633138062168102 0.4537251423362743 0.13945805559863253 0.012867809624095549
0.5558661077557822 0.4543134485303163 0.3415509852108057 0.005206969672760103
0.6023945821521272 0.4476354485578301 0.3367214073768236 0.006260161436647875
0.7624844822216611 0.45088560460106064 0.38228202577323234 0.015273861469431342
0.6687347430880435 0.45171401998790395 0.5772370749936296 0.010300591486669376
0.6181215899610626 0.45898665172038344 0.6876457793425835 0.002986767960908989
0.38676567280877894 0.4482832114841937 0.12701493276818676 0.004156806631733023
0.3171282778934248 0.4504542676707587 0.30033261007017326 0.018482978778518785
0.7792507312165764 0.4510593742948886 0.7791172958997086 0.01683746996988724
0.43538873096500785 0.45238537790667627 0.25537905157306623 0.006845783513987588
0.647718020265663 0.45123788556921524 0.4549105353398461 0.010919802362055784
0.4540260555146661 0.44967507094846565 0.3892994364376701 0.0038532835952222156
0.3122382391716177 0.4487271199841374 0.28769530368074636 0.014418061039923578
0.6687765933596299 0.45394611632671805 0.42224390630670894 0.008494192360582322
0.6054601371785523 0.4566525095368954 0.45556614914027915 0.0206180444199773
0.6343427414570418 0.454408959256557 0.6901133371290533 0.007341658535389623
0.7750901771633961 0.4495748322864789 0.13046301540855706 0.006826138749256119
0.11983826665574888 0.45402701658626016 0.1308666544232189 0.0014724911560327412
0.404470711498527 0.44913953934871725 0.13206378183804174 0.012036730384420201
0.4492116309913689 0.45070257562026533 0.5104967404749552 0.016462243348628846
