x y z curv
0.7825820813018388 -0.3827257996449425 0.4207605658310304 0.2781987878119986
0.7857894770816309 -0.37259843140260696 0.4172969154502113 0.30353440091575773
0.8061769270060326 -0.36637426457666916 0.434314290414839 0.20931822414267703
0.8106066708439126 -0.36924261945393694 0.422591198687338 0.2901252814154685
0.8158352131895097 -0.3820991994737155 0.42821727453827346 0.2685037994646593
0.8059492010968781 -0.39667664204339337 0.42436598530059 0.2701465779990532
0.8054834166862331 -0.39688598828135685 0.4390044313710969 0.2157358228931177
0.7972572899294996 -0.3980007610063539 0.4304173052080438 0.24155515843661965
0.7877312605833786 -0.3937132896207432 0.4243186137916816 0.2762767838766388
0.7892830394612428 -0.3948356258444295 0.4386191206566516 0.22312749631207401
0.7830887189018194 -0.3860074929345646 0.4335640866714023 0.2328513465592811
0.790212178145014 -0.36738021124181497 0.437234562624871 0.23153218202351175
0.7910182198636226 -0.3669502938929706 0.4261731461307739 0.2681499736237217
0.8071612862263117 -0.3607984083241717 0.44656206255503833 0.2260249868596973
0.8181622925692661 -0.37155350909579316 0.44591574598285005 0.22608533815715534
0.7970922144673229 -0.35491989043141303 0.4552306720010452 0.1914061045373735
0.7863699480282889 -0.3568256017186956 0.46538680771236557 0.11499834903167415
0.7818217488693178 -0.3617403165388685 0.45341749653883934 0.1760693473829367
0.7789317105185645 -0.3604855670217493 0.483079081450355 0.13117491269665915
0.7717222862347131 -0.3760396353172471 0.4669174964513281 0.1298600685068836
0.7698998196530636 -0.3822325452670476 0.482802906540511 0.15117853016746607
0.7718108446328871 -0.3882696114736072 0.469631528183352 0.13507165241445968
0.7719142694976892 -0.38308886014276283 0.45927734276732324 0.1361005417567606
0.775346895322033 -0.37582864708550806 0.449636976092128 0.21548344385393117
0.7752242856237104 -0.392072407643776 0.4532479870987574 0.20856345670601747
0.7821938971042899 -0.39787117977699055 0.44815281833701764 0.2259476827091823
0.7832391258232146 -0.4047114402377403 0.4702382734502562 0.13277810262718706
0.7757160816363667 -0.3995310120152796 0.48534441398100664 0.15552980948672984
0.7868116066768629 -0.40777206101671715 0.48137706833958926 0.1618633125565361
0.796524069930699 -0.40989777840632236 0.4752683096822885 0.11454253669070881
0.7989507550634429 -0.408263059299748 0.4557617110763212 0.1613020846151674
0.7871944449632441 -0.4054898948582609 0.45603723039494715 0.20403752790174112
0.8135728642524449 -0.40013772373975864 0.4481798486576501 0.2318423630555842
0.8125818531615907 -0.4061862184119747 0.4683858465852611 0.11611869010176937
0.8227951887909069 -0.3955171193736339 0.46041406230850174 0.12858185275274814
0.8207781966352377 -0.4006312158811537 0.4777427932057926 0.1606735353142595
0.8260818635819309 -0.39091080887833035 0.4746017554715852 0.14065622903846586
0.828255279386451 -0.38119239757536494 0.48020202669735007 0.14577337751786504
0.8266503191372723 -0.37566074709366365 0.46872507942438973 0.1564871782521873
0.823221431500672 -0.384518332431088 0.4494656281113209 0.24615172653063375
0.820717008637356 -0.36608267607389783 0.45424690389972966 0.22022699381337882
0.8195418699120053 -0.361255126184583 0.47571790541266307 0.1475037158344443
0.8255672671941425 -0.36974389941709873 0.4801236390328644 0.13731989655259252
0.8107663058169526 -0.4081671315058772 0.48290185312281125 0.14374963638341928
0.7914612798156129 -0.35350364545728896 0.4799989080953877 0.156393869642592
0.7991223402525022 -0.35322136942579585 0.4697314894925733 0.1329494104484835
0.8081542944562985 -0.35393372280108004 0.48113752651751696 0.14546388028768148
0.8092818985267597 -0.3566324896906131 0.4569038862627145 0.10546405907570053
0.7907820903981311 -0.3506615390441853 0.4917529667599695 0.15496337696816245
0.7684784607189714 -0.3934333197281855 0.49307960062891537 0.15901533667417664
0.8111145442134865 -0.4167229669684271 0.49832600089584367 0.12449984322222758
0.8247627862897053 -0.3634760751006186 0.49108208294312417 0.1388414338519291
0.7761101694748701 -0.4110480953139951 0.4991542515460002 0.14146302615683626
0.7615716265679131 -0.3835440915190266 0.499095996351039 0.10574987008452855
0.7681263809564929 -0.360427024185619 0.49988783730226555 0.11122530469175577
0.790567184433844 -0.3456659709490396 0.5013295201296519 0.1153847798823734
0.7786427552232271 -0.3529895711542641 0.5014383692714534 0.13027425161282838
0.7690465295262536 -0.40400365935085697 0.5011723963786159 0.15778281352901155
0.7867644619214053 -0.4167083541251103 0.5015227032903874 0.11749923936466489
0.8003554183219994 -0.4184721983927804 0.500081652050726 0.12344355162260479
0.8227263664863149 -0.4091533271742715 0.5020802859300294 0.12005016980823129
0.830749517338752 -0.40162084061212033 0.5012548325875567 0.12611055197864537
0.834822923892643 -0.3914155620934299 0.500647517849511 0.13201479745223937
0.8353410850945675 -0.37911569963068903 0.5006767540207151 0.12355573194015985
0.8331041382938034 -0.3681982690454233 0.5018984641763322 0.12459290804610888
0.8256236475145219 -0.3573792115413649 0.5018319735204282 0.11642706539051295
0.8183380256401713 -0.3503136248556101 0.5013951023176337 0.09898644702156952
0.8057912932487596 -0.36147538864816653 0.4672791970513162 0.20489401540400276
0.81956869540068 -0.3784162142544971 0.4579830101292973 0.192801678753868
0.8197185401630392 -0.38987666067240745 0.4900697600363721 0.24876590294020212
0.7812339579059061 -0.39273537666412545 0.46659650095919586 0.18845774465470616
0.7784116064558005 -0.3893710650282702 0.4904994344753387 0.22178073707380486
0.778928988723613 -0.3736188413526707 0.4813510682885553 0.19911224407738876
0.7818425582703803 -0.37927903210614483 0.4424651888461067 0.2180759610720161
0.8161192960924792 -0.38314265631819205 0.44147583181642785 0.24876455909219508
0.8016035953617376 -0.34695480225401976 0.4978596149815116 0.11893769574731518
0.7863451647346797 -0.36248266123959005 0.4917188480951873 0.21749113111188412
0.7734235275214466 -0.372928205432461 0.49379769152340464 0.16000189412172855
0.784172324143499 -0.40435435766640815 0.4938921785110809 0.1826660739429475
0.8068897514109591 -0.40735823348119715 0.49361564839833644 0.1794551422774059
0.8195455962673954 -0.3996746215950323 0.49378968224969105 0.19715925790052424
0.8250029920308378 -0.37795341398411203 0.49326925381866404 0.19951625224892997
0.8137698109759199 -0.36074900010894695 0.49293308669953373 0.16762065007382956
0.7985527578971858 -0.36644728928991266 0.5357851408271993 0.16929163837259878
0.7967824188144462 -0.3665544269447523 0.4694407450266787 0.21427369580172026
0.7946375586295045 -0.3671064991518779 0.5225822126150231 0.19229219156736524
0.8026095767324858 -0.3667565556256182 0.5162013418547392 0.20962568243639693
0.7993755862774534 -0.36651672412586633 0.5508343633735585 0.1511088105708965
0.8035406932779524 -0.36698122589686544 0.4782890173027504 0.24043468392453973
0.8054505056792023 -0.3677425897404604 0.49016269590038986 0.23967815897822442
0.8063076931953294 -0.368175584500575 0.5277482741141034 0.17348109768791248
0.8031368619082527 -0.36689885296201696 0.5035651085018494 0.23005421111284038
0.8080007879246836 -0.36949217034338205 0.5627753548240452 0.149326732030417
0.81158128579921 -0.37275538132666053 0.47292135937229846 0.22335579571649605
0.8131533639980768 -0.3758334537210838 0.49950440123261314 0.25313363159755825
0.8127219933185585 -0.37497438795789906 0.5155113769950306 0.19371390819134385
0.8125296057675901 -0.37475896693289174 0.5485979795336872 0.1426039888475394
0.8140874110277461 -0.37910266815513943 0.48805784450062956 0.26845926865771064
0.8141061016828728 -0.38049339789880726 0.5646178584401074 0.14266323965353472
0.8140206734366733 -0.38422292403522834 0.5095180744759512 0.23363284852999738
0.812866159831102 -0.38768825651186045 0.5271211441635215 0.16763585851693336
0.8135783000677397 -0.3857381087305963 0.5380743500603891 0.14697155657094993
0.8128814623661128 -0.3874788675718415 0.549914512481592 0.15508896260132438
0.8104457984723161 -0.3916121331639366 0.5028689416160491 0.24543539503783765
0.8124975881822497 -0.38893125360334807 0.46790803184161245 0.2223159012245413
0.8084506484840956 -0.39330894083838946 0.5179884230307584 0.21921649894227657
0.8040470567645428 -0.3956778097739722 0.5478269172627943 0.15988888290819928
0.8065280357261364 -0.39472979591685897 0.4912698353605355 0.2504142079021225
0.8014492417648883 -0.3964631235800405 0.46883683831234685 0.22171892623892708
0.801347945638257 -0.39645082648104457 0.4795118384042454 0.23364531313365633
0.8006098187678381 -0.3963565869355636 0.5590334937156762 0.1491213945091832
0.7982785335200278 -0.3964593184034207 0.528173429955026 0.16733431431156723
0.7942512043010632 -0.3957309974988572 0.4967174697003773 0.2522325072950907
0.7920795334931312 -0.3949695436332695 0.47336945670934444 0.2557308525421107
0.7946552929925847 -0.39583733683325406 0.5135504732475286 0.2139914740058874
0.7948194640503179 -0.39573657512074345 0.571258670546606 0.13422697610601916
0.7887150798057743 -0.3926371236601015 0.4567252810825584 0.2434484357241867
0.7880239784311267 -0.3914347862140085 0.5441294386985074 0.16929905554039026
0.7848253748511842 -0.38582727506793013 0.5645016247098329 0.1562945855265095
0.7849625879083371 -0.3863861554660545 0.5254118782446203 0.15915783163713335
0.7844348759802576 -0.38495184498314716 0.47483042336186715 0.2617724540344879
0.7844568798539906 -0.3844394105742654 0.5138297388281111 0.2175900968307636
0.7845768572152427 -0.3854211734893644 0.4996524560337064 0.22643496360908233
0.7839005689899033 -0.3818991547161934 0.4553628910207119 0.22463509266437692
0.7842687063129562 -0.3805784282169369 0.5428516069254675 0.1620411647070555
0.7853576739530479 -0.37548002455452095 0.4934865190065842 0.25408908524522894
0.785617684712574 -0.37487596878629936 0.5040294429398341 0.21985646490328611
0.7876263829935148 -0.37163598314746416 0.4634460629245058 0.1993579153775347
0.786629061048608 -0.3734334504856798 0.5559891871607272 0.1533957323974954
0.7907731931073665 -0.36916162279037373 0.5651932159542302 0.16793795444647686
0.7916869971265456 -0.3683134720125413 0.4827691485569284 0.24199552652990508
0.7924446546806447 -0.3680546264038321 0.5106253860095437 0.20686509165863698
0.7914253380086755 -0.36861086245924896 0.5449407416021754 0.14845858932279257
0.8032207183148934 -0.3672143203156058 0.5773597839709642 0.15063066088393026
0.8135659281319694 -0.378020253017499 0.5786191239571626 0.16949040336720084
0.8120202808418889 -0.38909652497338343 0.5750051023741788 0.17153254025243633
0.7843489874001944 -0.38084226209615774 0.5755118592752002 0.16555663229154688
0.7931606319023579 -0.36825656012036534 0.4536141967773801 0.19956122314127595
0.7979553443222448 -0.39636505959590485 0.45361414863912625 0.22832287560741044
0.8091081307871589 -0.3844513891061868 0.4536141495071291 0.24509981386612803
0.7951065682333591 -0.3820424442301851 0.4536141853013726 0.29065315972407846
0.8049433281875678 -0.3729262263738363 0.45361418303712026 0.2505446143349217
0.7933921049651924 -0.36882048917229915 0.580947159132848 0.15454009216391051
0.7892861464892275 -0.37022491295985593 0.5911819729884655 0.1458780196898713
0.7836182024710325 -0.37835683660422637 0.5955403105621765 0.1746506809817156
0.7825779141962147 -0.3826300693711682 0.606003646226093 0.1673154566985777
0.7840767959180021 -0.3767364311931394 0.6157897415285675 0.14332488326737944
0.7851539007571011 -0.38384831281105114 0.6242658801499822 0.1659978281374738
0.7860584062738417 -0.3905106947572633 0.615181039638423 0.16038007372221447
0.79312702582704 -0.39203583574969353 0.6334983738985918 0.19663275061972801
0.8071061228432422 -0.38817840023505845 0.6406578337519678 0.26083454375939386
0.8069680170479446 -0.39569006599614953 0.5972365740663209 0.14427961872281014
0.8113906537719616 -0.38889941186384663 0.588741097053606 0.17296975631689301
0.7994096604974583 -0.3969770600636508 0.6181512499786037 0.13807866657990345
0.8034664340274389 -0.39354496960168217 0.6307451888137908 0.17277532338996596
0.7878195284501291 -0.3936463069536441 0.6045156794259644 0.15395730386952713
0.7870284360216463 -0.38437493199093137 0.5858970215458178 0.1656044912861717
0.7965498862332674 -0.3946827122926897 0.5873886365729225 0.15989782108782072
0.8152487013362474 -0.3833528552683365 0.5975030647036766 0.15902411563097812
0.8104967386487343 -0.37369865049975 0.5878754176200808 0.1481337000617601
0.8118191924318288 -0.37117789441874494 0.6003976273352828 0.14957685714795868
0.8104014150178904 -0.3700578655102321 0.6147806326228362 0.14451513426690285
0.8006974533746873 -0.3688336088408591 0.6307197593107886 0.18692309082868183
0.7983758398799452 -0.3655333930919998 0.6150510859889359 0.12948290301385112
0.79601980224136 -0.3733642399724537 0.6459580582064902 0.26290724363136453
0.7912752854002919 -0.36911119812681203 0.6222962970050462 0.15127892024961126
0.7896446687963884 -0.3752642671452888 0.6365064305364417 0.1833755954110171
0.7921298100128638 -0.38269005322893546 0.6494255600245261 0.23180815222818035
0.8060177156574793 -0.3782954667976748 0.6487431003453601 0.2493203767866002
0.8112965971580566 -0.3803259193200299 0.6333314173297963 0.2011493505190491
0.8135491202999932 -0.3876399012899687 0.616952228139488 0.1421156239079256
0.8099310180253531 -0.37243681991914207 0.6252027260858185 0.18381726108193605
0.7980829606591883 -0.36513122434546746 0.6009502305148343 0.13781169276120522
0.7967863407563711 -0.37933504472190316 0.5829721200648547 0.1434353472793175
0.8450862184733134 -0.35629962060744574 0.38720821977583586 0.09114952488038701
0.8522945386347672 -0.3648184673298951 0.4037094358931102 0.11576776710471394
0.8456246763315991 -0.3724866848325431 0.3961908629915447 0.17729307509887016
0.8409203092521933 -0.36688449175046106 0.3110027951933782 0.186367008284432
0.8456244386251659 -0.36410257588871603 0.2984347105852037 0.08646350725704847
0.8494940513883827 -0.358161169137785 0.31589738647024185 0.12274378637516963
0.8489278175442647 -0.37416438914640654 0.31734223565656255 0.20369075253582833
0.841752793946544 -0.3654862128016579 0.32267595396734194 0.18754774161216065
0.8549380032104454 -0.3728027060012642 0.3544515968542347 0.09792773777144967
0.851636314513639 -0.3637648704384927 0.37962009252844475 0.07899649277620927
0.8486520880328394 -0.35559666088146324 0.34537877779601056 0.14952366012799367
0.8482789582430423 -0.35588108351397324 0.36578953714865065 0.06756762497767349
0.8472329020882017 -0.3575185766798764 0.33406803582842487 0.1427558346234224
0.8413733836529993 -0.3660970142244158 0.35278823342389104 0.19907401729419477
0.8419829044556892 -0.3651905522590881 0.37257440345360093 0.17361193973703598
0.8545087898813661 -0.3728266957779674 0.33709498759612117 0.13215355708806462
0.8548471469906078 -0.3729275139349434 0.37517373123697506 0.044375964182894245
0.8403040077974496 -0.3688203453569182 0.33365233223906604 0.27099175638752204
0.8267876674247738 -0.4279848727689321 0.4023073740623705 0.11593819468012877
0.8381691238923916 -0.41659872942858167 0.3913988744953199 0.082410026960433
0.8244815004595166 -0.4189332027098734 0.392450325878297 0.1841394152054521
0.8353579832369362 -0.41924657234947266 0.4029399326125656 0.14439470821052033
0.8337494475917551 -0.4267290145071398 0.38653608552481394 0.0553492034480921
0.8263484365475916 -0.4325229969313675 0.39169548131061055 0.053556368641583266
0.8361105952745141 -0.41661487746384546 0.3163765714294616 0.13930830860619725
0.8314068471172656 -0.4228047593335024 0.29520092035769746 0.1501078657975308
0.8334649186296756 -0.4275296766339371 0.311143292715519 0.1146877892754133
0.8226925714407092 -0.4278418508033998 0.3202109582138569 0.13683534865123123
0.8259361802947652 -0.41649725924495556 0.32172146890690934 0.17625298826925068
0.8332094129713371 -0.42650042666699073 0.3224745556286051 0.1254865835454823
0.8265830182891893 -0.4292696729165635 0.3326420623969994 0.08591775226798772
0.8282144526858195 -0.43083020772106423 0.34677486962854104 0.07912716229003293
0.828233753738483 -0.4308151569658999 0.3630206056704129 0.05186324561387252
0.838686154127557 -0.42262859977579975 0.36940544198061087 0.04118451503323846
0.8364857654490314 -0.4195482105850232 0.34374099380606105 0.0965578955322335
0.8292091716293685 -0.41744768706951746 0.3326109770455122 0.15808352027991712
0.8390994463402639 -0.42029011154698764 0.35481040455550494 0.08714629398293902
0.8259316867609472 -0.41649002452965384 0.3678050124371985 0.22345093916093103
0.8262785574943136 -0.43211436774856304 0.3731119358324894 0.04732693166992079
0.8257999598634885 -0.4198138938631815 0.3433579195964953 0.15957542167210595
0.8257672345424378 -0.418983933797352 0.35604341046174054 0.16879612809894673
0.8545914885906816 -0.3735565449377877 0.38816485457016914 0.0937550147830083
0.8474242213394437 -0.3565322343909955 0.4002477543099191 0.136241178300459
0.83018147996556 -0.3394543259318798 0.38280120244977467 0.08343663932484992
0.8356886409415832 -0.34480346642503995 0.40040410603298243 0.10876099254657629
0.8211342991019224 -0.339934920065354 0.3888827409914521 0.13088639079265318
0.8274864238658732 -0.3345355447531654 0.40128480337722344 0.07715882769064052
0.8250144767460185 -0.34954677044326316 0.3195069421483984 0.21365790010305916
0.8294835089240888 -0.3445128775174492 0.3020680438467404 0.15435485331542734
0.8187054851196232 -0.3390154355770319 0.32043322711306355 0.16274224087725161
0.8230040411515046 -0.3381450409671402 0.30950510007342796 0.14789986226167653
0.8360479146865667 -0.34363520379250656 0.31604375074127067 0.16708650900557379
0.8242377854125218 -0.3347192120863032 0.33228213016107855 0.1296993071465996
0.8326806696762371 -0.3433330686601981 0.3285788187377224 0.18382046580022554
0.8376676674281611 -0.3417711337328093 0.3649154058898358 0.027004025356282883
0.837398470562655 -0.3415901076993356 0.33796757036809527 0.1039513340386838
0.825198711482146 -0.33338242362350623 0.3727499170370398 0.0516033329947743
0.823154981789882 -0.33287156879199536 0.3624606224245444 0.05601063968019552
0.8235815950230395 -0.3455629593754787 0.3677113710434036 0.19280945462144988
0.8384420914459001 -0.34247470433659005 0.3514706750993671 0.07446793567704763
0.8250061544549154 -0.34742901505365376 0.3549554110200811 0.18943072636097266
0.8242063874400388 -0.3477242401429376 0.3368916670481484 0.24462699725521989
0.788065971416936 -0.32880885881369387 0.38965853682058715 0.0925729702072321
0.8019804587751845 -0.33178433377243133 0.4037353765523525 0.13749964748167046
0.7901228698698469 -0.3315425692580862 0.4008696967162896 0.14017956824825362
0.79718042295353 -0.3408062037071212 0.3934527852320094 0.17950064171377617
0.8055855144613662 -0.32720813087265543 0.38970383507303424 0.09525283806851394
0.7918440222847317 -0.3304167253302016 0.31129728472315965 0.12906237637441778
0.7957338007050552 -0.3246509872403968 0.31979133828423767 0.12712133145541527
0.800702095485845 -0.33146472250283987 0.2998571607124586 0.1678249490031729
0.8065190747467679 -0.33111155535486286 0.3166483891213669 0.15610660831335788
0.7996888088807781 -0.3291191852713364 0.3796754886440827 0.06788057008258871
0.7933953219914944 -0.33928473281429533 0.3211435763359288 0.16358002518459822
0.8044221611400293 -0.32878503800002506 0.3323062568176635 0.1173353839845105
0.8044754867148787 -0.3274232032089063 0.35371992292243604 0.059325292047549875
0.7939640046906044 -0.3278029171845636 0.35641973985630504 0.0793042478662677
0.7891170709871708 -0.3279780010386968 0.3448163727340865 0.06565201520303422
0.7900293437793191 -0.327944979183157 0.37186677654229744 0.05395728266558134
0.7897154994223131 -0.3291557653565834 0.3338433849044138 0.11400146577733214
0.7982564479880978 -0.34019071107073745 0.3446674826520924 0.22853861784693613
0.7973863526534622 -0.3390800521979081 0.3634981543805776 0.22181140016437118
0.806733328018532 -0.3283247920610729 0.3680497270287212 0.03876465738645275
0.7745026583456326 -0.3343527490520353 0.3966246967460813 0.13256948389963047
0.7676569953666499 -0.3414492274900735 0.4037267725582556 0.13179845713762947
0.7684968607779186 -0.3499218672280413 0.3922933187023861 0.1730290439441449
0.7666209284826615 -0.3384533362174012 0.38542042389123826 0.07503094225483264
0.7586746876310413 -0.34451124358634116 0.3961670097549153 0.06125727515506204
0.7706545033103225 -0.3431201099710772 0.2961651426836233 0.16528375081502067
0.7654861541653124 -0.3474640990446877 0.3083745291328059 0.11295868959523828
0.7597385442175105 -0.34337753058074144 0.3191482113152066 0.05414753820771384
0.7705256971193335 -0.33819774038181766 0.3074313457086553 0.16285067935432476
0.7629974958701292 -0.3417349697535912 0.33220848716844353 0.05887936477085888
0.7721752823208134 -0.33926055893580825 0.32273838671891 0.10055706962564004
0.7748940717348858 -0.35019609086701425 0.3206571079526522 0.17146712957963656
0.7686572988942533 -0.33707528752200205 0.37314641499857143 0.05933088421420783
0.758826669209349 -0.34477481594551207 0.37702346518413826 0.05399517905062821
0.7597743423759495 -0.34403261217628006 0.36525269297634283 0.04666431256237831
0.7609295623379103 -0.34560939315381267 0.34149033221483327 0.08225027253626725
0.7724233741954426 -0.348953090463277 0.35209593885346113 0.16612078426869883
0.7710955577725763 -0.34857402756473643 0.3637328188527915 0.1775274613418998
0.773331192816316 -0.3347400068789544 0.35050192868971236 0.049451685422798215
0.7733186569602994 -0.3343698820590753 0.3644740871095667 0.04170562482129636
0.7733173222449838 -0.33443078655979996 0.33407272798425136 0.06055694928087576
0.7738594174655198 -0.34822729110309186 0.33314101754794156 0.2092179898783837
0.7476635123652958 -0.37818431541825376 0.39789117656635103 0.1280855578919848
0.7472218244403314 -0.3766757621125499 0.3862608774752219 0.07489844030271361
0.7493186192155803 -0.36054056696302433 0.3852430495799113 0.07807508469986556
0.7508512690368296 -0.3651271907548039 0.40372993023671444 0.11558664247970526
0.7598860262418182 -0.37068491050602653 0.39305095788109107 0.2569514327616881
0.7536895934626482 -0.3697522713467248 0.2979810520536679 0.09007414736083677
0.7490182594014526 -0.3745201025510515 0.31006238523926966 0.15039459438543945
0.7429962246541809 -0.3691582410579613 0.32014575709878706 0.10550661005779027
0.7490436938472499 -0.36469555674342813 0.3070632438066469 0.10732643500055819
0.7544846142453373 -0.36087766158053997 0.3173342724737523 0.11132548481563433
0.7566313151881525 -0.374443744693347 0.321377241819931 0.15089572053654882
0.7491615597808617 -0.358896985619576 0.35450453509474117 0.10202012838682822
0.7480508525920073 -0.3627880610768813 0.36423636489566563 0.0862251854080411
0.7468440553041568 -0.36701610448900146 0.33092658497931754 0.12777887352274164
0.7456742991073166 -0.3711136126093496 0.37720620323390436 0.06788026358696317
0.7444932658551972 -0.3752512090419448 0.36634715058845113 0.1576148959453646
0.7532345240301094 -0.37312039605513686 0.3369428408531375 0.22122028100298288
0.7485327255451346 -0.3748403244209214 0.3538853262306321 0.16354037602798904
0.7448582244728016 -0.37613622884959125 0.3425015188099974 0.21177103817622994
0.7585347022497435 -0.37121329068487935 0.3495587765550672 0.2243793175549792
0.7567769636994899 -0.3718552923132181 0.3625996384897611 0.22133137287410368
0.7529655163064816 -0.36314635096939196 0.3745024393099951 0.08715039742132459
0.7511067130250095 -0.36079309381199837 0.34338726214762927 0.11205525045178401
0.7779199078665023 -0.43289174076308207 0.3978136406676307 0.10055749109486875
0.7764850901565821 -0.43029826416761496 0.38499422894157365 0.08184341837193233
0.76265048412354 -0.4228249300992307 0.3860906010138149 0.10025756952299836
0.7620256489183379 -0.4210665522520282 0.3973987555876079 0.12147851055017558
0.7780043692754245 -0.4224183319692821 0.39212597015587713 0.2052833990440688
0.7733621354909795 -0.4251305804718034 0.4028763460330505 0.15850640578967257
0.7719508981673981 -0.4231991190585848 0.2947341227308755 0.07372339036816208
0.776612951628514 -0.4222712838660374 0.308284070613615 0.15828718587596996
0.7793308176003527 -0.43001867930134946 0.3201330814636457 0.1564066987210095
0.7658302779270905 -0.42501017993135265 0.30926556665617644 0.11295692986392315
0.7753089254274017 -0.4225569371164607 0.3736277599719772 0.1790255484372132
0.7678920898747834 -0.43158768554511984 0.32082980849932324 0.08802431494616439
0.7747368639773753 -0.4165356295985257 0.32080766856878384 0.17725711023443058
0.7672252651226087 -0.42760022317422186 0.33360076095051133 0.13680964809036025
0.7629209540423406 -0.424704510182373 0.36220031877182335 0.21331257838103382
0.7761009782243116 -0.4335715860803429 0.35116418518443504 0.11651232356962113
0.7743662390799635 -0.4324045246289528 0.3684422759020855 0.08537625855171974
0.7756983598168781 -0.4333007021339911 0.34019910083210003 0.09913675698132583
0.7760221898889865 -0.4214126363038742 0.3380134193117175 0.19404977574022453
0.7762065510333876 -0.4262866057288144 0.3592690097998717 0.17921771030509653
0.7610001989949027 -0.42336523252759023 0.3438036460190346 0.23527245209406736
0.767993779422739 -0.42078587852799665 0.35116290558345253 0.21091468908658734
0.8114586312630192 -0.43546303562195127 0.3971338953441877 0.09408439731407012
0.7917301645522565 -0.4377456477413572 0.39181496044094044 0.0689188540980805
0.7964428482219308 -0.43713176117704483 0.403502573720855 0.13109457622716225
0.7996571307873939 -0.4256117007415125 0.3944402943406429 0.17062560226956278
0.7986516930634402 -0.438387882345545 0.3836303495477543 0.06984784514602388
0.800977988204204 -0.43149963075630154 0.29587881090546325 0.13162003282116116
0.7957116178083998 -0.4349167905449152 0.30917093991198 0.0854571577585698
0.7922123273389082 -0.4314988793574082 0.31977294754722113 0.09067459172621847
0.798682792139824 -0.43001734442019085 0.374034136989566 0.16625984756236248
0.8015824409426123 -0.4260861007068047 0.32199181918213565 0.15407403282188323
0.8106131661298283 -0.4339359604585397 0.32070361637821193 0.10869389181440504
0.8008127060271061 -0.43578895977104065 0.3275757450057853 0.07382334500730815
0.7934911788157171 -0.43842597180406445 0.35733205918925043 0.07229847307384794
0.8031038692555188 -0.4380787295449793 0.34137559412881663 0.056253694498647845
0.8042011439727879 -0.4380390790783602 0.3556571349096522 0.04876531336650458
0.8106015788560692 -0.4378079772570799 0.37748757622310075 0.04791137437148299
0.8102953643612736 -0.4371119129163622 0.3645552310969542 0.04557690463013948
0.8012233939644039 -0.425484129061292 0.3341365555190657 0.2168960104206817
0.8018520070356492 -0.42628654189496523 0.3476945113116357 0.15766820757400693
0.7946060496045603 -0.4348268902915208 0.3462718157520149 0.10545019880471022
0.8006574534109059 -0.42577201394094044 0.3582211995192505 0.17303651289329317
0.8509680928667962 -0.4051900849067703 0.40149313248183627 0.09324266711500116
0.8487740257303886 -0.38880923483224805 0.3884341374252269 0.1343631635501607
0.844279171349098 -0.4039474616062092 0.3906891656869073 0.12081836035638076
0.8426852389666625 -0.39354820325529466 0.39675000904341434 0.1528040386852065
0.8554464948775444 -0.39042421444368947 0.399242086540367 0.0838498400696513
0.8415598091978921 -0.39527370147229185 0.3117129361876803 0.17829572717432385
0.8400703219951646 -0.4011375029422814 0.32031499940015173 0.20421476288197676
0.8512014411317667 -0.38922608391794117 0.3162733598568944 0.21779316874553487
0.8492870002302151 -0.3964421511776869 0.29664409633741456 0.08615450805333529
0.8525554232163592 -0.398948936432123 0.30871478564269467 0.10745630982298728
0.8501320126080837 -0.4062211403810389 0.3184857449262205 0.14759527824744434
0.8515353339759749 -0.39252480728785727 0.3285858798941656 0.1710649656852466
0.8514726946475061 -0.4031703328912886 0.33358679398430746 0.14494948191533033
0.8516254328769733 -0.4026356319680508 0.37505677298203827 0.05532882130954336
0.8543861113676862 -0.3929640197241319 0.36029072236926096 0.0888769344161747
0.8549293796516896 -0.3895157927672374 0.374202121565765 0.05960793927781447
0.854158081672559 -0.3898597102512511 0.3394853524580611 0.13081435068107047
0.8411695529815988 -0.39452912035744037 0.3556990791858145 0.2403255386455909
0.8413013075491483 -0.39448166237638743 0.33538252922238293 0.21646422228866977
0.8485211464135789 -0.405071580182869 0.35325995004662586 0.13226206545411515
0.8502772002441917 -0.40730333116850553 0.36476452532088804 0.030001727621960333
0.8427419476611528 -0.39773938917208385 0.370826928855771 0.17216229500338096
0.812038782278154 -0.36615547357473266 0.28027100745974604 0.11173993434565954
0.8153874048132225 -0.3758541389702043 0.27345616946537293 0.11043112216275429
0.8190314107725538 -0.38808516032465495 0.27821277776420145 0.09390657518036073
0.8105714380869706 -0.3674730951917818 0.2938243376836767 0.14571943813492227
0.8040866249925618 -0.37394506369912345 0.28513828076504777 0.0611234834786556
0.8102552020267597 -0.3884510346484183 0.2855467239255188 0.05706252962568765
0.8157335692196724 -0.37527945500308874 0.2885705330151193 0.13631723945466873
0.8198250727255569 -0.3862192946889727 0.29545415063695885 0.1673407745704317
0.8036056582891392 -0.3786231498418964 0.27048541259762254 0.12163419431314355
0.8150062383567851 -0.3940686108771669 0.2436690394382145 0.22706793978372997
0.8301055451431851 -0.3773331017414941 0.2337075473330889 0.19842633802256598
0.8066148752939801 -0.37306849437898887 0.26044246819976763 0.17678197245649888
0.8043883795674958 -0.3606259352888153 0.24432696183870048 0.28256837185860556
0.7832719953054958 -0.3744358136575843 0.231749907534762 0.21615401194195666
0.7823870094862129 -0.3851279291742828 0.22914521047380304 0.23474496636301617
0.7889032131773963 -0.39403382609921683 0.23076441212156 0.22601541020340254
0.8084709797898049 -0.4007803861042108 0.23361718018038696 0.19808062904264906
0.7746686974197186 -0.37278290734416886 0.2239517753217725 0.21291678461746485
0.8070922937666334 -0.3557569354582177 0.2346530549449274 0.19512180523548908
0.8272288858616099 -0.36003502962575096 0.2276465792206873 0.21028716055417157
0.8361768000597408 -0.3941422059100215 0.22361443215237106 0.2128324801249285
0.804247537474422 -0.3462921682183943 0.22425661543532005 0.1675556935146562
0.7898997956206779 -0.3511901860762871 0.2242530864199883 0.19866266180569217
0.7868852836359721 -0.40322352535038536 0.22405668719542385 0.21672875368434902
0.7958370532536152 -0.3775967081937491 0.25489855216302876 0.20816432862192782
0.8243316189363634 -0.38412633564860416 0.2432497912215205 0.2151795835858083
0.7760034854099642 -0.3946912275871381 0.22317505307773294 0.18376252210746294
0.8281988574526262 -0.4050694795185959 0.22393688987157243 0.2086518536826942
0.8379041285825459 -0.37656555637382416 0.22615762346256682 0.20018705053235275
0.8380491419935049 -0.363802046260224 0.22396879938129954 0.20054650787719114
0.816384108699064 -0.3450705020589991 0.2237141655354224 0.17250112182854288
0.7762534327195321 -0.3612877479050393 0.22347963908656077 0.18652401554427206
0.8050894075549411 -0.4109978270321835 0.22437389689908108 0.1905721279489643
0.816989034307728 -0.4074973183945441 0.2256736212371577 0.21867080462111718
0.7996735191602949 -0.3959520260827071 0.2502697745196904 0.17499263182061772
0.7965935058442253 -0.3991587810678082 0.23771950854777826 0.1933005267961978
0.7926229894898116 -0.3887764152557354 0.25655613108252745 0.15007142896239534
0.785952317649654 -0.38045529071901596 0.24387653982094504 0.20287885634652275
0.7879253078337639 -0.3686641321590722 0.24390312732085714 0.19679435524632616
0.7964740955933614 -0.3629030975737015 0.2550352646117192 0.2007709049757457
0.7957924100840621 -0.35570697180339245 0.23432395279169732 0.20370425440682147
0.8134251166217052 -0.35998496360418447 0.2514777236001567 0.19766007466237656
0.8211893155253727 -0.36016223867807906 0.23981747865231123 0.1669851602209371
0.811137199002113 -0.39406392493331693 0.2614459497855209 0.14611074905714708
0.8218344523944775 -0.39023564722158854 0.2523039555766944 0.1965440083113033
0.8264180179050289 -0.3931760033556963 0.23558599229584157 0.1932385910653719
0.8281212862484453 -0.36924378372639344 0.24004003424284723 0.16636704965087334
0.8221068057056158 -0.3820436628958543 0.2637236622655045 0.14093367833744705
0.8064067684572899 -0.3616725912985855 0.26198540534773446 0.1214313568968495
0.81873826384992 -0.36731944369694847 0.2630644552660568 0.14199862929368778
0.802325734297525 -0.390580602327044 0.26624349984519435 0.11898877930102356
0.7962728205226581 -0.3689375921642882 0.265865794247634 0.11400218339324589
0.8099111899848628 -0.3804825460677219 0.19593771436164925 0.1340373461321256
0.8120685835067223 -0.38307819453350056 0.21611237715286255 0.17553057194219115
0.813491554630463 -0.37898430787636495 0.2298287627994963 0.3088544380847622
0.8085389058583383 -0.37386196444280556 0.24125564324611148 0.2783494766512885
0.80419499868775 -0.3735208163005956 0.23184181625222744 0.31526769347502825
0.8044519211361183 -0.3848287821737441 0.2276529701076054 0.28128605863901324
0.8018478719867389 -0.3812511064997573 0.20769088285187473 0.13312757456270352
0.807131652803086 -0.37268354730092007 0.2152587524969617 0.15498985945721958
0.806149712296387 -0.383216685464837 0.2463176136011198 0.2340350797747716
0.6489748683205576 -0.20612018151997563 0.3979754697346559 0.29238343603794337
0.6367186214454235 -0.19709278834479138 0.3982801790384959 0.22814802357554795
0.6250522118823028 -0.17901918768147773 0.402094736645043 0.22313642217633434
0.6313853096411131 -0.17049981855828497 0.4038224405905015 0.17877027122434438
0.6068263621253851 -0.1891840274307915 0.4087080716284378 0.15028127335328473
0.6074274567157227 -0.21538523484338712 0.40765639976135676 0.18007235137035799
0.6302266419846642 -0.21405056227679023 0.3989786999868328 0.19613388404678447
0.623566804098582 -0.2369591816943821 0.40661807662678157 0.1766845264928261
0.6346777390617442 -0.2369124020925695 0.4036099498777432 0.19438697185379605
0.6424992895673038 -0.23084333690042372 0.40035443028223555 0.22165410974669017
0.6594017633137358 -0.24148365236113217 0.4055804643628515 0.19910604588534178
0.6619359989142432 -0.21852944688886217 0.39889265420926495 0.22080640541873425
0.6729872259122569 -0.22883018035616698 0.4032727333098741 0.20346365834285524
0.6792379505300794 -0.23538474513939314 0.41013017035359745 0.1443804421613061
0.6851863333339052 -0.2158104704944616 0.4050508193067514 0.18717364449667812
0.6755329190487596 -0.2040631689911883 0.40019060046409083 0.23449329739228844
0.6927767154846611 -0.20134425803336123 0.4102907044749579 0.15021686363488734
0.6868910229803074 -0.1885762296483463 0.40648308362530655 0.1471788934011735
0.6853715434947774 -0.17858612377878877 0.4103052691256033 0.14534263225089522
0.6617787347285227 -0.18748083966164306 0.39897935379797034 0.21616740835801787
0.67553631614704 -0.1778487190359294 0.40416114961875693 0.20562193412816374
0.6442543950660112 -0.17996935582795645 0.3994822186503808 0.19562597541476398
0.649477601731149 -0.1700219650747668 0.4019561074149047 0.18888876410383904
0.6138746235330694 -0.1723030360952937 0.41349827972544345 0.15457063479407912
0.6257984543950411 -0.16270008588072288 0.41334434462153186 0.14037407287015874
0.6026935954171395 -0.20436288042571008 0.41134173871888063 0.1384404847639161
0.60575370564154 -0.22367412101457 0.4150322090263712 0.14577242074568503
0.6384462275257672 -0.2478415608378829 0.41186804240472163 0.14997700016437202
0.6871132249559577 -0.22681025641120148 0.41116268827334695 0.14392935262849746
0.6791275976778552 -0.1697659151118918 0.41194900447731353 0.1421750567394205
0.6389271695114326 -0.15672051611906374 0.4160727614733711 0.12200029469472458
0.6664576769122308 -0.16065774248240536 0.41396363144796394 0.12445041680043246
0.6057290987686533 -0.1816760727466327 0.41774439560143745 0.17893047253559907
0.6008838977594178 -0.21325262895950292 0.41997365855241553 0.12373451593470061
0.6167398469963155 -0.239534180679535 0.42112318869280435 0.14094761615378243
0.6544045761287098 -0.2508553951387264 0.4199485394914052 0.14575126886160178
0.6669309012284124 -0.24749242338170183 0.4208214947567371 0.12763791202068003
0.6592533600939487 -0.15655910595924363 0.42092325333126085 0.1366739204626754
0.6031856686491897 -0.19175958719354996 0.4230647094372549 0.11345337561769034
0.6117591497686728 -0.22845591149684988 0.42305236867648566 0.1453403363268046
0.6413732600963857 -0.24855245215835517 0.42324185637958645 0.11596401302491913
0.6832799329966104 -0.23361954153927614 0.42360865532243763 0.16424492622131895
0.6896618307069255 -0.22536828667317219 0.4231081921867009 0.15163305977170993
0.6958672010554862 -0.2088323353093494 0.4219236689695549 0.10705745010403471
0.6903955733847202 -0.18890348977835783 0.42335149507620945 0.13868665628057475
0.6881237394463353 -0.1767614554279916 0.4226884990790379 0.12432575247032317
0.6477359020484156 -0.15718908145933463 0.42304431940199266 0.12137683918340415
0.619977203140305 -0.16674934616498954 0.42306771239477875 0.11203937152980391
0.6723496603289603 -0.2387613142811207 0.420465775461215 0.1415401416620986
0.6289108801100121 -0.24063343619206967 0.4177133085362757 0.1420765719056914
0.6402444661744471 -0.16794455082272744 0.41051212473674364 0.16956011882831654
0.6574996393485549 -0.17152567142860112 0.4085433291452514 0.19860034807213447
0.6285076323361062 -0.190167572814215 0.40483936633623424 0.19485647176328585
0.6188822797806688 -0.18492692098392255 0.40928696480297677 0.1961016975150137
0.617467020006432 -0.20436420052767837 0.4073157923059984 0.19979417994726548
0.6174765015248672 -0.228793185278913 0.41430186488105475 0.15776315336501734
0.6260526832058326 -0.22417454775958198 0.4070916621556942 0.19858444653736407
0.6296664722337342 -0.20354375206251693 0.40347574479884507 0.20493093266862772
0.6521000563852459 -0.22769645810787906 0.4051917526974099 0.22813248486731305
0.6635791092791645 -0.23268943230308778 0.40857690034595784 0.21783546865586492
0.674177233919234 -0.21661346092176245 0.40673822292712497 0.2434755087908723
0.6817791865020962 -0.20631213059178166 0.4089010175981331 0.1873958001019538
0.6742548396823804 -0.19476690490056595 0.406139410416315 0.19330238498566502
0.65288891624879 -0.1630660929358796 0.41528209537490046 0.19479735085135408
0.6437793848146499 -0.2387496666230202 0.4102579119616886 0.23426336541525805
0.6411180147179645 -0.1881473324922168 0.40980952342750726 0.23567923748412892
0.665013348642555 -0.20550445312514382 0.40596682172194704 0.23500724538924442
0.6564616904693583 -0.21750074853959853 0.41126201985693067 0.2899059265896542
0.6407264102427457 -0.2183678455616156 0.4077321973723255 0.25500474507279164
0.6330299905274808 -0.2091320360975534 0.41370334910482454 0.22136471927396603
0.634748669544732 -0.19438275484703194 0.41642758166648863 0.25404266435315154
0.6542799428222659 -0.18851993705681727 0.41652909787185355 0.2857764544032488
0.663843477904208 -0.2076273494079182 0.4184301029628192 0.3100709161637891
0.6424422335304999 -0.21896859472326044 0.42080997542247417 0.29663189865113404
0.6439668983995589 -0.18713619227440434 0.42211843703106317 0.28577153795058186
0.6460596029258283 -0.18676787392365926 0.4324424716963678 0.22849244933770976
0.6584049987566638 -0.19018948652068993 0.4331136902807493 0.229225850059629
0.6628744343899233 -0.1954056416563662 0.42117199922264126 0.2911089377874252
0.6643755795870007 -0.20682412399569536 0.430620661732293 0.23826273081606902
0.6575318337438998 -0.2169838891286117 0.4403931621941791 0.21392934765128743
0.6545346255097167 -0.2186459492088827 0.42560263194861886 0.26879318197274094
0.6478791702024649 -0.21995690957729502 0.4386587627610521 0.22879530803474596
0.6345247856311745 -0.2128122406654416 0.42951054171925374 0.2644248548707795
0.635404982676132 -0.21411106044962816 0.4398600596172468 0.22265782032945575
0.6333524565889137 -0.1956807503464612 0.4391397309486857 0.1995316091196171
0.6271526407405029 -0.20522576088421884 0.4456685357087132 0.24640441325892123
0.667034173452562 -0.2097090700485795 0.44467400015241026 0.2445204634181312
0.6663800829479173 -0.19138695464935648 0.4462358910688728 0.2582735104013638
0.641732761454819 -0.18603459673945758 0.44356230913762534 0.22435899631515674
0.6562931308886125 -0.18682543378818436 0.44354128474279847 0.2438782989822721
0.6250607390776632 -0.19421611570406405 0.45042881755831515 0.23720325338345713
0.6205924523613771 -0.19562055204280174 0.47480423169998554 0.11642617501450689
0.6227610351665399 -0.18897535355342873 0.4829061518885442 0.16530107642186423
0.6210697481557099 -0.20294470312210677 0.45786729380973307 0.13711073994310546
0.6195792831507387 -0.20784647319156033 0.4792662442935818 0.14498289957119637
0.6233821660712994 -0.215622405958921 0.4615064796187921 0.11490215522968258
0.6224877303212548 -0.2178002899583018 0.4845358773467977 0.14299759672909218
0.6357957094023972 -0.22744998799255042 0.4589378355263979 0.10816124473863448
0.6428756235252879 -0.23073785090674506 0.46781590401031076 0.1307449461934021
0.6441995167888619 -0.23192041551624257 0.4800930474377777 0.15647419177270794
0.6540155198150035 -0.2308610928130903 0.46813774860391605 0.11866906435308727
0.6615804006247938 -0.228780997568535 0.47704309955299545 0.13908521789969178
0.6643635435356351 -0.22543411661759777 0.46164915641491083 0.12771227570116478
0.6619182317155479 -0.2227955314581507 0.4488522315359985 0.22511580132001027
0.6518726045912873 -0.22667060437045625 0.4483052900226361 0.21078925763652803
0.670583873307354 -0.21700798928414253 0.45322913591137703 0.20555200176898045
0.6759186082454671 -0.20359836507750154 0.4645462666196442 0.1272370158607277
0.6759013365659031 -0.1958048440959416 0.47742322061576625 0.1307653972033629
0.6716284630861432 -0.18769718859166235 0.4705553386437658 0.14010705903741513
0.6720137116015973 -0.1854880388070905 0.4859212242157254 0.13941441136244986
0.6609862074897894 -0.17871870828694078 0.46476108749985773 0.16593203914285906
0.6702953473698603 -0.18737954280777128 0.4597849830051785 0.1428006707490628
0.6613685436432457 -0.18145414518977324 0.4517471017285884 0.20760645294653346
0.6733740766368844 -0.19858023296243807 0.4519397937371959 0.20636630289307262
0.6466290568922759 -0.1779680032342106 0.4516381397094628 0.22309506304347185
0.6443541792764577 -0.17579006177703424 0.4645743831587668 0.09754121806002183
0.6565614106785997 -0.17560225192695586 0.4786377757261557 0.1411360911367752
0.6758557177868532 -0.2131800845480923 0.48409942087354124 0.1420430544946439
0.6702027763879861 -0.2222403519553063 0.48321721931290235 0.13871163688085403
0.6725863621666377 -0.21747865179779294 0.47065064509268434 0.1290173797296088
0.6336101506320266 -0.23045615427831484 0.4898609239619736 0.1573185880588362
0.6307406295029709 -0.22600343265697137 0.4758511200050596 0.12606327960481567
0.630148487719836 -0.18056552241833537 0.4803996362793447 0.1431634614310727
0.626244058598591 -0.18553438693379884 0.4702840741951755 0.1343749515250617
0.6417486738133917 -0.17508160282023663 0.47814230192256896 0.14774925822601284
0.6319519368430908 -0.18155136257241652 0.45848283135127804 0.11719004402335811
0.6258711400477103 -0.18060229012541615 0.4916303570948294 0.17035601598376024
0.6142889382282413 -0.209041973459587 0.4945609893226468 0.14418926700515916
0.6458469711872646 -0.24085916801541532 0.4987475553410264 0.09566037584431658
0.6685605749047169 -0.2290708173803779 0.49296212388348876 0.16182069411030284
0.685472975577541 -0.20050139947762008 0.498880514940276 0.10759668707572985
0.6361331496991487 -0.17394446621953244 0.49159922884911594 0.1514882690867198
0.6141300470401656 -0.18732332738389829 0.5007326752875945 0.10421261354202137
0.622626691990334 -0.1786844796071119 0.5017406422176817 0.15385711802896668
0.6181825310198549 -0.2242574342984855 0.5021313041230392 0.12038686898358457
0.6267527221103145 -0.23293184394430813 0.5008913358536793 0.13898794063234543
0.6599959377995992 -0.23866142066463522 0.5016373345981232 0.10700357675824414
0.6776516848486409 -0.2255012769999197 0.501569408367402 0.1415560937725166
0.683596174886998 -0.2130162145700786 0.501279224204836 0.10451719931087232
0.6822996477134067 -0.19016762553003227 0.5020085027007894 0.11181649073184378
0.6756449493375019 -0.18023958604487544 0.5003845392246231 0.1338273112994736
0.6593169279491436 -0.1676150602766395 0.49967818379062795 0.09103577196559937
0.6467014107218263 -0.1660536206348686 0.5015470981849153 0.12854830783166837
0.6358629988711928 -0.16807219940115906 0.5017336774599375 0.13499726113728747
0.6703684701081806 -0.20375744227230683 0.48956136301973135 0.22709730720699917
0.6697052588531954 -0.20501097750670755 0.4765843368844336 0.22623997814886718
0.6672735894724584 -0.2115660205232809 0.4627249804053735 0.19892680158151815
0.6417544392237331 -0.22011053260500632 0.45283827940461213 0.20385165494690607
0.6746650757363248 -0.1629216807076476 0.42034855666083365 0.1125549953750273
0.6137271235698805 -0.1987937595511238 0.5009704129151233 0.10471843467053672
0.6254688853300951 -0.19344211667214897 0.49260929988112445 0.17641074549247052
0.6292441019003489 -0.2204236703221187 0.49291538099416726 0.17220875230270158
0.6530981387499422 -0.22710989241481463 0.49234302033833327 0.19321033206264565
0.6701687726041504 -0.21535020574121763 0.49280467780486353 0.19629541098960734
0.6612711265222635 -0.17757264391513322 0.49460696440879376 0.16350299352120165
0.6484433277200701 -0.17820448629946403 0.49273853928129646 0.17381969163384314
0.6351378958469465 -0.19535550322443712 0.4626887246908719 0.20790131784087723
0.6350039358056894 -0.19569475922935894 0.4730584187383692 0.23581578920278198
0.6411465847860167 -0.18987124565618982 0.5130962181431767 0.18110483584683118
0.6382522852816401 -0.1918664283909843 0.5233218223875826 0.17683102819468335
0.6396258888153644 -0.19099022337625512 0.5405922750438901 0.16452796511975654
0.6386761952637594 -0.1916705038017097 0.5519598770149622 0.1350514108199415
0.6446968486703524 -0.1884232930422474 0.4593313005221839 0.2142752429910964
0.6432472675190427 -0.18900141224026856 0.48614290377018493 0.27348813913825903
0.643486685385045 -0.18915556488716428 0.5709013581940028 0.14978236564908917
0.6417038222890125 -0.18957747161983177 0.5005748586991534 0.26486802242758645
0.6473955688170133 -0.18816808454735154 0.473429577368977 0.21547324631516643
0.6526211772019391 -0.18897504792966405 0.5612342843878186 0.15498358479995178
0.6526166660243617 -0.18890560033444465 0.5357685813378571 0.1588210514019608
0.6545512906760356 -0.18980715069570078 0.5505748550112064 0.14962754877215978
0.6584275272544405 -0.19228549370578032 0.5027318777463615 0.23625008799049832
0.6579675950616638 -0.1919607179138398 0.5236275623896944 0.17562303164452484
0.6564767801246734 -0.1906356174758242 0.5134699240242224 0.21100404816775714
0.6603118553366724 -0.19434751380339074 0.4865108963492852 0.23056467423371096
0.6616974145087269 -0.19627049818086223 0.4609619342613991 0.2322563152388361
0.6608842967448371 -0.19546161970483164 0.5437843131166162 0.16997760248245
0.6622933231894035 -0.19864510517050846 0.5605297397334966 0.1431545756800271
0.6630246274699048 -0.20085652293865724 0.5110403270726703 0.21158448475308564
0.6618885405626622 -0.20916532576615704 0.5417420551490236 0.14262328671360655
0.6614356714854204 -0.20997322960913076 0.5625899355371949 0.15744726426416364
0.6622101506985465 -0.20873090187199136 0.503951391046512 0.24222487040495344
0.6585985019327347 -0.21425847007632612 0.48376318401711976 0.2656123990205201
0.6596745247160943 -0.2128658381127302 0.5205526542782541 0.1811221594188376
0.6561076044118209 -0.21619496971721108 0.457902338442056 0.22853693830472552
0.6517507345280974 -0.21780144441154484 0.5558232285108968 0.15079657498217888
