x y z curv
0.6005813263908346 -0.34061804747398705 0.3159291973076053 0.13636657859136683
0.6305500979406318 -0.31419200624180094 0.32548853614835155 0.1546749329081526
0.6383012540195441 -0.31677979284859953 0.31726510575891925 0.14216282746470066
0.6473823757340837 -0.3194984425615996 0.3275858057818947 0.13667574612183164
0.648247128840607 -0.323382602206387 0.30990518058260297 0.1382138182427879
0.6450800272096455 -0.3218093164497121 0.29842255996629946 0.12775157841016468
0.6063122857190921 -0.32227467149134564 0.33053961133226534 0.15877544339758393
0.5989249527490254 -0.3313342940358571 0.33180495235296875 0.15628697129220628
0.6534824658320897 -0.37155816668934677 0.33652570911525564 0.11803795972606224
0.661984477875296 -0.32795574632401325 0.3364766743649494 0.12374071953267336
0.6093268041848443 -0.3761852775659113 0.3397558235030866 0.10830884787260703
0.6452061406703936 -0.31112152036078855 0.34092027129699837 0.11896531264235746
0.6247134036975657 -0.3080417931120161 0.33985651500314756 0.11825248188477133
0.6147879102187805 -0.31083857889207983 0.3391352191472134 0.12059287441948323
0.6035398524733999 -0.3166491361848154 0.33982878747423806 0.12737649736542792
0.5964029520189199 -0.3257401548123849 0.34025290537050945 0.16693036886190882
0.5931297947674368 -0.3364220224298244 0.34095944728925137 0.12697113557644846
0.5933636521534729 -0.34784708911454165 0.340644525181276 0.1343539744188994
0.5969310727425255 -0.35869861999647173 0.3381052825586625 0.13018416073691827
0.6026367810577463 -0.3680236548105857 0.3398492996841591 0.11871581545243517
0.6223269203630818 -0.3789217203214272 0.3408489948895597 0.10841891380754407
0.6346365803656905 -0.37848721018781517 0.3367339229483642 0.116048276867136
0.6597766754906742 -0.3616574924863384 0.3407222527280799 0.09793445466590797
0.6645170383318248 -0.33966604438967457 0.3396671703572082 0.1277029491408428
0.6545082820148982 -0.31922100591179364 0.3408739723293214 0.12597216280554574
0.6429717273730341 -0.32740434369679383 0.3190291907710501 0.21371773013448295
0.6494338632435822 -0.33646674958306627 0.3181523499629739 0.1994539421812895
0.6502550499485645 -0.3463784404090439 0.306010250154574 0.1583244934109729
0.6169490666562384 -0.32656941992313393 0.31327717387150184 0.1991066373088515
0.6208908595379615 -0.32919370621407823 0.28058241591640765 0.2210323796719083
0.6367995764577764 -0.3590734944989983 0.27975585326359237 0.20641640372373515
0.6355677008261216 -0.3101416033587185 0.3369118955260119 0.1215531503525862
0.6629391560181728 -0.35185352433824146 0.3386910020615728 0.10936565524241239
0.6053222550450953 -0.350890884830013 0.33158883482390805 0.19476883853467328
0.6103069954956095 -0.36417937611224444 0.3329080153499199 0.17359037704759436
0.6182164025173312 -0.37126459544273 0.33367845307803917 0.16457778192783237
0.6322696193524914 -0.3687066862717005 0.3315229325461992 0.17094147855510672
0.6482983585397869 -0.357465512795479 0.3307914698662408 0.1968775214606618
0.6525933074011872 -0.3333778238157143 0.33198777163515536 0.17034806897578073
0.6474397043925181 -0.32228608592703617 0.14530619176730677 0.17418032654452875
0.6376518429357051 -0.33331119561570294 0.14040388436139764 0.1325639194526406
0.6471934789971883 -0.3332986378029862 0.14970032587400267 0.20837401655957022
0.6447318515699785 -0.3506679768896802 0.16229780113366044 0.27481107835754015
0.6538237847950366 -0.33478152000406824 0.14068477344363664 0.15261910436582135
0.6520103861553458 -0.34059812096407666 0.15744117601696372 0.23943048658243735
0.6519167285515866 -0.34788533848201997 0.146865358338312 0.18848707144834867
0.6480695816913176 -0.36273089438053724 0.13258297700587876 0.1333224067547109
0.6518023318049364 -0.3397880506672447 0.1263293898428028 0.13851870932989435
0.64543260731073 -0.33012860932580174 0.12955376073369113 0.15110642760206194
0.6403826989115627 -0.34172260674497806 0.15355250534924889 0.2180312001120401
0.6381193715062096 -0.3506011642310733 0.14524468607727448 0.14280493431181449
0.6418694410097228 -0.3544194015984268 0.1350243960526844 0.11836840538569378
0.6404717400421758 -0.3662975022193754 0.1394046222471431 0.1706809522736293
0.6448490121609987 -0.33603877043469554 0.11865821408408829 0.11345162146425232
0.6363554928828016 -0.3437108923813149 0.12927561668142137 0.05346998283830454
0.6439007427272512 -0.3526451773707036 0.12201649254089357 0.10981002137269263
0.6413773182009741 -0.34493510808288436 0.11476094386879164 0.055275834830259704
0.649062946396237 -0.337195503865197 0.08234642965171236 0.08732561188311938
0.6391609637979633 -0.340714728697495 0.09980808604280218 0.04967672972422703
0.6400199327348364 -0.3443116208023765 0.08784665813151657 0.07947246866308684
0.6439323651810857 -0.354663246851155 0.08968412609030743 0.04979504215140934
0.642250186809554 -0.35190332733333385 0.10016999084118079 0.04191063999665282
0.64960888671875 -0.340339573200523 0.10628359044427078 0.08367829074813193
0.6526805392476247 -0.35326514854220437 0.05342099636173751 0.19884353944264638
0.6538098725558403 -0.35957808798437063 0.04164763899942257 0.2011423654403165
0.6670758605604521 -0.35675440314532453 0.03438043679200876 0.13184667865068042
0.6663752818866158 -0.3390047712367519 0.03676325922506838 0.178038612289582
0.6532914177224312 -0.3220681016307637 0.03772394313958236 0.18047397431025833
0.6440956821745917 -0.36620016261205757 0.038176492628349865 0.13477623125716265
0.6313982655775087 -0.3490273854754307 0.059670282318797827 0.2402912410459848
0.6199855164935723 -0.3423617730300553 0.040010465352895326 0.22865254109547406
0.6488040102267899 -0.3373854090570957 0.06306855058593908 0.22067436194303797
0.6584405056894644 -0.33179041839203194 0.042274593386131994 0.2798987108336394
0.6401428670154973 -0.3445496409342561 0.06791027832025513 0.1683209498016114
0.6119625908188633 -0.3472613212989291 0.03412472953268007 0.16397470953355237
0.6659647638455625 -0.32763494536504584 0.03528408782696044 0.18723881368939133
0.6358231278550238 -0.3150276453217734 0.03530071708618984 0.12693673999686036
0.6192458521070069 -0.3270407607157416 0.036062137251141956 0.15401210011932115
0.6197549035099679 -0.35946937159747844 0.036179697297504386 0.14336639118362987
0.6337928277120735 -0.3697584380194897 0.03582026319277726 0.10283598862776404
0.637464427720637 -0.3612380041382963 0.05155301717802059 0.19602561662512183
0.644327394618539 -0.35862672690663333 0.06266983115581332 0.18457600169199218
0.628104152397084 -0.3562029421147609 0.05126946104272393 0.25470360830917704
0.6233812085431674 -0.3465385824130379 0.05208604620550605 0.2466429526339874
0.6264252458623492 -0.3348602316991014 0.05641330098242164 0.19679609717045504
0.6284792260242007 -0.32726826196493275 0.047007206986236234 0.1981614251821116
0.6442561656450314 -0.3222349297429594 0.04562403825602025 0.20647709985332044
0.6442971296162138 -0.32639748294021453 0.057643132843794645 0.21226272119889053
0.654838584802879 -0.33170555801492646 0.055452799978967016 0.22839812183505048
0.661715592989415 -0.3506901945116373 0.0444170734848261 0.17544093784930853
0.6588976672261413 -0.34320646873895577 0.05613723480730025 0.19870985229299995
0.6336632836153655 -0.35408577454457413 0.0699556206770758 0.1655605889836871
0.6286896944680102 -0.3449870954142536 0.07099452374582914 0.1507429476818394
0.6450433136283693 -0.330554775868114 0.07121088841115443 0.15974778737712353
0.6445288578172609 -0.3516988101314031 0.07485993606609122 0.14003087544031184
0.6534486247102831 -0.3465106385984176 0.07204418571859679 0.15899711928339
0.6352862423469835 -0.33297726903865466 0.07246180272919706 0.15780074755874665
0.6446269375381274 -0.34786132803104414 0.020314781483596448 0.24627987545750624
0.6463084538940308 -0.34525631502390053 0.04508418251468085 0.2558021146162256
0.639214322353394 -0.34191534856672223 0.05446361807723799 0.2450718173651456
0.63646926882003 -0.3425567275123997 0.042665272124797184 0.24889060846961145
0.6359665921990368 -0.3437416819547818 0.02846360579127799 0.29510312811531164
0.6381333161475794 -0.34657627020868786 0.01095620509094196 0.16868298316283245
0.6417467793283776 -0.3411884202472083 0.003185787149083919 0.021156485232806888
0.6460459952520028 -0.34112190437022 0.028626081357699947 0.294963820209727
0.6441926795782761 -0.3438609614107473 0.17128564453128084 0.19792029413889212
0.6399325159158976 -0.3383489276676009 0.18477754145236241 0.16737721259904273
0.6401302687409239 -0.3512027235642457 0.18881478116658557 0.17940941796381196
0.6491001266195231 -0.3471101683327172 0.18568828517376845 0.22936726890572495
0.6490891914657999 -0.35489844177911795 0.17837175943588457 0.25330393475090723
0.6490899046074808 -0.33425745854660494 0.1770557482014096 0.25579995702593755
0.6491013793945313 -0.33814451158006936 0.19395709437036782 0.22538572493022702
0.38516173514070273 -0.33872581946103547 0.25530619792916864 0.31949513199079893
0.3845748439282862 -0.3482511887804252 0.26613935786197074 0.309573527553957
0.3925765851937793 -0.3528967768656924 0.2841128855311464 0.2113694764333966
0.41891431468225726 -0.35413434666592 0.2821148361666661 0.191771519916548
0.43025496235205996 -0.34809654032323784 0.2845145313114003 0.11151038721204924
0.4566120541079338 -0.32950937888894966 0.29625356370079586 0.10382188840483625
0.45082427629284405 -0.33278782327276285 0.286035581713969 0.11048497733756547
0.46833026564453606 -0.3339609224987988 0.2895015428111465 0.12482269922346975
0.4849847606332197 -0.34307922146958286 0.28249603782892135 0.1349075010381802
0.4931442738988926 -0.3576404354334096 0.2584121088553932 0.13461414374292818
0.49279561429576746 -0.3511660935219996 0.2328642776056928 0.11311659966465193
0.5024136271801664 -0.34073243648617785 0.21781831264742393 0.11647884452199721
0.5325763285326199 -0.33109057504222167 0.20336177160917548 0.1266588821117987
0.5884849704166002 -0.3488703676056222 0.1654610979678403 0.2063161903431232
0.6048722333516762 -0.338874203552091 0.16686135531622334 0.19479012929989373
0.612361622878984 -0.3299197226228894 0.19086877558516757 0.1921699282638997
0.6144315539228026 -0.34280637201995184 0.22013749597990226 0.2221548581465405
0.6258096208954135 -0.35608052019157294 0.23116911927837402 0.23549580730556882
0.38292694297593866 -0.33692022525065113 0.23336974759958212 0.20814730677668944
0.3816764155276743 -0.34635500943310643 0.24817486720342585 0.26053795346869457
0.3912527797093188 -0.3556652107811434 0.27056969752902776 0.2696989842275079
0.43998393607829334 -0.33350287653434957 0.2914457666094776 0.12810900213200968
0.4796796213917017 -0.35206731885725007 0.28843403458792144 0.11941200448048686
0.4825148427468045 -0.35222411117212277 0.27638030506570815 0.12673107383407772
0.48131264705604127 -0.35865773777609283 0.26648339394689236 0.11710090251249647
0.4854657536961858 -0.34705932157000513 0.24070853302790318 0.12286655567242968
0.4979537234342531 -0.33540089929935524 0.22795176360108474 0.12578233502344333
0.5203290490936848 -0.3296667532721297 0.21355740819776703 0.11961642944971085
0.5128980500955396 -0.3343728088795355 0.22087807786248864 0.13079049320031827
0.5373881443255866 -0.3395204635035159 0.20825802314878464 0.11590726081248776
0.544562044684336 -0.3475155513161042 0.20203194486772483 0.12472426085003231
0.5484127502600418 -0.35480924684751447 0.19296555925956974 0.09792275124733772
0.5630616570836554 -0.35536969315468026 0.1659015162787863 0.13973615490726568
0.5715981599437565 -0.3432125747427273 0.15990648317314665 0.17466336509629068
0.5831644891774379 -0.3391536166340295 0.1610266065209765 0.22775938948015456
0.5929138689745086 -0.3384375078172052 0.16805940585850115 0.20279587007580677
0.6054538487238206 -0.3342130980841089 0.1807352754686643 0.1571952601875265
0.6105240012038319 -0.3370979451745086 0.20306920855801489 0.14232860381933
0.6182319604128683 -0.3519267429630299 0.21501050070198358 0.16418990128735844
0.3885720492770396 -0.357402997847852 0.24933964111151033 0.23667772646107207
0.4073908761094315 -0.3574677803916263 0.27369817465205404 0.2023473448344072
0.4219980901104109 -0.33693834089370384 0.2838439057432646 0.16007080664509082
0.4586560056818937 -0.3397932308311851 0.3077878410130081 0.14355126507982605
0.47002931840509804 -0.35236954449895797 0.3001595423477107 0.13962053897068163
0.46823150296034527 -0.34221534061471554 0.3025427960625907 0.14071395254784733
0.47843492578625574 -0.3471730548178353 0.25327630305121984 0.13706041505224728
0.4913891795073739 -0.33204621822533276 0.24039615440751552 0.10998921784638752
0.5357177157587111 -0.3496324258207041 0.21229918235648892 0.13134885081525843
0.5351903594107771 -0.35561809619569035 0.20347494832200957 0.12114827348593302
0.5461715174024844 -0.3564069060808668 0.17849019593196425 0.11007563753635798
0.5511153041563969 -0.3481220766904563 0.16649451937189136 0.12769242231028685
0.5869273816767742 -0.33252321321362593 0.174333399583572 0.22043146719466686
0.5942669859492475 -0.3327109130328688 0.18177289597388907 0.2128750786520866
0.6027718469666612 -0.3375476328208355 0.1916930652078845 0.19723044891488697
0.615048273603007 -0.35560125274315973 0.2036964469648766 0.17855577133450212
0.6326901789045706 -0.35299912377262643 0.2225850535244692 0.2281853248581304
0.3808910298633775 -0.34673445085062027 0.22723324445193796 0.24254221008332472
0.3839259248190757 -0.35308728506581455 0.24031593842844018 0.17998313020072199
0.40126217438008527 -0.3563588346145033 0.2519877059934038 0.2794809193569866
0.41338533179046544 -0.3389367581784464 0.2719726071403383 0.174630602947891
0.41257787042578176 -0.331336964433495 0.2822347020042017 0.14493393196816037
0.4221931957650611 -0.32981316913408815 0.2923720949679497 0.13746309111703928
0.42145840184023614 -0.33272971603341145 0.3031302122017211 0.12496268623031162
0.43249182993613905 -0.332888109878976 0.30527849070769814 0.12949313890138117
0.4416570683754042 -0.33693944771499856 0.30890986127342474 0.15645087240667557
0.4480144378670135 -0.3478024596738399 0.3102093295001018 0.1653083174820416
0.458234275628129 -0.35190235599833114 0.30641968312183 0.13542702393760525
0.46732349246085364 -0.3551792984422914 0.27647839626831505 0.10838679655185222
0.4721699501850908 -0.3523301759995124 0.26233976756261757 0.10859014722607109
0.48057613364369134 -0.3362853434441279 0.2495576118695153 0.12707646616144505
0.5036236738001181 -0.3319276786800927 0.23884374528205654 0.11432281032588826
0.5200723666666706 -0.33959182082596934 0.22919747997422335 0.11716089552062928
0.5290514825103048 -0.34686143224610133 0.22199246508150228 0.1345512852330973
0.5335004967176462 -0.3555654637502753 0.1897388776922269 0.12413565701711243
0.5422149012516129 -0.34000509755216873 0.1704011098360549 0.13501748895907376
0.560580609263247 -0.3376336261917796 0.16187159215466038 0.14304289431744446
0.5742280479722705 -0.3320060450407265 0.16602680268094921 0.2400089562427427
0.604095464379181 -0.34820307807834033 0.19809917828205512 0.19659698996895958
0.6293855194748991 -0.3565903633918117 0.20139573642751665 0.27272845059438267
0.6337329005437493 -0.3560225918676443 0.21280841192236336 0.18718434904712256
0.6444681642314979 -0.3438146179610404 0.23067223837757006 0.27387599590536826
0.4021157357050251 -0.3560950382224979 0.23986770148985703 0.2405754734883136
0.4093074604438648 -0.34765010395642104 0.2516364796577346 0.2715888788121315
0.4118620643160449 -0.34673681694754915 0.2631881054127339 0.21183832475102354
0.40442441913193283 -0.3305638997017044 0.2890350406083379 0.12780192782991234
0.40914801828826347 -0.33397013775223666 0.2989867454304922 0.12046293059574889
0.42540946125323037 -0.34237161456153203 0.3072818169407719 0.1561735999547605
0.4348319521382899 -0.34899712830733287 0.3092498741219663 0.14772914374279741
0.4604130395765291 -0.3576222609433698 0.29584614196650244 0.11943929721900479
0.46396808263877864 -0.34611204224895936 0.26909582658223064 0.09822565822464209
0.4707707883164946 -0.34038721802108424 0.25912737569972827 0.11117695340089889
0.48883044963117733 -0.3317233885796998 0.2530758350769474 0.12541200819110207
0.516524858197893 -0.3412280497018693 0.23950951346485297 0.11684408855177385
0.5174246592928542 -0.35328213008857295 0.2312024030400989 0.11937028594331356
0.520311527031158 -0.3533570092167946 0.22096310075999195 0.1299437388914447
0.524940013842915 -0.355983626536232 0.2101039855217253 0.1301517714798494
0.5243233232010326 -0.35136723567700434 0.1934085401230761 0.12161826510592644
0.5312702136826857 -0.344019708673116 0.1818642377872988 0.12343199023200449
0.5615678071187483 -0.33099583936857313 0.17165885361165828 0.18813417254845746
0.5787316589709244 -0.33504418736303826 0.18373489172602597 0.23774311527577976
0.5896956343483734 -0.3397512870703434 0.18929951620617363 0.22973863257045424
0.6096219139823574 -0.3572216268146903 0.19195282078926088 0.16949076981459565
0.6246123778300812 -0.35478584183969325 0.1915623407319145 0.2531588722130742
0.6356328683776387 -0.3457555369370974 0.20394153584170133 0.14055933911978039
0.64010258522386 -0.34081954430998196 0.21235051446491326 0.20504037162949074
0.6357734945366267 -0.3350372889947714 0.2226577302398387 0.2539309582026394
0.6363086055983485 -0.3321972155430663 0.23867512493576704 0.26216520587436654
0.3998819007089082 -0.356929269544866 0.22741358481145152 0.24237088642965612
0.4086288591208874 -0.3473050604551787 0.2397106266305326 0.23734912256063068
0.4056061151258512 -0.3348703280011938 0.2604748778934744 0.23524206493258046
0.41455985692333513 -0.34287528001197626 0.30495202150501216 0.16098344903777148
0.4264548397381476 -0.3538709538951043 0.3041413012300142 0.14568605673065618
0.44336104119409175 -0.35690580099702424 0.3033765441484328 0.14228641769069578
0.4496459882971913 -0.3546870598181276 0.28752009689955255 0.11528489745463591
0.4574873837296247 -0.35285284241686954 0.2804056079507875 0.10055767397677626
0.4676820278666537 -0.3354961145046494 0.2704855480168983 0.10944709799421931
0.4777644216006375 -0.3336487714071507 0.26877874357376313 0.12587115362571244
0.48963490399108667 -0.33375262550376616 0.2644014950358374 0.13244866429226468
0.4987727193118645 -0.33586127571808055 0.25906836775286524 0.1293254226775661
0.5098022393325753 -0.3411154254511865 0.2502401492230139 0.10695876954186187
0.5121716533791401 -0.3545197214306171 0.20605258234185697 0.1161647574434789
0.5150629498119463 -0.34733352812592777 0.19832689312656368 0.10641574487445495
0.5355816133332555 -0.33388748884805075 0.1848632346128167 0.13375799873606262
0.544965906508155 -0.33227143230920547 0.17803305497414887 0.12047456907780701
0.5750863976909194 -0.34758148640172876 0.18689785396538186 0.2079350903973593
0.5868392544368944 -0.3487626816993897 0.18430833213992912 0.20323561865292752
0.6040233191957007 -0.35664144986391544 0.1819155628166324 0.18190908064713057
0.6325930204283656 -0.33518819841408426 0.20717384157270627 0.18898123699488797
0.40800985760615627 -0.33763538722765857 0.24776032994266997 0.25320241061117055
0.3939548667643314 -0.3324531796388846 0.27211463401861946 0.2463013632121353
0.38978867229687053 -0.341125676437179 0.28516146393187186 0.22516967895675755
0.3966198285971702 -0.33904916479377034 0.29287645891066355 0.1970928545490378
0.4030366061348233 -0.34716712593227417 0.2970754609632342 0.12974112860193307
0.41621312999075066 -0.35339194743888663 0.3013110586068232 0.15546577787994684
0.4391942474572418 -0.356198400467807 0.293727156993752 0.13345556598986055
0.4590614673139955 -0.3399855019013098 0.2775117715259192 0.10014814711898484
0.5013414329882842 -0.3489342773044778 0.25781449267450823 0.1294146456250271
0.5047151235167951 -0.35636849593127023 0.23190517433608748 0.12177054124307175
0.5047014800288422 -0.35157863815332824 0.21677695186657678 0.13476700608221234
0.522384467138161 -0.33773099406972695 0.19419010882557158 0.1443818628057069
0.5530994197546483 -0.3364411990967101 0.18897261121930448 0.13200194686896763
0.5622291928114835 -0.3420856127186523 0.18849233243309846 0.18799605449359114
0.5779771908559143 -0.35732346337108334 0.17881088802171288 0.2487236592040674
0.6095656121113211 -0.3520508331131907 0.1732898603900176 0.18195493440009633
0.6199458247084972 -0.3513039275057969 0.17932689404798535 0.22221530850556964
0.6229785237805902 -0.33139794152961033 0.21571454317226843 0.21017217738625904
0.6210896267480993 -0.33664509452108526 0.22486953662181913 0.22742057934305712
0.4093781599159211 -0.3431928158907986 0.2287959799368513 0.28608139345310596
0.4006532881972419 -0.33216121020013417 0.23575197071027104 0.2259878121671183
0.3973858597559011 -0.3298456538991686 0.25462655611266943 0.22312406886687416
0.3856315626644744 -0.34007447511909167 0.27247108805341624 0.2784855502318405
0.4089979667805897 -0.35796802362042823 0.28959697102811793 0.14110169495014405
0.4227133359664408 -0.3583100895819599 0.29428119591271745 0.1555155936690073
0.4415550442828775 -0.34451574027822834 0.28426518551621116 0.10690175249085748
0.4878055982365548 -0.33502686461885695 0.27559529988852666 0.1226105878944728
0.4935758261922125 -0.34304111403744264 0.2700317891205741 0.12726145474567407
0.4930153678741265 -0.3575885593458618 0.24094086885225546 0.12026437538325771
0.5103934459012781 -0.3360869180801226 0.20836789285350127 0.12645817944022444
0.5435546718402825 -0.3312856801952672 0.19356960770461068 0.11656696783138842
0.5657249276647339 -0.3520441942332272 0.18414450314242015 0.14121592786323756
0.5809928726873596 -0.35767269175213867 0.16835924970810312 0.2449362957618408
0.5987151715140141 -0.3492011229516088 0.16799997865498467 0.16513779343734777
0.5903119347021917 -0.35624405906776896 0.17367340684691113 0.22397303385360973
0.6223882315289566 -0.34184370384650836 0.17759037948503703 0.1512647901464116
0.6260332013005023 -0.3359789120807622 0.1886312016389236 0.2430791806829404
0.6195634840733301 -0.33061079089475387 0.20320979666502043 0.2126179563994368
0.6202787325813617 -0.3493557707204046 0.23769698809897827 0.27354633243679666
0.38693309007331333 -0.3557096407522295 0.22710350597046025 0.23437696682177545
0.6233302204503557 -0.34049699995386007 0.25066202146187766 0.2692207267633974
0.6420457038261093 -0.34874056092760936 0.24936146027459566 0.26340811591593466
0.6342929359393007 -0.3418512940642921 0.24990027640899928 0.31558563651060384
0.6358234417659747 -0.3907468526718063 0.15562146142477848 0.05718740183266586
0.6456266152798743 -0.38300486278820395 0.15832855185509961 0.15804668125117072
0.6486838037455815 -0.3876531762041143 0.14867708850054112 0.1369023727950268
0.65184322247525 -0.3960276973880843 0.15691589157920033 0.06200722887634221
0.6466957444671854 -0.39242668395297886 0.13821965369499226 0.08675830290465651
0.6505847247916441 -0.39176210201848044 0.16968968152861136 0.08374327779797454
0.6412718238167352 -0.3980547091805345 0.17150880347411812 0.04326118056479449
0.6512375542093051 -0.3948166766879517 0.1829276362930801 0.047679206799422495
0.6509453826388821 -0.39491164457614486 0.21181656392999584 0.062275302028326054
0.6506445905287129 -0.390920722139339 0.20078692588092525 0.056391447171964926
0.6438471683569511 -0.3859706073661912 0.21013754055287867 0.1591091691137831
0.6424603807128028 -0.3849636517186582 0.1765251227094349 0.18335291340169121
0.6373245218827125 -0.39772167982532486 0.2050627589757717 0.044101995843636256
0.6383376718421663 -0.3945798050700955 0.18754865738915058 0.05142127793693796
0.6633536440026062 -0.36835442864310375 0.1548021652551147 0.17468484114582514
0.6694211713998308 -0.3709037261453592 0.13901454466280846 0.11274090559042037
0.6717332208677589 -0.37791550088944037 0.14642387117214783 0.07525854443124355
0.6710774082233076 -0.38309275357816885 0.15869096002241576 0.07918151246374398
0.674967920670516 -0.3664522344061348 0.15881816901075585 0.14069347983694178
0.6656909193839232 -0.3754295355204511 0.16418832246308537 0.1590577195611778
0.6691112991965424 -0.3822929194588113 0.17319208295115834 0.08024455204695119
0.6700423078913478 -0.38101162515026554 0.19637214042085982 0.08042240160662299
0.6718188782701444 -0.3785663607431408 0.20628804793749564 0.047901305496511566
0.6673805706885707 -0.36940108538382505 0.17982579037665533 0.17106087704859854
0.6783057943696672 -0.3694631298675379 0.18037666431281152 0.09300973895573977
0.6781835678984016 -0.36942425863813194 0.20122615998368854 0.08237039182480989
0.6628229982730596 -0.3693894534661117 0.1962266193997331 0.24513264143456437
0.6736872898015933 -0.3693919972977902 0.21474678950691053 0.061433457385539736
0.6674011149127888 -0.38428049584750634 0.21546337793220927 0.03199447037886798
0.6654451723545849 -0.378308405441616 0.18539875704044687 0.1264497543723534
0.6627842444592744 -0.37020244185208145 0.20702192744871722 0.2538110016287965
0.6723893529402502 -0.346783899254234 0.15001652804850785 0.1738420840794731
0.6774738624530872 -0.3448402837687165 0.13205828815313836 0.10327374127414658
0.6774596528035368 -0.3365846327087115 0.15545587615467193 0.17861720689050475
0.6805691759239088 -0.340153658244186 0.14505347359054316 0.10280097978591517
0.6864644909045707 -0.3410475983750825 0.1588014457306654 0.08019009109465228
0.6750314581743907 -0.34974644104413743 0.16071758496962335 0.18604799147227133
0.6835413818359375 -0.3531542161054501 0.18954431356900409 0.11286135754102658
0.6835413818359375 -0.34228790760049527 0.19161703467925512 0.14514755724594644
0.6835414637948982 -0.335839149762299 0.20462398393816297 0.06678601999524372
0.6835414102877384 -0.3357218834949283 0.18308046642853715 0.13087497626324449
0.6810413456052627 -0.3375203213852205 0.17157125099783843 0.16303864709479796
0.6713409536294325 -0.3444791504744721 0.2072608198691115 0.23954987462016053
0.6722439782137192 -0.34382431167985267 0.18429841797758323 0.17714740195346237
0.6822748380235004 -0.35341689044263824 0.2039099376714785 0.08675277646332763
0.6828685000867264 -0.3538479230607457 0.21757593291893385 0.032863470415947345
0.6753509087383893 -0.3484163561595201 0.19718377222903244 0.19590225132708666
0.6719783834168893 -0.3459812775722983 0.1712341294278791 0.1994688019459244
0.6666139604755548 -0.3202189032858097 0.14564087830752617 0.1336712072118185
0.6687929104877522 -0.3171987005170045 0.1335799995017777 0.09980793664380339
0.6610589157133859 -0.3161739146242499 0.15504938753709963 0.17492789654921378
0.6679021313813589 -0.3097754879309075 0.14775258818376555 0.08970644877010671
0.6756667021636931 -0.3172055366818859 0.1502174143595783 0.1183129283137513
0.6648474715738123 -0.318744187483158 0.2105576972950885 0.16972982831052505
0.664993527528258 -0.3072264498049299 0.1588460189658448 0.12099575861810731
0.6735128600614039 -0.31454754655345574 0.16071000801946225 0.12246983731463223
0.6779554650745812 -0.31932637093410454 0.203454305657278 0.06132967898644162
0.6750775003877101 -0.315365263562104 0.17149765540463022 0.09709909516919703
0.6759766303305755 -0.31660265877652444 0.21717221822514274 0.05424224285856941
0.6701666344545042 -0.3086058808197318 0.18990102520138152 0.09632473739205771
0.6670989177509263 -0.3074475189254098 0.2083439345949623 0.08126510823566822
0.6678156872748481 -0.3054596650348942 0.17824418340623613 0.06897205375250734
0.6631088202767024 -0.31969393746426733 0.1958630959757138 0.22936854189160502
0.6787036181040721 -0.3204603396590649 0.19162893920371127 0.09583840999434359
0.6677452094966831 -0.3204928822167034 0.1830667950036225 0.17817049508124178
0.664484939514871 -0.31555500205546366 0.1670340265064814 0.19048861143147458
0.6480490029682227 -0.3052779955707892 0.15622672756279116 0.14694387778900203
0.6449742210636789 -0.2996449626056808 0.13505172315163433 0.11056248781909928
0.638411856079777 -0.2951141923419467 0.14968679940697804 0.09490069941715476
0.6473248475358536 -0.2894346836863942 0.15874305537010178 0.050813349201793534
0.6498666748261195 -0.2944796041959646 0.14945228786928236 0.05765872920734791
0.6420812336033348 -0.3035508497685874 0.2096713820846825 0.2091366344948986
0.6363801425888811 -0.3001725909645535 0.15911279202127518 0.0883472756776866
0.6527753039790911 -0.2962737099816452 0.17099094364804396 0.08998662460009917
0.6549350736987939 -0.29583111494548603 0.194081111696695 0.040033373275278145
0.6544742291919223 -0.29568138529644644 0.1824502211606535 0.06949567935475394
0.6517759413637046 -0.29480463158949866 0.21766883062070225 0.06675974491309161
0.6482179905700276 -0.2936485955003595 0.20167621800699992 0.05131189342219211
0.6392827472981346 -0.29074531919297747 0.21239593064553852 0.07353442110245212
0.6374534916707563 -0.2905663738575945 0.1810388528377061 0.04201792776210555
0.6376458839188014 -0.29128602640775175 0.20011039247282914 0.04758189481635683
0.6450318086344656 -0.30315912845766363 0.16957803114934494 0.14274048461341887
0.6439958733546484 -0.30391740687189966 0.18648388387699538 0.18240568304803842
0.5966034602249296 -0.32065047164575494 0.15757222639154908 0.1665642206081821
0.5903199762658415 -0.3211922376518609 0.14817377057920023 0.10998459108847985
0.5804923406834277 -0.31891268449623994 0.15684255350554926 0.2097003083684049
0.5856444559032672 -0.3087115676975229 0.1546440988492538 0.08265487865014692
0.5875625362758337 -0.31368594338386174 0.1386566427735961 0.06773117906297861
0.5894955628522466 -0.3090353744736846 0.21791708631268852 0.13083385876717737
0.5897987469590977 -0.3104504676278626 0.16668959920866794 0.12662274977967644
0.5825213340421376 -0.31602841780080065 0.17323151162547132 0.1705008654897225
0.5818313835648227 -0.3169780728736362 0.20146032571603606 0.16791951795981855
0.5798826346027606 -0.32004206619867354 0.21227239889832542 0.14267274930418172
0.582766261262899 -0.32001793971878706 0.18945527731394768 0.21402475697989237
0.5931686200579318 -0.3200563741900875 0.20327662042383915 0.22011864244258728
0.5949874890400333 -0.320056220875528 0.18010700457898138 0.21327299610937367
0.5915945473339482 -0.3079597032620738 0.20335294313310315 0.125632817898617
0.5912374995917896 -0.3068761691414951 0.1917361928627802 0.13998208314079275
0.5947481327579304 -0.31756929704558207 0.19051930756113816 0.21169344362895315
0.6090493601109883 -0.38540232222926024 0.15444044193499015 0.13610944838529654
0.6202357787140748 -0.38581399877524797 0.1578973274903958 0.11238386578997302
0.6167599090014946 -0.3909198264618851 0.13982040115482275 0.08609950903715029
0.6199548963070536 -0.398041892557123 0.15541660916596453 0.04557723169941223
0.6066209384552049 -0.39689908520858014 0.15664280916935985 0.044976454665339574
0.6188721905469758 -0.39572681385426095 0.1698789519212543 0.04510138234862415
0.607538511201647 -0.39238689648409814 0.1676401699262214 0.07330001139668102
0.6044326245243161 -0.3940334050535496 0.18002250752935287 0.09604776147384438
0.6142653905999518 -0.3972282375871858 0.1831025915090139 0.05112008625535276
0.6126206938268912 -0.3966939017659465 0.21087781734583483 0.048344955799810206
0.6200292689563042 -0.39687886396029864 0.20138205400688095 0.04016082421262656
0.616390544508993 -0.38561318773369774 0.20368973536719698 0.21503429005067923
0.6164354400103849 -0.38575397927841576 0.17930282689667779 0.19211246124174752
0.6170437689752628 -0.3876268858790683 0.190962579055787 0.20105965827069158
0.6062098321363046 -0.3912862024336971 0.20286105210339983 0.0999003486600737
0.5973522707453424 -0.37166495172053887 0.15767793759777787 0.1697171605470977
0.5931200240340337 -0.3768788204110858 0.145983685262382 0.11062817386186657
0.5882597956890907 -0.37522494456649846 0.13615302470455762 0.07883043325699854
0.5851907464528789 -0.38104280319453704 0.15666324892217195 0.10144083913537197
0.5847327251908118 -0.3679688038545385 0.15077335735305702 0.20662569357537236
0.5870449099653543 -0.37609487951846593 0.1663011413783825 0.14041905137843266
0.5794758095969661 -0.3692260810378306 0.17340850037354766 0.19010617674948532
0.5861072572173707 -0.3783534963936343 0.18267637563476166 0.13701446874728884
0.5833452672752317 -0.37455205392948615 0.21529309690324333 0.14119361268358993
0.591304744491965 -0.3809437285288429 0.19413661319092554 0.11790091621113874
0.5906009212356712 -0.3831486196591011 0.20823367259706776 0.12780833478403703
0.5942972896616432 -0.3718278322741797 0.2055970083523623 0.22576558171024783
0.5795950856328551 -0.3689836660777241 0.20568175185732226 0.1490177292067471
0.5849485119270745 -0.36897044604017193 0.1886043910947764 0.22264485749673413
0.5920265678496726 -0.3689483307995604 0.17872721281595286 0.19523703192080302
0.6150982904602568 -0.2990167853561009 0.13469078054218003 0.09704995773361405
0.6171298537297116 -0.3022806607697144 0.14751426870858036 0.0962395675664225
0.6078573877970597 -0.30201036086495886 0.15253648118173924 0.09746822445789032
0.6127368616419069 -0.292358370467363 0.14824266681999285 0.0503581116622368
0.620533540190333 -0.2904183484823866 0.15744238744613953 0.06193085404474728
0.6105921703735561 -0.2999193649830685 0.16576821222456725 0.13160322171093508
0.6098777633186776 -0.2900721511640466 0.15879774013328854 0.06366971842937062
0.622077603801859 -0.3006947548834218 0.15899628949097638 0.0869284253466851
0.6211531062843175 -0.289980077186512 0.19988474540196166 0.042462640975317587
0.6197779525328818 -0.29042690351148087 0.18544156123993893 0.0547289025136876
0.6108241155071659 -0.29333623890700944 0.1776349347993249 0.09226556093057726
0.6109531440170144 -0.2932942839175215 0.19944676876336404 0.11059899195496183
0.6040240143924371 -0.2955456956115853 0.18949525121880445 0.0865761757302207
0.6054194055112389 -0.29706031676206807 0.20859014234942935 0.11776234944240581
0.6210408686372028 -0.2908272073821078 0.1726362509074344 0.05131536294463336
0.6182728287895453 -0.29944142985456 0.19140165795775882 0.1584552182366484
0.617125702155422 -0.30300881219375303 0.17792065916786265 0.188886996395788
0.6164551450805928 -0.3050905351724559 0.2052598032004413 0.21093646996731164
0.5795132937067783 -0.36863146173368067 0.23458224503281982 0.10839716598638363
0.5874480269350327 -0.3800268875964587 0.242772056629073 0.13591589500356796
0.5951818580636562 -0.37069705550985166 0.23069302524660668 0.23023778304193562
0.5864020601436747 -0.38045104301935356 0.231319091204984 0.08640718819180881
0.6195293969518249 -0.3894783717687313 0.23350412269583057 0.1360994524029484
0.6095685702034945 -0.3903348809342698 0.22312162310968572 0.11143059389504378
0.6107634188657249 -0.3888820563647503 0.23917561903748552 0.15987273275291236
0.6214257496154801 -0.4005705132022039 0.22701717202406418 0.09627535268715098
0.6167253527515105 -0.39917312788970655 0.24261338153302167 0.1009750866290738
0.6036453207823762 -0.3948452912207857 0.23315287323811082 0.06261299279775354
0.6555461436894585 -0.3938830219379096 0.23614820714020487 0.08291985076609104
0.6355702215192298 -0.3963956709595335 0.22705081821740444 0.09723560697453394
0.637313722882338 -0.3960090771839834 0.2397536198657312 0.10497940151815427
0.6521974867570779 -0.3899337186647572 0.2251720424562194 0.10797718228397687
0.6436504588879068 -0.3864178713135153 0.22889324187212004 0.1910038172794438
0.6463805870429236 -0.3974649748103694 0.23296099990086575 0.09510439292860616
0.6760274377496132 -0.36648588558889833 0.23682353215198707 0.12797209181071167
0.6682467937017453 -0.38473548747879793 0.2261556052326478 0.08251583916409466
0.6702418191676472 -0.38042617040551263 0.24277295413492944 0.10115132517776824
0.6697525755865059 -0.36868903668892933 0.226898473464252 0.13023874960641335
0.6653963233431672 -0.3730529304805576 0.23786444663443787 0.16040689111807815
0.6808542844869123 -0.33629592150707466 0.2250739052890877 0.07743508242439923
0.6826781790608217 -0.34471636701149805 0.24277651239013626 0.08595731267646671
0.6772630875431432 -0.3462261300010303 0.22434295958814288 0.12210578915044294
0.6778440797489098 -0.3527177901257771 0.23377580978587273 0.1099246777238512
0.6759966645780615 -0.3397538692344483 0.23713899429129504 0.14678360052706652
0.6662656126925535 -0.3053214196888638 0.22739917924348144 0.08159659360805278
0.6759477156599698 -0.3151429911255221 0.24276690443062773 0.09703486034681241
0.6667623093867437 -0.30554171611139114 0.2384798582302644 0.1134834843877029
0.662492095280635 -0.31820361543879894 0.23223275612813685 0.20085571750975542
0.6782761954568101 -0.31807275951559794 0.23111553188521405 0.07218156127244395
0.6365468136263552 -0.2892457171778889 0.2349946286452901 0.09243514861635871
0.6393151329042315 -0.2901145507967629 0.22380346750808902 0.06739388242610807
0.6400265474705304 -0.30270241904296874 0.23286090731281225 0.22536300937348966
0.6501394025784732 -0.29318690888700005 0.23652810559096676 0.09068717434004991
0.6203098257475049 -0.29098448457255754 0.22517023363057778 0.07257090698886093
0.6128698831140356 -0.2964000209540183 0.24279144898793073 0.13047868677236388
0.610685099868281 -0.30007963403685184 0.22442819195455932 0.15062094019624556
0.6219350099684494 -0.295135448223376 0.23708794560295712 0.13909431768862537
0.6171428362832341 -0.3038067841305756 0.2334932041240968 0.2070590583660072
0.6035294511673458 -0.2946791128336724 0.23007903079080227 0.08631638380902276
0.5811381710511251 -0.3223003184483835 0.23736963152424587 0.1608237054138351
0.5922198069233149 -0.30588529133339354 0.23517092245846835 0.11308225258704639
0.5847543394577475 -0.3136658876614535 0.24277384773777166 0.17243465694142845
0.5856015281507165 -0.31962479114917713 0.22282103381143242 0.17126205341146764
0.595476959051074 -0.3184969243085886 0.23248657335147632 0.26409511692573595
0.5844286345184291 -0.3117295420382053 0.23099954798418823 0.10689070549569155
0.6157956332863034 -0.26041553202462386 0.09288524693924899 0.02458262846124667
0.6210316373157359 -0.2697535556868682 0.07083910871040741 0.028583146664031115
0.6135696672441533 -0.2615759061272347 0.06900250829050729 0.027211619223558362
0.6075709187377745 -0.26193421670707856 0.07976697680748003 0.023985388724455617
0.6131177773251408 -0.2728272396168251 0.08694709359720293 0.02275788205280992
0.6184595810318477 -0.2621783566662721 0.07888041766178057 0.024852657171548834
0.6280433915987527 -0.29654417478999373 0.10837414467868703 0.06776090270995097
0.6270579589737516 -0.2909214646433053 0.08297548918536587 0.029633583737295698
0.6198110075470098 -0.2934985440587201 0.10168834486490907 0.02904965915810888
0.6256931732587011 -0.3016349010635415 0.09294388203269326 0.030492320372614876
0.6190951104000177 -0.29313231270337947 0.09102004527291974 0.021888915223964966
0.6346690898000195 -0.30257085160676067 0.09923344397907623 0.03461905981792977
0.6297558274298398 -0.2902106915455923 0.09846399260954555 0.0270707048742331
0.6259597034009827 -0.2806609553921381 0.08952090261164064 0.03838083690678688
0.6354596055615565 -0.30450924638747445 0.12597068140109152 0.1376335056690034
0.6368527228229943 -0.31384869925348513 0.13095864797020826 0.15893760363498904
0.6367119337437178 -0.3195342108170215 0.10534795525081125 0.03374367389481432
0.6285015278593415 -0.3102463427895823 0.12076384127543308 0.08834560875447993
0.6312684849625764 -0.3215561187889474 0.11659840677752487 0.05643395436798744
0.6431079996332288 -0.3219641793378007 0.11930373107080007 0.11797408573757441
0.6377404926992216 -0.3093462992140592 0.11510717308168805 0.0922638497347135
0.6394512556321413 -0.36713549440954385 0.12744023456718828 0.10622593551189044
0.6342632592344042 -0.37832412819641115 0.10554084943330894 0.03173354707512085
0.6305965889135802 -0.3827516235916788 0.12276736451001849 0.07397267599518818
0.632164271702024 -0.3667157263785108 0.11294123871219157 0.04260573975223764
0.6287711311014508 -0.37087353498726733 0.12216410394200085 0.05640103817571746
0.641910758868774 -0.36823525598313805 0.10616211653854105 0.02380853945006452
0.6346474229304554 -0.3858472019548687 0.11272813840465636 0.05506550980951272
0.6419418383392932 -0.3681598358013671 0.11711471119546478 0.06854007932591469
0.6226515283987794 -0.40823837823983555 0.09370429019441992 0.023258640755233824
0.6270912426446847 -0.3934971197554932 0.10824959653565361 0.054801014191389365
0.6293380513424583 -0.3840497074485088 0.08983132577348998 0.021430967776171702
0.6199815343713306 -0.39337156671479195 0.08999454524978522 0.02029442818116228
0.6196863834829371 -0.3977654974121966 0.10027590853995069 0.023813086257562854
0.6307795127148986 -0.3948743817119166 0.08863317278942791 0.02322803534396198
0.6331478364986756 -0.38894523511858087 0.10064258510514484 0.01984461353055115
0.6139252247169862 -0.4293169002836821 0.07093076117956935 0.03386914147384178
0.6186311799073366 -0.41768190353572787 0.09353389480931723 0.026488533674040225
0.6155518925353186 -0.41822936231331337 0.07019482233065019 0.03659490463944697
0.6079550112016999 -0.4200051806018988 0.07733852036403703 0.029148755928032167
0.6120266958514287 -0.4266037789366945 0.09143691946212233 0.03020143645334458
0.6148481240065929 -0.43514245017945347 0.08474004059288497 0.03106223508007165
0.6199428993479795 -0.42149881552327423 0.08172745823722165 0.023738446966813043
0.6238386478506003 -0.4110662053328166 0.0795008707731678 0.02909305025049385
0.34950306707327145 -0.6308005183784149 0.23702772020206156 0.2871359833933107
0.3478304117160175 -0.6460950675917774 0.2373619901886131 0.23289330809233377
0.3368832631389771 -0.636982388748201 0.23713097401063865 0.2908504425582282
0.3404488638174039 -0.6137607138842148 0.23729949065925007 0.2862558644750219
0.37100234830491524 -0.6437205340414334 0.24002105626127765 0.19822441004696206
0.37999032118814247 -0.6379939037143901 0.24350682274171073 0.1910284210148591
0.3737529961484368 -0.62481943913415 0.23979376856331458 0.22796761558753745
0.3693035980854315 -0.6118268391298292 0.2399886503064879 0.24136162410258932
0.3761581045732032 -0.6064017049562863 0.24467756872751228 0.20931614632261458
0.36018866770833363 -0.6014604353595049 0.24057375685851454 0.25756317069085893
0.3651001814116212 -0.5937111377296296 0.24564522119123122 0.2057216035793125
0.3489258846087377 -0.605713296019402 0.238542849420964 0.2675700470956871
0.35326222500828347 -0.5896109970093575 0.24507933663860965 0.24613896043828817
0.3276250632594439 -0.5897198310552008 0.24639156802406095 0.18274759108911343
0.32727218112804896 -0.6093177712167328 0.2387469384312259 0.23978253663804397
0.3144865585786066 -0.6015863816291012 0.24450401287561274 0.1839700314607249
0.3169108757206548 -0.6267630250411454 0.23891419192508903 0.272344875465197
0.30577171631933764 -0.6318354321845651 0.24324712100690776 0.2173808472316196
0.29914344031969514 -0.639745587776305 0.24981119636067223 0.1622930651275994
0.3071546182326399 -0.6520353706773863 0.24683074811432712 0.17818555696134866
0.31678168604895973 -0.6520449715906232 0.24177701302127796 0.21897145430219309
0.33436093925319377 -0.6488399287801259 0.23803785161399305 0.20354590352765214
0.32525528191612263 -0.6667089399370814 0.24555158672049515 0.16858426885470465
0.33588221848857835 -0.6635429791841155 0.24200720950262816 0.1971434271753037
0.37564225188504097 -0.6536903509936655 0.2449111426125074 0.16512782517353358
0.35829204670997084 -0.6500237081766738 0.23884061883686164 0.23463761479376258
0.34871475242287353 -0.665855209835854 0.24294447981688225 0.2227665560920587
0.3862966490057156 -0.6460454371321912 0.25206775403237763 0.13283122197283004
0.37366881339106833 -0.5940907573565535 0.25328885585141614 0.139207985236934
0.30286075105404037 -0.6083672184671087 0.25004196440503895 0.14146160660693624
0.296929804485132 -0.6248978898675148 0.25200185947892717 0.16657798635649182
0.31610459860909107 -0.6668274161574244 0.2518754954381101 0.14711308622680253
0.372606854690522 -0.6640777864858806 0.25019958260442404 0.15123362768346235
0.3608313973929803 -0.6715056704146446 0.25102385527144144 0.14545254840454058
0.34349492661443315 -0.6754848911425719 0.2527997335911055 0.1154045130048539
0.3315534305842398 -0.5826942908221047 0.25833732493088696 0.2400771252523214
0.36305824758541694 -0.5854212231970697 0.2604123392120964 0.193424488860394
0.30618700515628816 -0.5985001919121354 0.25922574329369563 0.13489835568565103
0.3202867391438172 -0.6713438918427893 0.2601630382264029 0.13041365635870947
0.38977405212944544 -0.6403298285056233 0.2600848316580892 0.11686013255040197
0.38893257314207696 -0.6294653069173389 0.2621906569834117 0.11664111740285354
0.38148417115327105 -0.6016840624163977 0.261758390780896 0.1023524133134389
0.35003418407941694 -0.585331747796793 0.2613164500463909 0.2413583170515896
0.32304292406837326 -0.5899391999610737 0.2605139078160864 0.21184456931162182
0.3008377965336563 -0.6079290653160703 0.26196959131892683 0.12130533496327624
0.29739297376575247 -0.6179273977021584 0.26220519165127465 0.12641352838437656
0.29558082987544965 -0.6355910333584385 0.2600224604544358 0.11725700154807114
0.3004541913061305 -0.6469173920436451 0.26075653030897933 0.11057581093157846
0.30931030340068805 -0.6624438693755854 0.26172784335471344 0.10391872136290779
0.35496346509677434 -0.6729788985832187 0.26226893866371837 0.14088776051195454
0.3699635646656389 -0.6646148618909111 0.2606019299194414 0.13086157414530372
0.3782878944260484 -0.6582299404924913 0.2620209114090575 0.1372271369247059
0.33387459863425145 -0.6717022123428326 0.26104765459922347 0.15224621986793951
0.382467803646016 -0.6139574625815623 0.2567658615027285 0.1482591827810807
0.3618108364022562 -0.660716238508042 0.25002090399147986 0.18431404607931898
0.3484158564127327 -0.654262841939912 0.2444382429031475 0.20481813456190473
0.34435087574051443 -0.5911268916334677 0.25109581960695 0.2820167401618906
0.35915440890465394 -0.6198220090777989 0.24244585626590462 0.2580111088875007
0.33878928426678634 -0.6039797662458913 0.24437208718840342 0.23773781457391138
0.32024794146081503 -0.6160806128932406 0.24470456322866857 0.2518896145693117
0.31139664409216966 -0.6227703618842588 0.24716585248574144 0.20119022295426833
0.3120052940197868 -0.6388287764424678 0.24729078140237704 0.18124358753336506
0.3816307786818718 -0.6231513879366748 0.2518193332593437 0.19724816668946427
0.3275665512239482 -0.6374997768521524 0.24274744459122483 0.22145475651411808
0.3603020457425397 -0.6306497395075336 0.24375902430575122 0.24409890499913656
0.33296609421345097 -0.6160187975335278 0.24936272981769939 0.28613817947350617
0.35216610400345794 -0.6158764566005337 0.2547078193836008 0.29241113314422595
0.35487245388887223 -0.6401112983327945 0.2561175250480935 0.2900698162092308
0.34216802964109594 -0.6132575245435257 0.25527514663460854 0.309984993412085
0.3589699199602144 -0.625871519645365 0.2564996096612022 0.29317684683060447
0.3597784657800033 -0.6299013113586751 0.26795788651700964 0.239551513908606
0.35877592726010543 -0.6351259609308596 0.2791928817244784 0.22553755368399928
0.3540332015529809 -0.6418320622668519 0.26887145349615815 0.2501354761535255
0.3457341257779509 -0.6456995673453566 0.26344574971940715 0.25058492627649476
0.3344168038249731 -0.6433526428339059 0.26420705952909657 0.28806318428194166
0.33604025233014095 -0.6442163987378804 0.2765748302034773 0.21384748859202554
0.3270473717558689 -0.6334068262620356 0.26516447079300776 0.2929774062623445
0.3274014449357978 -0.6345664102693604 0.2762620124428147 0.1993149654853343
0.32759064248630465 -0.6229871029764289 0.27081642475510215 0.22192579960162107
0.33498947011295577 -0.614654323049159 0.2667576319295898 0.25739495196735995
0.3372755651387245 -0.6135763925772155 0.2770994227761479 0.1990792767635995
0.3485957028183369 -0.6133729390561704 0.2732405407069456 0.20753187030780776
0.3574533435519307 -0.6207352841201206 0.27356909132900986 0.21443661090069913
0.3589329578496634 -0.616308720301631 0.28393403003062895 0.2529834190330068
0.3402274871269728 -0.6063863209004604 0.2860580973489879 0.20152407076654785
0.37039493820257074 -0.6334929577973487 0.3017753745431333 0.12235029448706544
0.3667065024067662 -0.6301143604778748 0.28711685588629865 0.22767979230204294
