x y z curv
0.3984265082183782 -0.3432480605604767 1.0040291095847942 0.20523602384797446
0.4004653867234327 -0.34041431915878895 1.0217167228192405 0.17595553940572947
0.4092233994773731 -0.3415198140179084 1.0088131604410775 0.19673469658349366
0.40054011166368303 -0.33872529422165015 1.0328575262863926 0.1658634013436179
0.4144480491622046 -0.3465778488060573 0.9822297930892513 0.2048560807452754
0.432891341280037 -0.34337226445251645 1.0752373396650008 0.07304863290350001
0.43418382531117783 -0.3552247730553892 1.065416365186336 0.09204168207985634
0.44010218822676095 -0.3565879410656324 1.0848167193718985 0.06357408257139334
0.42731011791216256 -0.3541969712427464 1.0355178733609836 0.13773871184409062
0.430491676662316 -0.358666821989029 1.0470278966429274 0.09510800982959924
0.4577712072657625 -0.338776888943487 1.1109584725055808 0.02087697718645685
0.45479067520142574 -0.35829235744369536 1.1033258323644035 0.019424399040379858
0.46203176727052553 -0.35092905461737767 1.1130087295337006 0.016640523111157005
0.4501411621427656 -0.339829304975934 1.1027615533623767 0.021493872157466704
0.4364015757523003 -0.3115278295618432 1.1131406915979971 0.021981786989387398
0.41302916418195024 -0.3083465095195613 1.1072587207874731 0.023811752322931222
0.4260162718399591 -0.30863722282900946 1.109808676852781 0.018249938270937318
0.3910307594640404 -0.31136215180291615 1.1057579083988012 0.027720933011018807
0.3736086615975581 -0.3167060227331962 1.1097869143769685 0.02746671716762008
0.3569035840026448 -0.3366700340480405 1.1098361533235512 0.025730379763869885
0.37058810206090254 -0.3290430480219821 1.1017381084505151 0.028414177663367558
0.35579221128730176 -0.34824002300672274 1.107611717118412 0.024092961125607566
0.36334818989574647 -0.3951622026579613 1.1120954237567802 0.015161824265853208
0.37374463719488865 -0.3975158649755359 1.1055717228843907 0.017950207579388307
0.41412036448422257 -0.4025957080685079 1.0989812759314646 0.03221418375269151
0.4204234407029795 -0.41172440541344546 1.110529170703206 0.01959998948206429
0.4079181476422088 -0.40923051552364653 1.104988643695681 0.02340824875216715
0.453113164767988 -0.3874401676602016 1.1110251976120864 0.020944609648247143
0.45869878681116066 -0.3672631371215325 1.1092111328484406 0.017874232211864658
0.46369203453099705 -0.3889471935492304 1.122247375333287 0.020671810830428718
0.44105904971324583 -0.40813694381877896 1.1173118914954574 0.019463669965117964
0.41622139314688367 -0.41917846443440965 1.117796276893811 0.011122552244438854
0.4031824097995993 -0.4211192536144138 1.1189340795662526 0.014732152822954684
0.37036835629173337 -0.41563446074144034 1.1245275315788779 0.01466688595533937
0.3520072947155826 -0.38576117230649654 1.116792817539758 0.022702992079540903
0.35804843090601746 -0.3272060489924845 1.1147622641646258 0.013401691635601488
0.3788684511017538 -0.3077141394227836 1.114930885548758 0.027322411648934626
0.39473239841681707 -0.3021344247287129 1.1152845193890728 0.01809911182468988
0.40034654421591037 -0.29382116906366273 1.1230398152413006 0.01382034818976922
0.41825908944029766 -0.3019602035194513 1.1154955454951452 0.019549494103130147
0.4741612504192074 -0.3412141258173168 1.1231704121437192 0.009047397703811041
0.46331909072326216 -0.3201321182020068 1.1236405364312088 0.014275922326677643
0.45625286790377423 -0.3123687730658902 1.1202035045504115 0.024336078649881045
0.4495639715579115 -0.30304534262153066 1.1228204955892436 0.01898599655077936
0.43916714508873317 -0.2970211045704447 1.1220175508203827 0.014778948269790482
0.4167044443579175 -0.2908963302757959 1.1236926595740346 0.013544207631899273
0.38246372942328055 -0.2951766416196645 1.1205760765037804 0.01583737382059177
0.3708274410502485 -0.29749134797654103 1.122719812852276 0.013023661782106746
0.3446020531360367 -0.3260973386972983 1.1226240517585933 0.008524767084135857
0.3396537481928264 -0.33886134395328144 1.1224811545515048 0.008625356724340252
0.33733960204647895 -0.34911186490234036 1.1234862485273343 0.011419357738259308
0.33854274982142807 -0.35999645135384006 1.119784074693086 0.017298494412124492
0.3382455305571884 -0.370635757774259 1.1238233044066286 0.01670157016900685
0.3546393060019084 -0.4037977714912677 1.122296585946985 0.012574533851138794
0.38730181792155216 -0.4262473209141203 1.1235835857403933 0.016900526454119876
0.41404223999223955 -0.42865562133502166 1.123298045346694 0.01102410092592362
0.43978280726358454 -0.4208510317274303 1.1228184967345882 0.023399069702334487
0.4614455764420191 -0.4021810441050969 1.123384836942751 0.01091049284043704
0.4710270867947785 -0.3791703537764186 1.123568721041706 0.011940780762551754
0.47551601007094074 -0.3664262531010941 1.1228596903646524 0.014239921191102232
0.47062935135592376 -0.35592896967690346 1.1166883765253035 0.01680656790318918
0.46720432509388965 -0.3327190258865632 1.1179333429494482 0.01661239224227452
0.4261892428413345 -0.2948307558037226 1.120480119702662 0.01349505415368537
0.40972615007693924 -0.29560433929676605 1.1150522866679449 0.013585266119899988
0.4577693071925104 -0.3281407557616973 1.111761112046639 0.022748370705933968
0.4645087148563178 -0.3783786980589885 1.1125675814770883 0.017533912299539118
0.45591761167089406 -0.37780935235863 1.102973763218067 0.027036852913360714
0.45300974378266984 -0.39963532873221685 1.1130419515146857 0.015125782607940131
0.434305504441762 -0.4031228379565398 1.102620901793741 0.020614735773087187
0.42965040451024433 -0.4182682142596844 1.1142685948760338 0.016374381791234238
0.4235679200541225 -0.4070877857342192 1.1006120551342888 0.025992294645294407
0.39889572471553325 -0.41663933432207545 1.1089413527202152 0.022557845923095125
0.38881770044270997 -0.41764227935901227 1.1122563321658108 0.016284085215840023
0.36933845169433555 -0.40926317075739205 1.1138480201943624 0.013894762827590258
0.38276627665858604 -0.40575637975458756 1.102187739998679 0.027928130482412588
0.36416860871149836 -0.3891362714806321 1.1020563504472363 0.020617199076821097
0.35194857291981796 -0.375655871626235 1.1075392138148632 0.023288079309295304
0.3441770578670942 -0.3668910187340821 1.1141833232113376 0.02020071789678186
0.3471839780144435 -0.35641587655003437 1.1098374456508184 0.017713870214965687
0.3476765853649092 -0.3438457598900101 1.1120503779699065 0.012388477548808617
0.43250973060709 -0.3148111588157374 1.1021232801703418 0.022711419652001116
0.4455168658284244 -0.3179763091293665 1.1072867343506196 0.02758898877958191
0.4032937382765641 -0.3071056449624143 1.1023079343221331 0.02512854538482285
0.45322332226977735 -0.36666072157574925 1.096795288939814 0.030463928469006404
0.44189447676739024 -0.32473891990934634 1.0987278677693042 0.03622581883186968
0.41788226774648657 -0.3132962956115711 1.0965889336794503 0.030841559571420384
0.4475022743927747 -0.38528471320129526 1.098578189580051 0.03642438481668115
0.44071649572948535 -0.39388048402685805 1.0973492395957907 0.02983204740082229
0.39329577437354407 -0.40737887328061684 1.0999075865567902 0.036109270040380795
0.4010676382575417 -0.4042645480250176 1.0932531355819088 0.033190531615441
0.36565831827096734 -0.38074740945581753 1.0940318666954774 0.04284435814671992
0.3589060164925576 -0.3729347638560889 1.0990161302788817 0.03618793870429128
0.3783348238382367 -0.32099197812475044 1.0965129759264074 0.034181182807805924
0.4428987577981987 -0.3457455598071497 1.0778068626816397 0.06957510772700198
0.4440062565352327 -0.3671583358444648 1.0777069030847712 0.06573251956814177
0.4336887645916376 -0.3327081520907197 1.0738301019118315 0.05564590472376522
0.43470467649742384 -0.3391228201080625 1.0630733862403208 0.05863027342337451
0.4363411026839349 -0.3485930360013359 1.043519424980928 0.07371105874846444
0.43270972717465445 -0.33960835848565546 1.0529036434248287 0.06541248525942718
0.4414570238095369 -0.3642653232152522 1.0655830364019685 0.07527532186086398
0.4400443990914879 -0.35934541567706363 1.054433749172256 0.06614204999579594
0.43523450147100334 -0.3717418660889109 1.0393349056768373 0.08429425348183908
0.43697899699220977 -0.37158238900898716 1.0500789256471306 0.06895214034818556
0.4329719615477176 -0.3488692755771722 1.0174886776612686 0.10176020481750556
0.4371888106403824 -0.3592097549684188 1.0346508250602242 0.07555168788521281
0.434387413562182 -0.3609314754286836 1.0148268275541932 0.08603605162308989
0.4240835920002749 -0.3930824109683084 1.0754089243347917 0.04735193758096734
0.41979686833591157 -0.39082095991007754 1.0584225437227877 0.07640595070414341
0.427744484076377 -0.3835531895313478 1.0469765415007424 0.06957537595425345
0.42608525065083774 -0.38257857885983565 1.0346439918555466 0.08682052163526904
0.42987522348093377 -0.37604876233786866 1.0231603085399248 0.08619919262883047
0.4319380286757714 -0.37040249037976414 1.0104480955991746 0.10083003558055229
0.43238450238830006 -0.3653447273613493 0.9976057967608803 0.10128811426408679
0.4251724485069782 -0.38022273895581415 1.0146682173484962 0.10349592890919325
0.42254863699375367 -0.3808328994840479 1.0000187798488251 0.12765760644815502
0.41583015813824525 -0.38931737945124173 1.0412840377160386 0.07874094514560206
0.4151195965895964 -0.3874095553407559 1.0258383927594252 0.08756287346557111
0.4258374353486658 -0.37613726788400387 0.9868656819834171 0.1191994046936247
0.40821901872889377 -0.3867961744436365 1.0069147581422453 0.10377048048959639
0.4140389839311682 -0.3847519521034529 0.9911972031690989 0.12394184783304422
0.405738761835942 -0.38821031593075034 1.0188911232291988 0.12533788151446393
0.3949782501479192 -0.3872353002066858 1.0281506645798273 0.07549616034773471
0.40367874838833334 -0.3861240774076932 0.9969002596716566 0.1047487499885113
0.4124069358868978 -0.3786938360422946 0.9751543204333633 0.2530324008919079
0.3959300632830106 -0.38287247629245547 0.9856786727795578 0.1418568182119497
0.3863342083504684 -0.37517200141084367 0.9857989655937679 0.1328090606646213
0.3863573558009028 -0.37872826473934623 1.0060047682987054 0.11171886994564961
0.38771335098837234 -0.38157533009536465 1.0217574125054842 0.08587684958024822
0.3777512559632419 -0.3677635727195634 1.0279919292569948 0.0941361848119516
0.3787024647525589 -0.36515123388122384 1.0163057090527456 0.1025013645073895
0.3758730739305106 -0.35552212600455635 1.0355112674289764 0.09384494012958532
0.3788844144050332 -0.35824588324868617 1.0007143331458679 0.1326121368856889
0.3764488453511059 -0.34746564649731226 1.0426294898413861 0.07381292453755427
0.38143332623897036 -0.33618024455706463 1.0563203961258594 0.07531936484517743
0.37959450863879274 -0.34648110181086383 1.025463801431792 0.09948354452103308
0.38003167316382386 -0.3503880671459969 1.00808580858663 0.1239136804762836
0.38351511096831636 -0.3364113883851371 1.0436043266143074 0.09057032446929822
0.39217437307231423 -0.32914749433315194 1.0522470314619687 0.06481094088308981
0.38921358153141894 -0.33446595313987953 1.032249062918288 0.0861727397589152
0.37629958850408096 -0.3355748956440038 1.0755828511135799 0.0567874871666105
0.37435540067245954 -0.3422860303390185 1.0672277701895707 0.04861390523456089
0.3723458352440583 -0.35314957482833215 1.0611979939519598 0.05369152903002048
0.3694703401491287 -0.34784712635865 1.0764472067760744 0.042309637801491815
0.37050164305653865 -0.3651889703486496 1.0681507281544556 0.07179196787289174
0.37834174797623454 -0.3870397684737618 1.0776862160820422 0.050334889433473855
0.37386896635903033 -0.3781170806841446 1.0727878836998013 0.053119783163711534
0.3772861751944071 -0.3787493311244593 1.0629371096884983 0.059831489206259005
0.3751751698855179 -0.37173471418547277 1.052237073234864 0.04738759308586515
0.3765059419934329 -0.36939121692416194 1.0398423556911387 0.06716846076124783
0.3851987974437161 -0.38815762085812444 1.0661423179006588 0.06101230255798255
0.38544293138732966 -0.3842009115522877 1.0478310024884712 0.06404520431025403
0.4038079254254266 -0.3910646495919743 1.043455619551646 0.07507507883510041
0.3952629674952651 -0.38532335789042793 1.0130251538308073 0.12642588050381368
0.4051153639333603 -0.39824429040409104 1.076977891354252 0.05544015825838815
0.40951105816961525 -0.3950225534857697 1.066167418358185 0.05373196240156297
0.3864775967668034 -0.3393290578371046 1.0108138014239165 0.10199350924324173
0.3841948987225534 -0.3439006715015343 0.9980602783131575 0.11376047538080991
0.39467384354534196 -0.3376204863893111 0.9827245553616896 0.2148028363049517
0.3859352531479356 -0.3440669987232861 0.9857230196384088 0.14182557334132018
0.37983037169057543 -0.35716573580342376 0.9889960238135238 0.14461252413377806
0.38435375268310257 -0.3529229078574293 0.9786274492276893 0.21514929192840107
0.42341127610605106 -0.37036495483956017 0.9754570755356906 0.1483098737749521
0.4305755429554219 -0.36417687813739563 0.984076212325446 0.13065568011602852
0.43238726729756816 -0.3543632528769101 0.9937522989308264 0.11991806630594783
0.43151193981453817 -0.3479125919338763 1.0069186571615174 0.10544161802723635
0.4288814261575541 -0.34672238333847244 0.9874235101219985 0.08817866332955361
0.4228141920192505 -0.3481447502095754 0.9748283055077946 0.18692050245668104
0.427370291852171 -0.342486161000639 0.9991659018571465 0.116650299550741
0.42243152446599724 -0.33837325814842784 0.9897525913498718 0.11169152364372074
0.43246676290765096 -0.3440800687806475 1.0337415415790248 0.08536692952529946
0.4246183254977559 -0.33797879966513006 1.014867648758317 0.09187041665733087
0.4175433390922086 -0.33434782661229107 1.001163976329948 0.11371770403383712
0.4190228450639829 -0.33225441055129407 1.0282416172984592 0.09523468211847529
0.4078274019823053 -0.33233810342431386 0.9960851500241859 0.10949701870906577
0.42547261270430053 -0.33465383829205253 1.040405855436306 0.06386116094626125
0.4245572818131926 -0.33102144266887734 1.0580704106673 0.058701816311440926
0.41756120709358885 -0.32836063321088277 1.050028620167553 0.06788813343773836
0.4094043021212915 -0.3307344187842531 1.0204403119863643 0.1026680432393985
0.4061764123285522 -0.33134126056238083 1.008232351934596 0.09959248663328729
0.4092343913466435 -0.3341290701374956 0.9855479001251025 0.113869358350675
0.4049335006555848 -0.32872038523958147 1.0334374165923634 0.10165119278550601
0.39531567128915535 -0.3296925017441409 1.0402373276640224 0.06820656235903641
0.40446021433368456 -0.32623661365834467 1.0515286127752548 0.06287983191701685
0.41183652449432656 -0.3250986052997994 1.062065351892362 0.04964347114734101
0.4054387231728841 -0.32100074842134785 1.0742309661948313 0.04941813450707505
0.4013929547119982 -0.32447741028455007 1.0638637762409402 0.059287662868131065
0.3919045052366185 -0.32215834258782183 1.0801849607488303 0.045856480961454386
0.4253229984530409 -0.32797685617096095 1.0700479414690465 0.06833982211436593
0.42255606085393593 -0.32262427031674473 1.0815730494391635 0.06301455622120748
0.38721353749275855 -0.3622100511694544 0.9705830921996378 0.22939347236888935
0.4262380380723749 -0.35235803580028663 0.9639674916622872 0.2580334441630564
0.41396089036012296 -0.3394418081198182 0.9703382969142035 0.21977780755911114
0.39726635166316643 -0.34003864407817086 0.9645034117064577 0.20541556158961388
0.38888614083332684 -0.3474616777251499 0.9669713000594453 0.2553940872509638
0.3925952114821315 -0.37543983019601285 0.9700425490665058 0.21965140581592185
0.4205052353961655 -0.37499745361280895 0.9665796163045617 0.19457207183133174
0.42653726290931 -0.36473573162915407 0.9662607001710876 0.2097447412327857
0.35942114722537094 -0.3089795339503038 1.1198705740713912 0.013038632465103256
0.35293998452175745 -0.3193926872167847 1.120837891531166 0.013125532735991522
0.3421518467956927 -0.38355123422742654 1.119623003977259 0.019173227247390966
0.3445485046214625 -0.39418435023044107 1.1225303338944386 0.01318430565886204
0.42623503165759896 -0.42676678338083124 1.1216749195341644 0.013977895960167118
0.41069284534813977 -0.36651833777081777 0.9704364166259437 0.2555877103680215
0.4087125606859194 -0.34999261877009036 0.9704364166259437 0.22285724337757615
0.4493326484392578 -0.35347796812159304 1.0900932966127121 0.03959884925793451
0.44038668614588816 -0.3356061062172627 1.0864638712370962 0.041050879919543926
0.43065030727670456 -0.3224971675283169 1.0915718864382666 0.04210550316234182
0.4134253606056149 -0.31772809380585393 1.0876539000639687 0.04083857419454563
0.4461115025609524 -0.37358224836922016 1.0871295716229432 0.05650697214286373
0.43469039438228757 -0.3905077911194151 1.0868410258671608 0.04263699582237863
0.39156769783333006 -0.40028993560066894 1.0893823139777679 0.037917232760411375
0.373004596055027 -0.3899628943397142 1.0925078618899866 0.03230998785401499
0.3662181239202609 -0.36619394499827246 1.0845048157476216 0.0509314933215413
0.36173250114988204 -0.35558792519745996 1.0919268994739402 0.05214217223714586
0.37412951995774024 -0.3302914286493838 1.0888672035017826 0.037570269708577714
0.38903062145377626 -0.3171823127260971 1.092529558945084 0.030307013688705045
0.40188712365636814 -0.3184317919045663 1.0851965376886135 0.03988104645753823
0.41429203004576365 -0.3579350355341478 0.9639662170410473 0.21933494813129945
0.39673558799991193 -0.3633034666131512 0.9639662170410473 0.22624251223225114
0.40264566389332135 -0.37945645278237444 0.9639662170410473 0.19252741115620783
0.44704683259919986 -0.31419075214187026 0.4222280856684509 0.055833892593320375
0.4528418862418198 -0.326810837987165 0.4297821156132697 0.11015661152255865
0.4557155909442649 -0.3233640927794743 0.4388490270653816 0.10950561210295415
0.4420951477609489 -0.31359249854300225 0.44112425744970263 0.09792417271282951
0.44329333603137344 -0.3259811439342432 0.4355332530761154 0.22548647484329734
0.4422689939652088 -0.32657736992083897 0.36643474668174064 0.1834868710099948
0.44012946810466314 -0.315142459396678 0.37210536273314193 0.0327622630302647
0.4455868968922504 -0.3200533027775285 0.35657254811315026 0.038052844686522716
0.45217404268435446 -0.3235369398311663 0.3723738067141177 0.03220513671482654
0.4430127753461278 -0.321382760990569 0.41314755875964143 0.07990763924198772
0.45129851159452306 -0.32314583300198224 0.3850967738490601 0.03506259683154203
0.4522033838345535 -0.32378379236343013 0.4045020153867855 0.029184197587852116
0.44434602830529457 -0.31587160884866416 0.4020669084484219 0.03007550151322943
0.44193802768517665 -0.31392491450707916 0.38930484442425406 0.035555304157181375
0.4443735544382059 -0.3253495743749279 0.39274488704075944 0.15631503473979202
0.4312974533466028 -0.3044915419694905 0.4282474082915033 0.08093426439253672
0.43043828777532844 -0.3072011233942791 0.43852174481384903 0.09868261204268858
0.41416841867161824 -0.29996363273783416 0.44040217064022674 0.10320079584770563
0.421842357452009 -0.3107509503263711 0.4278719022753576 0.16709947710623876
0.41709571666913625 -0.299090829581711 0.4264947809951055 0.056250000420824876
0.41301813431058104 -0.3080132423835258 0.3714831629712157 0.13138456703014778
0.41833962380810374 -0.3051035230559355 0.35926784331634015 0.0813978102447999
0.42559828100759145 -0.3045645409011427 0.3731350682364232 0.026802281310731122
0.4280546569832687 -0.30548549588970947 0.40002301141311275 0.025162748300616558
0.4273054198940789 -0.3052819289756741 0.4117373358349639 0.0398233751702116
0.4154470935520982 -0.3048793654674042 0.4063404314226846 0.07623598263665411
0.4150061073427231 -0.3036189470390778 0.392925977819875 0.030188726477123333
0.42309655884756764 -0.3101620849352728 0.3871567505889111 0.11777704966917082
0.4201599426843746 -0.312538803744617 0.39876852631982246 0.19458824014422316
0.3817266654037631 -0.3056029433815303 0.4353034066551467 0.08367374779148444
0.3845304483772084 -0.3050845361571429 0.42424672890060855 0.04791322569856854
0.3983260188789853 -0.30065725207084987 0.4246012375875275 0.0608691978599154
0.3954749145691316 -0.3106564410013618 0.42950898820736433 0.19851119579219506
0.40081623988768245 -0.30370689612719537 0.43473752644595 0.09124460925000384
0.3906649678894537 -0.30026816598094985 0.44220694493706414 0.08825766805222927
0.3934884870050128 -0.3099234720795719 0.3569905906765118 0.08298121851939183
0.397278263187146 -0.3040472848783125 0.36604101504859526 0.03110305563704834
0.39046448919137383 -0.30392605749631035 0.3741276313855019 0.04026005862453375
0.3952337042205857 -0.3132715601553428 0.3729727109594456 0.2000764588237216
0.39810614801949257 -0.3018056658766295 0.39979703092741126 0.03670266259263664
0.39699360370292197 -0.30209961558695636 0.41236723506353795 0.04104566158977288
0.3867246352811318 -0.304812927607755 0.40350353057858035 0.03166165395163376
0.38486318557219673 -0.3053047492925454 0.3882164212505689 0.0366526792894045
0.38927223711257464 -0.30941673312199675 0.4128586378380738 0.1493093641278674
0.39863892818282143 -0.30212666973038393 0.3855820368274035 0.040244669574466437
0.39449719330195765 -0.31290653645435434 0.3864577287446626 0.22223261077474493
0.35796336357934677 -0.3213693646225894 0.42464342758680923 0.06086765572759509
0.3715181967355908 -0.31040100820033767 0.4364402017801207 0.0887883622763413
0.36696497635342856 -0.31771690894498744 0.44317907585626887 0.1245598151196761
0.37340613639668746 -0.3244578283459032 0.43278059255405094 0.24231439051539738
0.3669203254095443 -0.31254468321770806 0.4233601799503092 0.05838743868349192
0.3574408753277822 -0.3216795463706976 0.4376022531188075 0.09294014513403455
0.3621339459523782 -0.31938120703338474 0.3704457722859517 0.03261743655082568
0.369345223794959 -0.31940278475199196 0.3552513928686977 0.03462340399761633
0.37356285520223526 -0.3160826939541056 0.37073075982043907 0.11402028924502532
0.37256923270077597 -0.3268868224506725 0.3725752467551872 0.17422257459421714
0.3654383314554165 -0.3205332565097551 0.38063173767963615 0.030326226300625144
0.37042450952323963 -0.31358304235449086 0.3906360132107495 0.03038874964254575
0.36192407724139897 -0.32378139344945384 0.3992558844865049 0.03417287822732045
0.36328505010713874 -0.32403306236529805 0.4110659363659937 0.036583470903179295
0.37225919841866517 -0.3254884312903203 0.39140017538009836 0.19967830274316647
0.3713967511790569 -0.3156398033581735 0.413068762873102 0.039144414677693785
0.37266214439318485 -0.32366541559227086 0.403797674622645 0.17141556570243885
0.4627022066662635 -0.3340895795945916 0.43707992859531847 0.10252949193212149
0.4640130551925864 -0.3498249165307202 0.4229231992068488 0.058856094294948
0.46334808941298017 -0.3543599726147146 0.43551156148508313 0.128366333853942
0.4546119142827798 -0.34689098728196716 0.42890570125777194 0.18103946166219018
0.45755191587840727 -0.34458701140936215 0.4402900300790237 0.16769951473906236
0.46393606306394763 -0.3392386166081372 0.4238252359955576 0.05612106248164882
0.4563398565954422 -0.34622946039391855 0.3542771650143726 0.08380594390565127
0.45745901331635114 -0.35257217268905566 0.3699335039033023 0.18366651157339167
0.45867525709507684 -0.3403389963919654 0.3650953573842985 0.036012556913249394
0.4542827319941326 -0.3419337900420746 0.373884667638745 0.13991496348640348
0.461394869535779 -0.34831754907953033 0.3816813166655612 0.03240556802819545
0.46031546990014816 -0.3383468221164088 0.40495029104023966 0.02845645171935253
0.4594548366778415 -0.3383346207627179 0.38848829214724806 0.034506126787639
0.4632837312699186 -0.3516861796757602 0.3952087212336542 0.024384127777671964
0.4604748447798593 -0.35060783462836975 0.4072186293120494 0.08414849059302533
0.45214672794638916 -0.3474054738531866 0.39272298368485353 0.25503698466518254
0.4546206555080825 -0.3692897126060562 0.433929029197206 0.2352191231968691
0.456548112026609 -0.38144578714717375 0.4370166705347947 0.14410358748908667
0.4640291117958123 -0.3786631751308323 0.4225970837151048 0.043380419455003295
0.4668719024410446 -0.36863606412107774 0.42853219516700214 0.0606955831918591
0.4650394059783399 -0.37556567477527614 0.44053874853335934 0.10500716006942563
0.4571591038236677 -0.3734833197307496 0.35095895771686686 0.08466536868153793
0.45332041834231795 -0.368862610403141 0.36984268039680923 0.19042513187070226
0.46161997185700204 -0.3702437829823703 0.3638890863649755 0.04336068352038067
0.4575870181900277 -0.3812326981326748 0.3722407982727496 0.039121371859438585
0.4600701764405849 -0.3809918887137076 0.40804129191260624 0.03748156689466335
0.46273198770307056 -0.3711943155520308 0.39139365420928873 0.03660545583954412
0.4634807803418568 -0.36843815921639034 0.40254119713010733 0.03188683345090766
0.4525016830599334 -0.37161454819697043 0.3973774463958338 0.19998052960794574
0.4519987383134512 -0.372037578339343 0.385409389088586 0.23044713779154818
0.45245232047048645 -0.39833679892775226 0.4225199540478549 0.05565626880088418
0.43950996386655783 -0.4067705925528878 0.4349635744262278 0.11661606091708712
0.44612640048881586 -0.3993603356829111 0.44318249041631225 0.10748516853033808
0.4522676702216302 -0.39205076569213615 0.4364175713293456 0.11646127434166152
0.44059537836974655 -0.39260272227841336 0.4341571152429258 0.2635704500332099
0.44429340806860407 -0.40726712350299954 0.4250878274499719 0.05763360930765438
0.45127216575404644 -0.3960451176921837 0.3711707173053207 0.0430773025711076
0.4435169691400047 -0.39929448138772694 0.35549205083685625 0.07650305224075787
0.4400147270959932 -0.40370636905856944 0.371122714695334 0.06135041263431752
0.43936197035221325 -0.3922784502333861 0.3727867868014398 0.19437342396604196
0.44348968988241866 -0.403543407240609 0.38919809162784513 0.041963186053335357
0.44421674578754766 -0.4028214821706952 0.404606167954615 0.03359313104618656
0.45140056778926624 -0.3956875079723151 0.3948098882853593 0.04538821632786921
0.4506904730869665 -0.39482901251785607 0.40973940473651044 0.03366666166693678
0.43956482470627073 -0.3930149661114782 0.3868084058414639 0.23613195167826398
0.43954562116993656 -0.39353073153930646 0.4070779111901789 0.22279501890994471
0.4151947290573319 -0.41659458737843275 0.42326337659641267 0.06659571100353902
0.41423146503204594 -0.41596242699869357 0.44139758652806255 0.11931879559859392
0.41970840297881123 -0.40694580249444284 0.43605747927302146 0.25013586464121024
0.4289236962701083 -0.4163965088501899 0.4306150470938703 0.07225062870789839
0.4244149125701019 -0.4176518886548785 0.44229452414296977 0.09436793487691454
0.4139482927781674 -0.40801652457852233 0.3705746570643488 0.1812459761075933
0.4266548804541056 -0.40839327947227994 0.3717662792841527 0.1885530931924861
0.4215499592403658 -0.41400390984218666 0.3608668180362205 0.04822099990832234
0.4214526271162992 -0.41785650873173896 0.37198825502403565 0.041592774869721426
0.4255550182175186 -0.4114367033567412 0.41580241542284274 0.05091818175779907
0.4142841854640007 -0.41680594767036216 0.3887341961908889 0.047866209134037725
0.41616311332627764 -0.41630951089977064 0.4117252358594682 0.03895041213402098
0.4277844505343348 -0.41323887891918737 0.40516349152474257 0.03615037784729552
0.42708403433270387 -0.4134239268872577 0.39105643574679255 0.04346734302425275
0.41874087591840364 -0.40558167824852026 0.398851857342106 0.21816487862978926
0.41421910853298544 -0.4153533626252415 0.400572310860515 0.044093378851709546
0.41796159675718125 -0.4056173533834307 0.38665623246549846 0.20918686970311226
0.38170417369611287 -0.4127908089571674 0.426790149360672 0.06593852723641164
0.3957909382876976 -0.41138861786173514 0.42557655365486774 0.19147330997356837
0.39029062088350486 -0.40628889151864317 0.4332719910134018 0.24074602522847244
0.3979769565522145 -0.4146328399678621 0.44090138792750405 0.11214848394257684
0.3997519416747899 -0.4207705793848275 0.42999336558606577 0.06969290072042968
0.38500849690950356 -0.4167191640995101 0.4369372609952282 0.0835869473300588
0.3962144148838741 -0.40818766010793206 0.36512091299439664 0.17069359891159094
0.3916795215306682 -0.41127739435499483 0.35147688546770334 0.07703074004026642
0.39453982633411294 -0.4147218773716535 0.37401618703860534 0.037514893858641936
0.3848912800800638 -0.40979419421556823 0.37267225441064195 0.10565299732455427
0.3865201936523867 -0.41369886187065713 0.3960774798786825 0.03268910735191994
0.39626058261742875 -0.41634516408174677 0.38705576674757314 0.037057372774620886
0.3981145222253218 -0.416848848717177 0.4047390995157914 0.038335780290974925
0.3977243421708353 -0.4156606980327671 0.4154693550613873 0.04254987376276709
0.3850742479610021 -0.411880710481757 0.4134844756297793 0.03814069455325901
0.3931234105191618 -0.4053714395951387 0.386226909461408 0.20899030494397003
0.3931026557997732 -0.4053888956072385 0.4028893803763872 0.17571447233490495
0.3487118125006597 -0.3540011714675402 0.43277998712180604 0.08223705635251505
0.351044768107561 -0.339775608536873 0.4222500411963523 0.06191652813109618
0.35153008169885896 -0.3342485215065901 0.4338779451536002 0.07693604609960701
0.34895271945654227 -0.349727397529443 0.44244420768423964 0.10060782238215275
0.36051031388890514 -0.3457729207342028 0.43273075452100823 0.2290489524039182
0.3592076063115568 -0.34706535958584384 0.3651015567365254 0.1618725744316303
0.34902299064251674 -0.3497942166882541 0.3703813720021983 0.04032187928909888
0.3556114967018915 -0.33773254467556146 0.37141312500059254 0.042383364230744514
0.3554840229776354 -0.3432124433211156 0.35586787528602104 0.07778264379084521
0.3491476125423781 -0.34942938458823347 0.4011272057254376 0.03438555197299584
0.34979240888122715 -0.35082823129367924 0.4122770050275136 0.0362786888983975
0.3498922511998232 -0.35073915240277065 0.38911051289473003 0.03862667742583615
0.35368987361479653 -0.33823245449346423 0.3989058010107752 0.03834481267600739
0.3535924333678443 -0.3381142736750858 0.3868612305515842 0.03893073768448385
0.3587592564677193 -0.3444982650192311 0.40974221482254997 0.14368576821859827
0.35255934348442114 -0.37643985619866044 0.42227014291673365 0.05955000240754012
0.3497397506273516 -0.3657758144077378 0.42539704770929393 0.058215542443993455
0.35248468587169096 -0.38285160208357893 0.43930155617007555 0.13874177395271522
0.35945318476203 -0.37117405539307086 0.43468339036012105 0.24270384058014857
0.35206708619716387 -0.3725912557122368 0.4428722686623581 0.13457274826934446
0.3478170986863277 -0.37698859948746777 0.4317903851614811 0.07651380752388115
0.3448262346866191 -0.3655410381750728 0.43736229630277274 0.09815608903891779
0.3551582301327306 -0.3713878701959225 0.3543288702230543 0.10617795741007839
0.35408174266340803 -0.3776031975295197 0.3632745853441522 0.09105398423732416
0.34869989162224313 -0.36929371224360624 0.3696876968900976 0.03144369027720702
0.35904180309989175 -0.37200954096685096 0.4089541491891321 0.18029487711944783
0.36029823463206245 -0.37100950935194604 0.3733824530096049 0.18477422587073933
0.35214412695534725 -0.3803702997676453 0.4085669798332932 0.03034994513054191
0.35286604449517833 -0.3804072894628798 0.39139830974057 0.02038133648044326
0.349037080750047 -0.3668726400364674 0.40031099270725357 0.03384730858427232
0.3570560163607228 -0.3699560129277962 0.3833352071807163 0.2091464482204831
0.35955324837381886 -0.3709155466215448 0.39715230347990543 0.21420499949536848
0.37251615400740534 -0.4067988350022192 0.4323038187945588 0.08877043816250654
0.3600227942123979 -0.39911383617625734 0.44315818791203204 0.10041891029325706
0.36060944168736175 -0.39173892753330425 0.42814995603829215 0.08501231834695025
0.3696044324602593 -0.3920496163504032 0.4323283226172407 0.2002332974056923
0.3685005775859621 -0.3974465557847285 0.35142992391401273 0.04789213634184109
0.3623103415194782 -0.39487451327948886 0.36691766908616846 0.04423683475862067
0.3714939547777814 -0.4021867827814298 0.3731480781960808 0.04092692082943689
0.372798743620341 -0.39155938593236655 0.3725422747301179 0.2396981001558659
0.35999835059745855 -0.3945886245104335 0.4007273291270444 0.036996410579975735
0.3651771743511639 -0.39980371048545876 0.38361298612761846 0.04090020047560049
0.36101251293057113 -0.3956098990057795 0.413996932605685 0.04464037309782932
0.36911321550824283 -0.4037672481028909 0.41494052821475447 0.043312616342343783
0.3699876119586285 -0.4046477107617252 0.3920204335655448 0.039079621382936656
0.372277775717341 -0.39402693655059357 0.40676080239650086 0.16641525555901227
0.3711327986541274 -0.39276546164244125 0.39132833263359773 0.18460652937855732
0.4811495579680288 -0.2260312241571649 0.7894121093750073 0.14699957398151506
0.48882145584411596 -0.21114457753548896 0.7646657694894274 0.222361643288721
0.4795101426139514 -0.19710070938743582 0.7449867617275799 0.17990508826045495
0.46910574822943585 -0.2004819950261326 0.7452664736661669 0.19415419794062697
0.5035632349120946 -0.20361574164297488 0.7439909624535805 0.1798729416864831
0.45370658243388484 -0.22814197800494376 0.7453323940937917 0.18573195285340066
0.4631481726568191 -0.25153229201325783 0.7433953311034106 0.13245364717028485
0.5066637729193005 -0.24307928324636255 0.7444662340107209 0.1719767803319444
0.5114964550783898 -0.21373706457076974 0.7434675705610543 0.18053499279948912
0.5040840937569491 -0.22397161749395864 0.752546565693557 0.19847183982149166
0.49312339055603616 -0.22569289298150566 0.773763263723715 0.21434183954039635
0.4853859064882119 -0.2305643752454658 0.7793632896029873 0.21245034179661265
0.4846803849466622 -0.2459807116560082 0.7564168823752054 0.21514414533551962
0.46752449514616434 -0.23232051320738933 0.7651950760880732 0.25337560731881587
0.46575358324374977 -0.23886664177504677 0.7547436945254098 0.22169917960777671
0.48430831410132924 -0.2151720321183527 0.7735354440621558 0.19938433913346099
0.49482360306685064 -0.23997564868007312 0.759479066709721 0.25423538777175536
0.48816203153944693 -0.25825585735890266 0.7432658996884738 0.1915781652575314
0.4953912839921384 -0.1975799002299862 0.7444758648917077 0.1928050654050368
0.4513658893116993 -0.21689592965758558 0.744260398776343 0.15425130544994056
0.4569346982389085 -0.2388985421845176 0.7464829639559386 0.18223904330830554
0.474725364547704 -0.2574013402526375 0.7441597055120839 0.14595164529258645
0.49873402925924715 -0.250867299858218 0.745390941701392 0.17565232555473273
0.5138927450760936 -0.22764812784564717 0.7442260338989493 0.185049652449728
0.46047275937956894 -0.2096752553326387 0.7477134708360862 0.15885016997131884
0.5004805948935364 -0.215593711370574 0.7606895052724995 0.1711747001848151
0.4969507444637994 -0.20803605422202745 0.7549615617940123 0.20982426529875528
0.5053640602900423 -0.23375910719845455 0.7525497645450406 0.22448914390433883
0.5008536130864089 -0.23086948753685996 0.7655761542910509 0.1897620225841535
0.4946785361350297 -0.23722450947367388 0.7764200087908955 0.17885046278854008
0.4830000123065623 -0.24434407120970406 0.7695742857953076 0.19079792292197234
0.48478749654113623 -0.2415303909853476 0.7804155724846045 0.17173916958059357
0.4742659864709804 -0.24587850019360957 0.7596136898882309 0.20982347332143989
0.4722956577596634 -0.24097583419307453 0.771485247493676 0.17966609739728254
0.46134041415141014 -0.22472424666459223 0.7611143346909255 0.23184829438099544
0.4661740488828022 -0.22749581571900238 0.7788068823527681 0.14867617737634437
0.4676875699644646 -0.21178633543755906 0.7623042028821305 0.21856077109374336
0.46700494332578135 -0.21823021243335178 0.7750104594174542 0.234276957775533
0.4873812203897925 -0.20190582609251678 0.7514090313503881 0.20658216220699352
0.4792134274529227 -0.2068501515538553 0.7649226923714024 0.2096371517014688
0.4752467341126384 -0.20387737484652807 0.7549948449644619 0.18353674999569086
0.4933593597711927 -0.21611596928272045 0.7822293677234422 0.16833896143214386
0.4776105485748764 -0.2115215960911106 0.7816382945869244 0.17593690446435978
0.49624129293111213 -0.22688086175481098 0.7838715416746272 0.1476470420162849
0.4749615699650685 -0.23726260453171674 0.7847066630930783 0.14042022228748877
0.47129916918676434 -0.22029047858319148 0.7856464170621826 0.15372807627744361
0.48435200428638914 -0.22108979362181516 0.7246777939213125 0.1344480268549184
0.47984814301053946 -0.2208574933443335 0.739851242067606 0.2435205687326132
0.4825799140454898 -0.2269884927124023 0.7693684997558421 0.23151214260414987
0.4824455093105754 -0.23196267122874717 0.747329223979274 0.3104607450185897
0.482063895386915 -0.23106376815709917 0.7267133133680679 0.1271586349543733
0.4846261088307617 -0.22830895376893584 0.7165461337447696 0.06023084172222857
0.48889856792118686 -0.224404771881308 0.736289453014414 0.22600687825737106
0.48845205906697325 -0.22652455656234413 0.7596704148072511 0.26626860339396946
0.47822952024116283 -0.22315470990116684 0.7537430171119169 0.2932183846699666
0.4761453541281485 -0.21346285506918133 0.8086447127303893 0.04803238235853529
0.4808319069201527 -0.21547571526216355 0.7970113368257769 0.09384328141573868
0.49103829087275414 -0.2266770400857752 0.7978616892617454 0.08984628700744773
0.47713310975378276 -0.22457211039424735 0.8047993733367955 0.06854984329462908
0.48587698425000714 -0.23094441677524066 0.8100949532722096 0.054433334893015266
0.49068547454579003 -0.22728602315201976 0.8196961780724242 0.04684024782410892
0.4839610750386097 -0.21727593711205012 0.8212640318395652 0.03641054775036472
0.487795483443496 -0.21948971050393504 0.8053801515759909 0.058282999612726274
0.4971791439718348 -0.22490733776652957 0.8117808772134377 0.04755611416249724
0.47676229271188575 -0.21988685431880287 0.8662959115752038 0.03374623944362286
0.4917596060971502 -0.22119864744781395 0.8711752717304176 0.026757675183823167
0.48946860000977166 -0.23085398158948184 0.860089602980578 0.03465296085743828
0.5011483035267948 -0.22551527155817086 0.8551059721799007 0.029865396492242843
0.46372940980025434 -0.2100400150205896 0.8614202770101473 0.03797818228252592
0.48026745715238944 -0.21209655917828243 0.8545089703909425 0.02784013443120426
0.4963545268576517 -0.2288767144880139 0.8442798083034453 0.039552322905694666
0.48848371309351557 -0.21793913029609613 0.8346500034217761 0.032137008719596044
0.4916163403983305 -0.2202418344342652 0.8493233123908035 0.038755816732637186
0.48888246320262274 -0.21785028851330798 0.8610806489240728 0.0271917625294906
0.5015322785610785 -0.23625428801358334 0.8528797111105888 0.03110624209928985
0.4767294991800168 -0.22030858700773648 0.8427675133098697 0.03942250130654656
0.47858836955360295 -0.22453533678259524 0.8539356303468137 0.029979092591580467
0.48712832834543734 -0.22256077529524948 0.8849110107422575 0.0319626855503566
0.4954482076180597 -0.22825178891581438 0.891549707851227 0.0385554173518366
0.4749363519867076 -0.21948064530227068 0.890737533040928 0.03153556927569148
0.4793055954789205 -0.22937814741467605 0.9016545536331656 0.0665114599792481
0.48319996645692365 -0.21757496891142764 0.8984237368533283 0.06248944937344412
0.4817777746462051 -0.21675381643044253 0.9099880112264238 0.11274384069561649
0.49176121215233093 -0.2225178807658072 0.9075954462287981 0.09662872462561578
0.49313971827919595 -0.22006086506300182 0.9221914500794531 0.1049405042336359
0.4974967509996918 -0.2296343474994112 0.933121325552318 0.1551892206775714
0.47579857884863574 -0.23619813147050206 0.9288679305998367 0.15168742351374737
0.472579983110725 -0.21969117750660216 0.9246785243715618 0.1498436979146468
0.4692284904254417 -0.2197192288726319 0.9364979457470795 0.16578594732329827
0.4603819197268 -0.2280479474191981 0.9537628257623936 0.1343393577492767
0.4672681795795316 -0.23221119621995362 0.9426146148776653 0.21118804908108293
0.47990113729684813 -0.24834993361549934 0.9512791619564976 0.1701075898870257
0.4953968554250107 -0.24852476599292597 0.9568199335308215 0.15503111234067007
0.505060661165871 -0.2358176630161622 0.9584052532085107 0.11747245604879072
0.5003099126401612 -0.23011576181286678 0.9497307974060738 0.21871287505593798
0.4984751015353579 -0.22181408464046237 0.9409215680191169 0.1744574318077951
0.48779719546294353 -0.21048710596270817 0.9408417129450355 0.15994549012741502
0.4921462854738391 -0.21340258615689356 0.9304586551008478 0.153983941259992
0.4710786239149109 -0.21395058558258445 0.9452733119404522 0.17938949935171733
0.4884218972622447 -0.2052662451778561 0.9594506969712381 0.1559217582725015
0.45922051761740745 -0.2394277253113064 0.9564397016216176 0.15299425319041693
0.48294888868329044 -0.22337626210669276 0.9194635540315711 0.10117054670247626
0.48311099141770353 -0.23429717486576224 0.9213372817301146 0.11492265755043883
0.4969932010221003 -0.2141256338801361 0.9587387292823486 0.1763610847670635
0.4608600402036166 -0.2159305536981139 0.9575452491806709 0.15031800264315576
0.4882803966382548 -0.23467042660986634 0.9337286729713482 0.16553455363607528
0.49264126570537903 -0.2395179081058494 0.9530830590018137 0.20596666095564847
0.4765115598991673 -0.20911759907691002 0.9570874546703614 0.20496620397974732
0.41488721821494373 -0.33193380630527847 0.8491478169153874 0.28530978976228644
0.42801863768377985 -0.33771574167145985 0.8514592991757051 0.297930854445208
0.42979230790927314 -0.32166632793796857 0.8544591001124938 0.27313746121148047
0.4175158444030047 -0.32094169055465194 0.8515531907943324 0.29129323909540716
0.41461218770993596 -0.3287975462049649 0.8617543184251065 0.2561894961279834
0.4186544086541697 -0.3339154548577611 0.8726356349790417 0.28297620301174736
0.42750778047895 -0.3181958529949701 0.8779203035425563 0.2461143361157694
0.4154235431642661 -0.32212690412125783 0.873897253230187 0.24794449624319087
0.4302183800212666 -0.33550935755783895 0.8824008387124632 0.24180593355410013
0.43498730760735466 -0.3247370293013865 0.8754287920897323 0.2349209909795211
0.4341248720962343 -0.32154757896492764 0.8866060371586449 0.252014911975695
0.4214722716845454 -0.3165185392450775 0.8870059617016445 0.22728300558962106
0.4168399130069468 -0.3227676146645199 0.8961145100579108 0.22938971260998817
0.4207623704525045 -0.33352685111089625 0.8873159126379103 0.2429083099890189
0.42194082163868984 -0.3319188360186421 0.8981547395419653 0.2622142659557436
0.4332608235055078 -0.33201098278192737 0.8952762917022805 0.21912976511215435
0.43772666554796535 -0.3217418261194521 0.9002058409445829 0.16298238996333522
0.4246298108784742 -0.31297434681601854 0.9014723945830837 0.14950996825955495
0.41798980054494406 -0.3220161274720176 0.9073486111967649 0.20518743330996672
0.43880853625046395 -0.325339197970644 0.9152863839442579 0.16122257491081887
0.4278135647157415 -0.3106160700394102 0.9116619558782547 0.10870725750238482
0.42481108914063725 -0.32912589040401086 0.9116755258677788 0.2574902788086343
0.4261740783937196 -0.32396136647765883 0.9273782487903147 0.21563338450959546
0.4404271916301435 -0.32242265682950594 0.9278809050991894 0.14792776233143057
0.4389043928397975 -0.3148977090428721 0.9181108656032352 0.06570562531566534
0.43115778606535105 -0.3069756015165292 0.9239524574472696 0.0640567517012332
0.42158654158037956 -0.3136675506351084 0.9259273578135266 0.18111963134538944
0.4265487282484349 -0.3150420863587232 0.9428566550382047 0.06417125387821633
0.4413072380933555 -0.3191880996497268 0.9392874488454077 0.1201840574154828
0.4358847287957149 -0.30277791331043474 0.9369258967378661 0.06686532664070641
0.4249297585122302 -0.30621623823243943 0.9334544739434566 0.07070902165987232
0.43863140122594824 -0.3168906121724349 0.9509836492465046 0.07098633289093925
0.4442833826190489 -0.30253440163447687 0.9467154869624063 0.07829196374481652
0.43405654395485904 -0.2975535358059977 0.9488798698797853 0.07865381919644916
0.4304421114790281 -0.2962511616282116 0.9617158066090148 0.08086576096359463
0.42691791774343607 -0.3045478295220359 0.9544477071027628 0.08874185393125317
0.43752209307459233 -0.3113790993059707 0.9599859312922284 0.08647521390336976
0.4462606120688215 -0.29185738773283926 0.95690165633243 0.08066164174471299
0.43742825327377677 -0.28799406604523675 0.962906766286421 0.08597447499039597
0.4391064843362561 -0.3026224507033875 0.9699058410454418 0.09216611974435589
0.4427218220383923 -0.29463609378710653 0.977524357061154 0.08357301020549583
0.4495773277271128 -0.3002496851659134 0.972789091965943 0.09804563531332268
0.4507385937814926 -0.3014991699412907 0.9590770803035771 0.09140134131489429
0.45830160390804453 -0.290218363581735 0.9737962061340697 0.0953446451782851
0.4544559975656904 -0.27997465086248635 0.9648959555403751 0.0806332713807179
0.4397340837990239 -0.2836936208738131 0.9761900490414924 0.09055633102408144
0.4547025421480673 -0.27867092080500133 0.9846066620221046 0.09248680810555396
0.46303804786628877 -0.28086815845941887 0.9773025887624309 0.09272472050125173
0.46488359350617725 -0.27329216395806605 0.9698845336956843 0.08233741610687573
0.4478867992282274 -0.2721859121059711 0.9694818741427138 0.08008949268357138
0.44942570644094937 -0.265392342758074 0.9792276821703234 0.06771716883654642
0.4564251791185121 -0.25374114191857694 0.9798711178886675 0.0935214117763622
0.45927057242181374 -0.2640130213261231 0.9868444097152559 0.08401899376658144
0.4675071192875097 -0.27055307874413137 0.9837257446256558 0.07168793123254527
0.4712516350760028 -0.26124275124011104 0.9701812709445186 0.1290386608876245
0.45467487282622543 -0.2624406077692759 0.969892472038218 0.08633570166165591
0.4652367382045158 -0.24894255590813077 0.9848643806477466 0.10568256784852627
0.47803366331333386 -0.24216149797839148 0.980933022790777 0.10423200954181276
0.4787158784930519 -0.25406313644187173 0.9764956473788442 0.12272423063771164
0.47216051896283484 -0.250197232319923 0.9646097261214445 0.1407903732902062
0.4653742913159108 -0.24061130912264841 0.9650459669106801 0.1473552160935235
0.4695174836775433 -0.23564079108410826 0.9772275645775033 0.1140393363762198
0.4700461628489955 -0.23095419375583304 0.968320686552647 0.14405368371825047
0.4857924944552914 -0.23807202695049356 0.9710319214913176 0.14110162245704247
0.48095322336020885 -0.2378061349396567 0.9472661021144559 0.19811381419443558
0.4723478553041517 -0.23028254454841096 0.9516924845880275 0.17451916185771094
0.47821575276665523 -0.21979507408709803 0.9521655974664481 0.20413626327985784
0.48422274513356955 -0.22796428009740471 0.9677750875678505 0.15480505814945636
0.48947552989310017 -0.22458370910320924 0.9563344076316476 0.1961021289219067
0.48008170306344 -0.2154792408812694 0.9295892078696845 0.16660910615438182
0.4242453032993572 -0.32859247974602396 0.8464835431174501 0.2918263811598355
0.5105297507123358 -0.23325877007882798 0.8413134580905266 0.03674523780120223
0.49808383194838124 -0.23173598920386151 0.832701434410545 0.04039016516416591
0.5018807528943849 -0.24553885588438917 0.8275940769668331 0.03180386221332353
0.5068107861021764 -0.24315315088972778 0.8369669217377396 0.042778327216298755
0.5081198469078925 -0.23339014807222228 0.8298417552976408 0.035282022716003336
0.5150424481130512 -0.24389605073105505 0.8266128190724316 0.029317032844425068
0.5024607110561761 -0.22999794322044909 0.8214354718714745 0.028303258652549377
0.5086221201458287 -0.2400609311269791 0.8170473156886436 0.03184112714938811
0.5133311322427078 -0.2535583809897422 0.8054441567034645 0.030991106763578094
0.5186611426389545 -0.2599847189526216 0.7998118153465443 0.02801723061777356
0.5266390821283218 -0.26612771357153525 0.8216961506216484 0.022965038224146438
0.5103657394016043 -0.2597629313556861 0.8155203537494827 0.028788421301602193
0.5163774021649069 -0.26907404489888864 0.8163241429174435 0.023620329827990495
0.5154535214561425 -0.2492692723549076 0.8163426787715057 0.031199004995581436
0.5212453350817761 -0.2578412292303448 0.8156641336450341 0.029699090457526233
0.5261094629538061 -0.2649468943517667 0.8070805184442896 0.02504003141327931
0.5261672156476144 -0.2751461768583565 0.7997043134401746 0.022411925774618726
0.5277313921755801 -0.27691320432095057 0.8115777845097459 0.02635019474077792
0.5361003729787394 -0.29198453197626645 0.7932800481507701 0.025773742560475137
