x y z curv
0.8621314144069543 -1.0589041934720171 0.6549558762354165 0.16715021344270875
0.8723608317615134 -1.0601287746226036 0.6623046276667004 0.1793119563107177
0.8364778138243123 -1.0293553013950163 0.663476073429254 0.15476928749937655
0.8423227812412765 -1.0160199203204836 0.6493376151012371 0.14125981540492866
0.8831702984304284 -1.0044423793615866 0.6627247550449384 0.17061335598320435
0.8827869224041379 -1.006347344747736 0.6508716915615788 0.15672680490781668
0.8942471411034095 -1.0455588977164572 0.6650400085833228 0.15768669968235358
0.8894814821029037 -1.048474192143703 0.652552271538436 0.1484345623977455
0.8829293132448656 -1.0536739402107684 0.6432706856626917 0.11249713261591116
0.8827477741415095 -1.0564966665424065 0.6626656940004763 0.18601391029988165
0.8760732969663045 -1.057719286426411 0.6507907977856784 0.17227972660027474
0.8768985129466251 -1.0552024539696871 0.630383269151665 0.09438122282354049
0.8873311963903889 -1.061242451601706 0.6721722690644736 0.13691890415896438
0.8464610859418498 -1.0019943694782425 0.669853669773202 0.14692878988861172
0.839980518627535 -1.0139774875629277 0.6658573912398178 0.16549560035886315
0.8368608897379621 -1.0400931222404657 0.6657767896636138 0.146866173090346
0.8529579323735534 -1.059393597128585 0.6665063497368395 0.14757194791105036
0.8439219086205463 -1.0598853309637237 0.6741263867703259 0.1360308808517166
0.9004525983259185 -1.0454598664761294 0.675238248507378 0.13743231000180148
0.9037506313142556 -1.034706010804008 0.6761161510882807 0.1697382858028579
0.903648945969336 -1.0225941950721502 0.6758468956150376 0.1550784057986416
0.8989635901552611 -1.0113054103620207 0.6749215960743079 0.15249367775540576
0.890947434485168 -1.00240603113215 0.6745191076326571 0.14661092794610342
0.8799893815251567 -0.995925670278128 0.6764199261648625 0.14291559955965827
0.8688286977190861 -0.9940454891469268 0.6763437717515556 0.12252994613744475
0.8573191013559386 -0.9948038840310199 0.6753689623414068 0.10880666961270173
0.838493793824595 -1.0066566657779539 0.674957317014795 0.13021442696328747
0.8330665744205505 -1.01578197414236 0.6759237911860834 0.14672641550655627
0.8299687202030441 -1.0278748189886076 0.676039491779889 0.13998407913146252
0.8311036378010236 -1.0400492065018927 0.6751254652242487 0.1489415967542943
0.8376911487351966 -1.0496892794213881 0.6731072557003572 0.14179670151592466
0.8550439649812165 -1.064118766409305 0.6765344345692029 0.12790431060459953
0.8661059442356819 -1.0657182347905592 0.6761073676932683 0.1283371241019183
0.8763800934865364 -1.0638751399118742 0.6743476238812219 0.1691544854003108
0.8841244474032453 -1.0427506337105772 0.6421421032658865 0.19009025627553777
0.8874192705664317 -1.0383455157663055 0.6576801953439827 0.19462499136240502
0.864966522404987 -1.0523460903260307 0.6641531141223502 0.20381925831515815
0.8558092955049792 -1.0490182778803487 0.6575216214899678 0.19845038449845676
0.8467660044546514 -1.0380909699531407 0.6550519478767924 0.19839062788979195
0.8457964363237307 -1.0298023021163065 0.6461919715299027 0.18625308371575977
0.8460326456461632 -1.024541434456364 0.6565412195233107 0.20236989921111195
0.8604985528555098 -1.0098171968456955 0.6474028673698916 0.15858771867405133
0.869058308788535 -1.0086835042010454 0.6547350696575331 0.19311539041375564
0.8674219213703432 -1.0093183032793953 0.6391022136979212 0.15433208142068358
0.8836003316510714 -1.0159247058709326 0.658458196886419 0.21059284481105053
0.8867130829819596 -1.0215760089003398 0.6497211361892088 0.19608001460771626
0.8874007044895171 -1.034873798584212 0.6335440709346679 0.14567556830715805
0.8589275643514949 -1.0142123829144774 0.627299583049131 0.14403657370166226
0.8554982147689034 -1.0400986807699029 0.6274125536148507 0.18873531346986142
0.8825226815259299 -1.0282302026373384 0.6272908681820375 0.18666846354164218
0.8908500581900498 -1.0253824376678176 0.6667134578703349 0.21419294562271818
0.8902499124354843 -1.0153040586502715 0.6682230294308287 0.17614653976773859
0.8667658252047196 -1.0053602116169071 0.6669988240483298 0.19874140367687604
0.8508465282285743 -1.0144409723423156 0.6659201955944817 0.19987427199369703
0.8771075220932443 -1.0072924310081524 0.5856686403109941 0.23300358410926408
0.8879375778455179 -1.0115550281035648 0.5845703678003495 0.14544733825763503
0.8972860774719863 -1.0192930434607632 0.5826070150342412 0.12875890248986557
0.8938318104145757 -1.0467992601531753 0.5836197488452592 0.15088012978752632
0.8639079654110801 -1.071298891252598 0.5759411569663311 0.09431306941634213
0.8963395761320408 -1.061824767251825 0.5743551360726438 0.10709282424251973
0.9090884551344732 -1.0465627233926782 0.5720374761343868 0.09283593473982504
0.9126115717184373 -1.0216380598221073 0.570058675072228 0.06925048537735588
0.910492381395662 -1.0079368524457295 0.5665430219336611 0.04543669034454632
0.8928570486986012 -0.9890273027250571 0.5651590795366574 0.07278259089479912
0.8663104620064268 -0.9840923297100793 0.5675902264753394 0.07982089408962541
0.8434264770154606 -0.9855072130282451 0.5613012240191176 0.09091333002276919
0.8244427418534381 -1.0041660524804383 0.5620962383296977 0.027004420408151042
0.8151069529410666 -1.035494280674275 0.5594688093299397 0.062028289527568455
0.8215392409787616 -1.055009311975703 0.5609728147517075 0.034012286205782234
0.8260356415135949 -1.069340360466642 0.5525248672429549 0.02982765577223822
0.8118130697369013 -1.0275472514040724 0.5530250579412785 0.033989408165496476
0.8304368066272003 -0.9933305011195365 0.5581196336806571 0.036060055689859004
0.862005346909835 -0.9763487307178786 0.5558966475332359 0.029229438673118422
0.9037078548016602 -0.9955289973991829 0.5627540206167012 0.06036754589439662
0.8885639945490186 -0.9813325083193707 0.5570366745390473 0.03980594823781997
0.9172467914606861 -1.0329435965926326 0.5646671876234796 0.07707294014147058
0.8842562421242193 -1.0736715413168971 0.5700631896732751 0.09085841340499173
0.8654952972464335 -1.079270201088572 0.5665491256144848 0.08678414855585458
0.8458060257736728 -1.075043334471146 0.5651441228006702 0.06667655124456204
0.8780836072936117 -1.0840032606362942 0.5590125118203072 0.03162719719317717
0.8985303764506811 -1.074147327627773 0.5602198587122653 0.034786753295482996
0.9237842238089603 -1.0316794132191096 0.5540372879313417 0.027394422020091853
0.9163525312846632 -1.0068655157672037 0.557458751119528 0.033965264091855844
0.8233459685688685 -1.0424726574650023 0.5694491913183876 0.06567670463943613
0.8245279796509037 -1.0182002600144067 0.5704682883576797 0.06798869711908724
0.8671484447937081 -0.9979710952351747 0.5814430996741549 0.1115376613568467
0.8565588824925535 -1.0033467536584686 0.5834439162020568 0.16724490962818758
0.854747770311182 -0.9945387757350158 0.5768013233141145 0.10445763382720444
0.8816339129392654 -0.9895218035379111 0.5719677115956121 0.09150034385932024
0.8982059579865282 -1.0007830312045132 0.5728542371378011 0.061107991231496774
0.8309447652174649 -1.0488052019766478 0.5752521904561889 0.08240446893983008
0.837556339848079 -1.060219150411819 0.5740018254138626 0.08076342091529863
0.8623370717414015 -1.057848863470609 0.5852480811749504 0.20936640953101981
0.8833626680459936 -1.0552833398036656 0.5846180052757608 0.17274325354697898
0.8856977442842431 -1.0263630481465138 0.5882222078989714 0.23629170949513256
0.8085673856977021 -1.0407314977612003 0.5478440375988226 0.029252206157498316
0.8117992978148694 -1.011444517357071 0.5473281990526684 0.026457484843372677
0.8546753412183113 -0.9733218832315641 0.547685659851664 0.031150292820774646
0.8967417977011652 -0.9800855312443735 0.5485893602327633 0.03544909905502433
0.9122949835701613 -0.9920175882706959 0.5474557735663055 0.03442776969348497
0.9229579158528272 -1.0553644737089678 0.5462004382009631 0.03263650769434132
0.8896880090040766 -1.0887474022373478 0.5449631868843245 0.02315037258852895
0.9131804654805109 -1.0744882495464152 0.5447584046741483 0.029471772060352754
0.9236235066631031 -0.9979275427424918 0.5462967510395189 0.034687485347006095
0.9287979749759527 -1.0121363561357397 0.5474123761435279 0.034067764177058646
0.9071740517360778 -0.9800269949642205 0.5483993197010195 0.02424135062236853
0.8317115314204837 -0.9811813946218112 0.5558969588660089 0.040365491787749674
0.8449015806785347 -0.9748154326892917 0.5571434210390829 0.029090618677989136
0.817029801874823 -0.9950423646618106 0.5558126236357068 0.026913498039768075
0.80837179941733 -1.018239435878804 0.5591410697902044 0.026869539480440265
0.8262709876004075 -1.0697287154926796 0.5652269083374205 0.023386690957979732
0.8132691472973285 -1.045644280671275 0.5656723489904446 0.017109107880867808
0.8146010992285428 -1.023245633213195 0.5690368793874541 0.020415191201808996
0.8157779768741402 -1.010567182251644 0.5659257123632269 0.025378733129687626
0.8514547212833763 -0.9786599340828691 0.567081625500123 0.0288096270790393
0.8679235655322142 -0.9741148482881666 0.5644952264859566 0.027179568978018088
0.8827323159098472 -0.9768791125476495 0.5665760823033148 0.025748883926713845
0.9272570670881519 -1.0401878413242531 0.5602303970184757 0.02847557229126428
0.9224023794566962 -1.0565373674398928 0.5595935815124102 0.03484859470614035
0.8729700086080152 -1.0940522841843605 0.5536332088961186 0.02775695822813373
0.8441964094019742 -1.0883975367761536 0.5554772055256082 0.028643822800731755
0.8573527221184667 -1.0914731726751028 0.5584034871783226 0.027950695096390234
0.9150201824374015 -1.0677626751396465 0.5622036825591508 0.029725410593528387
0.9220480681421859 -1.0455015258768499 0.567469564103853 0.02780389056191342
0.8917431030296687 -1.0836265089070438 0.5645345207209447 0.023527306907805447
0.8331832608570077 -1.0785616087004586 0.5640825855825052 0.030569380732366078
0.851008831768727 -1.0835297672636774 0.5681421905883146 0.03189319079889872
0.901958973053488 -0.9843475588245059 0.5647357218261692 0.03284367224265921
0.8603017118906201 -1.0946602267528436 0.5484458400319323 0.025800303731724317
0.8483172760711077 -1.0920253244337959 0.5451370765245686 0.02554912550939054
0.9039070762324624 -1.0847594914582936 0.5479733709778176 0.021723814660682152
0.879062556718192 -1.094764314387885 0.5453810480220196 0.02768789090368444
0.8312872229976916 -1.082535810927719 0.5447612129214526 0.02568779380442118
0.9290849780634236 -1.049015104584248 0.5520314541007942 0.026657962031777054
0.9278548954437356 -1.0170832817058657 0.5568878196763766 0.02632705258139002
0.9184840777958128 -0.99636566018779 0.5574578558159644 0.03182089808947716
0.8833455889475046 -0.9711277248998302 0.5571039963044923 0.02928607928129698
0.811527276782847 -1.054728880303754 0.5572152022357878 0.021415797071561722
0.8047803624205926 -1.0200667584591925 0.5477856908074603 0.03104528003648802
0.8283167183459383 -0.9834310771771752 0.544755421468891 0.03188209156378663
0.8732706756424279 -0.9711154041741149 0.5455403965305685 0.02592896732534281
0.9290055725446132 -1.023084493281197 0.5454375247433468 0.022571858136231793
0.8384567954526523 -0.9743100252651303 0.5465949545167871 0.03515665443590657
0.8152119571692282 -1.067544192625967 0.5453685262553747 0.0258902091624313
0.876210389999416 -1.0834443674265495 0.571261208594754 0.02135970406639049
0.8961312157648572 -1.074981888275445 0.5719140681587542 0.025926438709157965
0.9079073990882407 -1.0640337447018942 0.5721016699710776 0.021224039164260224
0.9155964122570257 -1.03863347582821 0.5752464658476956 0.03384774012269969
0.8454979454182695 -0.9863790004758505 0.5732065232986738 0.04362089408260918
0.8346157676278936 -0.9937811176868877 0.5729085030726085 0.029345733023853855
0.8266079972990621 -1.008043639659452 0.5757413952844925 0.06921084875491681
0.817224935249405 -1.0332636058475175 0.5725344173762582 0.08607379044738324
0.8230756975618516 -1.0569904638168655 0.5721857108891003 0.03927841824831193
0.8383039399716546 -1.0708671695897902 0.5746302993389811 0.04911486980419962
0.8529728029995802 -1.0745112074459109 0.5774199761847348 0.05180324477936062
0.876599399193737 -1.0733080019003085 0.5797643668351949 0.0903723540672274
0.8871027887039422 -1.0673677120704919 0.5811908564510455 0.07452669501690712
0.9051203642120469 -1.0561618569169116 0.5784312558721422 0.07652722894964191
0.904613547726496 -1.0446508782830843 0.5823087815363168 0.10025958380001898
0.90721089098914 -1.0246092044579391 0.5820137405040035 0.08603551068013361
0.8974665510280418 -1.0324847073817467 0.587385591559771 0.1958835535622248
0.8549115096425953 -1.0655428981591535 0.5838078781210618 0.11852356709774715
0.8451732234727696 -1.006790120270075 0.5854717643751629 0.15945570727329716
0.837034280848496 -1.0232707484620893 0.5865004414222672 0.16073986418873398
0.8339948898215239 -1.0124769676061267 0.5822871864113017 0.09052606468064042
0.8368554136851541 -1.042783496353326 0.5856822951369374 0.1277551975791384
0.8452491657153606 -1.0599993744448268 0.5840594963397149 0.10641691937187182
0.8259958327504963 -1.0374838583887347 0.5802415988859494 0.0740693470100635
0.8712695247167396 -0.9867942572309016 0.5780041236066191 0.08679099823614381
0.8898299561763247 -0.9924626802657841 0.5781392586761807 0.06828652902673436
0.8807758111167049 -0.9957609897730463 0.5830140879653618 0.0994760570258057
0.9020065886316426 -1.0086334585443064 0.5810732435727203 0.06250762844155532
0.8731680057831414 -1.056614770720534 0.5889593044130079 0.2252974025134703
0.8517009041729744 -1.0155016117392814 0.5899156393947006 0.284134726799823
0.8458511366850288 -1.0353276751439349 0.5901056630367552 0.257712664841998
0.8634162606737901 -1.0485184616983074 0.5914572421347813 0.25880708139227365
0.8862085231029843 -1.0366342920736598 0.5911138181293698 0.25245781885675594
0.853311683009002 -1.0440660862013282 0.5909343823397928 0.2934930523050849
0.874362348975623 -1.040961232296882 0.5942171630859432 0.28863339180703995
0.8707234757587883 -1.0308936409345164 0.5942171630859432 0.27858120864729413
0.8567161537370578 -1.0314166460520846 0.5942171630859432 0.2863991937873103
0.8685680000052417 -1.0399744062154586 0.524339120973067 0.14854840268062852
0.8601686575850127 -1.0414242691332023 0.576495026541192 0.27385035517520584
0.8686203335130965 -1.0434568875023966 0.5544685549797334 0.12418012764297036
0.8655980458001189 -1.0432692283463223 0.56677274754462 0.2612550459208493
0.8699442491175292 -1.0431596818800637 0.5423003562945395 0.1275462426480386
0.8762474819361324 -1.039407721341549 0.5676608384995131 0.2764142411824646
0.8796891377241873 -1.0337190371259608 0.5579579955917946 0.15713853311555226
0.8784075829787312 -1.0366968676591557 0.5294455013838353 0.16606168763662024
0.8797938108108002 -1.0331409336694537 0.5466960406746744 0.12526950194430064
0.8798156037946674 -1.0303159293147044 0.5760555749212976 0.2629834718542378
0.8790441145728124 -1.0257155130780498 0.5362948722360807 0.14561353433278032
0.876919905578241 -1.0221901949548695 0.5456139742999805 0.12200961663361698
0.8780254538384986 -1.0235253349522324 0.5673236871501454 0.2713550234470009
0.8725820252783245 -1.018753604566143 0.5283429793934638 0.14592935860765066
0.8662530301672628 -1.0175793893405563 0.566135506918706 0.2620053048651362
0.8627679996917932 -1.0182299597272135 0.5390231322208746 0.13293448080700873
0.8633642535002551 -1.018077971364815 0.5547834393718752 0.12567546971042948
0.8547245239989045 -1.0261396277944255 0.541708983589764 0.1358498255397776
0.8561569816745201 -1.0229779061347524 0.5287296723430231 0.16302966915659212
0.8540748712132415 -1.030956191103709 0.5594256349111533 0.1829374946228746
0.8551185099103058 -1.0358355183519603 0.5307661511027989 0.1433427368968052
0.8543012029126047 -1.033111112318475 0.5720140885252236 0.2913845847588335
0.8589041853485939 -1.0408115465817702 0.5431905059753673 0.13623213648733956
0.8740967102098767 -1.040998137587051 0.579566891554553 0.30885018127915115
0.8698856995136492 -1.0212588477155822 0.5856274331093078 0.26251442678785986
0.8555915962958253 -1.02755201379962 0.5824509927031546 0.2483113024499107
0.8598611875123451 -1.0196422561412326 0.5771541095166629 0.2919139576610835
0.8762015249426012 -1.0444908900731034 0.5062373272785368 0.15852425538658507
0.8668425733234055 -1.046041912938773 0.5153270649085029 0.15360544334719642
0.8610943082768938 -1.0456867660613351 0.5060592351151394 0.15826257218248074
0.8603061832116761 -1.0447854409170463 0.49389726198899025 0.15828090440727802
0.8528078587645553 -1.03589185435613 0.4917042206518692 0.14130934605213316
0.85489843808438 -1.0339459941070552 0.47878184361577447 0.1750233779142927
0.8610346040796772 -1.0243323920210265 0.46336494034600856 0.1913534894221502
0.8645324827352101 -1.0159242537766695 0.48783560234895545 0.14505438367717002
0.8668031669947472 -1.0140609553092732 0.5054064957150288 0.16090720839916767
0.8602398306638748 -1.0184786662260936 0.5203893639814816 0.15996786944557825
0.8526892631387246 -1.0230428984190905 0.5011229547162012 0.1520362965084372
0.8527580074000474 -1.0273137825253422 0.5174902404225851 0.1621201065622834
0.8536067417605311 -1.0253004421190548 0.4874611265146117 0.1743147270264903
0.8577288064212202 -1.0234441651357402 0.4749856452829266 0.17613769522161726
0.853131029733956 -1.038416157677791 0.5102258423611143 0.15829338309464894
0.8716485026162875 -1.0159211388113212 0.5170760578595046 0.15842291567016736
0.8804148131068058 -1.023231917309221 0.5187786595290643 0.1790356102038163
0.882590421850481 -1.0240450159908372 0.5003957639723495 0.1672200835907279
0.882549367663797 -1.0288104602650776 0.4896250832707534 0.15636426926801247
0.8814534019624274 -1.0389559131430932 0.4972282092638727 0.17368898895063944
0.8760442638615735 -1.0370020859930276 0.46949537254956125 0.16727823817012538
0.8700219343942286 -1.0436347494833214 0.4803578851289904 0.15533591332776034
0.8604441663457375 -1.0369565489694923 0.4651989547224847 0.1853125303548685
0.8722165570832334 -1.024328739017527 0.46055233298868153 0.19496783733470516
0.8740213636897688 -1.0181445137473497 0.48331906738367836 0.15823411689383693
0.8797149890866707 -1.0272713081375624 0.47743039789426384 0.1875867279751636
0.8688695274027187 -1.032316131141191 0.45302788164372637 0.2189724964063017
0.8826061889337182 -1.036123538178314 0.51158076384005 0.1458617556175015
0.8645317038824945 -1.0301276014812202 0.5257815417418304 0.16245120963189455
1.0458692763298056 -0.8735924652115061 0.6127577288522863 0.23081712568150745
1.0385304726727496 -0.8807737911897812 0.5981361352189404 0.2453765475831271
1.0242795617430922 -0.8812585180777678 0.600743813955219 0.2687650342017012
1.0153612462750135 -0.8719330531667703 0.5976710812651099 0.2639771041386708
1.0161798855925015 -0.8736449922970974 0.6088864012387266 0.24413962267735947
1.014716584647739 -0.8620164149017334 0.6149577786348138 0.21430046245343437
1.025359419931844 -0.8502345809461396 0.6010897006979373 0.24472508981627744
1.03560360001457 -0.8500127960331565 0.6054976909767436 0.24968868330058575
1.0468587640384097 -0.8607651545347581 0.5970275801175298 0.2689569315004713
1.0469565446842966 -0.8612502664791383 0.6130608193680366 0.21394379528042026
1.0521237929672795 -0.8747397804110613 0.621457341161978 0.18730684419768395
1.0508699953258618 -0.8547663752152724 0.6214022332796315 0.18497241018846639
1.0319250598352538 -0.8449797215562536 0.619948380994946 0.19517822402507107
1.0563347079557843 -0.8564046705996722 0.6326768442283011 0.11340490600542381
1.0571691306669815 -0.8555574735716645 0.644595962983304 0.1422467517123426
1.0588139675699202 -0.8564000264036641 0.658500849616321 0.1768053054052972
1.0533144487585173 -0.8448448720714862 0.6640144303107488 0.1471993171212792
1.0450285276464246 -0.8422616855095783 0.637063417137692 0.09974419694875113
1.0335343059020494 -0.8383426576717977 0.639769857242051 0.13876660036079416
1.0359724437527889 -0.8398044379749541 0.6290291835819103 0.1152747340135951
1.017096597590487 -0.8443107433338383 0.6262886200260157 0.11023127334105617
1.0175094061209826 -0.8418927944373013 0.6369807781273649 0.11737651131833304
1.0234700000306423 -0.8385508380361889 0.6469817259381293 0.15180229692715708
1.0123877143063795 -0.8445400600809221 0.6471893863965464 0.13572289014525488
1.0184436687301992 -0.8397898749961789 0.6565363812368467 0.15087264561064548
1.0030359188764673 -0.8519373466095097 0.6649054175236764 0.1393515235650289
1.0036219724519881 -0.8593082820552043 0.6423915896525889 0.13746976919667087
1.0074735089260245 -0.8528225749344361 0.6310261480267714 0.09827985336052908
1.0037366318463494 -0.8672391812283539 0.6325175911225002 0.1018685560179584
1.0088278378464592 -0.8833588322546265 0.6437305736407165 0.13099619598891485
1.0192651352411695 -0.8914741738437932 0.6416435250590525 0.15159162311707236
1.0320211388130878 -0.8946523944383465 0.6491667448215003 0.14366476104318102
1.023182390065129 -0.8961141583900119 0.6649278974798414 0.1956240687181578
1.025274548547436 -0.8927581472838994 0.6332314633265586 0.09816938287991579
1.0273324956338827 -0.8890511592816946 0.6220009878845041 0.16462401184035075
1.0157021104103245 -0.8860839315042092 0.6256480922191637 0.14116096866504735
1.0486702579557323 -0.8865978142028221 0.633624269398306 0.12490467483920314
1.0478411144847226 -0.8894024821362907 0.6531498732836122 0.1857980720299152
1.0522338084195308 -0.8846507172137443 0.6440464454077838 0.11380395347466865
1.0341494375782823 -0.8373339831528546 0.6536285259595607 0.13709146727032634
1.0604278982422748 -0.8685442668090575 0.6596910259170053 0.16672118169729944
1.0554021756647263 -0.883499648989227 0.661501525273566 0.1683707583095882
1.0570173731293082 -0.8728727815402453 0.631621362550591 0.11729901692381012
1.067387370462404 -0.8740528332990409 0.6726930445464606 0.15204373857411274
1.0634855915748438 -0.8483300402575282 0.6725918887014949 0.13872137789039402
1.0057838440867348 -0.8386785130566115 0.6727519063029602 0.109677816136956
1.002121720009219 -0.878322560973837 0.6655312299359992 0.17394402786471816
1.0624206659897155 -0.8863402288463845 0.6735244578339327 0.16347453898160827
1.0520093395902408 -0.8349380370438936 0.6742659410522313 0.12397766674238468
1.0328705932497124 -0.8284759266224989 0.675642774072614 0.13337195759563014
1.0200252140106314 -0.8305743049071214 0.6743175940226417 0.13161812213384932
0.9952452591734227 -0.8558629316390396 0.6758417357205335 0.10918497395490911
0.995016047348247 -0.8675999584000493 0.6745146633479878 0.13006104882826566
0.9958418799558231 -0.8791672093603896 0.6747623441272347 0.15906156750580858
1.001287875754504 -0.8888527697313601 0.6755985859513841 0.12119338172650065
1.0108926479511535 -0.8968930806370227 0.6762870999518292 0.13449023279342773
1.021796765655875 -0.901035324611225 0.6753702570670187 0.12213694802284447
1.0327067082739165 -0.9008612149345896 0.6721627323700619 0.15054155915217254
1.0442265984076493 -0.8996602564841188 0.6759046606059472 0.13751001598939644
1.0545219179408667 -0.8948413263727372 0.6759201491790942 0.1741189429456123
1.0524818348855691 -0.8635138921231915 0.6534538786428229 0.21383996815728393
1.050745189338327 -0.8730943578253847 0.6413407489976938 0.18567278298838136
1.03340731187986 -0.886957430835885 0.641819192836237 0.2007278063681944
1.0176364252459982 -0.8829917110411042 0.6516577713745625 0.20731008303378667
1.0113884117477976 -0.8735192487497819 0.6380443684948214 0.17642582758271486
1.0121189547836054 -0.8774738171251756 0.6596205865512503 0.19911317407619689
1.0094420614927473 -0.867812139187674 0.6499840709339989 0.17100569359976256
1.0115797105952042 -0.8565037578399335 0.6488392527427754 0.18190014893287007
1.013672296642687 -0.8520061066803001 0.6639820932769009 0.19630928581102355
1.0390362651054545 -0.8461440846476624 0.6487961966245823 0.16546671314623645
1.0483469756305546 -0.8529546678108829 0.6548466445520543 0.20420480034006083
1.049101250178618 -0.8656824280923998 0.6273730450562313 0.2092451318564557
1.0339836126734263 -0.880999148474949 0.627368838528033 0.20346154301224853
1.0158096795198452 -0.8712821786837012 0.6271515413876108 0.20977493173036338
1.017089480006621 -0.8578020433486058 0.6271097708990752 0.21094182434447606
1.037010952276572 -0.8514850676295398 0.6272344207282418 0.21306315768368894
1.038564085472195 -0.8813929126319857 0.6161731860678726 0.21168573009164002
1.023460820933191 -0.8501978420021971 0.6167492510479174 0.25085865050672673
1.0225223925292561 -0.8807041031221915 0.615570402800122 0.2426470586490395
1.0649774408993706 -0.8595836441676885 0.6736468449000612 0.14236918802342624
1.0372165746130384 -0.8399078677196075 0.66789877894871 0.15887512447257873
1.0216190921154373 -0.8423891286207235 0.6672169596232363 0.20469722182314584
1.0044809063356903 -0.8635965472239459 0.667838823053587 0.18195790246013138
1.0158320930362734 -0.8869887968668292 0.6675002126958963 0.21696364105755694
1.0361743225266986 -0.8881711638729191 0.6659957144991294 0.23444107203153192
1.048200277294418 -0.8896157379438407 0.6690821698425041 0.20438436278986272
1.037394345631581 -0.8528500435606662 0.5884421691894487 0.2912290616072528
1.0383395954287098 -0.9052442119062578 0.5768495811099467 0.05944895986776953
1.0737522484187993 -0.8795929973314791 0.5721998203474276 0.06869538078266807
1.032449969171869 -0.8179067392679861 0.565887713542448 0.06216520791748703
1.0089618090495711 -0.8232516290746227 0.5648886126314027 0.07362608262144778
0.9924899578103263 -0.8344235295009246 0.5619684904948462 0.07090016408744562
0.9859480367499436 -0.8450832126598383 0.5626520334035776 0.062412225905079964
0.9879048955587745 -0.8887284507633676 0.5641919736934835 0.053870678282784766
1.0032207673119495 -0.9131363575092821 0.5565158926321819 0.025752435638479666
0.9781870518356571 -0.8660404165651612 0.5574161123159324 0.034123279909089824
0.9786405974542952 -0.8792589281945329 0.5562735774019926 0.02155590219882682
0.9990621040562603 -0.8238329881754843 0.5586106232512876 0.02893473001796751
1.0152576826738824 -0.8155661153596613 0.5587629642189069 0.029497025616026754
1.0474107950364646 -0.8154770902382743 0.5584884437458956 0.03483707934325889
1.0729038799799007 -0.8913890914776095 0.5676746607183837 0.08233037112288943
1.085197822031116 -0.8594031472512461 0.5582607450523578 0.04060589651390445
1.0784588989860107 -0.8377047217282244 0.5566910291000059 0.03178761287710176
1.0820887894582396 -0.8484900160301639 0.5596231860533257 0.03419690506745781
1.0284201359158256 -0.8114565901954895 0.5550671171077338 0.03303122972152756
1.0789626693837089 -0.895504668862558 0.5564604731281279 0.03958723938804736
1.051224522216567 -0.9184704218142612 0.5555975342748276 0.03354468093520514
1.0268816604100555 -0.9190469333636009 0.56064409227301 0.026107819931911455
1.0162738556681372 -0.9110867112090045 0.5673839978814446 0.09520063662410573
0.9885233768998384 -0.8771805889209537 0.5710343221858417 0.12849829030355522
0.9953229507681495 -0.8545823817561006 0.5771488941151067 0.11118347535634951
0.9976816253948648 -0.8382415203678423 0.570826477661557 0.06266944324112403
1.0509852808268025 -0.8347949511295646 0.5792802927576646 0.11273016103376701
1.0693259179086845 -0.8678695222628168 0.5788565999173777 0.08941468051008372
1.0681584008553628 -0.8492732515959585 0.576180028982652 0.10545346559149492
1.028037263857038 -0.8934948357020862 0.585101463726648 0.16678915301156305
1.00197175031525 -0.882227977888629 0.5808145409531081 0.1393789409241104
1.0097010892215796 -0.9025610379363849 0.5737851827055577 0.0845935748527617
1.027726052511822 -0.8490598239702928 0.5882928016380772 0.2701428621223235
1.0421856256615185 -0.9238146195409509 0.5499522314488416 0.027518562723728806
1.0530048985847817 -0.9233566609040945 0.5460236002712016 0.029193869519017576
0.9879365486149877 -0.9048945974006732 0.5499820242385853 0.03375044652153188
0.9750585796537392 -0.8862800602033348 0.5462836815552973 0.023739133650584963
0.9726379976338269 -0.8691836824512839 0.5467763249136675 0.026955472935588993
1.0592206464601384 -0.8142882735771562 0.5499707383854066 0.02688506709179759
1.0740034389986557 -0.8267590590703913 0.5511695268733586 0.03010035371377262
1.071164120300781 -0.9130049468286304 0.5466003713462538 0.031884741045333835
1.0909611399108328 -0.8443054327813989 0.5447599540231286 0.026751107828083945
1.07109696033453 -0.8158757821906315 0.547410623332338 0.022604081129366904
1.0287206232702137 -0.8028880663280156 0.5462810373799506 0.026430787355420243
0.9943033235290566 -0.8151764278933012 0.551160687458612 0.02344230575871452
1.0392010968044478 -0.8026666333201748 0.5511410264163775 0.021896414174727125
1.0191208045755928 -0.8057382883933115 0.5556270910227347 0.02525799273356493
0.975353354317719 -0.8382033782828598 0.5519345522832215 0.025520799899065756
0.9850726417094842 -0.8276103712866376 0.5569550262078614 0.024917882202879913
0.9809238200858263 -0.8968453124161913 0.5603832909263184 0.02127234294551836
0.9752961857276508 -0.8511651964543435 0.5615260753123625 0.028326219508072313
0.9909229626056298 -0.9072917434850732 0.5634777648307006 0.0191687465664
1.0083381526262896 -0.9186456355430042 0.5648479084598101 0.027067225190690304
0.9764704403031361 -0.8744627740158973 0.5657368157566524 0.018973348694927263
0.9774679046929665 -0.8608114598215725 0.5685100827670699 0.024626234964572686
1.0396059369534647 -0.8067411380645001 0.5610954019934333 0.028593819722621906
1.060853265748759 -0.8134728436138761 0.561026252217791 0.029721493741401702
1.0922507661932457 -0.8677519481824293 0.5601087918645327 0.04093703542828452
1.0709555657502399 -0.9142462173741538 0.5587127684422878 0.03486930322233395
1.0890276413932796 -0.8843159142026275 0.5604557410691605 0.028864749731232955
1.0628749099887687 -0.9217079868420285 0.5508614831456576 0.03727153605322989
1.0329220198218725 -0.9281863507606837 0.5559889721888533 0.025288083238187604
1.076528598678717 -0.9053986809543709 0.5615431764834089 0.027593597736243265
1.0869260833880277 -0.8762761921308038 0.567297524177581 0.032961713151804795
1.0506001631184854 -0.919129688148589 0.5671400538769074 0.03398910610940807
1.0389029724574022 -0.9209597471860572 0.5675957330200808 0.025102726260896602
1.0801123023457495 -0.8411801397441203 0.5684850140219041 0.024590267253567166
1.0777814837973436 -0.8294369142566259 0.5637328495038031 0.02489472331194934
1.0842762830638697 -0.9031137732151535 0.5494859243095482 0.03707486071522976
1.0950728070769753 -0.8787306685868357 0.548388609163804 0.02407258935086174
1.0946886353841623 -0.8544796431454673 0.5502953882349018 0.02475334694022456
1.0344005139724939 -0.9292721501186347 0.544826180717165 0.02674521735840374
1.005564884720661 -0.8119705124091134 0.5579635161248123 0.02170845376246424
1.0173923745596776 -0.9233968816364485 0.5618958150492355 0.027962363635652892
0.9718265031099358 -0.8484437194243538 0.5450259556430999 0.024257438668689
1.0040943238767104 -0.8094987666419484 0.54576386490438 0.019274541379399164
0.9863810622762008 -0.8221406649220159 0.5477745540976129 0.02448061720808168
0.9687823059913374 -0.8585174439867659 0.5515946695763213 0.032620808788864246
0.979643859093423 -0.8983937829821783 0.5449374192311482 0.02577793645320399
0.9928833126297976 -0.9151456040629485 0.5447662546834762 0.029826773112314985
1.008767374044062 -0.9232738953044661 0.544991964333182 0.021792270342631585
1.0210461223567524 -0.9297737008161309 0.5463151435168732 0.01954258589188457
1.060221415722413 -0.9117684939464851 0.5697899934420009 0.021855567529191315
1.0458657549691255 -0.9131983925910706 0.5754019855739291 0.05243194002486167
1.0695946587646696 -0.9006434309533675 0.5726116740878932 0.03835141407390425
1.0823740377682447 -0.8682218513780958 0.5733878355522624 0.03828971135839695
1.0839620013801807 -0.8571923426244205 0.570635888723832 0.020296615105045636
1.0643885927107568 -0.8234863702758478 0.5691771920521677 0.021502681235254034
1.0539032858543431 -0.8175608248920213 0.5696202534057335 0.020515004733412945
1.0247747183402112 -0.8163706667959093 0.5725798208518313 0.024440485478517314
1.0009405668890559 -0.825103402786337 0.5719339929150052 0.035539243720827035
0.9851118350525765 -0.8513103393167617 0.5736427412886279 0.07617402918092632
1.0002584997027248 -0.9079714777761951 0.5706054210966838 0.046303085701406156
1.0257598346107726 -0.9187922649556278 0.571209941254987 0.020339257220808694
1.0678858567798764 -0.8842143119394202 0.5819221612332206 0.07453997506842577
1.0572376566896287 -0.8436738284508215 0.585471985911274 0.1381249340736723
1.0303107314754898 -0.8385485287649419 0.5880046962187554 0.17724556128427682
1.0411756817066995 -0.8404888205991363 0.5882040164563294 0.1807950394192235
1.0574157402321203 -0.8792177769474268 0.5880753864845131 0.20259562846772902
1.0380276032450224 -0.8968654035276158 0.5868545815132793 0.15819177405812077
1.055813315756021 -0.8968077686934218 0.5829845392862588 0.08453760742346439
1.0619543520118278 -0.8533687624791608 0.5860428762210458 0.13448941500542502
1.0051317975903649 -0.8540499877978286 0.5873296002335577 0.16379335508320275
1.0088567736432332 -0.8445155531571642 0.5862119371343544 0.17183638695711595
0.9976140902089273 -0.8635361750697202 0.5850700029353181 0.12017638495926494
1.0067552054105828 -0.8948589476738272 0.5827367067113693 0.10597948593789776
1.0171710203609323 -0.9020013253504634 0.5825523268033299 0.10549748329931302
0.990621876212182 -0.8716886018395582 0.5800587649422088 0.09397770655228924
0.9855216123043622 -0.861360044281067 0.5767986950151117 0.09413106940998452
0.9984255480747403 -0.8992253493988723 0.5762136741310067 0.06045084609295236
1.0269192854873095 -0.9088626691214561 0.5800187229295384 0.06555177946408326
1.0154929561496224 -0.8227259320297339 0.5764196854557704 0.048471435754934865
1.0033095900904216 -0.8361003100650265 0.5801940765811671 0.061465076439098563
1.0323384073658564 -0.8261376116937139 0.5812679270060456 0.06490357887578477
1.0140761000226224 -0.833294627890996 0.5829130679323701 0.10961540369115165
1.0640597510334895 -0.837569775628782 0.5795643710316528 0.053612888515484666
1.040972455714159 -0.8200303081705804 0.5761355469764515 0.05367480614661682
1.0114641233686872 -0.8860126328246916 0.5878848038775027 0.20148843130216307
1.0453652721275273 -0.8860104514316145 0.5897034115596022 0.23832074981443965
1.0546967924960127 -0.8658771816358592 0.5900203775098679 0.2624748420342213
1.0490432322027041 -0.8519098902658512 0.5901671851352749 0.25344140477896293
1.0080296341048478 -0.8643031317067777 0.5894905035435463 0.2495145402301605
1.0467802867208602 -0.8725393617767861 0.5919333610498048 0.288201960747902
1.0247872264281404 -0.8603702715336162 0.5942171630859433 0.3016430713291502
1.0293548794383443 -0.870838161054932 0.5942171630859433 0.2640650359135165
1.0311095921412257 -0.8709838788209593 0.5242388804478813 0.13079278001612446
1.0229514305269019 -0.8614125236084148 0.5243329304875562 0.14849537665409507
1.0306913627443879 -0.8791313050273745 0.5623213888720419 0.1907880423930496
1.0352682697862887 -0.8785685849743892 0.5312454318941169 0.1432859765574456
1.0400116246188247 -0.8754784767711936 0.5452386247531452 0.12599680396973767
1.0437526549487541 -0.8686312862208572 0.5364935729095256 0.14344544509461926
1.0427126070926265 -0.8714280308107253 0.574195457322266 0.28190919247821633
1.043910154375304 -0.8668762137374074 0.5567895405251264 0.1553055528161917
1.0415925652742288 -0.8585482343283316 0.527827012081429 0.1442760716223187
1.039856083749536 -0.8567977109672175 0.5391252662657887 0.14438252496348997
1.0408132855831114 -0.8576676327354519 0.5516668383356379 0.11114225304485155
1.0375279058911027 -0.8550104597706788 0.5754893103676925 0.3027033563534901
1.0382784288979465 -0.8555940231217319 0.5652759870068308 0.25814355942380135
1.0285373466578052 -0.853424361735207 0.5427262508357001 0.12893804151702054
1.0202704662463682 -0.8587425433640741 0.5375695714707743 0.1411635543456386
1.0200891602071716 -0.8591459815471111 0.569977277410252 0.26824861136030836
1.019387636734617 -0.85998555786591 0.5571292563403192 0.1667318787384548
1.018141531483674 -0.8687696035000975 0.5377224142543124 0.15192469735375227
1.0179408524333762 -0.8658958440945851 0.5487905374097203 0.11589755965953044
1.0199520837375786 -0.8729927118478922 0.5614894339863356 0.2100364588138385
1.0237360204738135 -0.8771169121756067 0.5318950895626301 0.17053379330686003
1.023609794433333 -0.8768119887316113 0.5722408931133794 0.2813893120306226
1.028207777212741 -0.8789133477031992 0.5430273180851238 0.14359825541664906
1.0423021864402189 -0.864737726544044 0.5826717118980052 0.28172931145790403
1.0362813895387217 -0.8759189225002423 0.5833420155091319 0.2713840678776999
1.022718114528099 -0.8584440806952022 0.5830072494171136 0.2570313997258548
1.0243954586518487 -0.8745531945383292 0.5842292551965043 0.2439077514852281
1.0471552628964702 -0.8684384257315946 0.5123846832766332 0.13065626496964286
1.0411089639598041 -0.8781114039425544 0.5148573409146663 0.16374609311646943
1.0398300038457304 -0.8804139954425321 0.5018405987645729 0.14347847783280385
1.0349722126538081 -0.8813833195139377 0.49212278444871527 0.14895972439275965
1.0256961634873192 -0.8795293621258096 0.4866511507878651 0.15540820749201373
1.0262290252208832 -0.8770338196157356 0.47543293058649383 0.19019900698871642
1.0249964895528676 -0.8719052900590284 0.46246028856395477 0.21817050406641592
1.0184974739590709 -0.8719622126985489 0.48402848658386183 0.16041293160421316
1.0276250197556265 -0.8612466276965279 0.4573313625824307 0.22628166504336095
1.0235269932892948 -0.8598095952548416 0.46704859989102726 0.20824654357013253
1.0273460119249767 -0.8524260749635163 0.48393598336363214 0.1603002401604562
1.0213033457641465 -0.8533814833736031 0.49679441464228985 0.1471398927439445
1.0241569864198647 -0.8521557946092119 0.5145901423355306 0.1511199660392023
1.0157902243772625 -0.8680744236090304 0.5137741849005387 0.14420450625538034
1.0175584626605039 -0.8605735086878986 0.4877285263152629 0.14738760020719988
1.0192477441929229 -0.8649815205533379 0.47545450474192635 0.20120507608163163
1.0177736052843132 -0.8751455250218292 0.49900592426586415 0.136665181792543
1.030486398789893 -0.881729421769636 0.5140496414219493 0.16298223788961955
1.0329096380676464 -0.8530978077195462 0.5219607826362465 0.13181631198344096
1.0321556476249558 -0.8494371442341768 0.5038217503702851 0.13061489357558645
1.0420939585759916 -0.8537204362643772 0.5082306605722736 0.15143101281266932
1.0363406261488275 -0.850926589387959 0.4931023851834479 0.13576627026716817
1.0474383815333814 -0.8640206376492946 0.49724519145953394 0.13454868742240958
1.045886014675581 -0.869637244113363 0.487990784637982 0.14157859312547086
1.0428112417976765 -0.86946510899692 0.47427313340378663 0.18368014428542703
1.0365749703231368 -0.8740648638705755 0.46554794034864433 0.19014873249579264
1.036003237311112 -0.8578454717688486 0.4648922484904039 0.22208694787890937
1.04115398803338 -0.8571558392963609 0.47973119659786717 0.16892953050579573
1.0373701592565858 -0.8666789328176651 0.45725700775372763 0.25997998224177615
1.1056835979611446 -0.6346596054829949 0.6023533253185037 0.23038980978532422
1.1069928295819138 -0.6454497862814218 0.604274730730935 0.2558857401169502
1.0948653940686857 -0.6578974455807424 0.6114356643815679 0.2248200620506321
1.0864765297092074 -0.6579183259497253 0.6026132556062652 0.2304004415881083
1.0789984754410058 -0.6536967576077685 0.6125790098617071 0.2200714102482596
1.0755924840028404 -0.6487677339751705 0.6020174352656401 0.25199765496405263
1.0752384432130684 -0.6355666465646648 0.6101492650169388 0.22070500428717352
1.0852182142772986 -0.6259637928621568 0.6021260155972652 0.2666349897683802
1.0976024755205327 -0.626602830932513 0.6000292612202407 0.28825901088071026
1.1094238111246062 -0.629070887228637 0.6211495257378349 0.15005745161622103
1.094777566563029 -0.6208800095335495 0.6200541322974801 0.16998457577534606
1.070211408202458 -0.6482673965413595 0.6201740559057282 0.1443679658208525
1.112597793905088 -0.6443995163466099 0.6207916885721937 0.20080977239154715
1.104668402010302 -0.6549866620711632 0.6184683907848175 0.22358825468085497
1.1038087331717086 -0.6194516776942016 0.6268923679659762 0.10458242987947604
1.1042256128542511 -0.6175073166248193 0.6388245490684313 0.13167170065274694
1.1085756335939858 -0.6187934328204644 0.657356760394011 0.1501566599682667
1.0980283470645293 -0.613605616278215 0.6564249312563849 0.16919099609716368
1.0883957851422492 -0.6139565027718626 0.6398057710174498 0.13019423961278923
1.084010064945165 -0.6178802469922882 0.624739120276447 0.13228951981170087
1.072711731895609 -0.6206300103051282 0.6395276845759034 0.1135992136351279
1.073966373477949 -0.6183684374946139 0.6512305010456223 0.13071533774901972
1.0655805931258813 -0.62718730612464 0.6553967605904869 0.17823405044118953
1.0639247748582434 -0.6340222795678148 0.6402248050256514 0.10653074821211751
1.0623192416472116 -0.6460231971573004 0.6512734853252097 0.15012418115743636
1.0666099378404807 -0.6562135652391415 0.6418205327767171 0.1288602918378037
1.0682321625925821 -0.6337067045291285 0.6230840459894348 0.11506767507695813
1.070206161339952 -0.6588196183292104 0.6299160381829806 0.10141383139471923
1.0787604806286786 -0.6616657447018631 0.6217411507047733 0.13690206838564856
1.0784645742144408 -0.6678885702162084 0.6517935892107135 0.159105896196988
1.0875053807142563 -0.6695217414897047 0.6414980240445441 0.14437423598404048
1.0946772159369837 -0.6704748508202173 0.6554612024312126 0.18523278888946176
1.1073756074056353 -0.6650984445361029 0.6503557740966837 0.16370641527946608
1.1072472504373008 -0.6625501972602875 0.6294859658695775 0.07244214228127634
1.0936568284117494 -0.6684664390371525 0.6309534897229697 0.08531941634383876
1.0978343975007128 -0.6641799992895903 0.6221222267375348 0.11411589416459406
1.1134602835184635 -0.6544683749167296 0.6271419792908508 0.11107785665822147
1.1144384737852935 -0.6570561271855313 0.6456521983406884 0.15220927801519618
1.1178230794620543 -0.645205551497094 0.6346898427206196 0.11767892276400461
1.1178770190150973 -0.6547419636000301 0.6610894644727758 0.18372498333110723
1.109784076611688 -0.6646342828110822 0.6604238077250878 0.1838763223978747
1.0689421744651542 -0.6606578616351636 0.6531791669790624 0.1705530922769246
1.0640929025046915 -0.6562961953238619 0.6620964161828305 0.19286522683034224
1.1176714226123285 -0.6266108265800904 0.664600765444628 0.16942354951095365
1.114854005407179 -0.6262478416690272 0.6494910950732083 0.1862023651659175
1.1174368589875547 -0.6331929291437501 0.6412913063066118 0.12994202403318691
1.1205757813264223 -0.6409680558967459 0.660275205542421 0.18533817782195747
1.1189737727406588 -0.6466041434712325 0.6505291706128226 0.16590481696466333
1.1164187794728955 -0.6365166869300055 0.6277195716996117 0.12242112414405822
1.0764225147898756 -0.6123047830806942 0.6671918710798448 0.15955039084427367
1.1013516226010738 -0.6725499864664352 0.6667653533262256 0.1544362697803382
1.053433268185441 -0.6470418695461269 0.6749657468481051 0.10641766404129892
1.1104637867898082 -0.6099306809389514 0.6732635630038171 0.18721379943204497
1.1255439629974548 -0.6327521603550159 0.6759712348153907 0.1377593763082036
1.118763306883857 -0.6170989251092791 0.6758752235383177 0.1677532835666689
1.0980122950804199 -0.6071934753626745 0.6734809579594405 0.1712620834906254
1.0863446356627366 -0.6049732945744061 0.6757980552248873 0.1403628705168167
1.0592692518176325 -0.6219083746449577 0.6759320476717557 0.11876907664432132
1.0542746184636036 -0.6345050641899829 0.6742270184519854 0.11308597296469948
1.0567213626648424 -0.6570994752811645 0.6759436635183288 0.15246592255026492
1.0637868907591275 -0.6677676264835312 0.6755941769738527 0.14829178145472258
1.0729925261047657 -0.6742173436285349 0.6746710847448413 0.10753992014363335
1.0843150180897365 -0.6778285954173631 0.6748775139402489 0.1219865903013035
1.0966763070837673 -0.6777371143626767 0.6764220578164786 0.14997889216815105
1.1078929439667413 -0.6738440703700931 0.6762247435620956 0.16727140322762646
1.1165761392278273 -0.6672086604937114 0.6752718636596655 0.1680714987826139
1.1231142328390595 -0.6591596748608218 0.6745088436006332 0.13894760091014932
1.127384542198162 -0.6471731545425176 0.6757111231856677 0.1348934782577996
1.1114704145684708 -0.6356686823536151 0.6521461691956619 0.2037267620271552
1.1116638963291965 -0.6443051049519075 0.6430558345351014 0.1785811813984931
1.098581434721181 -0.6612792069149797 0.6405758499482385 0.1874477003964618
1.0796349113911772 -0.6594170703587358 0.6360580626068223 0.15555777485363304
1.0697437615115188 -0.644764734266163 0.6428380432195255 0.186916413346593
1.0690636966542661 -0.6392232470658715 0.6555979043750987 0.23793635178665656
1.0732986228624282 -0.6295516665899586 0.6453370364359352 0.18992034506708527
1.076357587265814 -0.6251921828659689 0.6590562619907493 0.22454978859772604
1.0862507910361865 -0.6201070696639078 0.6633215152538634 0.20503413353112737
1.0948515077574512 -0.621336330541408 0.6342944072120714 0.14803956945613636
1.0924949195337414 -0.620460093998973 0.6485340954699023 0.19441152612015108
1.1018884078768578 -0.6225596767132557 0.6650123606930678 0.21090411383966712
1.1066200866083695 -0.6282143178511714 0.6391407734811408 0.17995523885377085
1.0895058337954295 -0.6571902971237272 0.627319025631671 0.20982164657427346
1.0785756545539442 -0.6291552121123578 0.6266135873633208 0.16667818710028698
1.0821146051600448 -0.6271079520826336 0.6156271119158537 0.21885480497407447
1.0694370196319822 -0.6143710138523929 0.6752201721246471 0.14913189870215104
1.0694102645174943 -0.6296126831422458 0.6667945479642113 0.21427878668817207
1.0637642531873697 -0.647467389180825 0.6682921684777596 0.19595508603866438
1.0754454537521465 -0.6609445529037531 0.6667947250935956 0.2208540886360706
1.091717444267626 -0.666833312435204 0.6670322453283737 0.22319941619353226
1.0699520426003883 -0.6485308299515744 0.5866808978378022 0.25713687147946745
1.0816529756429147 -0.6236556738928706 0.5876996340876253 0.27369762351093185
1.1215380650708229 -0.6501952717707346 0.583291309263455 0.18180859039692254
1.1293421588430053 -0.6448465382953524 0.5784804661986456 0.10093487022859675
1.1275536432470732 -0.6148784192926723 0.5711684115449748 0.09918913267249589
1.1303399648832775 -0.6331170796752504 0.5767779619710095 0.14041913827499725
1.0978152273443407 -0.595381863800118 0.5685156838665165 0.08623418177498005
1.0521002763945226 -0.6170785955474865 0.5680007868715989 0.08909424587553756
1.0419002813820764 -0.6336599814173979 0.5624267175216158 0.09226732467843946
1.0779951847598892 -0.689746915894712 0.5637289028518112 0.06635962142535932
1.0839436746001136 -0.6961625863513553 0.5550578528447616 0.03378899757121258
1.0599512155937447 -0.6873924842408795 0.5537232633992074 0.029175458377226363
1.0519843036908183 -0.6803689152343154 0.5552553453730235 0.027793407584576584
1.0391263022612849 -0.6615059224088133 0.5536084264869489 0.03425338503523808
1.063652471170164 -0.5995541474612157 0.5625235260559764 0.045606662537124136
1.1246449905382756 -0.6054711104616438 0.5665067257229986 0.07360711642213197
1.1387148146926245 -0.6323738646137886 0.5671178076673866 0.050088401766194196
1.1306729090115903 -0.6615988558076413 0.5724395020466645 0.08296611137013343
1.1402014722367566 -0.6504896568237569 0.5651218567084296 0.08529125756895992
1.1224333181737007 -0.6722806790817691 0.5732901050254499 0.08568750393709533
1.1106141615458385 -0.6839198069632917 0.5699612596729661 0.08797265740155973
1.1393637427737011 -0.6181406482666597 0.5601729838156454 0.01888034471424821
1.1322291327420646 -0.6041698110360267 0.5565955947207523 0.030243461931480014
1.1135570997196813 -0.5897270079592234 0.5549617365596922 0.030374740349621128
1.1462978180756722 -0.6318835775451966 0.5552979551236564 0.027302276316176825
