x y z curv
556.8581729280047 -0.8656867714214624 0.3572120024906931 0.05326865326785205
556.8650224123228 -0.8522907425666943 0.33750829601437426 0.11596361562137034
556.8606156562226 -0.8514296943736898 0.3477224309775758 0.05729440816362962
556.9325647532544 -0.8608985189898019 0.3860570794364701 0.07780454510430508
556.9403694554981 -0.856177008502594 0.39152296658993546 0.05809718171700555
556.940761353388 -0.8616947328212449 0.3752638488586339 0.04380746284492634
556.9385256598632 -0.8742626476788297 0.3922884900916744 0.04864687123648932
556.9463155510892 -0.8672929677226996 0.392925993445809 0.0369664558305976
556.9344177439443 -0.8629923019968296 0.3992256835170192 0.06529994442899542
556.9361503216476 -0.8749408746425116 0.4223282259395876 0.06251764226188233
556.9377884979466 -0.8731395765292066 0.40745795801715745 0.061573788034137794
556.9388778386748 -0.8719418933530223 0.4496562092343774 0.060493185234690064
556.9413460944386 -0.8692278933445391 0.42960702239722354 0.05897662450934606
556.9475449333752 -0.8624121404085134 0.4479804748631258 0.03204527682320459
556.947774660337 -0.8621593661343938 0.4083611604361966 0.04050738343292282
556.9482826572626 -0.8616009086778996 0.43176809118231835 0.0399142332900141
556.9445283196261 -0.8609003222861914 0.4190451704154692 0.05729195808952243
556.9362938243183 -0.859966502850101 0.4092213072146012 0.07005139569013076
556.9334675029041 -0.8596388690264872 0.44107898184310196 0.05543688775164786
556.9357401804149 -0.8740908451031186 0.43906021096178593 0.05625040567685943
556.8971905069272 -0.7852934220630648 0.38256140221193696 0.057889557813126956
556.8857680279191 -0.7833558371892971 0.3806793829947216 0.04255394201018253
556.8839198999741 -0.7779866493104811 0.39198217135555 0.033305644242644636
556.8999929979558 -0.7798600399481016 0.39086615707613953 0.07075096179927193
556.89417223686 -0.7831473959823206 0.3718443313642932 0.05306562004879915
556.8906232311531 -0.7884978846432766 0.444611355338265 0.05243549279660103
556.8925681177134 -0.7880101055904607 0.3970378379123612 0.0636078383912264
556.8974123605893 -0.776904757106944 0.44416493112054317 0.039401028156177936
556.8943252447581 -0.7775449365022462 0.4089720621555604 0.039754318497902695
556.8827093985957 -0.7799534022123801 0.4409895061308941 0.041562677735854286
556.8826939600173 -0.781467820163196 0.42924099754382444 0.04588854905695456
556.8835999884949 -0.7822645036804085 0.4141613252591608 0.04890783754453646
556.8992175172267 -0.777351597230093 0.42861827031935756 0.03470413780217593
556.8955710569514 -0.7854992796661133 0.4346641858451095 0.04916961884728812
556.8941757393821 -0.7886147922781757 0.4220972758540525 0.050678109613745144
556.8932587081893 -0.7906628584075749 0.4073696604233043 0.04359143588403534
556.8657402024483 -0.8035535456557436 0.3547897112644062 0.04656863766031296
556.8599732606292 -0.8062867416386692 0.366773231849942 0.21808279660455834
556.861000605205 -0.7905624246350857 0.3665459949619324 0.1635750837507327
556.8644479451863 -0.79515420442343 0.34843236213228207 0.12153390384375326
556.8716384727328 -0.7945663191337653 0.36126825188369743 0.05330497389100781
556.8692505994662 -0.7993877714592533 0.37010676865502296 0.05778421288529048
556.8645621766415 -0.7910620582336524 0.3890541778537525 0.1646170544947129
556.8589904044329 -0.7971885008629944 0.3990250889375134 0.22668858186363547
556.8552722780928 -0.8017652323317983 0.40870201720475147 0.25050427983666174
556.8562973233956 -0.8018452886432649 0.38742868986473605 0.2741901309002191
556.8605840547149 -0.8023818516118003 0.422069231898111 0.1388204313474057
556.8701839213834 -0.800990749245584 0.38111108864477494 0.054774431634048895
556.867866055868 -0.7899724276263641 0.40534726461784454 0.11867573362624273
556.870006714224 -0.8001448206795801 0.39455192348020657 0.047133342283604884
556.8682929918868 -0.7919940106586563 0.42350546199325906 0.08417787609626423
556.8703011071688 -0.8015483469792657 0.41287101448355207 0.05241041166605369
556.917433925782 -0.7927361836879345 0.41178112494214025 0.06822098976122527
556.9142252014319 -0.7826672777539063 0.41413998192761114 0.04680089630597071
556.920850992865 -0.7853857623928245 0.39440164885015294 0.07189041562656609
556.9239860657201 -0.7818684901591103 0.40676504821459447 0.07040714110668261
556.9255258616247 -0.7791363249539405 0.41670148550208186 0.04266735911436991
556.9298902214173 -0.7890894995406065 0.4132316306311085 0.0901735126976468
556.9197180661283 -0.7887668642468039 0.47136433834805663 0.14606979789621086
556.9282928275426 -0.78684922429281 0.42682591087625227 0.04700761257010553
556.9320673540825 -0.7859283504359497 0.4443600826973057 0.06914082669193664
556.9305273288587 -0.7852334295861094 0.475457275607026 0.20064657906052008
556.919301720949 -0.7801682838151635 0.4334587089302466 0.030807776372409813
556.9156095247711 -0.7792204201622234 0.45718106584156076 0.05348132330508443
556.91575605827 -0.7800893233860603 0.4765135115563735 0.10560271728979248
556.9169119310325 -0.7854851046721881 0.44226866943575766 0.03410796780135894
556.9181783987799 -0.7917208583431768 0.4325741740367575 0.034416491567006685
556.9297555383488 -0.7876651491203696 0.4638725464677565 0.1446166606685765
556.9218769413869 -0.7921908919675308 0.45151144833127693 0.0904125277501698
556.9494241846371 -0.8278507399460381 0.4168974725899556 0.08455044091170277
556.9508264368263 -0.8348264421606801 0.3954298534920772 0.08264913040443128
556.9550316992738 -0.8328262883500271 0.4059383245414498 0.06814978845080931
556.958232044686 -0.842255566892087 0.4163386499642622 0.05095297861550599
556.9505240530095 -0.8439651697855322 0.4089784425349335 0.047798548551019546
556.9427264398421 -0.836169893070002 0.41807700004276155 0.05582107034451531
556.9546632177105 -0.8384093311961813 0.42582628500666103 0.04842719654759171
556.9552178420615 -0.8462540001857503 0.45699497685610396 0.060481272720708995
556.9555924486793 -0.8428527504465916 0.43700278889638355 0.032221028417709595
556.9552705051157 -0.8457760302210023 0.46891285163201835 0.08355738584161108
556.9563792389315 -0.8357104947270185 0.47617640945732387 0.11592237628434252
556.9564053177978 -0.835473446222453 0.464855400752652 0.0954720331950972
556.9565612469294 -0.8340574354612912 0.4493359052463311 0.07953765054420531
556.9565944762022 -0.8288083378530694 0.4346972120047822 0.07121371674063193
556.9436660707636 -0.836099493768295 0.4480824301038884 0.07045206632430469
556.9459565937655 -0.8386821720487313 0.43199658013987585 0.034358071692852515
556.9461615449861 -0.8388679451531639 0.46780721456833596 0.12734769088261028
557.0347217558057 -0.9538577286926354 0.5388388327423653 0.293369254088035
557.0500659995275 -0.966361591660776 0.5593554418604713 0.2658930227976861
557.0400704056501 -0.9779702440565516 0.5536680839107545 0.2313001566559184
557.0292331176806 -0.9773647298172071 0.5621245235711614 0.26512352402126077
557.0177523310265 -0.9629281748542854 0.558312497814458 0.2629149891379994
557.0231277864258 -0.9493117696420454 0.5558480563461934 0.26109655189987496
557.03511202601 -0.9453291511785379 0.5573636009861795 0.272556125857907
557.0449647701844 -0.948783791822287 0.5539600351785915 0.2921430834767378
557.0407065919279 -0.9767480905841789 0.5645858062239169 0.2937485348500468
557.0422322785013 -0.9474493798865049 0.5683741160483837 0.2771634685094033
557.0505393117713 -0.9584543038455549 0.5707867828614668 0.2454108407880232
557.0478120555213 -0.9717928732977131 0.5748056311026604 0.24180262567895178
557.0371564394266 -0.9784653833671112 0.5746341897679892 0.2575453965656351
557.0390032643022 -0.9779012144281259 0.5854152677504962 0.22354583574637857
557.0251691495048 -0.9759764704881628 0.5839875815440663 0.218549881442961
557.0231880071715 -0.9743930539743791 0.5735276629184541 0.26205824079782547
557.0175636222014 -0.9605019787804491 0.570779731893256 0.28549728798299145
557.0192250174388 -0.9548280851428551 0.5861710996200858 0.23527560215539964
557.0302851647014 -0.9458147296305889 0.5703217851236034 0.26841135377481146
557.0276844822731 -0.9466093244676187 0.5830563514674358 0.22465961821979435
557.039186783682 -0.9460685126413146 0.579052959575993 0.22760024845572258
557.0492640194116 -0.9546637259161156 0.5868199408162718 0.23133265686360593
557.070088766435 -0.9733458887599101 0.6470413070003288 0.11165889025176841
557.0647945898368 -0.9596165900466808 0.6369049149246909 0.1501796047489762
557.0624346130784 -0.95656792033588 0.6232137133573609 0.12017371430957902
557.0586973472341 -0.9466689282566655 0.627549536814543 0.1433147533002235
557.0509828095333 -0.9388544466828298 0.6202398850163695 0.1247709065733717
557.0505860667562 -0.9397104601655786 0.6092245796688539 0.12881203837085659
557.0506761247055 -0.9360588385009966 0.6368538137252737 0.1379991730267505
557.0372871674458 -0.9356800730294302 0.6012210727660766 0.2324790732676647
557.0377651316787 -0.9341479438089615 0.6149547422385695 0.14130059727467786
557.0281586306344 -0.9350735566344349 0.6101338096363804 0.13202826106365748
557.0283176990093 -0.9394458915995573 0.5954043099634077 0.23288555320831011
557.0141848995503 -0.948794893391842 0.5965795292971153 0.25154859254732354
557.0090161753577 -0.9515390988318775 0.6069133265837524 0.15477152042543701
557.009770941556 -0.9603388992014344 0.5975295814621733 0.2542062184419371
557.0064644153097 -0.9626265306124632 0.6134080595414835 0.14043888219538148
557.0096479423039 -0.9722162912223896 0.6025413243091888 0.17745685016103782
557.008639301255 -0.9746281531461888 0.6214072890142768 0.15147960813619052
557.0154923915708 -0.981766007915947 0.6074547245704324 0.11539209541811359
557.0254114486174 -0.9892930641691212 0.6239866437846489 0.1374300732652777
557.0206031386092 -0.9889721062592643 0.6354675122608373 0.12642642194124248
557.0121353401448 -0.9844146750293136 0.6391143444767152 0.11636045031990129
557.0378407387246 -0.9908820081325943 0.6297288781088596 0.141187661036938
557.0532977508773 -0.9841384285819621 0.6302720997479988 0.1440662304782293
557.0588177610753 -0.9766532461503009 0.6238307693633585 0.14104303349263134
557.0606595412171 -0.9696465155611697 0.609595247901639 0.1309867251699934
557.0592514824425 -0.9506070625975404 0.6073565194033334 0.10308352547925892
557.0519090850073 -0.9436819473368127 0.5994960239945234 0.1932818846367777
557.0562548592095 -0.9652210628698287 0.5942690608885022 0.23450452313047146
557.0531494512106 -0.9787735983274495 0.5992085042178767 0.24382714167837619
557.0417270794353 -0.984793939866433 0.5967798959895706 0.2470413040221031
557.0484761088777 -0.9853783091809029 0.6086383642297168 0.13621543300061206
557.0375148494415 -0.9897712900214872 0.6146651921425642 0.13535635832161855
557.0276885039027 -0.9888822225191716 0.6122459686504816 0.12335616317722796
557.0258182470773 -0.9869976692200845 0.6010923033095953 0.21804358969795737
557.015718222125 -0.9677503001903346 0.5920605270641869 0.2707459879248729
557.0269488883617 -0.9988476242404717 0.6485990077346248 0.10177028099403493
557.0038072614357 -0.9707191410816882 0.6393203664587388 0.11850224648143787
556.9981127012128 -0.9523824874486831 0.6464847507297432 0.09708335870335166
557.0055559377123 -0.9666594036436243 0.6272456457210427 0.12312736512644674
557.006259513458 -0.9565061895291588 0.622558621990549 0.15151560102973907
557.0117904881396 -0.9428115257731285 0.6326743523178482 0.1384299556054141
557.0154638622772 -0.9402513624682216 0.6233436294763288 0.1344270822965287
557.0147286166155 -0.9426991366792065 0.6090672222686836 0.12847274672793255
557.0260551130447 -0.9341568488741885 0.629622213234223 0.12293851473059679
557.0149988533328 -0.9338252494802722 0.6421499387212133 0.12781150748163395
557.0588197044478 -0.9343280493150559 0.6459848631054929 0.1183219785819332
557.0389221022922 -0.932185484656083 0.6349005807768826 0.15137623036818695
557.0712177513533 -0.9621654947581743 0.6494623813395437 0.10790995872487881
557.0655617452006 -0.9453146635361082 0.6491679897101361 0.13831967243208731
557.0490705960904 -0.9285944282520999 0.6492794961587334 0.1541702619053821
557.0381619644577 -0.92709886511104 0.6464104305936385 0.12614123051600037
557.0270692280035 -0.9270948209659632 0.6482958451507033 0.12050885335358412
557.0078445695776 -0.9381550562906111 0.6498287730503085 0.0905103668229123
557.0110973478075 -0.9887958626110306 0.64957059086058 0.1029969176840853
557.0427512107844 -0.9983483634976263 0.6489509646498168 0.12477887323930426
557.0519863118716 -0.994647945454755 0.6491712208843782 0.1448511871458669
557.0619335384501 -0.985151766086373 0.6495601837888125 0.14111115901966653
557.0552212165655 -0.9612830707699923 0.6136198919539919 0.18158484455680743
557.0558329459974 -0.9654086023924062 0.6304577705242188 0.19280342946187295
557.0193239837378 -0.977390327787509 0.6229432641867946 0.24256494703343792
557.0141221154312 -0.971380864244317 0.6352954640670418 0.20156938763012866
557.0500257904376 -0.9463626399574001 0.6382432696824296 0.2110425167746789
557.0218438869003 -0.9718308461454997 0.6006088508090319 0.23279196940556027
557.0039563067043 -0.9787615491670846 0.6476763901285975 0.1205251101296975
557.0091042358359 -0.9616563564093367 0.6405216571434105 0.1771736580533505
557.0383421410945 -0.9859142283906227 0.6400223280236608 0.22116825468181817
557.0500114717852 -0.983361555620208 0.6411921668325281 0.21455797103852148
557.0592007108496 -0.9692761468404697 0.6409198425263571 0.17151955690697818
557.0520650248009 -0.964735633519723 0.5417893060611904 0.2559385766692175
557.038445976443 -0.9444921068427956 0.5453239509868875 0.25721270152369596
557.0218034524797 -0.9489464753554344 0.5423204437299725 0.23326030370971623
557.0162935939085 -0.9633833254263928 0.5392082107050129 0.24335521373961824
557.0222124555091 -0.9753561792938085 0.5407912103294934 0.21874437216739975
557.0317224391245 -0.9798584194453327 0.5407807638469192 0.22462867931078753
557.0462344678292 -0.975492800345369 0.5401179774690519 0.24166017109966317
556.9898102515912 -0.9296102430427727 0.4904906051875341 0.23305110609549495
556.9991906806152 -0.9198854783767785 0.4816334981324587 0.11070996066460756
557.0070167030664 -0.9192070598556075 0.48953025674900524 0.12672414799903609
556.9964992306533 -0.9279054721296581 0.5025874219533014 0.18385793801337832
557.0042197914888 -0.9316130772076171 0.48985443780905175 0.18299695285051357
557.0181956910556 -0.9123614867958493 0.494656436285098 0.15581456901507637
557.021550132649 -0.910307347477889 0.48182727334926073 0.12494202462331512
557.0256774848224 -0.9199440738478813 0.4908857901495539 0.2344438193688986
557.035907247048 -0.9141712328991308 0.49619627679528705 0.2227225387406762
557.0370941832552 -0.9073968320372553 0.48524229289922755 0.1949844185829725
556.9816201873948 -0.9615913854916209 0.48571499134882273 0.03928097563227862
556.9822754545175 -0.9454358944208267 0.483353655557081 0.1898972651869615
556.9893015382488 -0.9483239946617018 0.4915602616339388 0.13275638953250327
556.9770134514506 -0.960798918180787 0.4962201001739419 0.027741010129338467
556.9807584418759 -0.9437945702907272 0.4956490415609631 0.17504504548704153
557.0795852537876 -0.9317382745151411 0.4862015610607038 0.16480023160927196
557.0834018762762 -0.9382553371573824 0.5014045373262868 0.14978620139249818
557.0763391819862 -0.9417640223277296 0.4838694523258919 0.202341514599152
557.0817074936145 -0.9505233951918993 0.48857000145534346 0.16568950616623498
557.0754508677437 -0.9449176174905186 0.49572948046426685 0.19261648595680209
557.0879417849437 -0.9480002610143242 0.49787796617209107 0.09753463963850513
556.982699637414 -0.9744201165440808 0.4889061773181512 0.030402014730898395
556.9870645810182 -0.9927942795742363 0.49861090887533493 0.027647193966320267
556.9917329740706 -0.9813287279515935 0.497051335319029 0.038324643396945
556.9836606970532 -0.9869468501834574 0.48632315041069357 0.027416510037929526
557.0870158924587 -0.9639837169647171 0.4939147603900415 0.16274223246057642
557.083032108449 -0.9833670967638037 0.49257483644514166 0.14452293563400953
557.0825046240492 -0.9672930445306965 0.485372372235618 0.11891499783579212
557.0768919837037 -0.9740550376743181 0.49571947257844334 0.21548342462186432
557.0881486149275 -0.9741889623977574 0.49956714274945496 0.18893029813088444
557.0157402975192 -1.0131229415177414 0.4948836737101324 0.041156636065972536
557.0081325339612 -1.0003322910835533 0.48860514318864273 0.05785639424660585
556.998397030748 -1.0069565381602739 0.4950936144230317 0.03646676960903879
557.0605933092318 -0.9970450543714008 0.4925405818696445 0.14503598743807464
557.0690008762964 -0.9967100972515633 0.5005609498852552 0.11392799018335661
557.0753198672338 -1.0001428326297064 0.4919024917954413 0.11240096476775768
557.0690647812 -1.0056140867351582 0.4842204106535484 0.0746180485483298
557.0634824985955 -1.0106568614511535 0.49250623377814334 0.046845763635745115
557.0492824943749 -1.0149324589621531 0.48784012790183867 0.03556167092986631
557.0484042050725 -1.0163887614398748 0.4984388432479908 0.03566613794601505
557.0394696708453 -1.0063157524992778 0.4879476117463796 0.04840025386758034
557.0403611358936 -1.0097906199673128 0.4994946407750896 0.04191455584113776
557.0325611360091 -1.0180102644001507 0.48806997223874493 0.031082128494367377
556.9999160001962 -0.9288238082984276 0.45842007950855107 0.04210107797423774
557.0041904541206 -0.9301830380789055 0.46976155910427736 0.12392875927353665
556.9933744586832 -0.9317333197619716 0.47266003912968796 0.11436449865889442
557.0033487910702 -0.915769844427427 0.4717852272201992 0.05057660142362922
557.0863539520874 -0.9638385516145397 0.4677617279187426 0.05502526457328285
557.0881966554734 -0.9708544113722778 0.47667765844024823 0.08355536601523972
557.0757412446438 -0.9739153139944823 0.46789981203647485 0.08800062695020208
557.0865693864137 -0.9812932064189382 0.4716373427825307 0.11627295853400374
556.9780114526328 -0.9615178707828446 0.4619040152311845 0.036653716803167286
556.9852073734512 -0.9455744941178039 0.458033949023064 0.10501885379469059
556.9886970840516 -0.9473820976379169 0.46995877894535204 0.04823193288245253
556.98472308008 -0.9597588190712476 0.4713979214179503 0.05328043477993656
556.9791378860865 -0.9513410171343446 0.4649828641476772 0.15271111246291447
557.0748221776975 -0.9944623534584963 0.4606126131179649 0.1435626449166697
557.0629399939438 -1.0105160848593444 0.4722422845553914 0.04354544390225129
557.075158559807 -0.99692446163313 0.4733767300954559 0.18125206735085947
557.0634392590197 -0.9974324578390397 0.471364864329541 0.05229373711592503
557.0666116086967 -1.0078204641405457 0.46114624844327595 0.09355882096431918
556.9804802881329 -0.9620592441042887 0.44319249362061625 0.14749168420265116
556.9898838172119 -0.9519598226386555 0.4452444427029881 0.05178018920663049
556.9790063020937 -0.9519953892118213 0.43812737204753605 0.21458124562813552
556.9810817130591 -0.9423464803341289 0.4439339811603591 0.03874286032742032
557.0769280209346 -0.9975883142717038 0.4347790462216888 0.0969111770959636
557.0635928964033 -0.9993847511085234 0.434222509160088 0.04432620188720059
557.06281724673 -1.00065988072713 0.4482251745256826 0.045761697955266696
557.0751266049979 -1.0003765618532026 0.4466679162366259 0.1073854649075291
557.0633652888995 -1.0107188187678275 0.43740767367514893 0.2589002978472597
556.9993569137152 -1.0019561649907907 0.46682184988308534 0.04624349888433957
557.0126574716941 -1.0148682259789559 0.4737440405565689 0.028053964880853273
557.0137348632302 -1.009235433850251 0.4581830683092807 0.042353161728993734
557.0083033535713 -1.0030280261943645 0.47305995962704245 0.05018170028631437
557.0058752222088 -1.01129606818799 0.46430940114020447 0.0486283404652763
557.0157813252956 -1.0130336929384938 0.43706625569529794 0.03792518304588789
557.0036939761017 -1.009634288553988 0.4304444711404739 0.055927846460173194
556.998985439722 -1.002592366886541 0.43898734431293457 0.024072395748837204
557.0094008248817 -1.0004966851927566 0.4374172983895049 0.05524209505770598
557.0072902142625 -1.003844157395761 0.4489709479576472 0.05017061624651449
557.0126367501164 -1.0153377065465174 0.44694502255723056 0.04089035341230981
557.0164622034353 -1.011896624558598 0.42041220436976684 0.04870900120798633
557.0146720573005 -1.0120643547508814 0.40916789469655696 0.04860124477474265
556.9987686788171 -1.0053074623040494 0.40942244420058593 0.03772315845124809
557.0092417503308 -0.9994415046039776 0.41641876731329336 0.061253908473244495
556.9975613410443 -1.0050006757376346 0.39202873358590934 0.05842137192662693
557.014348891663 -1.0041008227717936 0.3930164662367751 0.06561743076674377
557.0128335917013 -1.0154289428203955 0.3946288145010352 0.03696272179925079
557.0058136160566 -1.0112404347260953 0.38710220456079747 0.07275651373873086
557.0048336825621 -1.0107820385364334 0.39984035915123184 0.04528103553292363
556.9884054895191 -0.9935070701362798 0.46490754044873667 0.02476905499072918
556.981597286828 -0.9748912212157329 0.46588886986679395 0.03581447106221728
556.9860192140682 -0.9904549162768747 0.4755557832864744 0.022737465203050644
556.9894099803836 -0.9822946377415371 0.458144700292544 0.043566262084901226
556.9895239103729 -0.9794873746185141 0.4729400441341813 0.04317130890022437
557.0460714776668 -1.0141110760550562 0.45752581316875646 0.029666453301282182
557.0371102749302 -1.0053413960377229 0.46385401131221177 0.04546953986066394
557.0365738648752 -1.0112928119907203 0.47520733385972413 0.04360455099409971
557.0376896908466 -1.0175253175356773 0.46474684134359123 0.031611175498446185
557.0454435010874 -1.0168465151425121 0.4749132173062413 0.04561993597117591
556.9825552024117 -0.9801614252274004 0.4303557600035565 0.16127506230952818
556.9905968018627 -0.9870795093744235 0.43232530285189313 0.04850332417311562
556.9928070310854 -0.9779909122098661 0.4410849578190314 0.04288677683743457
556.9916016981942 -0.9873646112300822 0.4472173991834668 0.03972108018951487
556.979688246401 -0.9780488237654325 0.44535623306000877 0.09671091569484566
557.0491997757094 -1.0141140617194937 0.44178846386124526 0.16066628005675773
557.0413526592463 -1.009804564102748 0.4329034719911159 0.047012144340316496
557.039880241842 -1.0069634542480068 0.44543151566500977 0.03932666477061865
557.0324150889626 -1.0179969280744374 0.4336452293800232 0.04417935321421404
557.03819639772 -1.017533556653592 0.4466126465686294 0.03229296653958744
556.9914702004675 -0.991971177037644 0.4098903066462084 0.04474903228518646
556.9932661557443 -0.9799336857602506 0.418730805104004 0.04655846142698347
556.981773111276 -0.9826042914448444 0.4090827092207793 0.22956262712563197
556.9862558948045 -0.9931196186333087 0.4218495581747141 0.07545971632181317
556.9801488624405 -0.9790821924378229 0.41904379316745655 0.2439697363677064
557.0440964637688 -1.0090585799689937 0.4099104267081173 0.07739376279814676
557.0330396953051 -1.0094866327533687 0.4114087652043623 0.04535455510953017
557.039403118237 -1.0066368794171718 0.4197900980070121 0.04759644864674544
557.0480472984473 -1.016553762579928 0.41950088449479767 0.2555973457608717
557.0367826927835 -1.0176793941576103 0.4223059209317123 0.1625064791663144
557.0434286488032 -0.9673467504744957 0.5174324668401736 0.22573482818358725
557.0337410713133 -0.9701818657069294 0.5248881370746653 0.19528184183209865
557.0505958486667 -0.9593328584906182 0.5086935503950191 0.1649610094175203
557.0487354310229 -0.9282251181946501 0.4937026011988413 0.21035271567959643
557.0393793491244 -0.9282182248190197 0.4882180194216762 0.22079392350692267
557.0401599063816 -0.9231234166509404 0.4759817336944585 0.18651054780611123
557.0483785901797 -0.9234559330988833 0.46635225179511713 0.2252850024093719
557.0590081500588 -0.9180153049788058 0.4626567581569374 0.2422245546753489
557.0639951559319 -0.9068968254852904 0.45990681625074925 0.23647843832460805
557.0800909955922 -0.9006175080161126 0.4658870088423594 0.13757987365549904
557.0846627514968 -0.8993664695623953 0.475298617780291 0.13046836551509935
557.0852534164718 -0.8942258585869728 0.485426621458261 0.11927293454741524
557.0834486605219 -0.8866730950117043 0.49423133374299066 0.12408027124108302
557.080806944173 -0.854422242506329 0.5064628862666712 0.10793873906527418
557.1010410191524 -0.838986204830105 0.5126942079108016 0.11582654192952561
557.1107701488719 -0.8323170648320928 0.5291775785646177 0.10156950865694023
557.1173748538448 -0.8395431630840767 0.5626013413533071 0.12992989205211902
557.1071541220671 -0.8366886110607424 0.5649001237927371 0.13159123202391487
557.1069718233522 -0.8334311727463088 0.5764543657345971 0.13771139125266846
557.104994391871 -0.8259872758947673 0.5850327935547925 0.11198062741828488
557.1213506820183 -0.7946762877815478 0.600093520381698 0.12530709287864683
557.1327289954722 -0.7959555008995467 0.6044605529774664 0.11894871484050853
557.1404513819072 -0.7961224017050256 0.6124321875742896 0.10914164160961656
557.1459670308901 -0.791693505654988 0.6220297041151724 0.12481291629530555
557.1501085522251 -0.7826876199154394 0.636781745719105 0.12358381978857702
557.1434966380484 -0.768401134048252 0.6446815398351559 0.1318705412376732
557.1422867153526 -0.7482616148035526 0.6359698500212577 0.15959124262511867
557.1428353197083 -0.7444111271564111 0.624451714598366 0.16405929649434178
557.1483252420924 -0.7405128848697413 0.6132013031567247 0.13506974256906656
557.1541839714076 -0.7452317797987401 0.604235880617466 0.11561051841863468
557.1679951430625 -0.7458577962198153 0.5994185677022749 0.1709628498611597
557.1697566873935 -0.7383600013592032 0.590014007755086 0.14804493282093542
557.1854441946791 -0.7237354662735894 0.5828283123642455 0.1536798295177881
557.1863540392135 -0.71615108384721 0.5701070585425204 0.14103995232330502
557.0228037092531 -0.9578692544706584 0.5308002250480818 0.24690059741736098
557.0242424518565 -0.9623936859182786 0.5210348830515389 0.16940548374008707
557.0329303187394 -0.9679033092943945 0.511853628506168 0.15955301895637383
557.039614134689 -0.966145166482047 0.5044443466093504 0.1487240285007841
557.0493049020573 -0.9595018935802535 0.49775697327966084 0.18043431163908946
557.0529955656933 -0.9465042141100118 0.4989708090615815 0.1758314054162474
557.0592912363843 -0.9376988094944018 0.4931470602206422 0.1877430645274439
557.0486557443802 -0.9118631656332951 0.48285060347774916 0.1961601631725702
557.0488615675923 -0.9120337751296226 0.4720400562227845 0.2057458094682975
557.0551652993009 -0.8996492773897569 0.4671900784031262 0.16877878763338253
557.0738041491459 -0.8870539687112527 0.4664120843123918 0.12029116800271804
557.0681663128543 -0.8970076316020523 0.46166941389225064 0.12662837993185555
557.0913127578176 -0.8858688641593686 0.47691209343920365 0.10807502182179714
557.0934429159717 -0.8839069453164011 0.488324323599907 0.12086877590323837
557.087985538705 -0.8760247347261564 0.5035081923554766 0.10958374013255853
557.0859407082692 -0.8630244229356481 0.514312549219761 0.11979222255269564
557.0905094984323 -0.8355095147608808 0.5253426327610606 0.10331946194028563
557.0895484900832 -0.8424312272971869 0.515260558302463 0.12886175376678577
557.1096325246363 -0.8242870227765579 0.5374439137618869 0.10894469345186963
557.1143561047412 -0.8216100705508077 0.5481069892810221 0.13351012671879803
557.11883243669 -0.8315577718482624 0.5485717423972767 0.12881322494703773
557.124161419536 -0.8315556184096863 0.5642738861540202 0.11636913303057592
557.1181708423233 -0.8338110377391651 0.5775051443399544 0.12300504239466035
557.1165381504424 -0.8298788837485414 0.5889359585476128 0.12924123955826441
557.1074517170825 -0.8198338604087452 0.5971095686717635 0.1412857707187054
557.1088543567668 -0.8085580984439741 0.6003573241911236 0.11958613785583964
557.1096880350866 -0.8040627247267881 0.609652616079989 0.1268507551701049
557.1262607358328 -0.7847978444646221 0.6166188029942273 0.1242241354426194
557.1447241159012 -0.7820911608571776 0.6173113415400792 0.11389764119802175
557.1559177093201 -0.7711697067115737 0.6390422725226065 0.12243891891108187
557.1603392133266 -0.7615824900260754 0.6386686001476017 0.16894808372295508
557.1529928291037 -0.7529844267024574 0.6406367843065773 0.17271587753124154
557.1545404627889 -0.7405097755330747 0.6367470767619227 0.14411242079875736
557.1574898436916 -0.7305110226838777 0.6268228026719658 0.11470918555099882
557.159191677136 -0.7398915260736814 0.5897044755881962 0.15389880076221266
557.1772377346688 -0.7365961826199179 0.5735678113117969 0.12609700558291292
557.0306165159728 -0.9432709456033556 0.5317112743099769 0.21096562148016332
557.0263030132004 -0.9506661269350462 0.5241994936179962 0.2139812849696279
557.0291743346397 -0.9592153357175679 0.4969137797623384 0.15140454293996716
557.0258271221958 -0.958705540117654 0.5104822801461136 0.16190488697153388
557.0390740083701 -0.9609638031325957 0.49244894511010334 0.16269631148217295
557.0442093133229 -0.9535777624458394 0.48316577548952416 0.14725312740768337
557.0579618067335 -0.946916095149825 0.48431852269804815 0.18836442397017616
557.0648237324418 -0.9264454969916478 0.48381393221174274 0.2294314352693008
557.0569996722957 -0.9184887656926557 0.4877217505786364 0.16589145579290815
557.0623187237368 -0.9056531854600719 0.48622312793721745 0.1823377109070484
557.0556501130243 -0.9005988847158924 0.4788038192298701 0.1704593229698521
557.0607346265349 -0.8877027052706437 0.4716397554678269 0.13155375422219562
557.0740017782953 -0.8757083895145701 0.4735843231244204 0.15066808501870388
557.0894424446852 -0.8723919626484017 0.4764530087723191 0.13183437093666206
557.0979792475671 -0.873736089402989 0.48516784008568187 0.10891404704848034
557.0986008207028 -0.8704022795706771 0.507498528004827 0.12458450489021525
557.0879980541529 -0.8502301744671017 0.5248010777996406 0.11016707232472471
557.0904321368346 -0.8382727947996651 0.5365441261790854 0.11115620160463374
557.0983777362537 -0.8285401424150891 0.5366546431923048 0.1200623608223368
557.1030013862382 -0.8212515068913736 0.5447901457843184 0.11556554924387526
557.1056857400426 -0.8174758177684432 0.5553783595546664 0.13073055988089696
557.121364838943 -0.814617362311601 0.5632141922987252 0.12111240229239839
557.1294152133875 -0.8191440060008797 0.5781174486536257 0.11341922938173665
557.1279916268779 -0.822366323847023 0.5945029416832165 0.12223273806412617
557.1192550344507 -0.8238932708248422 0.6038497806044891 0.1374930797927961
557.1147690871508 -0.8157399297850932 0.6128778823558763 0.12616861617713043
557.115382422593 -0.8071579938252336 0.6201860218241476 0.15603158731567227
557.11561087737 -0.7924557014097658 0.6216921769819069 0.13722045674328387
557.1276918413259 -0.7755998137884327 0.6225162503428812 0.1343565600758854
557.1421941743173 -0.7706483138057136 0.6192122209693173 0.1281005249344771
557.1539667686127 -0.7716388205983767 0.6215599977052293 0.11925491012734167
557.1612864765677 -0.7667469289850509 0.6288285773825699 0.12917404971039825
557.1670925964055 -0.7523179011108857 0.6331929621646378 0.13628388004653297
557.1667492528601 -0.7373543771737109 0.6313164623073206 0.13277752713524793
557.1658196496393 -0.7180340429737676 0.6110181435270509 0.12827080617694284
557.1583888253391 -0.7263159423270813 0.6161206785873717 0.13009626598826313
557.1601004711617 -0.717234141249404 0.5997198728913299 0.1306418455781355
557.1562092517293 -0.7263235057573368 0.6033216787278919 0.13860157752825153
557.158086782154 -0.720253870336139 0.5888395935786268 0.14545551663919232
557.1572140012556 -0.7347704639560168 0.5800196595830441 0.17342947666193848
557.1640794450641 -0.7391620160889542 0.5733475685310983 0.13277644812136158
557.0498722493568 -0.9445480983017788 0.5306023071619523 0.22384116006150256
557.0340571297314 -0.9422425278801485 0.519331832875545 0.1712471604986502
557.0289620501203 -0.9469381733237687 0.5089765216493423 0.17924997266352483
557.0281364901327 -0.9433122512934964 0.49830906710082923 0.1953597763689476
557.0301742081657 -0.9496699249048941 0.48743779118705727 0.14403269150374254
557.0379071052394 -0.9450368084380171 0.47795327123032993 0.14020184296822752
557.0513036637703 -0.9443806743242918 0.47186231931838357 0.16031230033510413
557.0663130791337 -0.9316035300525068 0.4743624188663185 0.21090608686860124
557.0679111389078 -0.9157289934266832 0.48440909399687393 0.17657018028469487
557.0737977042954 -0.9066289376055696 0.4813515545739551 0.14284237571738523
557.0658925021834 -0.8776970189753852 0.4810964293485653 0.12810642992037471
557.0763684856845 -0.8659150401766645 0.48160156599972165 0.1031915415310915
557.1043618832102 -0.8577472163534962 0.49860436251520096 0.1110410161678511
557.0922011183035 -0.8571154356695686 0.49006830550203145 0.11417618038277584
557.1078227614704 -0.858238343095406 0.5102516686341977 0.12475800904954998
557.1045724915393 -0.852819592951742 0.5346123886900945 0.11471227714264724
557.0974672685169 -0.8563015379526796 0.5252329293885979 0.13301576592620698
557.0974095827124 -0.8412426172181978 0.5491776015840942 0.10811736319304135
557.0957196194469 -0.8261385455857239 0.554313001569982 0.129255528828769
557.1055206088581 -0.8127467428810156 0.5647467859129892 0.1306446494144287
557.1176240448016 -0.808156593143813 0.5725497175237814 0.12227963025814914
557.126501503193 -0.8085695021692105 0.5809182625854538 0.12389220247288438
557.1311696618167 -0.8179830055959731 0.6059696561578128 0.127849898255729
557.1258548864292 -0.8155174697708144 0.616100337259973 0.11614660562124819
557.1209283053537 -0.7887135142848541 0.6306364849161527 0.13346777940071575
557.1337444657826 -0.7647027464760174 0.629665135761635 0.14401724747053282
557.1541306988987 -0.7588896246994933 0.6171587020614698 0.12214977913494622
557.165555327966 -0.7562722440747943 0.618235195985178 0.16074876835926324
557.1729962776387 -0.7471838268101295 0.6213288317362454 0.1251007614973048
557.1714793463335 -0.7314274412894046 0.6202195376452496 0.11654034567632428
557.1774388479214 -0.721870237873249 0.6116534234116199 0.13207422600860366
557.1706481545975 -0.7129205154512291 0.6016674067849307 0.15774020111449277
557.1634874760916 -0.7116770191319507 0.5863522937336058 0.1552499438111796
557.157923708424 -0.7240478268602691 0.5757249748849234 0.1668152087672218
557.052307658784 -0.9487177640314343 0.5199062769413698 0.1711969052057888
557.0458013804903 -0.941362889255823 0.5165064418870815 0.256690997416808
557.0425923218625 -0.9339295192103537 0.5060185634899604 0.20149168231986328
557.0332168688374 -0.9347285844862959 0.4951468477583952 0.18815913357406278
557.0410682847047 -0.9345542321495551 0.4699510258138621 0.1814349786241124
557.0586750127161 -0.9285886078034713 0.4635396130989388 0.24458708203762478
557.075119260764 -0.9157140882330438 0.4702321889201319 0.20468707552397422
557.0700237897427 -0.8864265352971579 0.48853138304798366 0.12272483869660503
557.0707947093823 -0.8721438704528301 0.49148901201971923 0.12237799816560066
557.0809402213248 -0.85465359093857 0.4928533911642584 0.106103395633978
557.0887258707841 -0.8491865241513292 0.5010492412800076 0.11485732261553828
557.1004242371919 -0.8467981957649631 0.5020779367619485 0.09909589298269643
557.1107215014418 -0.8460257739133928 0.5158194195237717 0.10698879381853288
557.1141805611861 -0.8488812711344229 0.5269884416325441 0.11634719938348138
557.1136597777104 -0.8441978864217422 0.5430130026178813 0.11173257149679522
557.1067395516374 -0.844640724387858 0.5549505859993786 0.11702948292638875
557.101743061191 -0.8162693114981757 0.5767413352636409 0.1109510384360556
557.0999911699714 -0.8224318555551826 0.566782948196141 0.1288982110903524
557.1157141164063 -0.8020695605576695 0.5860973540768311 0.1298351297795963
557.1280968559133 -0.8048272518098155 0.5923760652906339 0.11443989442054442
557.1369532838129 -0.8066612377928856 0.6066407636623834 0.12310824300673515
557.1397567495727 -0.804279260030817 0.6196395408387417 0.12179817291752841
557.1348325559065 -0.7928020582163682 0.6385424961152665 0.09396043681279381
557.1308182232535 -0.8001104299008887 0.6303528674659165 0.10965606934834876
557.1310839038681 -0.7735254594817421 0.6378672178834014 0.13835295548006019
557.1394862997037 -0.7539792168064251 0.6228302608560063 0.14463051516009434
557.1664756274661 -0.7504267047825597 0.6084400092852598 0.1802264298595503
557.1762378459791 -0.7375302434597868 0.6013867190861687 0.14204939466570676
557.1803719138566 -0.7279542524000963 0.5929743568131678 0.1491806094459838
557.1801300582003 -0.7135729656091316 0.5924141118863812 0.17068880880372578
557.1790430052927 -0.70670689222619 0.5759719810808978 0.17348999888873376
557.0481577872647 -0.9632465177763389 0.5268802143823236 0.25596293099369016
557.0442807368828 -0.9582577015226985 0.5377162448069087 0.26714654278490946
557.1617256004217 -0.7160168581051377 0.5696120019326154 0.15879118660802455
557.1740870466061 -0.7162832334694103 0.5685294105310481 0.15363169179040195
557.1803337580889 -0.7265144099162346 0.5693732333323459 0.13508084887018534
557.005125089395 -1.0095719162832981 0.5317151746951776 0.10113935352568318
557.0122992255782 -1.010632772788319 0.5519658888905034 0.15623582030740052
557.0068407311969 -1.0008555936913852 0.5380185272826592 0.15602491884889805
557.0025747814491 -1.00331775914371 0.5507904644282116 0.16410989297723275
557.0132927779385 -1.0156206416993443 0.5370716327589442 0.08613714085011326
556.997269883328 -1.0062634454633232 0.5420377753435655 0.10497700140938225
557.0144359963848 -1.0153505982001167 0.5214146732752658 0.04830243878285678
557.013934990056 -1.0118399230930553 0.5088920789017108 0.055515914435246554
556.9980434794207 -1.0058419570142685 0.523244471568757 0.05105353674101826
557.0012991487351 -1.001306093562855 0.5138817814160337 0.04961269714664971
557.002492520036 -1.009233771564419 0.5062753900777887 0.042982858392186046
556.9914364643379 -0.9270089031316662 0.5259617127424732 0.23823423782174424
556.9969547785263 -0.9325466161603772 0.5167689306481178 0.24778935529423562
557.0069688707891 -0.9204059066403675 0.5152680443346599 0.17553150603011414
557.0008106073167 -0.9179881882353003 0.5262861805125154 0.22021771528216677
557.0371894893715 -0.910402273521333 0.5226516912443414 0.10612512888243056
557.0320055227226 -0.9151120939822307 0.5082323726082941 0.19969617113140165
557.0288598747136 -0.9177270062752078 0.5217433917699985 0.16973985713792408
557.0242346403624 -0.9086214349172351 0.5149758558606621 0.1773768540648069
557.0223025001039 -0.9087288116025427 0.5252908699698848 0.1233698686350921
556.9788966305541 -0.9604560945459545 0.5105338791790338 0.035836700503339106
556.983730788808 -0.9511972819062483 0.5279160748828939 0.12123894707128308
556.9852585408078 -0.9600362648144775 0.5213896259101953 0.13935717217393132
556.9893122014913 -0.9483571315669418 0.5187563770674417 0.19094691083842064
556.9804473737383 -0.9455894516331741 0.510616151753033 0.11205199519552787
557.0765490799519 -0.9330611959449375 0.5209409323542421 0.11685471925079859
557.0798254706439 -0.9326424787581886 0.5096582968101439 0.16777955870044267
557.0724729828819 -0.9429284820153457 0.5161833393952837 0.19228319164795526
557.0859292363091 -0.9436388648500983 0.5107184779599974 0.13294878709965402
557.087152666051 -0.946168310755531 0.524478580827557 0.10125904908424534
556.9831172799996 -0.974336204097495 0.5228987324637395 0.06892253976234247
556.9919164466547 -0.9907770081697495 0.5144892662737093 0.03502682055615397
556.9878032691811 -0.9795866904226954 0.5085463132457635 0.03257150361439377
556.9937332528418 -0.9813207536627836 0.5203695098963879 0.1333998056658028
556.983410161493 -0.9866789042436234 0.5271308543348209 0.04938679421724114
557.0890295636235 -0.9644247905196441 0.5202245444740619 0.16157905363271285
557.0883239943597 -0.96662922616786 0.5094919219107393 0.17664478749743237
557.0791306745655 -0.9680074603669581 0.5144633872468036 0.19896887247775832
557.0784689193555 -0.9743886605507579 0.5230898964910993 0.19896834055023907
557.0871626078504 -0.9781465028383356 0.5106111566753526 0.2675241740927788
557.0617901132009 -1.008336467603375 0.5109300024705175 0.04495505699645821
557.0607913329943 -1.008446245073779 0.5211054293862538 0.054314805073570734
557.0619209133088 -0.9936666124885288 0.5175114802544623 0.20273533572083666
557.074802150718 -1.0005320511521265 0.5105635985719584 0.09915566427846796
557.0708952362625 -1.0041468462451577 0.5244507022700793 0.052723593355273594
557.0491406104422 -1.0135064902508866 0.5182056549620409 0.04542484515774344
557.0418490349055 -1.0067139440051762 0.5136441301480845 0.1986676406751765
557.0313437996 -1.0108743325554135 0.5141917410532615 0.056047839325414205
557.0386469426973 -1.0173861928382555 0.5098702295007809 0.036293643118804335
557.0430803616318 -1.0170770345377114 0.5256302294414098 0.050664760550779696
557.0322185370673 -1.0181166943452942 0.5225690605213368 0.057463549501612324
556.9909299117843 -0.9308616100259947 0.5377055674852478 0.1835902557212599
557.0041710850796 -0.9201285386840122 0.5509916879331641 0.226152414597633
556.9915802404801 -0.9309161415335531 0.5487900173895979 0.18288194570805258
557.0050399048616 -0.9328426473126964 0.5425412241713952 0.22649077527191067
556.9974761274176 -0.9210871056798048 0.53832811021386 0.2536270547968358
557.0327170259742 -0.9093736970657779 0.5519340126638533 0.18797963736941925
557.0216023180101 -0.9123775164357144 0.5504451468046521 0.20930298451204934
557.0247415714585 -0.9174965471137064 0.5361859025805897 0.23638376840908767
557.0345195662692 -0.9076242678111062 0.5388823696315548 0.14683611779499084
556.9774447418989 -0.9613958560550668 0.5473302580771917 0.13095642032500074
556.9813111606951 -0.9619640301956138 0.5366497181923456 0.11826770748431961
556.9815085116054 -0.9420248770799531 0.5458843549146675 0.07838005775669803
556.992869914257 -0.9549452894005916 0.5426659231970746 0.22168055324317099
556.979096782075 -0.9516200598282251 0.5387902020166081 0.10077033621824008
557.085958478691 -0.9505500929678735 0.5424074197264556 0.20362626459171784
557.0856424512937 -0.94353347106436 0.551926470266792 0.17975899886691515
557.0766204871261 -0.9350104900458376 0.5340856120165135 0.1927808067008975
557.0742068378886 -0.9403555238327994 0.5455203698793155 0.2285244153985031
557.0813379960807 -0.9329325736256854 0.5457729939520294 0.11746378497956135
556.9881763479208 -0.9936082387596223 0.5413647012947227 0.12358816565335776
556.9819793306684 -0.9749831696287511 0.5482243043289029 0.14370341037865098
556.9836895946374 -0.9870759556750538 0.552735293236994 0.08671178660462187
556.993284124182 -0.9808275650020442 0.5458033164410508 0.17702413291087837
557.088497511564 -0.9715309109889245 0.5321540266643419 0.23209068712816702
557.08525154904 -0.9838555764379299 0.5459592551717677 0.20178707137101343
557.0859681107867 -0.9657948414286261 0.5502699184241716 0.22311342699074477
557.0839085616658 -0.9645146124247431 0.5400537267971723 0.2915045437995451
557.0772491483624 -0.9742494540210632 0.5385017372824511 0.19679149486740993
557.0796214781831 -0.9754922761500698 0.5497767428090516 0.1817531042731731
557.0746123393865 -0.9942124687204497 0.5428832581665836 0.14989691570202285
557.0642073195112 -1.0097355126693945 0.549965608551217 0.12003170417189588
557.0739498428865 -1.0013832475575042 0.5530906961385237 0.09526602610484161
557.0624291258906 -0.9936846379254304 0.5425423385124811 0.20218144371863672
557.0619328748529 -1.0049169346440874 0.534233966936437 0.13351107952103733
557.0703136071105 -1.004568358745904 0.540684661857997 0.10327732776140575
557.0492803049149 -1.0148566030294437 0.5475822073451697 0.123673324878401
557.0491280687703 -1.0134181711473385 0.5368104079720806 0.11916138421419303
557.0404095265872 -1.016832501451789 0.5527375365956384 0.14697002116965846
557.031286654297 -1.011107394571169 0.537594096871969 0.15088497588656705
557.0376290521003 -1.0040288973834381 0.543358192179531 0.1796701107105315
557.0301901409542 -1.0183150137201533 0.5477219449067081 0.11082381310975836
557.0485307570644 -0.9724160792762213 0.5903387027679027 0.24860476570618348
557.0378472250412 -0.9448985541577339 0.5901084669790126 0.2311157941990715
557.0491943611476 -0.9618408779402836 0.6768670344710492 0.1569434285536924
557.0487946977958 -0.9576951358302541 0.6033889277271459 0.2017782322057718
557.0489279885642 -0.958473713494578 0.6365922523733554 0.2389290490020358
557.0484484596782 -0.9671286791013362 0.6595450629563897 0.18877009255971408
557.0474808428818 -0.9693327447898723 0.6130015809916365 0.2209388104082311
557.0479517090024 -0.9683815763211974 0.6232166288283351 0.22023613593869842
557.0472020930766 -0.969384597806132 0.6865492806728714 0.16780596898745637
557.0478926435944 -0.9679946497825275 0.7007460592343051 0.16233345147118824
557.0448845455229 -0.9726309803945877 0.6441335811788427 0.2424181725717185
557.0395274098614 -0.976030469945031 0.6659833539838499 0.178170045013944
557.0381401182773 -0.9763425939667436 0.701504526900427 0.1495877054635754
557.0358967388922 -0.9770632807294214 0.6162598841266062 0.22216321216242646
557.0357225559452 -0.97710580878601 0.6041787492423243 0.23292196020185557
557.034746685637 -0.9770606412155927 0.6304412385567513 0.23067941662464256
557.0358618692518 -0.9768600508731707 0.6840186995408035 0.16036067537236615
557.026230434858 -0.9747412648945312 0.6504511334958316 0.24990555106518675
557.0269492729124 -0.9749299869721723 0.7070945786790156 0.15941773694235012
557.0283110271164 -0.9757972751265448 0.6651695188369776 0.2005318296481801
557.0249626236381 -0.973936420267479 0.6357747650092197 0.2530384688463048
557.0248782383416 -0.9736632694628549 0.6829195076983695 0.15195791637347236
557.0210557000247 -0.9694626287406798 0.6109081559107645 0.23247169696624131
557.0221280620758 -0.970678166874025 0.6988285789211843 0.15287558631410125
557.0201647621785 -0.967129201691609 0.6705743021824021 0.16728673346824277
557.0191608753003 -0.9609790269288883 0.6475057275648183 0.2337701232087726
557.0193346958933 -0.9622200949972372 0.6907160592999364 0.16373402024226746
557.0193682330663 -0.9589815374546046 0.6043480222842594 0.24049227164751039
557.0193825978087 -0.9591244301579391 0.6196373379275731 0.24151020009743282
557.0194883046313 -0.9591901626530918 0.6586659759640308 0.20319810136660782
557.0219481782481 -0.9532085625827351 0.6684358836270765 0.17478636901299335
557.02252856894 -0.9524433341662972 0.6361530328947218 0.2513955800380453
557.0238048964977 -0.9513126749148013 0.6899583952844587 0.16290925072601417
557.0266270696525 -0.9491182149911191 0.6785160084552677 0.1597423737164925
557.0255388004014 -0.9497221965654171 0.6571428644240491 0.18385450506493
557.0314635391501 -0.9470484072397716 0.6291683651155208 0.22368265572697246
557.0297807646216 -0.947788887299319 0.7008009760197388 0.1796759931299902
557.0336836807132 -0.9469377710198807 0.6420476076200216 0.2764711581054379
557.0354480392778 -0.947018015781918 0.6890305241862855 0.16149942192901703
557.0387473099809 -0.9476143779353603 0.6558324509107367 0.23423751733276663
557.0389770083323 -0.9475435372302382 0.6158449541710175 0.22679576809474597
557.0359577737397 -0.9470286770245496 0.6746689412280449 0.17173253173598008
557.0428673880759 -0.9494679699539476 0.627384232394449 0.26210978571805277
557.0454014105151 -0.9519953122156392 0.6883338553886543 0.1375200450837118
557.045772830589 -0.9521811268399921 0.6494047694796724 0.23823048201416647
557.0472097692734 -0.9541797289881769 0.61618455118879 0.2132401218338033
557.0483908428787 -0.957334715336919 0.6964863332696656 0.15504372317457008
557.0485305013439 -0.9574615257051177 0.6645006711108086 0.19197055946874458
557.0472163061082 -0.9688828144464008 0.7129366861645878 0.15648683455328555
557.0205849294442 -0.9561875407992151 0.7101403780238835 0.14803863500380682
