x y z curv
0.6889816464246734 -1.3218838329062919 0.5312642405154775 0.15563358317131606
0.6875917110010608 -1.3247806753473366 0.5435778414833877 0.1583038389010347
0.6860801194814278 -1.3314741348504557 0.5559288543443005 0.2057005226588942
0.6888697577246858 -1.337172449077503 0.5690276950226064 0.23645919617466732
0.6967085564191938 -1.345712818756614 0.5649619310382814 0.198702064657819
0.7002259930942107 -1.3407460553731096 0.5743755297170652 0.22809911070262587
0.7081668339692544 -1.345418728563921 0.5455027221976966 0.1775675885146947
0.7069200611365017 -1.3398848227566373 0.5626062208477536 0.1970450712418146
0.7121251536681689 -1.3349500383522446 0.5426256043930671 0.16672213605579964
0.7133298040038616 -1.3395488418466437 0.5256892228583554 0.17352040954724407
0.7117614832832238 -1.3282229311273945 0.5303607891796579 0.14696872154212187
0.7124188793205452 -1.3329248461926302 0.5155447456206839 0.1631877771286646
0.7080958168343309 -1.3461199828597186 0.5122051661128852 0.15246802273577456
0.7072298665327696 -1.3491465006303252 0.5242997121258126 0.16179870796723939
0.6983456417108189 -1.3516596643966716 0.5388030353602468 0.13508077398777985
0.6886660276403508 -1.3501469233419359 0.5303981859986437 0.14614483066225234
0.6869327981867911 -1.3449799598773735 0.54931712513764 0.16615791895480828
0.6967652144973588 -1.348381123195293 0.5546392462468905 0.18499702803722884
0.6816408737323878 -1.3358094645044354 0.5391151204124554 0.15064712830275348
0.6813111645462402 -1.340760203896526 0.5284116066266324 0.16607977005278807
0.6820721620376776 -1.3385071806688171 0.5145015911341575 0.16615701413172687
0.6824093100991255 -1.3286641518242375 0.5275279417011605 0.16788964761008845
0.6855261376343386 -1.326623060099962 0.5132043553416945 0.15562433081968974
0.6946526510559248 -1.32459171709878 0.5070848038050826 0.14759052768740685
0.6885490879549426 -1.3491337497950229 0.516560190943703 0.14735047340713658
0.6981685506636227 -1.3505103980600888 0.5111777305911986 0.14053230132185435
0.6986832143134828 -1.321032021925169 0.5423926751430878 0.15036243429319557
0.6937462582676907 -1.3236345318328286 0.5521103054835897 0.16375268282456637
0.6952886048721962 -1.3268013068496098 0.5656736567619076 0.19891429229647611
0.7068776464240768 -1.3296052087862773 0.5576506996255912 0.17886127865037785
0.7161180685654016 -1.321225366782704 0.3215674018203797 0.2700158891041781
0.730386792350344 -1.3277574266183536 0.3245464926509275 0.2624262866773651
0.7276537215589562 -1.316581213337892 0.3256187580084835 0.2431576793876413
0.7188609117218717 -1.3091278777764073 0.3247151952919654 0.2454392694387056
0.7038332599940463 -1.3120564598562838 0.3217558097254057 0.24398765282808405
0.7019787536739037 -1.2919563698999412 0.33157000001179465 0.15063161588725216
0.6715728390790978 -1.2984132209285835 0.3336905199275614 0.19144885846614337
0.6595570976385391 -1.3085756607693535 0.33585206315229427 0.14184856475473814
0.6673949803064542 -1.309314297932469 0.3277475728146089 0.22538468969518
0.6549309617813529 -1.3187940092037018 0.3335095308143317 0.16993113100277868
0.6549425319074145 -1.329491473409936 0.32997890680232356 0.1739362198810157
0.6632602222210079 -1.3367139705441793 0.32446453376395823 0.24887520221405368
0.6553004725056195 -1.3468947651835825 0.3306703386142252 0.14955461742943105
0.6585919077676896 -1.3604228544923134 0.3341474601417583 0.15269926022981553
0.6693236142692301 -1.3728827836658952 0.3349430621839571 0.14950046227068386
0.6802519493601442 -1.3785479698108032 0.33361295132533914 0.1332300455295936
0.6919600891111807 -1.3645822935970258 0.3225353173181906 0.2235096041726663
0.6803481751089623 -1.362029102002809 0.32289114403322133 0.22508040235346063
0.6991418968839672 -1.354333716227073 0.3205187584877646 0.25663094176173373
0.6993938783284543 -1.3732425397515098 0.32622585085130557 0.19754718128708085
0.7068323001909167 -1.3645251138106143 0.32273407834831047 0.2516033600033206
0.7086161879260149 -1.3771557762372875 0.32991772843615574 0.17853699030865813
0.71677971761667 -1.3796577745699796 0.33896134659554333 0.10705387898438005
0.7312524601089418 -1.3676878819987066 0.3362881575780216 0.12077464318856986
0.7419404573884887 -1.3444689532515117 0.3335015820522659 0.1516876841083702
0.7258568257126317 -1.3404369094657294 0.3225146963300128 0.2795211941356139
0.7230092199865892 -1.360544764727463 0.3253147435112807 0.20171543120751392
0.7418830542224102 -1.327766894232265 0.3328489628064246 0.16396834644765923
0.7133332991074955 -1.2907711608046226 0.341262425715231 0.14725243869581045
0.6526950463360104 -1.3535015939377912 0.3413707711431929 0.1287519989951902
0.6991351599684003 -1.3839550594158976 0.34409773079466993 0.1330363487165812
0.6841005373435224 -1.3499860872165317 0.32067251538007985 0.24646728536969387
0.6687672921567634 -1.3488676941145124 0.3229116096332248 0.23477411301831475
0.6814261577014457 -1.3173160779918416 0.3216561606945284 0.26270674845303615
0.6903652818283755 -1.3066301511853047 0.3227557058019818 0.2458524779643276
0.7262700619134693 -1.3020030143335681 0.34507221250476144 0.13353499377097636
0.6848765075208084 -1.2922001838248087 0.3454464720996265 0.15907747092132288
0.6676662333069641 -1.302431998511158 0.3435116816246371 0.17749937094519416
0.6549523519129864 -1.3153473830173885 0.3451311129596245 0.1150428089941715
0.6516917904536563 -1.3345940570850212 0.3450012520407095 0.11088460187150581
0.6590998214551698 -1.3612248459255496 0.3454114160761382 0.12721321902474034
0.672080421284615 -1.376639092442698 0.3444189905675701 0.10562332519107577
0.7369331644670709 -1.3569506172588328 0.3455422528682902 0.11896150326102636
0.7411517621932843 -1.3400540075005123 0.34259120498251494 0.1597360221214139
0.7421177601875739 -1.3222295389759544 0.345477811939634 0.1329489804962361
0.7341577260171205 -1.3113887684501195 0.34497815371178564 0.1492524626934564
0.6862524835429809 -1.3775631833783268 0.34275490047044466 0.1554765960086115
0.7338811400709482 -1.3211254671874693 0.33591615520954554 0.17477030550145392
0.7337904683090835 -1.3350442960241726 0.33302446880041514 0.20950162668961364
0.7175280645975471 -1.3504494349580645 0.32722344983864415 0.22986586091931155
0.693293490160855 -1.2988630842721114 0.3336289789197092 0.18039693950131955
0.6828562798094147 -1.2987977108099473 0.33651595162284853 0.1998041448102825
0.6744113251243464 -1.3337806964073509 0.3266754740141691 0.207102017135189
0.6697732546072143 -1.3616767290627225 0.333761346019239 0.1583071806062404
0.6900972349926808 -1.3729696701951142 0.33384893732551846 0.15857562729982866
0.7326450591098773 -1.351764371382157 0.3348255706458994 0.16956919051040245
0.666243100501464 -1.3239279049269133 0.3306223115390047 0.1929028999551101
0.7136113605522572 -1.3025252617514937 0.33361805668471023 0.20154206670440364
0.6739060884402652 -1.3707208665133888 0.16470607996839073 0.05985383408916189
0.6735992732631342 -1.3810971348102723 0.160907735443887 0.058437848780099805
0.6650570725075857 -1.374735364842897 0.14690249557346968 0.07921203986152182
0.6709412854838275 -1.3808137803380067 0.1758916526328494 0.05463168467398222
0.6625229038651131 -1.3826115074149656 0.1671878136319351 0.04890071566904364
0.6583989431635168 -1.3744607132244941 0.17966997468358673 0.0571184499134837
0.6628110438801724 -1.3689284407951514 0.16734449267987336 0.0842775826775592
0.6576234230661487 -1.375172532176117 0.2264449555528457 0.02732273347696308
0.6665131054097859 -1.3816991965959207 0.1953004517565273 0.060490957329361966
0.6686205197393624 -1.3832465308992987 0.22309607529342249 0.05693181909624499
0.6720941821151373 -1.3850331040072006 0.20393640625857837 0.0398118964084807
0.6720586279710112 -1.3853018088089903 0.18613933527483165 0.05016870454382209
0.672194637691665 -1.371392801416609 0.18025021855847448 0.061597869371987087
0.6573599282116489 -1.3746482993338454 0.1977415077324601 0.046903890674046045
0.6680391248972121 -1.371201229185514 0.2159425595025626 0.05311104262811458
0.6683788188084048 -1.3710912293171025 0.20034513337525517 0.06632037567505897
0.7170921789489433 -1.3758968900372106 0.16596610659907005 0.057368544249360665
0.7247803477291441 -1.3743468696908954 0.14601471170102973 0.062379429782433236
0.7275672296803795 -1.3683309612940637 0.16608925812982706 0.07267874309961345
0.7301704323391046 -1.3730603777556714 0.1556882877318393 0.07413821341554748
0.7217820970396032 -1.3833171013416479 0.1598042630248145 0.04316945938630539
0.731123556545923 -1.3745914832532575 0.22411940221362836 0.05130442538411735
0.7350589447287775 -1.3757738966297879 0.17957139640211384 0.0533241160403238
0.7351234322992563 -1.3775104932476727 0.1670006763913704 0.05919846300731518
0.7224870901280844 -1.3854899268713359 0.20247289274827274 0.045532389131928384
0.7213143020378437 -1.3863331163036805 0.18117063507082024 0.044553476055210976
0.7253158701358816 -1.383456209102599 0.2223460199420223 0.04929347645067909
0.7340517626523619 -1.3748747690348049 0.19177533139161718 0.04763503391987339
0.731723813216284 -1.3740689106593882 0.21076989704561697 0.04713341227367426
0.7211272876007329 -1.3749039093205337 0.1813165938383516 0.05520415917514343
0.7211103941911582 -1.3834023895035235 0.1925524729701973 0.05086408325724966
0.7211330001807612 -1.3721069120332334 0.2165011963487348 0.05109902654302847
0.7211312510436708 -1.3726752240319062 0.20153686847168434 0.05108655228645616
0.7353861505580863 -1.3549547978498009 0.1905290736869183 0.05105917566189423
0.7447183245917033 -1.3503578009444632 0.1690136473386568 0.05452170300184318
0.7475287261920482 -1.3457717043957773 0.1847265454415025 0.052115560315436474
0.7411108745367709 -1.350161910702329 0.24468953858733772 0.08887687474205706
0.7505203065540097 -1.3467892036023144 0.25132653890147816 0.04400099007049599
0.7456158822877142 -1.34872004324306 0.1974785093100136 0.06096738063863439
0.7477334676343697 -1.3583323627670865 0.19235096980169022 0.04409578909924598
0.7461944872279724 -1.361944244020469 0.2154727413853195 0.04597520149207744
0.7459898310113802 -1.3625637329877451 0.24054999364569626 0.04970518075380242
0.7506148072393937 -1.3485672478681492 0.22915670070719976 0.05376808413476748
0.7506394202931205 -1.3455258049863652 0.21290746486942216 0.051765344288592904
0.7370924149138307 -1.3497851613579428 0.22709457716192374 0.05364809591204349
0.7441638503870777 -1.3604812071160926 0.22606806074502075 0.053499959573664664
0.7368861008103835 -1.3504211192687257 0.20530560854271576 0.0503103239011544
0.6952110553447145 -1.384772805504088 0.11763327456444497 0.17770990495580272
0.7019189915992554 -1.3845929726164334 0.12912706264216026 0.08866318253638722
0.7053510924354508 -1.3908855140813494 0.14059603354357925 0.05926826445338088
0.6943944959943436 -1.3943002245925806 0.1410190713998692 0.07438171428929025
0.6960932815468976 -1.3803923126592268 0.19274012409156624 0.059657956964886544
0.6899895232522976 -1.3899937144607843 0.15335564440128105 0.06159346856055997
0.6933113644526421 -1.3793288044878191 0.1421390341756274 0.07283106929105942
0.6933954736097008 -1.3910544846806705 0.20025525793034424 0.05309707278265915
0.6884190210713457 -1.3910297379229224 0.18893481248295294 0.049993167667255416
0.7051975747237468 -1.3911133363546715 0.171641829891539 0.057320155611481204
0.7045637941188484 -1.3894099997983578 0.15575109265431947 0.06279785604740022
0.7037291815164094 -1.3881609943065454 0.18341352543772124 0.04957112630635233
0.703403007571797 -1.387677025380283 0.19652814521382125 0.055528459710662434
0.6991723206350857 -1.3818102422755445 0.1655919380260467 0.06283621350406862
0.6965746443908075 -1.3781712134667283 0.15437733656950806 0.06951928498472576
0.6968517244809538 -1.3785597449237135 0.17843841010168326 0.052635074994548774
0.6881414167286163 -1.389690130362909 0.17243869144985555 0.05150928301640119
0.7360783200773003 -1.3248944060113002 0.21540233844962497 0.14384961598214377
0.74489389927051 -1.3197987626790844 0.194748769016549 0.06013366750464968
0.750171755769902 -1.3147668436774524 0.21637499831983564 0.06623195846244004
0.747606041470635 -1.3259278820523468 0.2033993093118919 0.06681043998212188
0.7483537177778298 -1.3263777497976086 0.21887532958016834 0.05581664992127171
0.7470967518588019 -1.3136511863676257 0.26212651123740305 0.11459288344025555
0.7485523791680858 -1.3182084526276736 0.27158805524140234 0.08003693501574932
0.7451221134828522 -1.3131729991739358 0.23396011747726872 0.10635594778484925
0.7460077378064918 -1.3119397474487773 0.2477577277672456 0.11227661591800772
0.7510902532268164 -1.3288749351728126 0.27179538840453693 0.07419913994277842
0.7519514167003102 -1.3291515636570932 0.23735760768098452 0.048980485842135754
0.7427614850506434 -1.3261484470888187 0.2547613926411411 0.15843712622388023
0.7382837414142139 -1.3246825205034023 0.2415401616770299 0.17233629101000006
0.7373640431863411 -1.3243805699734297 0.26555605642434343 0.21410027854808814
0.7401938591747448 -1.319820750667743 0.22452450782368474 0.10604513802501134
0.6545827693232618 -1.3285504439122888 0.21663868897700447 0.10047505148576806
0.6501693969539506 -1.3148467886509354 0.20519110533723806 0.05953789841622061
0.6512893459563719 -1.3190782786011586 0.19374972173229515 0.05009321849829787
0.6432841568276831 -1.32729399221955 0.21724695778143852 0.0548347858517716
0.6485073102122957 -1.3137289508590382 0.21809111890751318 0.0710800665258623
0.6483675366911155 -1.310337669205795 0.2327876564473839 0.10395375062883581
0.6427130401592873 -1.327449633626999 0.2424636619801331 0.0538258203034352
0.6434473823461722 -1.3275917955551957 0.229964615248459 0.053895534340849746
0.6456856977683059 -1.3269415117552033 0.25964464981803065 0.09101470700673665
0.6567721398435948 -1.3234235892272386 0.2648121338639737 0.16900545933065006
0.6548654315543103 -1.3191203245819982 0.2291119195332576 0.11588368597238598
0.6547745708279797 -1.3189916813496616 0.24281537629775354 0.16616361290423098
0.6488040981798167 -1.3107366591089182 0.26978381063833917 0.1097511711420493
0.6496837448791659 -1.3119567686503069 0.2488817377878663 0.13448356888423152
0.6562462824979288 -1.3448160963404174 0.19130796332854547 0.06097492378448959
0.6517248544614009 -1.3458181893222232 0.18060821525736184 0.07257614244897152
0.6494154671487826 -1.3524129842031591 0.16711268275757762 0.058921639744588805
0.645898400215232 -1.355075693413681 0.1808408541733793 0.054773037221216056
0.6502364203511438 -1.354082411351766 0.24807278682373798 0.04730460478675973
0.6535350389408379 -1.3594573332758653 0.19171342469923022 0.05157989214744627
0.6438635405590974 -1.3530477063228297 0.1926443886431015 0.05685385725357252
0.6423971944680598 -1.34435968352371 0.21785793591240213 0.0380777703694726
0.6478826528418441 -1.361532860268684 0.21536120381018117 0.031581316432463605
0.6504203663284359 -1.3582928437381876 0.23723938767592898 0.03774087099391261
0.6513754070269407 -1.3569281230589652 0.2052039823722686 0.041427091133229316
0.6569096506231178 -1.3494846152211917 0.2411604230433875 0.11775620024471901
0.6570057938941203 -1.3493472465005136 0.22427776651116452 0.046379696588764
0.6452983483331605 -1.3448752685826055 0.23221596457206206 0.04623266783664761
0.6437553351103821 -1.3443743142208568 0.20772739039982935 0.048909799076901614
0.6558172606518984 -1.3483176980981952 0.21328431170821474 0.0462172271416772
0.6441586596687934 -1.3445007693362638 0.2463650242381856 0.03544971931006966
0.6682706131966052 -1.3026059454089993 0.23407704895627512 0.18326234323759588
0.6655291231454742 -1.297041271435465 0.22338389567997247 0.1328080159469141
0.659800192109143 -1.2952140078250984 0.24065556412456007 0.11788318975561755
0.6722347243226825 -1.292171638226972 0.230218767948874 0.18821795112384543
0.6771122893956821 -1.2926973543127722 0.24202502669152837 0.21015992205989123
0.6731488949514859 -1.289497074627845 0.3013794130590602 0.1545394725135878
0.6707383848653616 -1.3021675834356468 0.24437814207967948 0.19731205357178166
0.6682748986774814 -1.2928261010773827 0.25044671875591085 0.1733667899158359
0.6715875943876044 -1.2877402818802381 0.2673951796006433 0.1308080623303238
0.6619375203165728 -1.2946783281382916 0.2857684024564982 0.1165792142367125
0.6587211750062342 -1.2969906663696356 0.2981499830198232 0.09021069098392775
0.659338996388424 -1.2965464537376552 0.2598081597251176 0.10453177840391377
0.6591131715831481 -1.2978181774154827 0.27317569286034116 0.17034417987680098
0.6716270919666281 -1.3020069742527032 0.2909859770814203 0.17630981986509175
0.6718973945874815 -1.3020886801248106 0.25610710802010145 0.20150213073333653
0.67319595843753 -1.2892178042543934 0.28922283543294935 0.12962118597736003
0.6731801524928386 -1.2966202827652855 0.2798936586076722 0.15061293899620065
0.6731697158169374 -1.3013169254413584 0.26632097072963945 0.18978042307339132
0.724073690402065 -1.3017150542299787 0.23105619054853782 0.1925701333842975
0.7250511322998574 -1.2978555878135039 0.21935116075783223 0.14449255792225485
0.7243232464805225 -1.2907365858717907 0.23324549489848118 0.19188863460229233
0.7333848082608633 -1.2990889754808066 0.2347092436718524 0.1301969933834273
0.7235865814849582 -1.3008649308997304 0.29479911424501815 0.20130376476261755
0.7207883039755644 -1.2891655623244143 0.2429698969260886 0.20969699945354053
0.725901066095851 -1.305396367396714 0.2432141881467567 0.2028579620225042
0.7363388651294365 -1.2976436427936329 0.2704959755800265 0.15706551945805827
0.7223943681758922 -1.2874057151985303 0.2774577040804431 0.14690320854655822
0.7223388413504634 -1.2873649391970003 0.2576516027678537 0.16802421042309387
0.7221699621319615 -1.288961220224942 0.29895017275694746 0.1355907987815811
0.7221910958331229 -1.2920840401069131 0.2678087993063574 0.16042979851205158
0.7221200107774722 -1.3005672309044145 0.2544760937936711 0.21948384529662723
0.735106768568018 -1.299008774752784 0.2572899714297574 0.11312124297997661
0.7223730272558314 -1.3031197547532274 0.28003924124589513 0.23881852798851905
0.734627776832899 -1.29916873368431 0.2959485091615218 0.09296428127423971
0.7312138625313472 -1.3002695881455 0.28577733569018193 0.17568739993901966
0.9452837899964678 -1.2966422035571914 0.31320424784085005 0.26584972028218945
0.9244837598026535 -1.290417431565472 0.3134351214251101 0.2507950384059992
0.9407624085365761 -1.286394413096436 0.31294865335131894 0.24685151110345954
0.9365513826130047 -1.2703628268132343 0.3134454952317603 0.2663182515533762
0.9520877092217854 -1.2742161406002608 0.3290369243646419 0.24807638465396098
0.9582474242666513 -1.2848070985209348 0.3296651606675077 0.24532458088600786
0.9556465074407561 -1.2966671695812253 0.33065819912743977 0.26070825180959506
0.9455878898867971 -1.3034454054265003 0.33400581409051533 0.2935859964007102
0.9251476814588899 -1.2874745030412753 0.33346505178401603 0.23806470146653805
0.9316100661633451 -1.2741008544517511 0.33054056062618875 0.20953263304146919
0.9548673664590028 -1.278260531172936 0.33938038384148195 0.28596439291511266
0.9541346523191203 -1.2981683766793044 0.34119725471138573 0.26853920681185545
0.9275876915979215 -1.279415474440608 0.3397776536399789 0.3014406622053683
0.9398110904525698 -1.271230331599265 0.3411967793364573 0.30645919325617604
0.9552945377178058 -1.2779423631684605 0.3506180007628017 0.24218562618830652
0.9582746539539919 -1.2881746424480898 0.34350857949074304 0.2866634909190789
0.9526085693567224 -1.300006029527849 0.3526584273982062 0.22817559202978857
0.9439568983976605 -1.3039696442056279 0.35833953883191344 0.20321267474677085
0.9370886118586954 -1.3035445256979914 0.3460038472971858 0.23384759028056676
0.9328119265600583 -1.3016185141146834 0.3612010702533928 0.22493678467091716
0.928415559686938 -1.29758250854838 0.34795562419779513 0.267643944845568
0.9251225079295824 -1.2857386115543312 0.3515811068236666 0.22875767784123704
0.9342972007386766 -1.2725964460458727 0.35330874331440876 0.2174581152376133
0.959678548039806 -1.2599697664748137 0.4150768832092355 0.11843282919674031
0.9500557633555513 -1.2568276348141132 0.41366114337557164 0.13696953251292832
0.9533097253667957 -1.261415045653336 0.3972800774021396 0.1292672868883343
0.9403863119804484 -1.258443048671959 0.4021579215478965 0.15793844958752715
0.9382800158325151 -1.2596502934361768 0.39070231817325096 0.12434930798405824
0.9277901955811009 -1.2647543485682147 0.37645388482633874 0.16843963467619413
0.9226602620830585 -1.267218992976509 0.3871093065715106 0.12947939743359382
0.922613114029026 -1.2660658928180608 0.3990416813623121 0.15830009001526513
0.9159179225031338 -1.2776927272322096 0.3847581564221946 0.13256923555442282
0.9149649778743842 -1.2871465117680678 0.377386519738968 0.18895190074849766
0.9225208965471394 -1.2858511357507632 0.3662127461654821 0.2303664151101247
0.9280183560232613 -1.3108766613487632 0.3796631429996178 0.15458013556053823
0.9289902631005093 -1.3127989521673673 0.39177286989209187 0.12121869577386757
0.9357322538965911 -1.3101699489396985 0.36974626932022836 0.24317717952299495
0.9366888757760667 -1.3159579445049263 0.40102527111595043 0.1559500884768431
0.9476890038863954 -1.3152310794933895 0.3946794835868775 0.11724723516406042
0.9438515778350502 -1.3144932073522249 0.37993242201691435 0.16218329609387466
0.9449978792639802 -1.3183194542345662 0.41244237773340936 0.15208639472192906
0.9624915313107063 -1.3069842663712157 0.39394961232468156 0.130995101580181
0.957362615159663 -1.313324493093895 0.4089311292771642 0.1553434316076083
0.965515692148476 -1.304308132884205 0.4058400058605411 0.16948376569267443
0.9588382754023358 -1.3196311025974647 0.4194665142377828 0.11709992906145174
0.9721149868523289 -1.2987305333155883 0.4145829706427894 0.13465037906928978
0.9711726185284495 -1.3086910489925816 0.41943894782218294 0.1264281710381797
0.9695305445100066 -1.293109306345482 0.3940294811541041 0.1498540359704634
0.9699205645578811 -1.2808969834729824 0.40360926208697057 0.16657669789680113
0.9693883482607359 -1.2832627242828192 0.3910778554576565 0.13571345297775184
0.9631346096329978 -1.2672433728315353 0.40690564979366994 0.1343143439785085
0.9618554531543603 -1.268945263210811 0.38315210850106923 0.14412148852422027
0.9481148867199104 -1.2604013033035593 0.3861984055951042 0.11350211188342735
0.9477389188575448 -1.2679358645897878 0.3672073045226728 0.2354071322079011
0.9245844355140741 -1.2724341593165869 0.3689574281101927 0.19429953902488725
0.9659047613650994 -1.2800702942833517 0.3732903310768619 0.21290794652714995
0.9673908031903717 -1.2942721816257265 0.37666785022553084 0.18424350164270503
0.9656705548406276 -1.3012840735105156 0.38503024342676884 0.14396712785126056
0.9604841747495886 -1.3062362570638737 0.37633924867953034 0.1420071776748411
0.9463022491637294 -1.309388185491114 0.3687194588794631 0.22948413941382198
0.9535725905252592 -1.3012732384558259 0.36544009799200655 0.22132780080768313
0.9599109167431255 -1.2867025790312119 0.3653932065854249 0.19645525470516667
0.9788609327436586 -1.2928607040033597 0.4224794748604097 0.10760665846101976
0.9500528958136751 -1.3242077186993824 0.42296773901023743 0.13185123310934893
0.9322397391604944 -1.3180332510646664 0.4138984962920374 0.13994085700086298
0.9180763618606302 -1.3067001589186145 0.41037993781710985 0.14810593289367324
0.9205755447437058 -1.306112738191781 0.3914269671466213 0.15504390509280702
0.912826575820915 -1.2925520789427303 0.40609493160071397 0.16251494872028743
0.9143801796520653 -1.2952731073672292 0.39239880338451333 0.11990063928581259
0.9143727614939519 -1.2790311830671834 0.39712252163036865 0.14811729509052118
0.9102249576849363 -1.279699283867349 0.41422655306427536 0.1428702977673869
0.9171383548351533 -1.316122449679721 0.4220065843285751 0.13309851036316406
0.9329085795499691 -1.256922017544854 0.4135742688823088 0.16314184669688248
0.9235602998592642 -1.2623304383483753 0.412404470625477 0.13704988912214558
0.9446864804752283 -1.2514486049327234 0.4241737255958622 0.12439778656239421
0.9336259292761889 -1.2513286512812762 0.4236330140410681 0.12393067632729618
0.9235485625366351 -1.2550646154040006 0.42292244628710285 0.13377126319148874
0.9133464913940125 -1.2641377903433213 0.42359405253673615 0.14700535167196035
0.9068139262290762 -1.2736995177789006 0.42346331378313273 0.1022743995318196
0.9051187661992057 -1.2854432922402979 0.42397744939360393 0.14705705394052213
0.9066694233752847 -1.2967066815420165 0.42278704485270835 0.15935663140253234
0.9107861991902797 -1.3071269171042048 0.4222113481377842 0.12116335071788566
0.9268460389386965 -1.320421315599845 0.42379515197899476 0.13433161445207917
0.9388678381916866 -1.3243351546724267 0.42393474697287503 0.14223879228723346
0.975431012922793 -1.2791211834646457 0.4224421060831003 0.12317289851169878
0.9705542656923632 -1.26789032176698 0.42167247868893803 0.13054154845122515
0.9582640525706505 -1.2741056318578412 0.39529204881275815 0.2096904516251797
0.9624454680006843 -1.286352451807432 0.3820527946852479 0.18899508574870338
0.9468402073048892 -1.3087186384825076 0.40410932796780985 0.22898270172742768
0.9236803512833723 -1.2979493042727417 0.3814804805857385 0.1325410004191766
0.9200303400633583 -1.283911073661502 0.40583790580486145 0.2083399347413235
0.9337795261208159 -1.2669560126912247 0.4079643327570752 0.25478470891837157
0.92103048835322 -1.2741295964826371 0.4145635751118121 0.21969322840925276
0.9150837864761469 -1.2954992692683711 0.4160051366048054 0.16961205509957034
0.964884200774686 -1.289144551040142 0.413949075191644 0.19483297406959224
0.9274121466285283 -1.2764900215409218 0.31626431612777717 0.22709315582902273
0.9573808173476891 -1.2964216516028504 0.3136006656929472 0.26696606741657153
0.8884061404895043 -1.2964000064758538 0.3060098634787465 0.08699203718171665
0.8906250657160162 -1.2846359254583164 0.32486673707020614 0.16095678122268703
0.8958147970452337 -1.287790372365142 0.3122414880370319 0.1475735225432579
0.8954562137445337 -1.2970064401299588 0.3204131766601244 0.1867883383613955
0.8866299219935244 -1.2964426129904598 0.3260598298874607 0.08679057364701744
0.8896043701910984 -1.266897709125193 0.31040477303077857 0.12237021493928271
0.8928081542494585 -1.2692010590891283 0.3222851527754675 0.19684086828651653
0.9027842158292715 -1.2564037886457833 0.30839604777746554 0.17932898179245688
0.9023002849239171 -1.26605672108869 0.3209458855513017 0.21904783066296427
0.8964109385195107 -1.2556906032986985 0.3233459099790209 0.15905563231494768
0.8985313256890197 -1.3188210074914029 0.326940451119546 0.09930274612374249
0.9097522567719478 -1.3179601184763574 0.31420659282562163 0.17975753699998334
0.8991364877254099 -1.3150739250543746 0.3084472595657793 0.11885314811109006
0.8997912867094336 -1.3243024811111184 0.31357593342845136 0.09020412926350041
0.9039716948897332 -1.3294024225692826 0.32454937450696286 0.1100495037972821
0.9442516720214279 -1.236214901592827 0.3220850485088561 0.14714733172296537
0.9501480274114488 -1.2340067017699619 0.306004105326781 0.11790445869382138
0.9632012313302035 -1.2410162682395351 0.31051505134125473 0.165550372802408
0.9547841993407952 -1.2462450494673183 0.3164911282179305 0.23467811121900384
0.9637206421738119 -1.23621985089276 0.32031350753091503 0.09983255015532368
0.9538560899778322 -1.233731563298136 0.3259685938452624 0.12479558064998308
0.938480664381131 -1.3428261471600043 0.3125858021081191 0.15252058813374253
0.9233667335700209 -1.3363984559650972 0.3256205814295172 0.14977170846102064
0.935889633660047 -1.3421643187926489 0.32475113502025443 0.12007260996843457
0.9307598470090931 -1.3361986718989636 0.3071344410444015 0.16610655197074117
0.920890264279148 -1.334257524286435 0.3109744444939287 0.16137112095013323
0.9314783927281479 -1.3289319848427725 0.3178278673873617 0.21387777652184814
0.9887942223234001 -1.260203286197648 0.3228865257512515 0.12144718156447552
0.9798108388755297 -1.247750476285801 0.3257662634098199 0.11099978593686599
0.9849091671102546 -1.2611610416169943 0.3085543011278598 0.14640918823054755
0.9754436004671012 -1.2617301674059873 0.31637242624365397 0.2199022013683603
0.9779073855148236 -1.244799855064284 0.31321769164601193 0.07881898290824449
0.9524846097469577 -1.3404482010041956 0.3218169896661452 0.11486951749179403
0.9677219991214279 -1.3345215479215233 0.3254936800121356 0.11264114143458112
0.9597873475500065 -1.3269679735661621 0.3174720608438617 0.1765099622368362
0.9639286443619832 -1.3317639984228857 0.30773355029237115 0.12789098195137266
0.95662794549112 -1.3417792773033543 0.3075813002801225 0.07211581650208183
0.99713967860498 -1.290682351731715 0.3077330725131303 0.08114295722694183
0.9978229526972383 -1.2937838490338638 0.31928757075918285 0.09149788670283197
0.9851135866331244 -1.284741006228332 0.31922301190740626 0.17134632784704912
0.9965213122441717 -1.2764238139176864 0.31075630407897026 0.08871003776643546
0.9971450101895422 -1.2833627726407555 0.3267845745893155 0.11863743721946012
0.9923344824392581 -1.3077019376848722 0.31259101701113656 0.09096319579551665
0.9818758392554978 -1.3235711426292736 0.3229366414638022 0.13528080350638905
0.9926360179668919 -1.3101911864270281 0.32405664024147735 0.1318024934830887
0.9780284643594513 -1.3094492708680263 0.3155697097920275 0.21710847156608276
0.9815990983132139 -1.3185800535750885 0.3067446024998676 0.12626627624322823
0.9883320852816717 -1.318187324588564 0.31652942491731784 0.10426318131148436
0.8870691002618653 -1.2987031849116217 0.2817586717539088 0.038944448450663846
0.8897574107003857 -1.281909723590861 0.29218165133768564 0.13009028404445094
0.8961682420786882 -1.2963414440304621 0.2872550289618291 0.17401923472339043
0.8942251004292188 -1.2891716450096171 0.2976971026047228 0.14623335030380766
0.8870077072366382 -1.3008986547562928 0.29274389320178196 0.028142782794077156
0.9751351373067382 -1.2468655047310286 0.28481044260041305 0.13287001368822107
0.9819265797971592 -1.2624247148815946 0.2926824966056277 0.16567097725466204
0.9764230549317746 -1.253093087734547 0.2992379226163789 0.1446126098984413
0.990187122931931 -1.2594031849453953 0.28589279998741196 0.03424536469111559
0.8970798298891729 -1.316607975925411 0.282167482103716 0.08408921947933191
0.9101179163730768 -1.3194333201338098 0.29039310807471774 0.20580560693228583
0.9010432991519179 -1.313896005307252 0.295311677965064 0.18611365397477178
0.9047686076688963 -1.330263856725387 0.29180687906695046 0.032418657977162195
0.9955668115388513 -1.2741046876202207 0.2895615921467941 0.025822541670230306
0.9967621189753478 -1.2934390583506592 0.2967822342194863 0.06240360933003093
0.9883807628667476 -1.2828830396120254 0.28420729818231577 0.206164398440918
0.9915040665594615 -1.2793527354933851 0.3006358676170088 0.12466324859798464
0.9975688475367885 -1.291263315080486 0.2831076710226683 0.04433184531722717
0.897118657496758 -1.3193344640161155 0.2548872898780602 0.04907673237581902
0.9095502827597799 -1.3212122979837067 0.26169317116530144 0.120469901757049
0.8972440473691203 -1.3131009944609477 0.2701718932986041 0.13061380955634083
0.9052287621760284 -1.319994709932324 0.27362616272338197 0.13055693888373804
0.9055857281215498 -1.3312763102414087 0.26990180692837346 0.03094248367779368
0.9972410130736222 -1.2938256737006515 0.2612137608333559 0.046419124896955356
0.9839993666605276 -1.2833423009217226 0.26490741684168156 0.210582423576011
0.9915563134211313 -1.2917477016025602 0.2716507338922923 0.11681301865966051
0.9968522594866953 -1.2803615583325396 0.2658331369485005 0.03879876682137232
0.9526033011676829 -1.3380629885566704 0.2843378662756279 0.13910626360774866
0.953253060167365 -1.3423391311572672 0.2959239706928616 0.06963929459417191
0.9672908632607132 -1.3299511954682193 0.2941587682555504 0.14039369610893196
0.9629621504525956 -1.3323131748561712 0.2821234639207116 0.14975569315221435
0.953184727566377 -1.3421661114769312 0.261159357595428 0.043969545336543535
0.9707634409229273 -1.335646489506612 0.27231815376109225 0.031836907960713694
0.9608461675473361 -1.3297566177341087 0.2709714438671567 0.16325447731308798
0.9646197766250237 -1.338575345027081 0.26144665567547654 0.041216102028958104
0.9547775737102822 -1.3426640510585544 0.2723922708641738 0.04323695225221466
0.9529098413243696 -1.3414946637388785 0.24534444635026262 0.03541478760874467
0.9686448865346936 -1.3325303936163166 0.24847029157586262 0.04376401961638457
0.9583345842228034 -1.32899042994087 0.24453934039082056 0.04272480926020863
0.9631018772917903 -1.3392065412812861 0.23858075781073643 0.03567084168903844
0.9634501608075141 -1.33660067219042 0.22641763924080213 0.04672990823435412
0.9697720930553297 -1.3309328633619257 0.21877853285991503 0.029741858480437335
0.9556968384287479 -1.3343109973167153 0.2088335728208378 0.04771533127023611
0.9566831818342971 -1.3302994089047961 0.2199353022044749 0.0511066872014474
0.9538194712333808 -1.343022107080035 0.21911580491628616 0.03469059751711687
0.9220405909014198 -1.339280483185917 0.2995173704878204 0.10860344679152899
0.9286907972501185 -1.3307388396214948 0.2875935102473465 0.19408127529199612
0.9313529721542233 -1.3425318716182626 0.28272490029888575 0.044527298030285455
0.9340944496577139 -1.3433166345868717 0.2957524154720519 0.05657623638037778
0.9941072116145658 -1.3087957945925746 0.28858390422210234 0.04389723165328242
0.9807074765324144 -1.3237581058881667 0.28771920428176084 0.0792940503030885
0.9772561742776257 -1.312486715329753 0.2912788001241656 0.2029820218227816
0.9884322891300394 -1.3179154298020397 0.28359585426589634 0.04729277335100085
0.9898103249496043 -1.3159048359442655 0.29716419134921007 0.057993810564209554
0.9385214853130147 -1.3426766802787407 0.26993190148018914 0.03745017111321483
0.9333270592286431 -1.3299583302553115 0.266190592616904 0.17931214770190604
0.9383834100017011 -1.338007887423693 0.2603678883105737 0.04466133679989835
0.9205498299385603 -1.334497458676906 0.25978117055416405 0.029149695320260637
0.9232923310567616 -1.334382659678832 0.2724196401115183 0.08131760624931544
0.9834066497477663 -1.3254495711750467 0.2610020459398611 0.02633878753908702
0.9794151771999688 -1.315692218435738 0.27090539248444795 0.1514018393512739
0.9912401621381355 -1.3133785317981825 0.2563754122836137 0.04962860126230229
0.9939159749222548 -1.3092461998656477 0.26744714928925445 0.047267845451968674
0.9245989057040622 -1.3406220596754563 0.2507486633306802 0.03933393044819518
0.9381913443978951 -1.3410916571421918 0.24668272666955152 0.043592953054429
0.9342413711269432 -1.331399662803649 0.24093098518198133 0.0461151086669826
0.9299837262688301 -1.3422010661149781 0.2330680571625964 0.0485126086948599
0.9197720909149862 -1.339721196203803 0.23899816207911703 0.029661111780341618
0.9909502023237448 -1.313729232241608 0.2298165108083139 0.05477306031133478
0.9805835451585738 -1.3236800068573433 0.2369543287176318 0.04127746534624083
0.9927632625149037 -1.3082194757453083 0.24621082085859328 0.036362830485856694
0.9844493222665873 -1.3076707529454334 0.2367612991144871 0.0537811104300384
0.9805081269792754 -1.3146798621225178 0.2468874264615136 0.05328903010560013
0.7615386256600978 -0.8630467583089879 0.37293799208496825 0.14141741734847538
0.7740585896406194 -0.8630167560090445 0.39410521508368157 0.2712041191268768
0.7637907407352991 -0.8642473976764388 0.3881720256988352 0.24385311966870102
0.7564547967237233 -0.8690665999895026 0.36415545416256745 0.12674001634303098
0.7758041217490478 -0.8681532809181302 0.41350093825145373 0.1846695970022832
0.787386750434498 -0.8752294364350365 0.41882455563856996 0.12834632294659282
0.7906508729803009 -0.890815886266224 0.4282084825539168 0.12051308161288087
0.7948810874758061 -0.9011417176942915 0.4412640871340075 0.1198564159706096
0.794034630437326 -0.9097656504387827 0.4485677321897393 0.12951275676091514
0.7850317833337135 -0.9199190718088605 0.449873441659073 0.1186290772683101
0.792349344066139 -0.9238989155091658 0.45789312255100423 0.13552967723237824
0.7798533631660238 -0.931885467456169 0.4681650621994861 0.12039140734449263
0.7853823484804412 -0.9440668848182897 0.474785818441712 0.11349475069374136
0.7892147130265413 -0.9528173695439508 0.4835131367188957 0.14004565155350068
0.7980897633328451 -0.9563471414114749 0.4954544734402276 0.1151888659662993
0.8052225925844838 -0.9713725599855402 0.4922160915263273 0.11375301330155436
0.8167291698451524 -0.9699237268319211 0.4934555778330859 0.10516262097681278
0.8306582838568083 -0.9850584509020733 0.485370883639539 0.12952907815110307
0.8332919034376329 -0.9940829156046797 0.4804757200250745 0.15146206929495368
0.8379925540237118 -0.999457862133328 0.46913876177289277 0.1691543476121314
0.8383096647751161 -1.0062756759754057 0.4607891815749597 0.13697437543248195
0.8281537838368636 -1.0080258732208875 0.4516154192161948 0.12630993803796783
0.8329325562017309 -1.0150261968284775 0.44324488586892313 0.13268996511114628
0.8244480455548484 -1.026644934140444 0.4438738195179474 0.14254721853761793
0.8248807556440014 -1.0387745728361706 0.4290413713111528 0.14292642153399757
0.8307520844903491 -1.0577634411178216 0.4178564714537947 0.16345741263104607
0.8346580194556631 -1.0630753785524998 0.4071071524412634 0.12863203109172974
0.8435794992820174 -1.07061932671107 0.4058599351784403 0.1143041225370165
0.8493015337363683 -1.0774956605055566 0.38107225093517916 0.12156264664868326
0.8560624697787547 -1.0761227627380316 0.3891988136639313 0.10406703519996506
0.8559188823271777 -1.0808735361178892 0.3728488897039842 0.11800988273397836
0.8670772503195185 -1.0746808736154219 0.3631603851719378 0.13566750758241386
0.865943197159663 -1.0829919191284807 0.346987760160913 0.1488200230918919
0.8649483502281241 -1.0701397404651611 0.3515971415987026 0.14722419074034718
0.8698770467470156 -1.0742976606005097 0.339357750260964 0.1455384550963442
0.866367476440624 -1.0724921189077563 0.3274750721209476 0.15275480836312325
0.8636900243061323 -1.0778119797804917 0.30511513501250587 0.1482139465853184
0.8641942882392555 -1.085868465828087 0.29400790874070903 0.16834906953282336
0.8596458939560405 -1.0930117929687098 0.2811383796728353 0.15122102380660893
0.85207091151087 -1.0895748049894243 0.293464078068465 0.14706828231660315
0.8528539308290254 -1.1062886487653913 0.27377482519193685 0.14477533156730907
0.852439686144072 -1.1003940012084774 0.28762687999322706 0.13693099063873398
0.8562057814859123 -1.1198143466840906 0.2711785615349823 0.14745072779898905
0.8647516362597663 -1.1285580897491982 0.26719443906167184 0.1560332999852035
0.8665115961890487 -1.1326941782893987 0.25521907112263154 0.14110460200973163
0.8807946498749013 -1.1321211465656866 0.25615739628507694 0.15661411467886477
0.8863857070917999 -1.1396453102171584 0.25022264017767953 0.14410068551463695
0.8884485793389415 -1.15096378130209 0.23807009715094457 0.14946416589636216
0.897650943769562 -1.1464063352598315 0.23426600421480087 0.15242483332634507
0.8984519499461947 -1.156829543510424 0.22801493773709347 0.14443497260997504
0.903038636357256 -1.1567044280067695 0.21228153607932018 0.14810193420379356
0.9009213679446187 -1.1734231681936653 0.2005616985051247 0.16188230971431652
0.9047903563647559 -1.1825935537014005 0.19778268738475813 0.16537528861602174
0.9007095004321872 -1.1960721878980962 0.19608565159108438 0.15624220299942002
0.8996249291682314 -1.2097009934202427 0.1996824526502486 0.15538897415478953
0.9011222335771846 -1.2254628027244028 0.20779910232161763 0.1588287177718451
0.9039403637462851 -1.2353453657917826 0.21729300150692943 0.14213192734364263
0.911190621218976 -1.2435343914715875 0.22066459136272476 0.16732391612373168
0.9146811573250444 -1.237404917122494 0.23414633374240873 0.1662906606022394
0.9157698930720766 -1.2447329156797116 0.24147937570863315 0.18287333692198027
0.9223745029358029 -1.250250652047219 0.2497356992338522 0.18981972700296576
0.930696245287935 -1.2550057939066448 0.25689642153145686 0.20803225697641584
0.9469117026691857 -1.26425278207224 0.2612494823483682 0.17269171646404213
0.9544307336223494 -1.2779167852786686 0.2743320060765265 0.16127416689150947
0.9560738711845108 -1.2850275960386188 0.28155259215025547 0.19467996828187525
0.9533976104372412 -1.2957400894128075 0.287042794369293 0.17342985159003083
0.9483281770067894 -1.3006828393993226 0.2949364793248553 0.1553848353365985
0.9501305260515076 -1.3059143363383927 0.3116415309859981 0.26439950841124754
0.9375322891930128 -1.3029102625271571 0.31940618976201146 0.27870169091156655
0.780574273308768 -0.8683042430805837 0.40390044222080185 0.1981045227899111
0.7566488809599872 -0.8776809736540075 0.37172256240917995 0.1622460097035267
0.7604363757225058 -0.8705651195809513 0.40317546189181686 0.24103295098403327
0.7583799127436543 -0.8814913751199406 0.3844617490457756 0.2605450027158209
0.7616223692591277 -0.8791332611524666 0.4104203488431056 0.18355373627590996
0.770149595425621 -0.8727330649580468 0.42826403842722754 0.22034415382072806
0.7755824228157903 -0.8767682655921534 0.43830571378774547 0.1815262807946259
0.7805106262087359 -0.8861511325574817 0.44971185826344157 0.16549134304005464
0.7868851199792213 -0.8833216897415285 0.43772449214322323 0.12915091275421575
0.797079893992114 -0.8991416031872738 0.45142033335037157 0.13389098215433273
0.7976935029637184 -0.9052799564248579 0.4620123130885316 0.1149104208248478
0.8019757082594572 -0.9194904971304297 0.4620737346599631 0.1456983880195121
0.7923337712277926 -0.9360570701283588 0.46276968854190775 0.13048903055848432
0.7926627102536411 -0.954020942075084 0.47058078112435814 0.13771356066833476
0.7962322119020957 -0.9664417730181974 0.48784456962003425 0.2026540334206048
0.8084125946303591 -0.9898660181918875 0.4872759325544605 0.128017958234382
0.8196552785546989 -0.9865956609719432 0.48963742951917294 0.1294595407035102
0.8269882476618157 -0.9982577372540137 0.48830336039049366 0.1773695905976685
0.8271417325122978 -1.0084899766613016 0.4824454426791021 0.2186109769513858
0.8377266415952754 -1.006106709265886 0.4783302919840871 0.15478096162592647
0.8441949938176287 -1.0171684735824054 0.4459677213376581 0.13896578637066256
0.838823775070294 -1.0214686717679657 0.43482153636000115 0.15113376303805942
0.8413082716980136 -1.0335422121588496 0.4179920177911139 0.14354820324142895
0.8345563541920596 -1.028063199890048 0.4251624464687787 0.1522379604018553
0.8358061778355982 -1.0385265891179514 0.4100561816691325 0.14361601869635612
0.8312143800353898 -1.0462282802756753 0.41570286099910797 0.14853741896482434
0.8321780124242704 -1.0559495069914555 0.3952720749634074 0.14868790746797647
0.8369523703951858 -1.0710854894604187 0.3901211815162576 0.11681747672221877
0.851036171477757 -1.0876600542474568 0.3637357054319831 0.15210502147886873
0.8417723690841681 -1.0768609867091685 0.36876906440651924 0.13710452094268133
0.855095390448598 -1.0909573371123888 0.3531350461664632 0.1455832463909853
0.8616147410797702 -1.092801823432545 0.34322957050329833 0.15554134261933128
0.8701911555314099 -1.0933401667144382 0.32600352372317276 0.14637030586280753
0.8705226233656588 -1.089470766124998 0.33679520221400006 0.14896376293342883
0.8749354166849119 -1.0866756275780287 0.31540533780109853 0.1623080037645665
0.8729385339563941 -1.083486513048786 0.30517644397587684 0.14903891962997715
0.8744556671200665 -1.0931017355360302 0.291435748175205 0.1578871472967938
0.8708111839461798 -1.0937617174122332 0.2762438810063183 0.13898781114087436
0.8626177177629073 -1.0961758315710712 0.2679390127312443 0.1594235630363989
0.8560705569933038 -1.1088583327529151 0.2612130496799581 0.14914485857363596
0.8569531665845403 -1.1197829477231616 0.25590146226626276 0.1354179891289162
0.86230403965751 -1.1190725738278688 0.24685392639929007 0.13821478094202141
0.8653688972645179 -1.1338465251924805 0.2394134066065121 0.14694115640190916
0.8718298006210252 -1.1487351641007288 0.2360425297359517 0.14371335640829924
0.8772297699276534 -1.1450853474777372 0.24544590752985274 0.14208548442510419
0.8891194168577323 -1.162975422924326 0.2353970667812195 0.1367688618075765
0.901517392957631 -1.1676168457579965 0.22889570971150608 0.14795314384874686
0.9064947941436496 -1.1767917196037188 0.22247691745223042 0.13993579532929534
0.9078465498129116 -1.1720377425334854 0.21315887532656025 0.1443204978184338
0.9122877170405641 -1.1827732661536448 0.20612670858086618 0.13212424271848278
0.9114237729132131 -1.2032600191496101 0.19955981546552284 0.12438620204381776
0.9125541526097355 -1.2218603935021282 0.20147967615121204 0.1340103621769543
0.9202385329813303 -1.230876708790494 0.20356710680416448 0.1455583706725015
0.9173204820329852 -1.2409168649347948 0.20815950455576365 0.14432422949128001
0.9209577054343644 -1.2485113401008872 0.21522531975695272 0.15797291187331683
0.913941821178818 -1.2520371104081829 0.23307327327305538 0.15370615065256138
0.9157465015526136 -1.262701191198653 0.23535834513782378 0.19534817123385934
0.9168131012993039 -1.2618493579298282 0.24737370755740581 0.19200833910494225
0.9219967319667774 -1.2632039546015268 0.25809914697297726 0.16652716499033315
0.9262681108948526 -1.2667674412193417 0.2673510801617368 0.18766443335477198
0.9370903742484057 -1.2657711269528658 0.27614050851914435 0.1959252455025538
0.9498838308821651 -1.2739903195118467 0.2842950313064614 0.18245938556353947
0.952682367819214 -1.2770057518805278 0.29560314261567905 0.1884536243853303
0.9567251839059052 -1.2870476987220507 0.2991100658204326 0.21701692724515104
0.7778137787795388 -0.8880135335282507 0.3643730302557983 0.18534656318985973
0.7700037114511293 -0.8900809735245114 0.3723647924496322 0.1677822204067957
0.7608441784535833 -0.886901552667303 0.3952282427900046 0.24327303439699605
0.7614409121298571 -0.8900909426163082 0.41600310778214855 0.1451246365962012
0.7609367135878968 -0.8840246700661082 0.42624481731146097 0.12148765457436196
0.7661649708480036 -0.8914004185976422 0.4412157382198001 0.11097100308142838
0.7766301954051569 -0.8970718044904411 0.4623673729958932 0.14488182210104542
0.7873215112464946 -0.8944783911521028 0.4662380925290523 0.12161447343089073
0.8030554192073959 -0.9126847083007731 0.4720188817318623 0.11812935488113545
0.8069525260851543 -0.9219455283089418 0.4735456825181386 0.10478997067711328
0.8045307552308119 -0.9347572783166688 0.4674132319053848 0.12349809626652085
0.80556402562203 -0.9546198227119227 0.4665773394745544 0.1442521585359133
0.7976701053535072 -0.9636747157478963 0.4719483610718595 0.11846940588668009
0.8004013037968563 -0.983704483634772 0.4765671474567023 0.1078941831417544
0.8074265714083837 -0.9925325773444479 0.47236547301537357 0.1519168840275125
0.8138430297967973 -1.009146676032273 0.48209982810172985 0.14232280014036985
0.8235530888359622 -1.020116932855549 0.47761817058408806 0.15936299091292022
0.8407330028949419 -1.0220253424883783 0.46827538139407393 0.14655045575487913
0.8457662770515285 -1.0253991364036288 0.45880060915435344 0.15411006782903083
0.8497702143992897 -1.0348859865422246 0.4509592022210086 0.1725288561159315
0.8481809342377054 -1.0274773968115631 0.4418855600671487 0.16156470155600383
0.852798468371414 -1.0403278905087223 0.4284609464973381 0.13652708635470476
0.8463470768604515 -1.0299368282264691 0.43103367483099697 0.13647247417930927
0.8519698501888594 -1.0356991900384622 0.41672557937375854 0.13812832610329784
0.8426858713898691 -1.0407594493704937 0.4001638251021033 0.14761554198074356
0.8411378188427938 -1.049464741511012 0.3836993245464055 0.14016958221885703
0.8371897799793725 -1.0655903121058503 0.3780501091784634 0.13074812039945596
0.8418943669992803 -1.0779042632620754 0.34941813877954997 0.17178886802577054
0.8450995861302357 -1.0888263626273003 0.34930544393282126 0.17054678810888949
0.8538705417161043 -1.0979732790518337 0.33416326809512276 0.15419803802708545
0.8662191554938774 -1.1041305538126074 0.313472928344687 0.13694521575437074
0.874437671357627 -1.0956936011548852 0.30641053013490815 0.15453596155500648
