x y z curv
1.0348736269556993 -1.051074653603928 0.22186968391302359 0.19037801257128903
1.0445995072982355 -1.0567653205037322 0.2118436016085477 0.20847426561275942
1.0526994346500766 -1.0404935100222867 0.21626661031210762 0.2190053396522603
1.0693572893547303 -1.0456930574148342 0.22964264132725953 0.2192130870176902
1.065562389805478 -1.054457375573112 0.239493720618485 0.2094062618567977
1.0390554978001463 -1.0625423426492184 0.22563754632167868 0.21047192077620963
1.0590743275209007 -1.0537214369293428 0.20716983823766466 0.17654878788163908
1.0648253985501857 -1.0436673749673324 0.21644375477899844 0.18455381252326372
1.0598664573698688 -1.0672165228768042 0.23814354979330435 0.19050159153988352
1.050040536028731 -1.0742805707131744 0.22466963471921855 0.18470725266232557
1.050381214057264 -1.0693232627318279 0.2112848383872591 0.15198634496104155
1.0672380791298737 -1.0614205881734056 0.2033676545287167 0.16529826053582422
1.0721262228990576 -1.053341450576603 0.21041648555921696 0.15994367324082273
1.077000354811288 -1.0540947697903071 0.22441941754798686 0.19818906207132098
1.0756943889367707 -1.060435105835267 0.23246177128242637 0.1885119405035839
1.0636234071874162 -1.0858773104780808 0.2254412873931325 0.19300298324388904
1.0562525091831407 -1.0809687269553476 0.21814518086375287 0.19370631910498456
1.0633648479321887 -1.080357624613892 0.20647974443299436 0.16518794103249662
1.079380185695713 -1.0627816233914442 0.20616906255090486 0.17692247348817056
1.0862222945868627 -1.0627993195376861 0.222993092574016 0.2003665209232639
1.0720355185574135 -1.0717673727028174 0.23548361390090614 0.19475956927245036
1.0668847869273934 -1.090649769809089 0.2155986030689281 0.20211066345629386
1.077228446119061 -1.0781594862325734 0.20076491142792832 0.1820217269400552
1.08752476890945 -1.0735268841792933 0.2032386459722445 0.1733056314308035
1.0739225444756442 -1.090471582390173 0.23034292974557583 0.214276434032557
1.0746216548777878 -1.0991766843422273 0.21680269950424252 0.19415748301176822
1.0776792120829344 -1.094276266579156 0.2054919768413024 0.1670782538628893
1.0956560100839534 -1.0815467375835364 0.20537619818618033 0.19374341318088398
1.0966695728572313 -1.0722677319290248 0.21713059615771005 0.2199900030006729
1.0881176106938577 -1.0772417640539056 0.23255933726356795 0.20547020815963044
1.0885055001267585 -1.092849441014485 0.23620958615045012 0.21419632281775852
1.078484630316672 -1.0996433288295036 0.22731338463344666 0.21718795996035187
1.0923569550555534 -1.0910961860431916 0.2020106014250385 0.16743200698447727
1.1046783995675746 -1.0868154000770833 0.20986846677176293 0.19211418384276194
1.1042516241845823 -1.0808989563258402 0.22412067283626685 0.18931705429226187
1.1104017680486156 -1.0898671856696918 0.23059273269255698 0.18927219362149397
1.0984377090070179 -1.0887295138729944 0.23643954943558523 0.2093893637441027
1.087300020093027 -1.1063071240122861 0.23188055395667442 0.20464619035453444
1.085201557363229 -1.1080417606542803 0.21649747906830716 0.17086420971749958
1.093263378422338 -1.1046411790922601 0.20660024222525647 0.1645908511748244
1.1122941133356727 -1.0967182115766305 0.21115554035929618 0.17154784154031816
1.1122449816256652 -1.088756746649491 0.21969241559075103 0.17090772380507735
1.1031522949090837 -1.1006457890391876 0.24154034855041923 0.18443551005146525
1.092687885790816 -1.1163669803179697 0.22723867943566597 0.18196765970221343
1.1014481003728265 -1.1192000445204355 0.21537289454922187 0.17371875533270947
1.1220529600443325 -1.098793090867408 0.2313754975999809 0.16618008900932088
1.116135968504014 -1.1172355690472844 0.21335384480401584 0.1328013467987077
1.1222214477497623 -1.103343660996969 0.21907239837604114 0.1610908904417137
1.1306856764652544 -1.106858458877078 0.23198751135396925 0.1490015393356251
1.1189167156572488 -1.103988843967439 0.24420663493902708 0.1952038944743659
1.107978576390018 -1.1314540462614449 0.23224612642095963 0.19526309510906156
1.110712410454659 -1.127362504645344 0.22136938635667772 0.1650417984169917
1.1223389162571753 -1.1256331891470266 0.21952900914668408 0.13129229094337022
1.1380866819700082 -1.1188066782996997 0.23320866545532692 0.21573278839933477
1.1098422277463285 -1.118056095738189 0.24856036123181294 0.21056632783353232
1.1266182122002955 -1.1350021775676213 0.22708744800846886 0.17694258338869462
1.139410723960575 -1.1296595334092494 0.23343857473268517 0.15593892156952358
1.136652108594577 -1.1137911073404838 0.24821145664225888 0.18705752218071572
1.1198631313657128 -1.117681098517415 0.25660848359267097 0.19079190757491182
1.122064359014794 -1.1424035809605224 0.24078310684743093 0.20003763291230026
1.1440879306460319 -1.1212930123899092 0.2457569092469115 0.20348633838436175
1.1161493733260623 -1.1392440050356647 0.2526333323983539 0.19420057013036926
1.134237128028082 -1.140268045472943 0.2363796457063652 0.16875234920503313
1.1392517261613013 -1.1467926549709984 0.2466176448872987 0.1948337924806192
1.1482616408748958 -1.131715805795388 0.24707748783754233 0.16501654572456115
1.1302551679385189 -1.1198938848530213 0.2653531725715367 0.19357446982705961
1.1194400670949265 -1.1287645081108404 0.2642600957675375 0.2152915047667112
1.1271715750211353 -1.1481887016541483 0.24861087040064803 0.18331173563021932
1.1531509690600856 -1.1385085360104923 0.2569943741221605 0.18657831667567681
1.1414838316098097 -1.1204047926895995 0.2636871086110927 0.19681441177293116
1.1211945408767585 -1.1369069855962357 0.27106643032477534 0.21714000623904667
1.12366881694147 -1.1475461750582285 0.2591783352615362 0.20354817256833682
1.1357690596449213 -1.1544164476522294 0.26085852270242815 0.20247497743219509
1.1485345271193381 -1.1492069005263819 0.2580578213421123 0.1995658815856922
1.1515412482474034 -1.1270834527617921 0.26425768022845675 0.23577107785012463
1.135496147710975 -1.124404287893614 0.27763961346952154 0.2431284920806831
1.1562417490962733 -1.1376814756942024 0.2683992382547917 0.19900344766823908
1.1465289593164116 -1.1265909996927927 0.2812406199451515 0.19343868131099082
1.1253669957186005 -1.139036345446401 0.28128176762644075 0.21490495531116
1.12927452578871 -1.1533259895545098 0.2751079609758498 0.22789297884486065
1.139920732952777 -1.1586655707065812 0.275372702290097 0.2280102930477896
1.1530875809238486 -1.1552645540151487 0.27459452790877864 0.20532624858386134
1.159845849020429 -1.1446711252191797 0.27892766403800706 0.21303173701456649
1.1383435280582748 -1.1283456859027479 0.28940873575695303 0.2107577104174301
1.1457177008008792 -1.1621066350726208 0.2866715272536091 0.209300090606971
1.1601020388691987 -1.137276314794758 0.2872071817084656 0.21412330743036118
1.1504236358692497 -1.1293319308192338 0.2924186946134985 0.1902263687881949
1.1313224026763053 -1.1359244888073001 0.291845530486177 0.2546083109458142
1.1287577384442504 -1.1504267689865737 0.2884997601345365 0.19278053316113927
1.1354309850886337 -1.1599593753898656 0.2944163476129321 0.18361620673554854
1.1614636750811917 -1.1504803274640965 0.28951318753249955 0.22169360017256873
1.134931317858633 -1.1385883413429239 0.30523776468262376 0.2988415595298108
1.1298457137101021 -1.1480903813967012 0.29979534472308006 0.1780962198063516
1.1341728297309572 -1.1578301053467075 0.30600898518140274 0.2428297892687889
1.1504409395565534 -1.165631423048428 0.3033821320871856 0.22595313114631313
1.1651511270934107 -1.1489799175514885 0.29963330754535666 0.23075955717465155
1.1620613235979695 -1.1380169544968917 0.302689341864515 0.23218211147318943
1.1493179084087302 -1.1315177364627815 0.30609970081413646 0.21085565674547332
1.1435473313040467 -1.1659174479664653 0.31258100611004713 0.23872696766535828
1.1639603595500005 -1.1616345673618467 0.30970409248026143 0.27648624461283833
1.1655575798986693 -1.1428873689687447 0.3143958300042592 0.2490191262819833
1.143054026939357 -1.137756510723512 0.3206378471278463 0.28949547754722615
0.832886933826295 -0.8405200379571562 0.37176778469973915 0.12416196925650966
0.8226924610605727 -0.8155091793302323 0.3722135550238585 0.1397325032697345
1.153624102777358 -1.1517956977583252 0.3164839895651774 0.25448485011624583
0.7787114480317466 -0.7964747970757635 1.5290365718765486 0.10078845950235223
0.774840049968148 -0.7953851273351796 1.5161192846260827 0.14655906865207555
0.7582945567063519 -0.8085791361317349 1.5303198441732688 0.1420852267218286
0.7679098493529307 -0.8047628132643055 1.5381386718750036 0.11839147644869623
0.7672612242099406 -0.7924487847362139 1.5235866419963233 0.22048928909939672
0.7626461627078376 -0.8085951329022177 1.5173226907998343 0.15238401246418115
0.7697202628516593 -0.8038664354744428 1.525391029547579 0.14112890031826075
0.7784617113931125 -0.796104299387384 1.4971972228436703 0.0308010959152887
0.7582572360388797 -0.8083601341637813 1.5044461028713465 0.09439509062331916
0.7677275029366366 -0.7927323337472181 1.495140703746652 0.11454117605637724
0.7617008676139975 -0.7979875078712879 1.5046703086912234 0.14987182144286468
0.7682227556686457 -0.8052616557363066 1.4916027952343973 0.023842757562061657
0.7714607834665903 -0.8028672793015226 1.5034321837508249 0.07849871708292752
0.7599636135952994 -0.8053720483545354 1.4803130938476783 0.02298844100207812
0.7736677087433718 -0.7958814217942547 1.461020555293707 0.022481943888842892
0.7628556926634245 -0.7978897507541439 1.4640180157530367 0.022697853711876922
0.7676973117558752 -0.7936778889871576 1.4742231665875647 0.021041881327698464
0.7662904178756557 -0.8073013886039286 1.467427119651852 0.019792212272670022
0.7714863186196225 -0.8033536152805238 1.4794343849941003 0.019813126595548826
0.7771973753772587 -0.8011997796441943 1.4326886672073311 0.023584791530844373
0.7653681821069662 -0.8084503078461985 1.4304557855294469 0.02177404445583349
0.7587073759925562 -0.8092045981996094 1.4487369275828912 0.02241324978822169
0.7786864002785191 -0.7992181824890856 1.451324477591161 0.019842385963479186
0.7718247911214693 -0.7942625182455101 1.4433512284786933 0.022971944234574895
0.7606807784488685 -0.8016929332763374 1.4379923034443818 0.024843650524447754
0.7654195249431722 -0.7980858384031828 1.4507579976328375 0.026951666517688187
0.7686263361933959 -0.8067963741042766 1.4433519898286629 0.02550338363213331
0.7812655381036757 -0.8002971309731892 1.4119057266634039 0.023651116181929548
0.7591164369468215 -0.8098081448458043 1.4098624325753222 0.019572174814946126
0.7647724025210343 -0.7972562086878325 1.4116636617151659 0.017367071729998927
0.7592007461399815 -0.8072224288242998 1.4216390347159085 0.02126409338406278
0.7745262698813269 -0.7962194273749402 1.422388474800823 0.023258963437299877
0.7721431602194018 -0.8064671171063955 1.412792272541295 0.021427048253315026
0.7607509872696878 -0.8122619235893422 1.384161173925172 0.0214848343267518
0.7794492093450304 -0.7978395546353749 1.3840957398375917 0.023109985006361664
0.7660798944362786 -0.8006961935007015 1.3823342171488129 0.02873216780971983
0.7652384315327471 -0.8007684016052707 1.3942460711818485 0.021958492806785225
0.7728790356160931 -0.8091769287511047 1.3760852901167524 0.024040033306599207
0.7734856060841053 -0.8070905542268758 1.3950920350546272 0.02156885668256345
0.7633077668902146 -0.8139582095235899 1.3943568405761595 0.0196344705908823
0.7795377657045605 -0.8052293242028359 1.350446331255179 0.01625368759795448
0.7612363754154288 -0.812985808469048 1.3665968362699854 0.025877628683485122
0.7768434735318774 -0.7990440583727327 1.3636414351156316 0.020660383910105704
0.7696957262316707 -0.8015755617996236 1.3546449990486764 0.016825724015078675
0.7665992630933536 -0.8027881120085755 1.3671066083888315 0.022029557821551533
0.7651678041365232 -0.8168068261710217 1.3548454051168046 0.015055235376235841
0.7819719997116548 -0.8013663484894887 1.3393509058639388 0.018669518439450222
0.764783481728518 -0.8154938164520524 1.3420137171376256 0.01762903370682546
0.7643913233292088 -0.8099561941564211 1.329925606440237 0.015187225170589213
0.7846097053315659 -0.8070573539550083 1.3269743088271897 0.015936015988607354
0.7757217320774784 -0.8124423001097858 1.3316487934312449 0.017419924044931454
0.7690157458958082 -0.820924100624405 1.2984597304643433 0.017935456913056955
0.777140203579925 -0.8038385222501978 1.3063579328872275 0.01800604138828093
0.7741760879714819 -0.8099168322193901 1.2963837988802036 0.0228171144040375
0.7641542455727949 -0.8172591834088662 1.309229333487634 0.013226249828665758
0.7851500023598601 -0.8107645308624728 1.2999674988887207 0.02034351862003047
0.7712678555082761 -0.8174433107425941 1.3176585321097949 0.014622070642248507
0.7678945354791067 -0.822954544467186 1.2754828720128935 0.021430858815321065
0.7833172803416331 -0.8069628057995548 1.2813158006095617 0.027102484912453886
0.7735340217039774 -0.8132398938108027 1.270578830031931 0.02623761867335983
0.7687897165121488 -0.8127987183738246 1.2825481220816688 0.02922918770911868
0.7850439729496864 -0.815167521491222 1.2736279715679735 0.027924077730136602
0.775355227416477 -0.8189457970498673 1.2897284963435458 0.03175152048184801
0.7764011442878267 -0.8260530885809881 1.240842872289154 0.0305854778373208
0.7722579410202626 -0.8237570517070968 1.2624433514744409 0.020182446123613654
0.7880183479401955 -0.8150882357665168 1.2620698863161846 0.01814243545941975
0.7709137725962641 -0.8161639427601826 1.2530824664037097 0.027999758385773503
0.7798723561725951 -0.8103081732427768 1.2561051425924048 0.026891302426136136
0.7853172456147711 -0.8193480060327905 1.2502926262264642 0.02790663368642163
0.7926531772829994 -0.817342609466716 1.2289659439320744 0.025393624267610243
0.773927666667183 -0.8297444425243282 1.217851957813059 0.025184034293478787
0.7908573478208404 -0.815855889168431 1.2181436033425792 0.02711468748096763
0.7746877408003292 -0.8168663999874486 1.2229780378344337 0.029129317035561167
0.7795361657529273 -0.8159972262779872 1.2322343193675287 0.03077818586622736
0.7844483609123702 -0.8250640561267893 1.22412102840385 0.03011439083770827
0.774301899950337 -0.8307677142485697 1.2291335002643817 0.022832364557252904
0.7932283344958593 -0.8212062107017872 1.1901752726408272 0.02475285161299295
0.7751627684656435 -0.8338314194343486 1.1948600026955325 0.021657689437535727
0.7782959539761959 -0.8207532312267753 1.1940645029701857 0.019387946764255433
0.7800125415461755 -0.8226569741765989 1.2075301315417521 0.032191135393873235
0.7897410965206891 -0.817448964974205 1.202987624665953 0.025685921910916946
0.7869606984273534 -0.8285526525711737 1.199356099739617 0.02276404106832413
0.7983138415428841 -0.8258131188218119 1.1664307063492267 0.02374681541475241
0.7788771177947473 -0.8393824149660332 1.1694131322127195 0.02781296144850628
0.7824233548949966 -0.8348678730611963 1.1841612564618056 0.019182873105497208
0.7929912755136855 -0.8218205000466197 1.1748021347498252 0.028368138248099025
0.7820776863279834 -0.8337226917500288 1.1601757623301663 0.02752959741039534
0.7813678276405694 -0.8260207535731732 1.1773496672025983 0.028164301450216454
0.8024518585067356 -0.8320116649360784 1.1392034953931374 0.02967795409344843
0.7956583021192709 -0.8316638849134627 1.15723487890285 0.02563365680831345
0.7842073061108892 -0.8301100894976001 1.1403210935007262 0.022674134899783125
0.7880416177996983 -0.8283211046397434 1.1504310095272081 0.025742476393180714
0.7892207895665839 -0.8418759305915532 1.1391673157482192 0.029501421218218808
0.7822852209268764 -0.8438448902959231 1.14922841591604 0.027664399636764977
0.8022738432627822 -0.8317479999996897 1.121966774104304 0.03880230484997021
0.8048540343407771 -0.8373742812909851 1.1111305416484256 0.0451030493165276
0.7831459199700547 -0.8457774056905561 1.1177238238849385 0.04118777901193463
0.7865954470111489 -0.8462580941696133 1.1275951423181922 0.03633331393931133
0.7914382018580697 -0.8354292841886807 1.1107925367023772 0.037993925636961676
0.7899900700034759 -0.8336244794513366 1.122645079918897 0.0345118054697732
0.7977839024930327 -0.8412919835994084 1.1200351864864526 0.032133170852687805
0.7902999117811056 -0.8553896859831309 1.0850667097114866 0.0317299077250187
0.7904523207249694 -0.8473084551667679 1.1030980369335153 0.03245711687271395
0.7955886934023487 -0.8370235207564073 1.0926558414232928 0.02650095770631579
0.808633569524461 -0.8439381058892015 1.0863778880405381 0.029482509659548062
0.802231562000719 -0.8447523082470485 1.0979894641896053 0.033172475929319024
0.8117174157359518 -0.848295059966242 1.0575331669239023 0.037139936350414855
0.7918903963348122 -0.8567532915031997 1.0725290838786425 0.03136263578388585
0.7967044264560984 -0.842988423019184 1.0613317283173538 0.027285230590912007
0.7910450308538997 -0.8575542525720844 1.0605221056396135 0.03789642846121592
0.8006654730199507 -0.8434263184829187 1.0708231199957108 0.029684411026161782
0.8125589755075002 -0.8579062655877691 1.0263358197436216 0.02577675293423252
0.7960404807258157 -0.865075596808763 1.0436805610297364 0.02653723643609747
0.8120644386585274 -0.8484686633928551 1.0423097388703648 0.02820405533294052
0.7971035361956719 -0.8572603517094435 1.0339875851188076 0.02322554593362866
0.8005566981281511 -0.8513943445325574 1.0431949490817898 0.027144798521622118
0.8050715180871553 -0.8656106942379171 1.0277548630468465 0.02013000937012701
0.809435709082456 -0.8584462210493191 1.0401224579985358 0.023215493705602996
0.8143022887076327 -0.8548156088856013 1.014885381960702 0.02773665670153713
0.809090433754555 -0.8589326749432445 1.0042168471384934 0.0198317229824179
0.8005394847791512 -0.8695081453639328 1.0052273860401246 0.026041197228219702
0.8207858110171457 -0.8627804501099063 1.0062048228365716 0.021429761197713067
0.8042793735684464 -0.8701538692607671 1.0163565572094486 0.0265874273745264
0.8234404533091335 -0.8682798635819302 0.9771815091183139 0.03487161915188419
0.8057699878489827 -0.8750673420620371 0.9952126269109343 0.026749377566816866
0.8219055264191575 -0.8621466965372722 0.9924240564796845 0.026345123457440174
0.8058469935834569 -0.8698615111939374 0.982299393444374 0.023795485383292382
0.8099966728237644 -0.8640740194955052 0.9910283915724675 0.023080526968594205
0.8118556254265832 -0.8795926804511477 0.9774447388278917 0.02621233579132186
0.8168255581303644 -0.8726749749507252 0.9869019924560284 0.0265445854398503
0.8288423530009521 -0.8715010799093081 0.965116010096904 0.025108660658378523
0.8097758514671725 -0.8842084852948465 0.9676716036605232 0.02498286118968706
0.8193056837306305 -0.8697603801820276 0.9560970102295586 0.019722386437955187
0.817540798286877 -0.8703925658380591 0.9680062187224356 0.021320591089805743
0.8294524837895214 -0.8776247785177028 0.9531803454437905 0.024760790574414618
0.8166234661085753 -0.8859461281781462 0.953805099855549 0.02775267144888977
0.8336079869858972 -0.8786395995848872 0.9374597575225461 0.02696266716403723
0.8126726192371964 -0.8888777381370843 0.9403842825488158 0.02624516361349435
0.8326852742835722 -0.8794357192523707 0.926855137784839 0.026136217118954735
0.8173759883669173 -0.8807324973023191 0.9288917305930731 0.017928658931795974
0.8139413652371115 -0.8915858571962063 0.9287064334076182 0.027703814988457295
0.8270901083051094 -0.8900055715002541 0.9273077017544146 0.030496727268129728
0.8228506884165412 -0.888070044182137 0.9385244752123728 0.02347487305369781
0.8341438829419593 -0.8928726150799853 0.8956350605716842 0.025460985990550057
0.8206844285943038 -0.9014807066761039 0.9020339203313229 0.026742758678548834
0.8177237812255918 -0.8975264027584127 0.9128102067650216 0.026597749033659194
0.8372586763291945 -0.886814766486142 0.9166176775000607 0.024893654355076174
0.8245570772839959 -0.8906553268070766 0.900224182308857 0.02659825287518357
0.8241229897426583 -0.8868737884992699 0.914196598810452 0.027344963275371562
0.8293441855300148 -0.8968594000522153 0.9081134016242883 0.022268640569504658
0.8386281324774841 -0.8913348483152631 0.9065802044285753 0.025909482119539865
0.825649760674666 -0.9093846670979517 0.878275178169639 0.02539353001705184
0.8347664202284648 -0.8917995362024442 0.8824060656746324 0.020701588900305632
0.8292522951693233 -0.8998453558604024 0.8744885204414686 0.02450086233415097
0.8228072705912163 -0.9030247223638708 0.8869611813479197 0.028848625872317343
0.839167100193104 -0.9047708484445846 0.8760811662189939 0.02794961574283561
0.8438018784881802 -0.8960865385746852 0.8883017611485847 0.031632509626661795
0.8495841198215521 -0.9071172391286572 0.848674991098149 0.030770890136006836
0.8325576338560028 -0.919717560565417 0.8542462132699075 0.02719406013188638
0.8309855135892475 -0.9142366015731681 0.8656722111745173 0.025086491378562684
0.837604533718761 -0.9005633316987173 0.8592793943331866 0.02547875977985767
0.8410499394086844 -0.9130918946612298 0.856330440738702 0.026349770496250903
0.8461309102149472 -0.904239263677953 0.8676514373518809 0.030785362351336925
0.8558352674785525 -0.9118998161755781 0.8359964013233512 0.023602343826412915
0.8392031386766499 -0.9282629800122412 0.8259706369586324 0.023837408690271185
0.8462931631420628 -0.9094420086747822 0.829677106790476 0.019036016675524448
0.8492284039221305 -0.9162780726429743 0.8208661984010781 0.022945423186796595
0.8378278994582558 -0.9137113117035661 0.835423049867532 0.025495448578844827
0.8472516384328838 -0.9214589713855071 0.8311733502065761 0.022106109210562826
0.839992789125743 -0.9199886208139705 0.843785431564309 0.02376998189557952
0.8593192778039939 -0.9173482072794051 0.8105603079893797 0.03076917828810782
0.860400782456841 -0.9209318122796478 0.8002241986368732 0.02253358985073105
0.851831886795551 -0.9260985095095423 0.7965603866123272 0.019633547095243776
0.8433762288949996 -0.9243311460867917 0.8050029814909732 0.02099609106102874
0.8449645173527027 -0.9316272143687628 0.8145350012992523 0.02607952719637495
0.8676345530413886 -0.929564151122759 0.7879183488993684 0.023417619312942773
0.8565379182685393 -0.9464272559367775 0.7720077753702161 0.021736894619904013
0.8496075464159818 -0.9452405321171237 0.7821387585479567 0.025659367809750998
0.8506489744117013 -0.9376564856921042 0.7933356836689304 0.016925488764612386
0.8586191830755072 -0.9272406640590759 0.7812511031963774 0.020620484909649437
0.8637891648216802 -0.9341029294683201 0.7713202027982725 0.043677721158655584
0.859988157189698 -0.9382747525644862 0.7835836579405229 0.018546836099229223
0.8549500597973807 -0.9532377745763816 0.7567550252573204 0.022699008430278073
0.8618938187498001 -0.9392684908806365 0.7504189020265316 0.04200337187169409
0.8739804005781702 -0.94132480018066 0.7490951505951353 0.10954722469153565
0.8673024504596758 -0.9363698364243229 0.7587298253028321 0.040739917355585645
0.8614957167596176 -0.9564880807733971 0.7491122905239274 0.09058343588538627
0.8800239624511557 -0.9481066883467748 0.737691299295063 0.19208803189491264
0.8718927102824475 -0.9469979446210376 0.7310809319429834 0.18686673609898252
0.8616136544055475 -0.9549268574599803 0.7320795826154808 0.10878351626089698
0.8785552240581762 -0.9569746222055814 0.7291620848333732 0.20567513695696263
0.8676511323892625 -0.9642585815709676 0.7291625910231867 0.13771827379222604
0.8696287192425365 -0.9574285089879545 0.7386094793220552 0.14236652177785797
0.8672681978424949 -0.9716762911970118 0.7098623942563602 0.12162369487920129
0.8797112476746562 -0.9623051141377664 0.699030500609379 0.1322886757890509
0.8735047867644568 -0.9579494925747384 0.7065660528729916 0.1351843277895258
0.8817711412224528 -0.9735728425586043 0.6987605083158327 0.19981083507772673
0.8833490058264761 -0.9605796125172503 0.7182212121914942 0.24506442380349142
0.873373475913044 -0.9668809393440326 0.7188132660015722 0.18463332773534807
0.8759202561057846 -0.9846181909817732 0.677502201802882 0.10918945295695745
0.8744094698155696 -0.9807624985072613 0.6903852868822677 0.10404414073235904
0.8791485853208401 -0.973019035017711 0.677255272256274 0.13983415225493223
0.8849759554284671 -0.9814036717538893 0.683277316449543 0.15531379770631235
0.903353907771668 -0.9830192555806551 0.6558105176555188 0.1602553812787847
0.8831871547568444 -0.9954978348930253 0.6564521949505003 0.13671564012230092
0.8872851696698374 -0.9794943772818238 0.6543021395951059 0.16217810465210125
0.8878494260817178 -0.9812410608277103 0.6687168314314259 0.1763862111132833
0.8957830246338971 -0.9956806431959185 0.6505419312524076 0.17209558856175236
0.8991377549106075 -0.9814850344226443 0.6687067223300148 0.1692427156710845
0.892441877820565 -0.9898336473461123 0.6628212425656786 0.16760038656047913
0.888456755315175 -1.0018863400259128 0.641744966919306 0.09688506468820045
0.9009023702119627 -0.9979569798001398 0.6257301853503113 0.09377582517835759
0.8908224891817613 -1.0062772028280529 0.629359673285131 0.11513010854063571
0.8963148495968767 -0.9906407764994333 0.6378631672470474 0.12873241213661576
0.9121908533195657 -0.9975312971877125 0.6320816391048846 0.08522070564555827
0.9069443568313371 -0.9940584619027065 0.6422913554782732 0.14817018253001354
0.9139369671608292 -1.0005789519335533 0.6177970425818953 0.023210682017573155
0.9080471321623016 -1.0064031559573812 0.6033504860849526 0.07122062715881243
0.9004584419716313 -1.017890377523878 0.6039190244516881 0.19202878451482455
0.8992590297977494 -1.0071973003879395 0.6098669207310421 0.1180941961546121
0.9123522823026615 -1.0181803645959007 0.6026475081043461 0.16403697243362542
0.9192261674418627 -1.0095517594962138 0.6083945212808025 0.04810231024667204
0.9050023163411802 -1.009500796793625 0.6219940621206623 0.09362579401460942
0.9251137782165042 -1.0155798603953357 0.5932080017610943 0.07771630737757272
0.9285990679353372 -1.0207949915053067 0.5848419119175656 0.08003798176784527
0.9110348226411287 -1.0158825458568292 0.5819006775008966 0.10302852734544363
0.9056836599451928 -1.0201078180686252 0.5924344156428921 0.23004841889212516
0.9218933608726656 -1.0292214682328937 0.579612487725718 0.14041745155845237
0.9156873085428396 -1.026815696512575 0.5884299556350703 0.18299672962544405
0.9361847135770158 -1.0321548928496087 0.5630251066910562 0.03889581660353836
0.919271850518114 -1.027181234319628 0.5588674225170339 0.11985632639228505
0.9125119098571529 -1.033950553072769 0.5704281285044419 0.184605681754798
0.9245322642837007 -1.0247269423631387 0.5683052516120273 0.11377481945099845
0.9277586178318264 -1.03954629448884 0.5608667326229634 0.114219056116712
0.9174897008483092 -1.0433691728823724 0.564853776059248 0.1605301577427759
0.9237279582347445 -1.0561704099594786 0.5413374042414818 0.08111913861965173
0.9219009860009171 -1.0500943037353803 0.5505410185926044 0.15745561926803636
0.9327203586035953 -1.0389212976780768 0.5385377520064717 0.045637614637320405
0.9307074020459984 -1.048643093749999 0.5322829599562815 0.046864633821361835
0.9324250460645831 -1.0366315135657302 0.5498412685286613 0.05969823583310245
0.9418408558114854 -1.0473002607597217 0.5390352468445827 0.03253207614516024
0.9514416536975767 -1.0549891902966213 0.5179693375813634 0.029692638229751833
0.9390757133701588 -1.0589407053807083 0.5102973161943731 0.01722489029760412
0.9305044876593214 -1.062606309358926 0.5175149906130914 0.0636792864857174
0.9372185969752395 -1.0703340970499187 0.5143970710642103 0.15143516625748696
0.9488500875278638 -1.064746899808526 0.5116898615178369 0.18558358022754962
0.9413094938953259 -1.0566858201071336 0.5279289366962636 0.027409736948103988
0.8071725352608149 -0.8675005090537248 0.37436308257728995 0.16847995589350606
0.8101695107077878 -0.8389854004407481 0.3732190119360352 0.12107107029509315
0.7971135685294699 -0.8386024950759696 0.37081442337391224 0.1258100105190682
0.8136365326928325 -0.8420635561929839 0.3846197567670458 0.2342813264262619
0.7946231210754604 -0.8653866118324223 0.39154901983336227 0.27680182840672335
0.8006075830490051 -0.8371136664965132 0.39208298375449907 0.24028733782562203
0.7875530858439331 -0.8550899910390627 0.3918667968828488 0.2411242589317584
0.8145095802554578 -0.863091281906282 0.39581949507459907 0.2855047462300798
0.8185990725473722 -0.8529684054997032 0.4021843553061782 0.25405123370605287
0.8127862025123789 -0.8414633489623778 0.4060436749349255 0.17809653368785155
0.7943722269499478 -0.8419285297525848 0.407279065696304 0.176674093700675
0.7887112493006507 -0.8546569653995238 0.403537393306685 0.18949941200394024
0.7979051136606414 -0.868304514994663 0.4079151437093935 0.2180967437951765
0.8136647054276964 -0.8662052196463988 0.4060938992101754 0.23383744090732167
0.7906498160852418 -0.8595809956678258 0.41934210130809507 0.16223980204586008
0.8053482800734467 -0.8415163493964452 0.4193596228062559 0.1791390498632537
0.7972312361301582 -0.846525218815955 0.42562913168090377 0.17509304216008995
0.8039527626896221 -0.8716430695796779 0.41751859247741924 0.21221890864448661
0.81510749422175 -0.8713641740918665 0.420674780041932 0.2615685448197407
0.8202827290948165 -0.860508306278744 0.4180579814722121 0.19287748271920416
0.8165592281735092 -0.8475353917621063 0.427698736186303 0.18960909843160514
0.7930971983214348 -0.8628366126748208 0.43192101875282346 0.159387336522263
0.8230557448188194 -0.8600706774896265 0.4285455299049445 0.1562275420444601
0.8072316442607637 -0.8455687459585716 0.4334271725217294 0.17506717726442356
0.8001883250182003 -0.851539065802429 0.4394655047475862 0.16425207427413407
0.7995494881459304 -0.8744705637577185 0.43451553910382873 0.1745771896061916
0.8097005057464928 -0.8507810533036758 0.44593576029611953 0.15900331941069587
0.8169748398255001 -0.8770071765210822 0.4321479921391225 0.15747872162553492
0.8019527645925494 -0.8590731716270662 0.451140000166202 0.15184140273649685
0.8255991757793597 -0.8663577306447251 0.4369879607261185 0.16456173715225522
0.8194368263783388 -0.8572147037192741 0.4558428900116841 0.15693606637182816
0.8085325056289273 -0.8607124698214178 0.4596382083151042 0.13044614872541893
0.8082561524724867 -0.8835507860800537 0.4432571626495965 0.14450885649271922
0.8301933567043773 -0.8722036408607632 0.4463771313951738 0.1449981853819575
0.8198500108257805 -0.8639842643293558 0.4649385039581833 0.14273771680799235
0.8044046749983456 -0.8757562254703272 0.46199212291621927 0.14531236190924046
0.8216607616411636 -0.8837770575771623 0.44285163295261265 0.12637756423383928
0.8315017331724978 -0.8681807121110289 0.4589313080097284 0.16184785302251917
0.8160164308543705 -0.8757929070352569 0.4730759394158228 0.13071940085964776
0.8080927390479616 -0.8880900590119191 0.46161922335753197 0.1660718773813763
0.8356395575948257 -0.8792907968653823 0.45316351285897744 0.16196568050422952
0.8295914215256276 -0.8787153357322416 0.47588542762716796 0.14546257511849772
0.8134159463632533 -0.8873134981602697 0.4728425860872092 0.12455332723669352
0.8134247111737172 -0.8972756728946528 0.46470990917326505 0.1572082517691653
0.8214507436874761 -0.8952276518726385 0.4517820986613439 0.1552353563924988
0.8353571631853397 -0.895648390426023 0.4539246924909476 0.14742137130088656
0.8419810959768583 -0.885028820852524 0.462257385901341 0.150015697872926
0.8214644603473256 -0.8864343686047813 0.47973450119947075 0.13578450838320447
0.8227937540388893 -0.904264790791904 0.45973487529015605 0.16246455361671164
0.8384341910571235 -0.8851919749376814 0.47839207682495816 0.150100540306041
0.8189931171232993 -0.8985386299169076 0.47841674540134205 0.14367932261215766
0.8199707528127507 -0.9064696573740807 0.4707373997054262 0.14637490528599356
0.846355847632239 -0.891245459172152 0.4732215363936824 0.14917307980442138
0.8284558506318256 -0.8956255835863883 0.4850942025042551 0.11498079662926622
0.8250128906107869 -0.9086274831291403 0.48184200934941607 0.13917900004900385
0.8472024264930256 -0.8972808361098626 0.46364757557856207 0.15605163962461058
0.8437400607000385 -0.895260925076976 0.48350908575311813 0.13759016416824071
0.8284115208730095 -0.9180978288971764 0.47493126798378343 0.14346790364219186
0.8300521412254991 -0.9141457378511713 0.46264907972535213 0.14538964538142424
0.8444628546914177 -0.9086914942883292 0.45919321396619045 0.17752161171122072
0.8524573127998905 -0.8998482765019018 0.47704553898576446 0.15590138592557642
0.8394040156008951 -0.9047237763639402 0.48893517140608284 0.12635426940068156
0.8331470691605132 -0.9180027763320763 0.4851924926818649 0.1394114514468567
0.853478476331073 -0.9065066013091462 0.4655818066718937 0.16628775338150936
0.84992483874192 -0.9089735963793252 0.48766323547526563 0.12656255269335984
0.8451014318709494 -0.9263225478179835 0.48933840096964454 0.12356443029814249
0.8358400552256525 -0.9294091421766584 0.4730492775251742 0.14067727601217628
0.8370513012611661 -0.9239038085192096 0.46376494789923917 0.15267236698135406
0.8578445797375216 -0.9097666612427677 0.4793422270679862 0.13691283836952128
0.8552672713731115 -0.919986858685906 0.48884630986015964 0.1296525409454161
0.8466222856307997 -0.9259608914913791 0.4591470840663551 0.17205695852650588
0.8561712093320962 -0.91740684344881 0.4618647093546482 0.1443107315215014
0.8634968108905129 -0.9165305735714453 0.47267411308963453 0.1512279709279186
0.8525570130051929 -0.9336563997508845 0.48701521950294174 0.15588127946849326
0.8438297756381969 -0.9375531778181593 0.4804321501005692 0.13518246775505274
0.8436667341318872 -0.9408441127259731 0.4656036303091989 0.15010130159298235
0.865930398397069 -0.9243969440832992 0.4807292423198007 0.13122681050592644
0.8741351940866599 -0.9334164710887987 0.46961835249206074 0.12424363217196692
0.8596528750613155 -0.9440721672078346 0.48324637631311124 0.16134640891516586
0.8472718417229557 -0.9463232644500922 0.4747198441317702 0.13253448441133436
0.8490962731291981 -0.937101191074331 0.45733747215949355 0.1836174249554422
0.8623909551202956 -0.9274441065132437 0.45844555170273593 0.15726214374879224
0.8741691986101796 -0.9454349577260991 0.47616260215540274 0.14289485337799557
0.8646957234485075 -0.9565619117960439 0.47571861447173247 0.13343157592505625
0.8536306549342602 -0.9561477064736215 0.4681576958723461 0.125098837738008
0.8528271702562735 -0.9529760928753692 0.45688117547249796 0.13283275072313316
0.8813062834043368 -0.9434491119855999 0.45958601520580894 0.1238915789841329
0.8769840990442974 -0.9564788104212394 0.4716744273193055 0.15485167866702548
0.8650508984576717 -0.9404605419905171 0.44908718508308343 0.1482836683924859
0.8863564709206823 -0.9529867551154885 0.44382594832846706 0.161546018912822
0.8880597354955447 -0.9549978023470792 0.45527607731009917 0.1290923166659418
0.8805314874437657 -0.9648048009190393 0.4655596080998858 0.15566653809824701
0.8752361951458156 -0.9753460235681077 0.4574547302722023 0.1743378650891051
0.8616479943902218 -0.9668990797657998 0.45928366103547663 0.14285084876103496
0.8626062799674293 -0.9529920190275177 0.4441102873444349 0.16189331912760585
0.8745236371757458 -0.9500181297895034 0.43997792396347707 0.1641729837653217
0.8769266103840638 -0.9573026973526194 0.4326734182996117 0.17701034697751478
0.8946014077983518 -0.9654738832266386 0.4441337042173456 0.17585918384408059
0.8883899417692835 -0.9678439625076577 0.4577097361994303 0.18078866145784628
0.8848055541008072 -0.9789616715827522 0.45244627147908195 0.17554621825901803
0.8670259344918689 -0.9757257296392239 0.449972213830288 0.1454888332180928
0.8684370848007145 -0.9704229778600937 0.4321274150933429 0.17172496533253842
0.8760650459879333 -0.9681070711095986 0.4237953936615679 0.17062360572269314
0.8917332271782636 -0.9633516790592289 0.4290780161435971 0.15022060836496487
0.8934614998368986 -0.976407313829245 0.44710337016518414 0.16518714037736712
0.8770957380998525 -0.9865897178702694 0.44212144090412536 0.16562723316920977
0.8697637443827165 -0.9804856937181541 0.4347484209440567 0.15836642830777697
0.8741832429208571 -0.9816043244674818 0.4204684129078384 0.16375066753679032
0.8941282391777909 -0.9719262417686081 0.4161628758336706 0.1604714296224616
0.9017579240400402 -0.9746097457882992 0.42589723339206187 0.1503666650128945
0.900219059297516 -0.9787778460714348 0.43665007404853756 0.1565105022132882
0.8856075353187014 -0.9922338458906655 0.4373410417416923 0.1659098768626147
0.8828231795328199 -0.9805685451617431 0.40833151218645125 0.18569445017859995
0.9053105409862914 -0.9892867145962918 0.42638344187446836 0.1763820258244725
0.9023313213411965 -0.9990180522500259 0.4252914718966215 0.15364268822941637
0.8913740440241021 -0.9982012715888047 0.43076757587317793 0.1513906925468868
0.8776626013891784 -0.9929907269777644 0.4177289584490503 0.16820860268987928
0.8857010404924424 -1.0042911355859512 0.4126844829920366 0.1531307776850134
0.8822038622204638 -0.9950091316378832 0.40467005064960854 0.16749493891562262
0.8932161217219883 -0.9796381054577797 0.4045098590341944 0.1627117599452512
0.9062507652799877 -0.9808111698350556 0.41212411629630863 0.1580244496392907
0.9104329401147011 -0.9921465031849909 0.4152627016025913 0.16242582220855262
0.8950557008781492 -1.0121647828670994 0.4083051269798124 0.17288788927972795
0.8914752037795184 -0.9866961919367656 0.39693314966662335 0.17524570803255077
0.9099941238211592 -0.9876041000939321 0.40337449215861293 0.16536084039920548
0.9137571115060372 -0.9997612606778522 0.4084803458255108 0.16481534308747925
0.9064973500363063 -1.0087777761977352 0.41215515323256374 0.15805033919068484
0.8904904729307522 -1.0116512968673614 0.3928031423992763 0.18650183647883242
0.8881720833886055 -0.9995998753444548 0.3932935609871028 0.18080847654943885
0.9063972241321421 -0.9902378943442769 0.39021471963814236 0.15712957922857057
0.9105095329065822 -1.0166934169555881 0.4033238809804831 0.163513307634177
0.8981234831889684 -1.021086039209157 0.39526638946782455 0.16159333537066492
0.9183006617418201 -1.0041731582386748 0.39963863728752574 0.1576234498316482
0.8953119620074479 -1.013748775216262 0.37854006615474206 0.1631903595437438
0.9045697523663349 -0.9992463427126353 0.3772910220774473 0.15026917685079183
0.9162904297987565 -1.0027553292358737 0.37730032300898125 0.1562064302211531
0.9257214008072068 -1.017562927412269 0.38899841325738854 0.16583674745403396
0.9102765192946081 -1.0258061471555235 0.3942847974778279 0.14993861590518548
0.9018236752739356 -1.0279641807825732 0.3849081541649996 0.15456594316931963
0.9079555310011055 -1.0121248633754343 0.36666101827785347 0.1685742510079882
0.9247512605976251 -1.0092947000233514 0.37845275344863805 0.17163678532776744
0.9263022681185462 -1.0158608345753026 0.3674692460239113 0.18904508559333424
0.9280391009597837 -1.027448355175454 0.3862190193971089 0.15979649015964764
0.9120349491928834 -1.035037767959543 0.3861549983946702 0.15672226334661604
0.9028486934244414 -1.030605804672909 0.37155655560871603 0.15177528731596698
0.911216340297489 -1.0273212692615745 0.36139532795069435 0.15757398048423307
0.9338655524414812 -1.023267988381334 0.37488338611099375 0.17579892291610058
0.9092351344171099 -1.041176028000303 0.3713582483400437 0.1670714613736594
0.9237096748756315 -1.025096240049002 0.35966899053637563 0.1588629860779502
0.9348141337921478 -1.0282201176357268 0.3642947267064154 0.18110385169108542
0.9333091851177954 -1.0372644368406818 0.3860107294485179 0.15754008427469554
0.9219559243104799 -1.041554029042419 0.38676256970051986 0.16240484728664872
0.9170529350881192 -1.0473700767930811 0.36340293742274105 0.1665635241159368
0.9217483669270694 -1.0363722625545642 0.35746811357031255 0.15413834036271273
0.9374548638275783 -1.0390981012162372 0.3602625893831917 0.16239690564678458
0.944415330401815 -1.0389771948795472 0.3692896014042414 0.1685481521281387
0.9155504647058964 -1.0493952842175296 0.3779227749237509 0.15808868355416214
0.9330386343069011 -1.051896952466076 0.35735619065666596 0.1608041704987174
0.9431218015167715 -1.0535977923011548 0.36070483103953516 0.17818497376749923
0.9226591577373919 -1.0599660046024533 0.3778500077669825 0.15327170254088177
0.923385812267052 -1.0602579694247756 0.3674980700149396 0.15078332049465673
0.9307107913688456 -1.0699261053817357 0.3689220938575099 0.14820956366587765
0.9416661622341544 -1.0681344729188151 0.3626569021020026 0.15389336552422317
0.9502064225280485 -1.0501142271494288 0.3690434285778285 0.15732950044178742
0.9470294600991257 -1.0472982283089216 0.3816637809655288 0.14710613097462027
0.9494583831267277 -1.0748485330001687 0.36617912087025484 0.13625059998389158
0.9569378385988967 -1.0605036538068189 0.3720451402971081 0.14235457731440326
0.9447623462954275 -1.0565672593227073 0.3913376572415904 0.16772155414607862
0.9335853788835047 -1.0671452191806996 0.3898096351011541 0.18149828781387267
0.9367211397419906 -1.0803756725673686 0.3773998860497175 0.162465923572049
0.961342984503603 -1.0636476851348917 0.38252726672542436 0.1717393057541363
0.9523084198755656 -1.065111139793111 0.3959573613336432 0.18946452116821955
0.9424041264185111 -1.0704342957592985 0.39693361728456966 0.17246711915507534
0.9422708449334896 -1.0900746821358378 0.3845858771659466 0.19580697313252068
0.9530639980668192 -1.0918752244742738 0.37851864956847703 0.15838622036401373
0.959197078843282 -1.0843076727333179 0.37428766942180713 0.1364528966249896
0.9648954217430366 -1.0749285529167576 0.37836524735352556 0.15046311810532886
0.942501255783514 -1.0858429790074964 0.3982044195806408 0.18605244777880128
0.9510567062650566 -1.0986172253749054 0.38777623312617004 0.1735051841819482
0.9643227185551825 -1.0950841896322736 0.38387784703397826 0.21923312375628334
0.9696509742929036 -1.085438971857441 0.3851167639867142 0.15857501044714792
0.9557849682215328 -1.0726592046087278 0.40258314081854546 0.17158620436120184
0.9476807068507298 -1.0989915896707123 0.40031839691511134 0.1806902433365537
0.9714265297233008 -1.0802536750515392 0.4042562621332643 0.1897212178786557
0.958710891628461 -1.0818266155444611 0.4130737754517191 0.21537348715470592
0.9521340422799573 -1.1052203581640168 0.40914072723242645 0.1781902566043977
0.95892196008309 -1.1068211497645313 0.39810128328525923 0.23435431271261198
0.973234827807072 -1.1018245942509384 0.39718672653508 0.2591930858805845
0.9783849879423403 -1.0938167673677266 0.4052110090493638 0.20809672284298833
0.972656314185669 -1.0852629613075573 0.4169544999121262 0.17153613236302032
0.9566377667808248 -1.092061338746626 0.4242607206858455 0.2301422900990873
0.9668746752881012 -1.1111531531326029 0.40463480703777266 0.2094961854158474
0.9767581953307587 -1.1095838827162618 0.4097953236815103 0.1822291756537038
0.9816404923671618 -1.0950066933698173 0.42007352685614296 0.22204629928063271
0.9531813293883761 -1.1047930324292121 0.42292829321314507 0.1844826857842459
0.959155218508163 -1.113222211217458 0.4158825084496575 0.22311764623615862
0.972980413681228 -1.1171857201362947 0.4190462792492959 0.24949468708602468
0.983327926365858 -1.1098690432048737 0.42307491430875566 0.24645854160919517
0.9840339568542917 -1.098174603413383 0.4314274893983231 0.23761469130898813
0.9737439858197958 -1.090521815500538 0.42967499228974987 0.17366350950312723
0.964245635021545 -1.092364670934711 0.435391647307305 0.2585557632391884
0.9640614291828514 -1.1188848668753508 0.4256464461449999 0.28997705651294814
0.9745476562196721 -1.1225937269021198 0.4345892790288791 0.25761141750190925
0.9851131877386364 -1.1153920402141149 0.43717501746275084 0.23260227869435435
0.9733971469904318 -1.0935740953078383 0.44526128841255774 0.1578228648702508
0.957846265872258 -1.1146852367484548 0.4371520151900655 0.2408725836418589
0.9832849125071028 -1.097960356289605 0.44550849948281374 0.20654179528187744
0.9663905385981466 -1.0986139105868387 0.4535591690399147 0.23732203930799736
0.9585520474384442 -1.1055755984843758 0.44629320561105573 0.179283730737429
0.9584480897023198 -1.1145129133113156 0.45140647957982066 0.19781245654424157
0.9664506220583142 -1.1227372905927369 0.44146852294141425 0.2600200023086386
0.9651495894508118 -1.1237500654761923 0.45480816176945726 0.2288916549819165
0.9811424404409023 -1.1261270715787108 0.4538663743209747 0.19691644779320128
0.9889608289634806 -1.1141550818027357 0.4513594691321954 0.22569198288643177
0.9864834906493263 -1.1022709048170802 0.45609251422570646 0.2125139384552891
0.9771920425382694 -1.1288759655936562 0.46412608817796913 0.2312344986655005
0.9892459636077169 -1.1075969767014513 0.4654597257721588 0.2344395978856445
0.9695583491046886 -1.099599541565231 0.4669202408825244 0.25568070520177943
0.9602456467537914 -1.1149816656924203 0.46401803904184635 0.25254134656289023
0.9674829294743041 -1.1267285524349515 0.4692288438241836 0.22532997535133847
0.9653574476493425 -1.1255728563842449 0.48141353190260405 0.25801075025722425
0.7883659286685476 -0.8572291997981131 0.37055280183328587 0.1039003550393946
0.800738163884158 -0.8565608557537351 0.3711625359080481 0.17044065460529978
0.8121128329458621 -0.851698640782702 0.3713787091857895 0.1604535399656534
0.9737447303244158 -1.1164360028054185 0.48503781726933104 0.3002376700024399
0.9965301016371717 -1.1223035906507122 0.42384770745163564 0.22937549857579217
0.9948337649307667 -1.1224744152806005 0.41018608119417965 0.26346122496474966
0.9807939169824254 -1.133502647342326 0.40707030456864507 0.23834805240919518
0.9777499238712097 -1.1293287198442956 0.42015813019370096 0.23677844999796635
0.9831497993217385 -1.1353967133868919 0.4303306368175008 0.2324564340728956
0.9902499124159216 -1.130979982750776 0.42097337003305785 0.2582664708704786
0.9971575334345413 -1.1244752351378695 0.3217703025886756 0.06877960650879052
0.9857898101704108 -1.1223265912734732 0.3223935367540755 0.07307041600576657
0.9781492954808321 -1.1362994644256692 0.33600278591291244 0.04108325780729133
0.9803075341908416 -1.1230790754487876 0.3317144317784401 0.05305859918516157
0.9896871281905678 -1.1261145951435183 0.3417111816406757 0.04235852404165115
0.9887021079910987 -1.1320145029302524 0.31760737300598907 0.07830228560847093
0.9789194806974969 -1.1385539620342557 0.3234779634666051 0.054187888811194386
0.9976640218472448 -1.1260245552441748 0.33395875289188975 0.04670687214824104
0.8824244137183064 -0.7628141742200737 0.37275347847321294 0.13805259823627197
0.8507590534066689 -0.7634425485839974 0.37456951738982674 0.1488541846000438
0.8580803802090855 -0.7835304713623678 0.3791746140118367 0.1890530180265782
0.8724925964224961 -0.7795140679011873 0.3820595385310665 0.189166123817975
0.8570925303219088 -0.7512698022948311 0.3909767396625512 0.24335699556114396
0.8471549601612218 -0.7605814168255801 0.39015528463482224 0.2199985655308187
0.8491874143939593 -0.776987447653841 0.39033390118590794 0.23845873426685008
0.8752204221438997 -0.7796919800691359 0.39645299799010497 0.29203423136949447
0.8805589372716702 -0.7679516659713587 0.392432803862692 0.2695430100671602
0.8774593880929081 -0.7573705048903431 0.3998329986857623 0.24859326981487387
0.8509068411073013 -0.7570322964527547 0.4003192884251157 0.17832637155747127
0.8473361935338508 -0.7681951104237598 0.40015945664574387 0.20224283741597973
0.8697248468527115 -0.7848618785563453 0.40557570632807344 0.1936963676884587
0.8831283743738366 -0.7682007026797881 0.4044470310804496 0.2668031964625986
0.8657544841602859 -0.7512593685266963 0.4096286290505444 0.16615940263282222
0.8518456163937461 -0.763170868130277 0.4145457829448215 0.11983310281065153
0.8509548503073026 -0.7747704580524079 0.410749701429367 0.15113013251162905
0.8590579179247488 -0.7834562629880195 0.41362996955387016 0.17246912537280984
0.8831022196770031 -0.7599917402475831 0.4142296329631255 0.20108899896823282
0.8708474584394923 -0.7529566585825616 0.4196722743838137 0.15271544826337016
0.8540653984498731 -0.776926318688736 0.42210030237709356 0.15852262980120138
0.8655298580224277 -0.7859484551225895 0.4280631697284329 0.16856769701104313
0.8819080199476885 -0.7837073946250951 0.4212417875542278 0.21759371909599537
0.8628999146014456 -0.7561367156385997 0.4284219497671336 0.1462547524323083
0.8550156059484768 -0.7653727588496653 0.42800775775075867 0.11492328757041793
