x y z curv
0.1925818918197228 -1.5437491035264104 0.020643676757799483 0.15940884276629574
0.1750298723289848 -1.4917150315735326 0.020643676757799493 0.0747918377019002
0.12146856233887161 -1.4610373102427143 0.0206436767577995 0.017574481231578697
0.11150470099040369 -1.4987453154742363 0.020643676757799493 0.05512265423581479
0.06444908570977706 -1.5472470988965636 0.020643676757799483 0.019835794926562365
0.07938322429388478 -1.4662067382776212 0.020643676757799493 0.004256107762290071
0.09846221150689835 -1.4726753206668692 0.020643676757799496 0.016799609225301604
0.09267742345364487 -1.496988393345335 0.020643676757799493 0.03322682374903561
0.1765297255816965 -1.5443952752969383 0.020643676757799483 0.2094634360162949
0.06017202980325229 -1.5066044430159478 0.02064367675779949 0.006351571666095748
0.233875237222877 -1.5071789241755482 0.02064367675779949 0.07155532341718672
0.25730582122637596 -1.4559855469698237 0.0206436767577995 0.005070789847127952
0.08527169352848861 -1.4834257058810838 0.020643676757799493 0.01400007091902504
0.14051835997374928 -1.519190574421938 0.02064367675779949 0.08146712102456209
0.25405830007572966 -1.4684156696463035 0.020643676757799496 0.02360781864972667
0.07042414806859569 -1.4887850403742333 0.020643676757799493 0.004661637998072719
0.1886817519631121 -1.4497518867859898 0.020643676757799496 0.03802333658576938
0.11637034322826871 -1.448984414702967 0.0206436767577995 0.004797558074770767
0.12760941293502825 -1.4508890735742623 0.0206436767577995 0.015889323257805656
0.22480013023402817 -1.448968016369213 0.020643676757799503 0.014841823333575067
0.14808547955900386 -1.444233359766419 0.020643676757799503 0.029553681521820484
0.10352284840658063 -1.4417381824192201 0.020643676757799503 0.004482889419845155
0.09087869732555681 -1.442780945450094 0.020643676757799503 0.004736234807989913
0.07107234684725997 -1.442118404466272 0.020643676757799503 0.00604817447859849
0.17586577758854918 -1.4447000447685228 0.020643676757799503 0.030459622987084652
0.1364704035650047 -1.4440479948496276 0.020643676757799503 0.01103281514324931
0.24181912119361143 -1.4404186692191887 0.020643676757799507 0.004874391031166483
0.16963399544335706 -1.4309870833024139 0.020643676757799503 0.028428538957068303
0.1602231337074912 -1.4356832582474681 0.020643676757799503 0.020711466360554678
0.25964072769993474 -1.4462831142407833 0.0206436767577995 0.005110479672704492
0.29496111813004705 -1.4482377811662699 0.020643676757799496 0.006630017512299594
0.18005654337700874 -1.431402620505873 0.020643676757799503 0.02556791158775681
0.1276536900531002 -1.4322129570930104 0.020643676757799503 0.006664178607113504
0.2745284101164301 -1.4312467895191145 0.020643676757799503 0.005435462932420247
0.2842438248147383 -1.442159757646248 0.020643676757799507 0.005673871991211936
0.07631990013872822 -1.4311955241572292 0.020643676757799503 0.005985565286247165
0.19946536391219408 -1.4419968624925765 0.0206436767577995 0.02887907659259256
0.17679561839359847 -1.5744070485151753 1.1750407603715554 0.21151516627688116
0.17684468384464475 -1.5741839316425204 1.2394918216824735 0.19585358894431515
0.1765859237835795 -1.5742985973456551 1.215514961737993 0.25426009317812
0.18279643625259212 -1.5728142553586422 1.186046381497056 0.22141985145417087
0.18081566978259467 -1.5734975567671714 1.224076686846835 0.19602851588269696
0.18676494720485437 -1.5698643022767944 1.2447773301254368 0.17807838186343716
0.1863057328901611 -1.570346213053938 1.2139397829010212 0.24259845808091518
0.18411527822128076 -1.5720788344519598 1.201602261052787 0.2534150939157512
0.1891415567824296 -1.5667236134417237 1.2545587294745373 0.22771839730203022
0.1869898198997381 -1.569959553115505 1.175687291830621 0.21482231742252852
0.18765242254299 -1.5687804561268435 1.2333331952522915 0.21651816693916084
0.1913878007999438 -1.5594756602187538 1.1761956049011866 0.21268249561878308
0.19107302362165768 -1.560621605282997 1.2249739896546756 0.21281829643835284
0.19086622376139542 -1.5630573935266179 1.1910949820930041 0.2382548999208139
0.19094158550960522 -1.556228725499828 1.202961117691214 0.2414434343110958
0.1912842616230909 -1.559116729909664 1.2141231242483903 0.22567672306515452
0.18976597365386594 -1.553072633447959 1.2413487409488673 0.19424637726757443
0.19059399182605383 -1.5552009208742335 1.2561875006944943 0.21242900617834695
0.18771379386876622 -1.5494234492147556 1.1809836359326582 0.2144114622770482
0.18493800070799912 -1.5469236287606642 1.1922348714496904 0.23954868837304422
0.18208983240804497 -1.5453894452718901 1.209846273172455 0.2678365014091517
0.18102787708342177 -1.5450569006905883 1.2395982943389392 0.18860059270825405
0.18231956747466632 -1.5456327423545209 1.2509131448695634 0.18838544346638347
0.1823941933393026 -1.545553478316631 1.2203705960844582 0.2380425108896549
0.17623897086805407 -1.544114265925778 1.2297941832151167 0.20677479197508356
0.17553538505383062 -1.5440064594117902 1.1779957298799062 0.22050138078718312
0.1744738405459234 -1.5444219055854058 1.2600104855695433 0.21851177260311508
0.16955018745889447 -1.5456692672442665 1.2141359602034625 0.24602148361621606
0.17107250623059755 -1.5449527266089012 1.1903054953551353 0.25626493115390386
0.16626308951550176 -1.547700807781018 1.1804933863391078 0.22131920813575057
0.16611087099612498 -1.5480592290378277 1.2380114940482572 0.21622346373205475
0.16459368125731025 -1.5495052723244394 1.2028984834006364 0.26162266343798346
0.1622081946848538 -1.5536869676650022 1.2276055814916746 0.22528239617599533
0.1628022054455125 -1.5519621093126366 1.1942181901245366 0.2546600569117786
0.16113522708717012 -1.5579324058533148 1.209771649406307 0.2614218779045263
0.16135035197241018 -1.5556402952932558 1.1839867580459782 0.24211527492091442
0.16157327244668687 -1.555667844326007 1.2513958622122778 0.22262245075581427
0.1610523162269816 -1.5608538902125009 1.1703775018369942 0.20627887499711722
0.1612831542334059 -1.5609989509046611 1.2333810253066702 0.20030102828881
0.16259920662170094 -1.565999444771154 1.1894927541605413 0.24761165560318907
0.16332232163966404 -1.567135384976863 1.2235424033068467 0.23564108846128082
0.16333731218578418 -1.5669795762838847 1.2555730716089069 0.20952974351948536
0.16372165307137287 -1.5677177353462246 1.2122270304560676 0.2682482192058707
0.16403164421949845 -1.5679525260524785 1.2431331899549507 0.18901306718649363
0.17151063077266884 -1.5734903393883113 1.2315910229847795 0.1953812430081052
0.17083215905469623 -1.5733444632751772 1.194126427803679 0.2529416349432747
0.16873694418335075 -1.5725125352655864 1.184163263954439 0.2466862485100441
0.16978556042937765 -1.57287463419146 1.2041917238139568 0.25425211154508015
0.17089557724011012 -1.573155947704888 1.2536624743257045 0.20430853563249218
0.17467549271641217 -1.5740036883925501 1.2634153615690649 0.2163214343013304
0.1624958004348115 -1.5574496660062802 1.2655187988281111 0.18953087658979648
0.17208987219644656 -1.553501319152232 1.2655187988281111 0.17136288621425047
0.1793241750704601 -1.5644124164222715 1.2655187988281111 0.1813607705252026
0.16534494818088707 -1.5517129190746346 1.1694082031249873 0.24275312227721518
0.17293586135625713 -1.5607981422034014 1.1694082031249875 0.2799080073865505
0.18248255047984052 -1.5537650944124153 1.1694082031249875 0.27819069836935095
0.17491915665553776 -1.5756169030270823 1.2789564924395045 0.17725346544083342
0.17467297425595854 -1.5747505129352108 1.292994683103456 0.16066593689474915
0.16612742283734452 -1.5697808226280725 1.29897591280325 0.1570177088835319
0.17514348825932818 -1.572594899504683 1.3039769691850147 0.1778139886738915
0.1697295745540428 -1.5677086089850056 1.3156500823846509 0.2183314649598568
0.1702985938546599 -1.5642103506939191 1.3245254956919947 0.25745789809174785
0.16420808667901604 -1.554954717201082 1.3071911905745852 0.19289902361904251
0.1677375284553617 -1.5538703152827924 1.3180699236540014 0.23625989031577352
0.17402510578335006 -1.5454653212989589 1.3018785004600073 0.170119753696824
0.17254117114989087 -1.5435674800701247 1.2901213179919893 0.1737152266292259
0.18046826241690211 -1.5433748449711102 1.2759768258567108 0.1763131848281739
0.18667876915068057 -1.5466102232397916 1.285088858798081 0.1661302813676148
0.18252891609437716 -1.5458386380073565 1.297320920712804 0.1585795164594131
0.18968616120178555 -1.5529440289749326 1.2966926851629368 0.1623188122821873
0.18660441349969853 -1.5559242345653412 1.314529854560315 0.2211537149863952
0.19007440634792508 -1.5617424050043656 1.300780953967882 0.17018878944530694
0.18352186050634203 -1.562524636939697 1.323773708724617 0.1555216756546766
0.1846727389952898 -1.5711836605264204 1.297836137803861 0.1746433612621017
0.18333363372738873 -1.5686214189894343 1.3105914560458365 0.20589278589381152
0.1855150807338244 -1.5729146057613317 1.2830568232627175 0.17547634877541413
0.1920315892314572 -1.5615150103653943 1.2891454992008824 0.16554148316649722
0.19142977604864106 -1.5617677341549863 1.2698851927023074 0.18414550278328476
0.192334878606818 -1.5551320347512119 1.2821368912856839 0.17624752245587696
0.1901548614232102 -1.5517870783769252 1.2714462234376671 0.20775892076611513
0.18662319260152282 -1.5708113057614714 1.2703942838671873 0.20769936390657615
0.17316639260642966 -1.5532561581234752 1.3264422598901973 0.2573283006436426
0.1789442539643308 -1.5483526280179445 1.313672029523871 0.20286633526219552
0.17121078481266733 -1.5442729537613344 1.2708820812471313 0.17986482167044152
0.16742083156379792 -1.5451424512993566 1.2796316819107343 0.1682544990874829
0.16149133127098286 -1.552012883930086 1.2760392845029258 0.17454567359474335
0.16181960654567001 -1.5520357337237838 1.2901271272199162 0.15548248879461865
0.1607997961566183 -1.5644273373878135 1.2878480233571428 0.15492713102801406
0.1627503717882414 -1.5680430852933636 1.2725872493834514 0.17515795060067152
0.18219461105849624 -1.545949593603681 1.2655187988281114 0.1978830228109536
0.3444883376261529 -1.5602660405995779 1.2387401589055993 0.007402908769285914
0.32087459249484307 -1.5651913877075505 1.312896813692965 0.008218268763579778
0.33742653641570175 -1.571731735886401 1.259363061265645 0.0078525596527299
0.3404164448494343 -1.5702075129437307 1.25011359899468 0.006720224624230741
0.33229932815464064 -1.5633273705912725 1.2769378467720618 0.007579848671799555
0.30002108122686416 -1.5656838613003847 1.3789792833880148 0.006266076033480091
0.3133476099051938 -1.5689048498005316 1.3361949878496495 0.007409426082823367
0.3047370774090142 -1.5694659322585622 1.36341591482544 0.008027572545942099
0.3088326894009912 -1.5683009715106744 1.3506119666491991 0.007825588711333311
0.28687965082318895 -1.5619251572983481 1.4212625410744029 0.00819522559707045
0.33244501510115465 -1.5740778403877236 1.2747943497236072 0.005849523178506452
0.35087791607834967 -1.580512426855358 1.2140445214632771 0.00748105230784833
0.3007913674834355 -1.5769430638009985 1.3730025898983957 0.008612334225458158
0.32223627086961537 -1.573722787207089 1.3071506472102266 0.0072569556589273275
0.2957777830113424 -1.57416363425593 1.3900398244306236 0.007910148253886425
0.33284307137220465 -1.5845816733874984 1.2687924295298563 0.0069112283098870025
0.3437510661531687 -1.576544332255427 1.238271039087614 0.007904773846810194
0.34676484369464283 -1.5884573568851912 1.2232691024028015 0.009437552748480856
0.34311852234834567 -1.5868930871373332 1.2354475934482507 0.007564169019310767
0.3114579464407727 -1.5815682108698 1.3373423564263143 0.0072361120778724865
0.28539141672992585 -1.5796168541999511 1.4200214106150122 0.0064340737889331924
0.3228931081722561 -1.5847417217771393 1.2999646139340248 0.007119996704402928
0.3042449090339869 -1.5828116219044805 1.3593690107520986 0.008250927890218187
0.3260019699250078 -1.589905488073003 1.2874382832785127 0.007243898475913992
0.3160023041720873 -1.5967349105420332 1.3129462536108862 0.007645755045743121
0.33309356058962303 -1.5998648171181893 1.2579700220402819 0.00631417493992575
0.3380130035758653 -1.591486272388432 1.2492788900320784 0.007329297276840759
0.3137491998427149 -1.5911615111034332 1.3241606356579012 0.00690388577364272
0.3295537574052163 -1.6001039393454113 1.268674159962039 0.0057186499759493675
0.3393316924501972 -1.5989050459133654 1.2395201441322603 0.007387022521134537
0.3463108638970985 -1.600740520694368 1.2166422893274196 0.010443242297629107
0.2880047869393693 -1.5814114742463474 1.410841523753013 0.008447757079085304
0.2939510861412236 -1.5934705705010963 1.3831491712453936 0.006528286526616715
0.27955454270715974 -1.5828975916709978 1.4356371385869513 0.007936162900108746
0.3280688654701175 -1.6196759773013545 1.2538551166346747 0.006739641355436068
0.3402624421134577 -1.6121445805412051 1.2255323082141198 0.007081991115824429
0.3260112495163431 -1.6153793532721843 1.2645566849012777 0.00842059827498214
0.31774106664556323 -1.6071723165933507 1.2979297900771656 0.0067695361619969086
0.3083429022272026 -1.5991673170554759 1.334449108668671 0.007228648809042568
0.2974429292227765 -1.5965022253905927 1.3697633646705318 0.004996057163393948
0.32295000433362675 -1.604342497157545 1.2854184718899118 0.006563991456902757
0.29230473789313516 -1.6034264864110497 1.3775978260526303 0.007493553771580396
0.28321386217416655 -1.5939245034829153 1.4148996046388573 0.007967476444899377
0.303294104443723 -1.6062225529995187 1.3419729302374994 0.005889131975185541
0.28479168588412107 -1.6018054527639012 1.4016368396474765 0.007222641011940439
0.28085684517653464 -1.6038122256196294 1.410565490649245 0.009902303365327995
0.31252441719920526 -1.6264695621509568 1.2896853466531961 0.005933276030004947
0.2969428585986954 -1.6155895032240957 1.348801548040965 0.008494658947575517
0.31725117915326 -1.6242019100655958 1.2792500282481496 0.006703741018894953
0.3089989808011068 -1.6145743476129544 1.315763693635412 0.007135203014646587
0.3302388404284617 -1.6232323821281913 1.2434923786741234 0.005603318228434291
0.3241942578410901 -1.6309810110352219 1.2503078778411083 0.006371024645356452
0.3328753585843985 -1.6375753622224987 1.2166546725045266 0.009052555167814974
0.3296375083287824 -1.6374390517870863 1.22607815123676 0.008800919859396402
0.2979767506313933 -1.6222016370627117 1.3368144230463423 0.006845076520764235
0.27047227869758494 -1.5996725745511604 1.4457077959040423 0.010950305261996715
0.3184238011496255 -1.6349476111519325 1.261368204279988 0.007025691798409114
0.2704138120256799 -1.6094193968057016 1.4322126490334084 0.009633388705878364
0.32470157728963256 -1.6492962493740457 1.221286552761533 0.008319232677262901
0.3187463694273641 -1.6506830244219168 1.235124283165902 0.007019535922989178
0.28977369283945076 -1.6217116666463447 1.3601061508630659 0.009029011851639353
0.3106446713562243 -1.6355934155341596 1.2813544613493224 0.005737023446002756
0.28530480374377687 -1.6206039728622625 1.373958312620686 0.009014391228452276
0.3245428117219635 -1.6414116563044703 1.2344432737676199 0.006982999868840786
0.2767400010278491 -1.6145366635362908 1.4068739387304618 0.008321498954004653
0.3018622393405345 -1.6378082021985236 1.3014877744867428 0.006151735219986547
0.2668074633463961 -1.6092336052750829 1.4421732326869312 0.010810991924539453
0.2805041162750268 -1.6211823507884486 1.385922287054603 0.008303039949897333
0.2952004213801981 -1.6329040805622863 1.327373600930485 0.007553381247576873
0.2647764711798716 -1.6168663435618214 1.435046183501417 0.009828207108071554
0.3155677382463701 -1.6594239246928046 1.2277676179633843 0.023800880788079837
0.29974321186083785 -1.6471159693596753 1.2905815466690498 0.007310000030372678
0.2870824227075057 -1.633828090764416 1.3472513426939485 0.009510323275397109
0.28403361646297626 -1.6307826414773878 1.3606100564409997 0.007647739472828645
0.2959004755229397 -1.6443285923197237 1.3054594361587477 0.00643694996304346
0.30290114460389594 -1.6595837958357278 1.2593825899298607 0.00624556493392466
0.2787041332729603 -1.6304022031554195 1.3747467060472354 0.0079776384730582
0.3111155193355448 -1.6531342212013393 1.2507101527055184 0.005699897047591356
0.3067743754789396 -1.6622482398595666 1.244657043731469 0.037260634541562566
0.2798075966971101 -1.641233667173566 1.3515970536208874 0.006711161163841133
0.2892911363459989 -1.6486447662040333 1.313978050952216 0.0076892011082739
0.2665491260938816 -1.6264660985059878 1.4125360607950697 0.005945408344818845
0.2630950333436588 -1.6247301650253079 1.4244131181896524 0.008039153419540018
0.2575477942248483 -1.6219929436829743 1.4433915870357614 0.010899228029964144
0.26771166916466704 -1.6329648747672767 1.397336696126667 0.009364274808057179
0.2788164978718621 -1.6508450588663772 1.3341861442097762 0.007276119061833034
0.2814463485190642 -1.6541215700012146 1.3212346960902501 0.007238276500645849
0.2859502253630863 -1.6569063378827602 1.3049731070441026 0.007866675389020687
0.3027035560406748 -1.6793922875691487 1.2190886251984026 0.06960226936637157
0.29013418531874985 -1.6580560430628042 1.2928763087484396 0.008033014257087006
0.3007188764378574 -1.6718077239430562 1.2395673171797508 0.03570209876918501
0.2902028751655367 -1.6621463360167734 1.2841519033107436 0.007518773404663999
0.26865311241880685 -1.6410295720856456 1.378269092918904 0.00916768745526835
0.2716917472822324 -1.6451111710171824 1.3626853229904037 0.008960213307917323
0.2656173558385671 -1.6394149399032838 1.3886130015053721 0.009750604100895344
0.2700433844270107 -1.6561497162978813 1.3422790869178647 0.006229343841508383
0.28505449093889795 -1.6747289447736675 1.2681204237458523 0.006279523222323282
0.29565365466935584 -1.6834827705633952 1.2258051590357304 0.058823300958828297
0.27237640253552076 -1.6692059884126171 1.307345884872146 0.004803784254963657
0.2925118274909776 -1.67767339160803 1.2457479720319602 0.033131553931839294
0.28831690297015045 -1.690715002491391 1.224499574418344 0.05911246879801544
0.2540237338028123 -1.6412226992032004 1.4100916347754306 0.010160740798978624
0.26531185030804977 -1.6643727865223685 1.3330941813791684 0.0066482235636984785
0.2584061347595591 -1.6485864061460072 1.3839748861016465 0.005579670827620294
0.2798704012698439 -1.684355421877069 1.2567504857164735 0.006763331933523496
0.24314271765727635 -1.6378387167278439 1.4402907438401118 0.010181923940846991
0.256323460258214 -1.6548396345578424 1.373708112423941 0.0075707444499988116
0.26437970873817934 -1.6741498400846135 1.3109168528692814 0.006049311622191955
0.28269202707422336 -1.691279453401174 1.2344836879318555 0.04384222828437498
0.254969988731511 -1.6642867275190725 1.3528299541224549 0.007500985670848616
0.27051111005086165 -1.693064893711021 1.2525575871371262 0.00704001083660317
0.2698982595939127 -1.6899371635116358 1.261466515345295 0.007515848871570228
0.27588476159596514 -1.6824593214030528 1.268993815069951 0.006441661080801521
0.24722349238664026 -1.644466167031781 1.4164255537697303 0.009238837806940856
0.243648920173115 -1.6422677492565494 1.4284938197577626 0.010418950072443863
0.2584428270517597 -1.681175417967007 1.304271658351866 0.006509785908801452
0.2487673072516664 -1.6530875359591461 1.3921321420968216 0.008699920880042653
0.24602941264340372 -1.6498433882174897 1.4052112518329831 0.009025786002330744
0.23927602893772554 -1.6509941446775904 1.4145454878284738 0.00807209758028134
0.2552874653052559 -1.6746942535113818 1.326214394351296 0.006509720039496215
0.24874345416724156 -1.6617807125797273 1.3703996709672297 0.008555184236544033
0.2582435428921119 -1.7017456500468433 1.2502233584322109 0.005856060285805675
0.24691410840631728 -1.6723000112750046 1.3461398243247793 0.006968913863457172
0.2638579276580374 -1.7046905979357367 1.233507318578195 0.005366909607858839
0.2579006986939391 -1.6923758205980384 1.27555924901882 0.008254261082753712
0.2534432422884802 -1.6803517197860995 1.3144581694698843 0.006994568797618353
0.2520112086845602 -1.6920355406602334 1.2858210805284103 0.006885641655361923
0.2665656147150691 -1.7102835514445227 1.2144053968552253 0.007352937078596833
0.2682088740305269 -1.6980599629000366 1.244134867435207 0.005812665959944449
0.26196396670936206 -1.693600799172418 1.265859490950376 0.007075861376433119
0.24803630237108842 -1.676158344070153 1.3341475915909113 0.006091189306687604
0.23902346247179063 -1.672097259507835 1.3590427325810575 0.007318200471412716
0.23028251423977064 -1.6463742673369088 1.4410176494420817 0.012115739685631139
0.2323755888394401 -1.6497398793497522 1.4288184116908966 0.012174239159733934
0.25145001626894914 -1.6983499462366667 1.2699386354020032 0.007029660684678396
0.23027012171995218 -1.6595156408470626 1.405959547792176 0.009307587447274746
0.2522349701224581 -1.7125440091803497 1.2296076894475898 0.008015666009548039
0.24107422324674838 -1.6880637119092816 1.3123648653447726 0.007278284669776741
0.2465932637881703 -1.6909854069570998 1.2969702907038225 0.008365569449411041
0.230610586354618 -1.6645767910016618 1.3914420369873044 0.006849052294889459
0.24726546901579616 -1.718394779682068 1.2198926211840064 0.008256343530408088
0.24279499076630676 -1.7116606518894706 1.2445031124007953 0.007467526133144805
0.22858073283142555 -1.6565932496731388 1.4163093891938576 0.008826405660489763
0.2337170303414707 -1.668123185785502 1.3774902289869349 0.009943580100908199
0.2412475645346051 -1.6843477996068028 1.3224658325420353 0.0075403615984586435
0.24420917643294715 -1.7042553762246244 1.2632245041838013 0.007064065189924877
0.23088815433745374 -1.6793978809803332 1.3498209767425542 0.006510109811534253
0.23972108700293812 -1.7096912315676924 1.2540063713241811 0.005826556953820627
0.2228426430625991 -1.652685648584216 1.4346386211917872 0.006569085262697959
0.23612090926546542 -1.6981086285695706 1.290927173608263 0.007738667700851587
0.22826583645332787 -1.6879624950046144 1.328884223089695 0.005943370328039774
0.23153795452278345 -1.7149305040540588 1.247627785107635 0.006547291663022807
0.23428577879436374 -1.7032611666442234 1.2784765824878253 0.00750670926888657
0.22457997063417523 -1.703955285156521 1.2865231804497153 0.005986304870116402
0.22831490454733683 -1.7096270748382496 1.2662786371349288 0.0060452525930993935
0.23280906917618543 -1.7190767213740048 1.2343396103807198 0.006589907399009744
0.22535151065676862 -1.6850049738236674 1.3404417517264864 0.0057703370650962205
0.22515308827044528 -1.6935997093115593 1.3158306031631495 0.006027605664013735
0.21728023548431283 -1.6932602089696813 1.3248367764747997 0.0073396913536132894
0.21551340814936562 -1.6653288001717426 1.4073909172779364 0.006027139013411381
0.214060831461744 -1.6700302910478073 1.3952583685757511 0.006295640134234014
0.2178931084312564 -1.6770207638772625 1.3711816204606146 0.008791692480391853
0.21890302933942798 -1.6831053633236612 1.3525682092912474 0.005541040731364679
0.21172109224489993 -1.65515294780993 1.4406391023605185 0.006716267268617863
0.22224107200765228 -1.699766189273429 1.3010240349848166 0.005952907078955099
0.20967579349211374 -1.6840519756636492 1.3578623921249504 0.006292814816159019
0.22435078572846473 -1.720414966261431 1.2389884586821647 0.005642910822499909
0.21035879970405666 -1.7246067906545453 1.2369730867258177 0.004990269999668302
0.2153493832902888 -1.70393336837516 1.2946195667488336 0.0071165358975454306
0.21964246008028038 -1.7148068540641501 1.2591440445823503 0.006122188005868327
0.21078282026774278 -1.7111144356294725 1.2767069284749248 0.005779129591905528
0.21489944688631452 -1.6905418618196648 1.3347053629653656 0.006053841393407092
0.20354235568560508 -1.6737740256059068 1.3928715695655338 0.006629470903936305
0.20621436392432058 -1.7030779708638673 1.3039136919015246 0.006538274787686303
0.20552576924891253 -1.6625726302186086 1.4246991703261014 0.00794813274470526
0.20380189841004498 -1.6692163959627038 1.406218145060715 0.0065809734596745375
0.20382634343960662 -1.6594090079553985 1.4353249557847245 0.008763547334462081
0.20388296747432977 -1.6999545589255913 1.314739953498637 0.007426162462990618
0.20569611119101183 -1.7071846289715389 1.29207441488029 0.007108285632246486
0.19909489766562097 -1.711080942142508 1.2832651405936522 0.006364595637036535
0.19451427208237793 -1.7164524975721343 1.269089430726571 0.007640292828632114
0.1976757847226535 -1.6923171991376171 1.340610843215287 0.00627818910860218
0.19532531694434108 -1.6875696990380191 1.3560149693180825 0.007439019370057349
0.19697451358849596 -1.7269229165981033 1.2363400970158642 0.00670699751388683
0.1942422235368991 -1.6701286109482505 1.4091958129715152 0.008215558164178145
0.19433724410034728 -1.6992445410635417 1.321171675887958 0.006416860252381757
0.18782189348097908 -1.6600563006332625 1.4424347165862708 0.009085997542860167
0.19140201210228183 -1.6831901935234594 1.3709659534711411 0.007666636886335916
0.1882041073652316 -1.6965520266692202 1.3315157906605468 0.006624365189855514
0.18840462960061763 -1.7102400098716213 1.2897522915160982 0.007578620343088824
0.1826557371376263 -1.7171473718289827 1.2695554282172292 0.00705488120164625
0.190112440589764 -1.7249451709523846 1.2446612312294196 0.0071879546268780875
0.18855442986726442 -1.6919847233647707 1.3453884846994517 0.007479544769577887
0.18665985386727657 -1.7031343102013559 1.311678845443516 0.007977233212490942
0.18643117677160181 -1.7296180825517167 1.230966600524704 0.007797300140902836
0.18880876064565771 -1.7062694451547036 1.3017975068026941 0.007323387400368137
0.19149305199506247 -1.7211297606051195 1.2560868023252665 0.007773052842207027
0.17898356204390414 -1.7217474925477276 1.256081365748454 0.006090985327029707
0.18987435410226997 -1.7324296424242915 1.2218775117099472 0.0074138560308310624
0.1770439676497213 -1.7030088814627382 1.3134905425389696 0.006290009069832204
0.18008130301554948 -1.6846906398661583 1.3688882808381644 0.008170894797867242
0.1834294786425345 -1.6714748528879109 1.408686583320135 0.009737114936055747
0.1831825211595136 -1.6745853302254816 1.399240737162938 0.008864614556189303
0.17775099464762065 -1.71166773662385 1.2869921557404929 0.005874874959947986
0.17862444136260197 -1.6912956780468313 1.3489661619518254 0.008393241778559615
0.17923484327144365 -1.6681468448821788 1.419443126940876 0.008218720380226103
0.17784711944636167 -1.6881444772832257 1.358685488046223 0.007856419623252136
0.18515747192962018 -1.6642525984292895 1.4304506681238331 0.011156235195730328
0.1717054042674692 -1.6818993096781565 1.377288606465283 0.010826483364127594
0.16366284943945972 -1.7349379984331592 1.2144003387648157 0.009696127807172907
0.1667750609995125 -1.7012222351025548 1.3176452766771434 0.004574663843404857
0.1706337989794991 -1.7165163131460084 1.2716026900753317 0.005087233419062909
0.17316756317813425 -1.7070166796809132 1.3009413380852766 0.0054330987122908165
0.1753102832922065 -1.679363598825944 1.3855595086456667 0.010164995164643854
0.17534165302719548 -1.7354196250182088 1.2146853279840104 0.010395092091426127
0.1693473356369544 -1.672457937488405 1.405730593399514 0.010227777348178552
0.16591811092994968 -1.6691084876105908 1.4154439796854732 0.010937686724541994
0.16459931493064656 -1.6966965651313681 1.331126876576821 0.005716209318969157
0.17415043151201373 -1.6643020244916706 1.4313010673585063 0.009583450042351381
0.1686017645453728 -1.6578430183589186 1.450187357096808 0.011195841693417993
0.1594487564419629 -1.6814138630344735 1.3756004528273886 0.007976499918205076
0.16059675720752276 -1.7159153223689967 1.271900545255545 0.004552494646884737
0.1520104268274981 -1.7175313355699624 1.2631629582173425 0.007416483382761988
0.16404772976494442 -1.6767834112142748 1.3916527094156204 0.008352703130777945
0.15739140934470053 -1.6860403926061454 1.3607015232927264 0.00866022908249996
0.15647610712311932 -1.7283150886439649 1.2325950328645392 0.006513091787905999
0.15819496424741422 -1.7034142655038707 1.3085826978071924 0.006581515846863159
0.15773680549845517 -1.6894625892129225 1.3505195204669451 0.007502824499859279
0.14910783276722603 -1.711111117222117 1.2812523458299099 0.007333108059168049
0.1564816355717523 -1.7314937939546575 1.2229958832635555 0.006931492133446683
0.1497570513961625 -1.6951472027558705 1.329815947096458 0.006836874704443486
0.15898938712927188 -1.6628283300383484 1.4316010096172886 0.008798638820333719
0.15772282461418224 -1.6728547758715695 1.400721720170343 0.008040929082333902
0.15463336001562067 -1.6778779513210031 1.3841788735717742 0.007633581220828391
0.14692180564071486 -1.7058771298371649 1.2961235589717888 0.00844561364669164
0.140529290008016 -1.7241007452951058 1.237328632977877 0.00792575164188136
0.13076964590532236 -1.720343480338711 1.2412047036915226 0.0075398030468564504
0.1466308636557471 -1.6789631362800754 1.3757398600222486 0.00812136193007419
0.14057221240546985 -1.7017787753783418 1.3035625055119866 0.0072987515296509715
0.13411921765233512 -1.712049208315199 1.2682977618849804 0.00827520285649239
0.13953336692561796 -1.7270595411945489 1.2278119396872091 0.008784884688640443
0.1474571177788787 -1.6904651819005438 1.3422426321695988 0.007360846125017384
0.12869021898225363 -1.723705683690902 1.2296848075541706 0.009124519949773483
0.1357666669880654 -1.716391734858939 1.25664551769985 0.007732715587985611
0.13715111277268816 -1.7084813697024337 1.2811367428668023 0.0074023983067224575
0.14207648918261026 -1.7204855013407199 1.2492026882698026 0.007150800061251583
0.1365972200928866 -1.7045281274760808 1.292448730891862 0.006342983982429427
0.14932070370057876 -1.6588058513293886 1.4376372464783143 0.007188495084676598
0.13833595850963457 -1.695041975019938 1.3218982951412221 0.007869908991011918
0.14050668525717827 -1.6916728257367497 1.3334932318432429 0.008676268346406226
0.13346033722149275 -1.6975378392026406 1.3107814671512408 0.008354386293572052
0.1437252300485447 -1.6636712409981165 1.4190721819633416 0.00570840644309811
0.13708926090393356 -1.6843071032710968 1.3526932468626593 0.008841766889085207
0.12772015326412273 -1.7080242947165487 1.274600543864281 0.008342324576319901
0.13650458025553455 -1.6795057255822525 1.3659359156558475 0.007778298464847308
0.12235081254536158 -1.7239274058231209 1.2231812718624815 0.007001735084581407
0.12748182243716394 -1.7003090358776694 1.296605256450267 0.008535901654568225
0.1179607665412397 -1.7021020511641494 1.281634981092598 0.009058486387134388
0.13773549405018654 -1.6583961925925408 1.4282484026407736 0.007521811131539475
0.13725956897904712 -1.6657928901641244 1.4063340993410756 0.00626563393587514
0.10687951490895485 -1.709479932629685 1.246926843607965 0.00477661629362532
0.12025989448889371 -1.6923239164667743 1.312156485855065 0.006582635780670547
0.10769542631172245 -1.717354525882272 1.2261420905185503 0.006408422088012333
0.12195683541195011 -1.6756912035176945 1.3605589262806483 0.0066102008867316535
0.12156496643711769 -1.6828364551597386 1.3402093361802683 0.007127120163310384
0.11795731450117519 -1.6877177612992875 1.3219122957244247 0.00681846966903196
0.10531829439572603 -1.7004286247726388 1.269997166248611 0.005774618667943298
0.1152768734279764 -1.683386981478596 1.330406474397373 0.006849104929005476
0.1272942241952082 -1.6704965441525201 1.38200199379015 0.006461908592423725
0.11178627153654767 -1.7063832766325306 1.2619795533400746 0.005022911879367217
0.1046234820722709 -1.6958709057490242 1.2817786336274528 0.005902454443881529
0.12606955435066033 -1.652803260887601 1.4297789479184828 0.010334505631428553
0.12435782057195888 -1.6661624010237783 1.390231452463776 0.006841837505904571
0.10592384620005293 -1.6913555587832605 1.2960748301845468 0.00682774440943691
0.12338327182546568 -1.657529647271066 1.4131085503941574 0.008697691130884491
0.10912807246691625 -1.6894042750992637 1.3056545978115315 0.0072582633965098675
0.09427372441532245 -1.7025576517740755 1.2482059775706509 0.007644468140636429
0.10953642929903168 -1.6733694902434755 1.3495282036368177 0.007283457894403082
0.09588126983338102 -1.69764815679448 1.2637255858543937 0.0070020429519820305
0.08096614296713989 -1.7042095986627335 1.2227237450208752 0.010951059588621335
0.08772733987918888 -1.705226316530815 1.2307678159651374 0.0066902135783542495
0.11453290143826522 -1.6549353621502705 1.4063509653412483 0.01000530468161055
0.09746760462311041 -1.6801517786887648 1.3125356246804447 0.006229331266369646
0.11997396459589303 -1.6415485446291729 1.4505229495711445 0.011582429813383179
0.12448597090010033 -1.6476083800962391 1.4413845747345564 0.009076524813874578
0.10833556739988166 -1.6625423884684316 1.3764165043630991 0.009838055323857797
0.10664667583744168 -1.6575802450045043 1.386233171391058 0.00873778181063488
0.10940421153649328 -1.6553945464026558 1.396745197573113 0.009337377637257201
0.08040097025984515 -1.6915772910907432 1.2534365584417018 0.005530403136322478
0.07127009633744205 -1.6930567735590274 1.2329187636138454 0.0557394553711833
0.09838425415501731 -1.6684177366484934 1.344092696917053 0.007929100446568558
0.08986193342739984 -1.6865074391178274 1.283474014327829 0.005998914020738651
0.09415694777667408 -1.6705475078001242 1.3310078234989773 0.0058819127150808595
0.09768676440818833 -1.662766814935318 1.3568378801673788 0.00643165860079428
0.1134401192475921 -1.6473174557306922 1.4242442994629152 0.011661195304465188
0.08481496674895263 -1.6731645849168577 1.3073536651523026 0.005576775160012604
0.10470133105572456 -1.6450712954134492 1.414030683632782 0.007813656490227396
0.07585358270997393 -1.6820592029430332 1.268742386236833 0.006080228031665932
0.07495077092768028 -1.6657214537398475 1.3045917395244124 0.006774512142906406
0.08802492892287511 -1.6579733533709329 1.3496842315841076 0.006993077375753806
0.07295088639718517 -1.6751764411070895 1.2786929954718766 0.006701476646778379
0.06670386942410003 -1.684094331615112 1.2451631770879017 0.04858897698708401
0.09406285494885368 -1.6469830423429097 1.3876392392636365 0.007979934361980454
0.11001438150474524 -1.6341903991388325 1.4503264105570797 0.012559368325891117
0.10726727984533584 -1.6384289953558362 1.434782064348105 0.010625902710613389
0.07537581649707689 -1.653493117235741 1.3325719729073942 0.007371375300267076
0.05923817810135622 -1.6615121292991062 1.278508296842542 0.007003029799506672
0.08011163015051963 -1.6531883805177994 1.3441558876824748 0.0062526232712060426
0.055102534547524534 -1.67688755281423 1.2368114298237365 0.04698611356693739
0.06811837374973823 -1.6618740932817306 1.2982785487282429 0.00654050343413195
0.10197941885339444 -1.6310618921104627 1.4409519549695056 0.013103437501017418
0.046033583860204334 -1.6739974951106207 1.2218890051658873 0.0729083391757553
0.057385844026232584 -1.6719271354478569 1.2524574665966612 0.04640018447770772
0.05561228163473734 -1.663688481163186 1.2655779968434961 0.007627621922994032
0.05133862595224491 -1.682430219652319 1.2165259483259918 0.08875657797876907
0.08338330527379148 -1.6460551520183235 1.3666280984546568 0.008080011212611357
0.06739142779202824 -1.6551675589434445 1.3106159741971606 0.007747884446430938
0.06383783687726802 -1.6692891985031624 1.2728851565777966 0.008429777997271994
0.09416338641846646 -1.6250820998778717 1.435789727280022 0.01012795772715094
0.07204531659255844 -1.644344432088235 1.344219074684055 0.00563771085426628
0.09871903444078392 -1.6325615422345812 1.4302880998695189 0.010476602903841803
0.08408456350524875 -1.6394140637246115 1.382241039965652 0.005223310758438518
0.060935686501887264 -1.6569983150411203 1.2918848202639097 0.007427327015962229
0.04063773495758667 -1.6524952530611072 1.2502075149175194 0.005642836591508497
0.04958219652778901 -1.6622135668731806 1.2546179959910437 0.007418587508780574
0.044075243009073346 -1.6665930425809545 1.232618590577149 0.05320858611784748
0.0823146628976709 -1.632066396523845 1.3930388122339317 0.005065074660046873
0.043871480973636204 -1.6607706576237125 1.2429408271040399 0.043458599047213
0.07247582615348189 -1.6373784526129045 1.3584094760296774 0.006336392203714263
0.05391370984953261 -1.6458653752775694 1.2959334152981856 0.007503467040649942
0.03241265511562005 -1.6562054019376247 1.2226176540057372 0.03656724033204265
0.08999531108502064 -1.6157502776256276 1.4431131506328523 0.010794427375898152
0.07706921005901718 -1.631969432847247 1.3800514116715878 0.007875593654012698
0.05740993445235684 -1.635986426420948 1.3228011546659297 0.0071321937884352956
0.038069961823488346 -1.6391914684999773 1.265512636079861 0.00594442250616942
0.034960515165280134 -1.648896830118248 1.2414910169540039 0.00408101670781594
0.06526688939072837 -1.6299808355583896 1.3536551771674337 0.00787207858070654
0.031269178241297484 -1.6484381673521675 1.2322816741096698 0.0058733226905425375
0.046276268811671774 -1.6415280819524387 1.2838637469511724 0.006382763639868164
0.04769201734682249 -1.6361172022484791 1.2963996088642362 0.0062141275251958936
0.05323433981459872 -1.6395500446930322 1.3058043047576062 0.006812626087714814
0.05975753807154033 -1.626225415315005 1.3448824309821015 0.006934983556978896
0.03880579801374752 -1.6335704763783243 1.2766167185715591 0.006373407103877631
0.07027574607608394 -1.6200907253499366 1.3831903121454014 0.00910880581003228
0.08133482573861128 -1.6163323860851049 1.4190276830844113 0.00688807894003183
0.08485287895435717 -1.6132880282520212 1.4334777973721533 0.00926242002743387
0.06461379519707666 -1.6238384383559634 1.3618344366450195 0.009342257561473366
0.07804651032452906 -1.6177623626524884 1.407856324295824 0.009168594781876812
0.05157171988436249 -1.6168166144680216 1.3358846101855812 0.007420243465322677
0.07204936770630413 -1.611287028734511 1.4016722968087365 0.009476795880340172
0.05527266798314994 -1.6171789263282048 1.3459435624815237 0.0076564635754085815
0.06447899368750991 -1.6160405281890502 1.3737083593051984 0.01048830060426018
0.019564274529033414 -1.6357362179405739 1.2192375658516432 0.009932190236736966
0.02607266837165111 -1.6270880976844015 1.2494120624805156 0.008128512693930574
0.023823610845101956 -1.6357768501896313 1.231320219824714 0.007507522959943703
0.040222478689819624 -1.6293683761769204 1.2866668889293074 0.006803474293528747
0.0295217121295095 -1.6198245159066345 1.269086235470821 0.007319018374623325
0.05871818963708848 -1.6124970302348105 1.3621001657636047 0.008135908708714144
0.06375693449338247 -1.6070673149319952 1.3838974051140178 0.008299144221573117
0.06681370476472409 -1.6064963251432778 1.3933650671616782 0.010261527564608621
0.0723225635678978 -1.6014466143092685 1.415973130162023 0.008340145259861022
0.035755334964940266 -1.6185620020777975 1.28852879872095 0.006700057059974499
0.03942522513795516 -1.6191319846844197 1.2981637893318403 0.00662981627501741
0.027385888502692607 -1.6226559658100557 1.2591159424307488 0.006883907355079585
0.014047463855700352 -1.6243196388960386 1.2182687705590658 0.006618372126522617
0.04711988764359686 -1.6064652002178745 1.335668078643832 0.005228385874665729
0.05234228495412904 -1.6054479038977802 1.3522918199070009 0.006092759611443543
0.022171457504529927 -1.6169270619827867 1.2503014706404605 0.007658313269107228
0.01863055259608347 -1.6191494985537798 1.2374018431368226 0.007345094440188983
0.01450681015348387 -1.6104560803320342 1.2343647470134333 0.007413320358798199
0.01703474867130977 -1.6229573106634787 1.2286069157761834 0.007619850566861005
0.03615606493377302 -1.602988668978245 1.306797840993334 0.007444412628136845
0.06514378457074207 -1.5958534571334915 1.4007081611057934 0.008989997892213789
0.027689223620694592 -1.6045341185651314 1.279956175144138 0.005825128636540179
0.031625084033290965 -1.6057104247619134 1.290365255969512 0.006460894656364799
0.02335401399627671 -1.6058421324522778 1.2656485686925762 0.006371277235416578
0.06935579487037866 -1.591517269510039 1.4179555432767943 0.008941278698907202
0.038449592878904815 -1.5916985945304278 1.323032739501821 0.008485092024294658
0.0502327338886644 -1.5944024579583973 1.357167368593988 0.006530827024454836
0.019562490564366878 -1.593361661036688 1.2637130481134509 0.005844525788791565
0.07629373494548121 -1.5882162906371418 1.4420069836123977 0.011155444798438796
0.026410063157056025 -1.5932882143569485 1.284812928456515 0.007157401489714128
0.02956910813907715 -1.5905034195503696 1.2966840262240986 0.008934823184145459
0.06246243134615088 -1.5850926104979108 1.4019888674942778 0.008438580097497648
0.05565199336781763 -1.5892497054062118 1.3777865596809395 0.007298336901218106
0.06848574926981872 -1.581400328566599 1.423406341790651 0.007807916466687579
0.006727063379293106 -1.5805954572112613 1.2303443807192973 0.007859100642707983
0.031660690940546424 -1.5866368619647042 1.3058004438952715 0.007392351485548372
0.021388472588074366 -1.585799031016476 1.2739468958194402 0.005385684212187551
0.009494042677036057 -1.590727400047774 1.2343230203859188 0.00551925347538822
0.010151070942866507 -1.580627643030676 1.2410768027827395 0.005492047851423646
0.04847332728359371 -1.5801368807239478 1.361591762916984 0.0074618633172885765
0.03907483680823031 -1.582772972047125 1.3308670097172979 0.00872483531113839
0.03520836807670444 -1.5767249030662684 1.3215487359039584 0.00753657313144911
0.017891062672748904 -1.5750120927269873 1.268005661431402 0.006925676501351748
0.04484561786824986 -1.5734577959689424 1.3533641362639828 0.007047005152032607
0.06577871515943659 -1.5699285682034922 1.420764584630399 0.010310611816529628
0.02784260399268062 -1.5739009819639806 1.2997766785009237 0.007601040223462144
0.04114454303661977 -1.5771562107622281 1.3399772070829865 0.007037195307013633
0.07209949069064232 -1.5722109314460389 1.4395152084728537 0.011292799808974425
0.0032155165560095317 -1.5739999634330328 1.2217040196630555 0.010353785640012502
0.059163228889640575 -1.570261622822461 1.3997656820189792 0.008086426167623709
0.015606621110549964 -1.5660146873610363 1.262253304261737 0.006283224999536686
0.036718875064945325 -1.5678529323506238 1.3289409585663685 0.01025368340344822
0.062096741737443735 -1.568529547346644 1.409340833946712 0.009397964730493395
0.04835731914444316 -1.5709984938094417 1.3653720092346122 0.007909202556615319
0.022318374160109483 -1.56727896317687 1.2833481316914195 0.007010143690337011
0.011395539086455561 -1.5735535991851406 1.2477225401166938 0.006780254538228371
0.0318539465878235 -1.5653194211851906 1.3139020687747889 0.007297535247138561
0.018713448878212798 -1.56411641518161 1.2724040953434963 0.007354068469994032
0.0027209839958945705 -1.5639695529036373 1.221694746349513 0.010290449905972535
0.04258102120426049 -1.5602945518372096 1.3487321913291062 0.008485690452864786
0.010893438932751527 -1.5592811730626683 1.2483546366113678 0.007890846764715981
0.06436695867638342 -1.557304370802547 1.4177499901943857 0.009043206224669394
0.06085911229286076 -1.558406551281011 1.406791568396157 0.006716106182839201
0.025888735303273812 -1.5507997944471155 1.2946529748166964 0.007348385557823078
0.0009500801177206942 -1.5477733441864754 1.215055836606584 0.0061343950414086
0.057600355740143945 -1.5558231984945106 1.3960502549187752 0.006450304008705403
0.01477978489313828 -1.554212706053578 1.2599368354024183 0.007960348191658102
0.04945250318823211 -1.5572289179015049 1.3704170328580172 0.006661204937009644
0.004328204737857985 -1.5555650029765693 1.2269859390501596 0.007207371515058106
0.01787910774406394 -1.5541691564142306 1.2697637261449217 0.006585632053263514
0.03217569804764485 -1.5523131809814508 1.314835897493151 0.006146722446408619
0.013048136498623915 -1.5438624262440848 1.2528290289159163 0.007613342316316729
0.06738106112267296 -1.5506656124650355 1.4262504337248019 0.00816020324788658
0.07481630753282226 -1.555756269920783 1.4506481006807945 0.008075004845580607
0.020638106919678566 -1.5461389732054178 1.2772671332118846 0.00865147973285094
0.009695192803721674 -1.5377124305207772 1.2396734989479972 0.006313992734373598
0.022584558797844358 -1.531737247250118 1.2773761938902273 0.00575815924062024
0.023907040975609542 -1.540724791599384 1.2857066660549439 0.00713537941355149
0.013704775560433704 -1.5315038845644624 1.2493802732403627 0.006699831526058358
0.03175701148409582 -1.5415388944901058 1.310738312386898 0.005850274309593231
0.04014921657914926 -1.5401606883006704 1.336453957264309 0.00561635302049408
0.018984871223578774 -1.5368938976860156 1.2684678289380265 0.0070131254916561084
0.035590722658909536 -1.5415078830711673 1.3227638856155572 0.0068377874676758404
0.05098699706859635 -1.5350633209867797 1.3680430970886144 0.007262973935396975
0.07282089056512323 -1.5412386626919823 1.439466324582246 0.01084893006827989
0.06735524733064185 -1.5395819730432527 1.4215341156286274 0.009541752739339698
0.056035564625614966 -1.5357492345883672 1.384203527546034 0.009036180788945167
0.06149444626457598 -1.5401592082740792 1.4034299299107815 0.009994088565201426
0.046463758144652686 -1.534928351136017 1.3537933580144277 0.006147537540690827
0.0342089967723546 -1.528177010695125 1.3112891845128944 0.008320957495686211
0.011062958258546867 -1.5115094710977894 1.2272829610259546 0.00662796824104016
0.026878303433715216 -1.5217535750985942 1.283803338477507 0.008031594637380417
0.01664158261891696 -1.5168576486986736 1.2485531428292065 0.00614743092123584
0.029311854130363992 -1.5296825161512861 1.2973835276193493 0.007811823955185022
0.0647879122047643 -1.5370200471570719 1.4121432578484947 0.01040371563481035
0.022580915776728452 -1.5153532940681054 1.265665317340286 0.006017350033660071
0.007569642538096905 -1.519022081691584 1.22231290336905 0.006846445337770178
0.0424322183889018 -1.518980913171 1.329412239628266 0.007133740933925646
0.05930717448491497 -1.5246039296904235 1.3855956574400545 0.008061303621799876
0.0631939110589597 -1.5289549775904943 1.400946799042249 0.009554832362901562
0.06335631619184597 -1.5212787857286758 1.3942284255972257 0.009998436703848063
0.03338147360672634 -1.5082096316857865 1.2910083955358764 0.007077075598074259
0.025091253584074394 -1.5012446514902844 1.2588966780324904 0.00732241713605044
0.0469534432707164 -1.5166688958702546 1.3404480101947036 0.007842153947373138
0.019233925320339344 -1.5041890277224206 1.2445751634542759 0.006428634014335066
0.03835902367740877 -1.517438321410059 1.3156570606168272 0.00797706329189543
0.06828197409092902 -1.524577740515148 1.4124149086149886 0.007314540066615212
0.053152408063284494 -1.516106186640523 1.358320941147697 0.008251412329961082
0.05842410318316483 -1.5179933970440138 1.3760311670389442 0.009129682831629654
0.08074338931221284 -1.5251898389204948 1.4500384981683452 0.011673814742935964
0.05768594426900037 -1.5122989580830162 1.3676396148933332 0.0074350501874876525
0.07286886297482631 -1.5209890542680313 1.4221175169491644 0.009257003936336737
0.07472640839690455 -1.5249713087751626 1.431962454172108 0.009824120848103138
0.03342133727302403 -1.5006307924555047 1.2829939265944315 0.006454212498301426
0.046326995954440696 -1.5100671067710807 1.3315335333324851 0.009253694909256495
0.01710798144095014 -1.4881564102021483 1.2197512709760492 0.00746768227052052
0.02093364894904056 -1.479062246576995 1.2184228181470238 0.00939653682560195
0.030179616397219895 -1.491891462202376 1.2620837382937138 0.007339088061010946
0.04171464046469946 -1.5030359840830674 1.3100084665672347 0.008799689505557628
0.018304806284173428 -1.4929175281613123 1.2295778506520423 0.008066830772396219
0.038276372623579094 -1.5017548780764376 1.2984714698399746 0.008425685896992986
0.028957803218437703 -1.4848773689838881 1.2491520686736983 0.007045025837355824
0.04853211396673162 -1.5013626670415239 1.3272104928523014 0.008291213164063685
0.03330889144849803 -1.4944731605029762 1.2744902850490056 0.00698198376630474
0.057171281284166396 -1.505566795701547 1.3575255178231107 0.007501172862638199
0.08526640499006102 -1.5149368191427393 1.4500726295519515 0.013169874766815609
0.07221859161256149 -1.5130431924804921 1.410512571922222 0.0092119464912543
