x y z curv
0.17765743771089554 -0.032175302416808285 437.9362139604187 0.05358450633235881
0.1871040218343568 -0.002425417413063109 437.9281091250637 0.12182469396356825
0.1671120512505557 -0.007311790322374056 437.9306913563489 0.10315996803044535
0.1780519568770034 -1.2596599999412985 437.9248614506246 0.07161829550296617
0.17346699897910484 -1.2971658703829712 437.9260064814247 0.06549610076041042
0.1760360433193267 -1.266207758297685 437.93286253567317 0.07296589821795658
0.17792514311706137 -1.3789999861137177 437.92683649480637 0.01723254411103462
0.1754045878664948 -1.4215559526248187 437.9264290744777 0.10127625416354391
0.17542066628275602 -1.3981902953786673 437.9264247667496 0.05371561047727244
0.17590831618292307 -1.317560461685337 437.92629411562655 0.01708485772522155
0.17453355538819293 -1.344992115894904 437.92707675691474 0.018253619543908296
0.1739257245817576 -1.4106192678230958 437.92839140267876 0.08344976622796692
0.1740180468151119 -1.3642351835429558 437.92804681377055 0.017345796622845293
0.17513849467080192 -1.326840767753328 437.93085136527395 0.020186331138000124
0.1772561895653858 -1.30770248156074 437.9309329207959 0.032463936726176694
0.18054012482676085 -1.2556862918206362 437.9376724139965 0.06855315124038762
0.18495488484181183 -1.2673466063528973 437.9226305140769 0.07975861422437953
0.17521243037819045 -1.2711413667435594 437.92263051407684 0.07404394304823973
0.17723147949246193 -1.2399378641197745 437.9226305140769 0.08212401868343717
0.1737689481003775 -1.249105258490974 437.92263051407684 0.0739625901470528
0.17001465625183593 -1.2287998775660613 437.9237712362621 0.09676687423684928
0.1874196216550633 -1.2315013253348406 437.92611418007175 0.10185904619878199
0.18648162316143366 -1.2808429779927581 437.92307358084315 0.073343449337325
0.18753970982841706 -1.250214303537002 437.9227520474424 0.07702114121156058
0.16455978680856698 -1.2805539084773618 437.9257100171626 0.07696907850248545
0.16535275079600747 -1.2685889717888839 437.9227676697292 0.08729940870267203
0.16562993657395764 -1.258156463221019 437.92249656519755 0.07073700652924492
0.165753406346422 -1.2384589939196244 437.92386670439845 0.09170224916902457
0.19090271031099262 -1.2593440530193893 437.92965491383427 0.08050329246460375
0.1887648310979156 -1.275201699535085 437.9302484978089 0.09063012006462942
0.1815494060838612 -1.2781117263343582 437.937526646243 0.08733930284430476
0.17974401024524878 -1.291382217543644 437.9364448084111 0.06313480330841877
0.16798710620996332 -1.2567240901210142 437.93767338615686 0.06807979009150289
0.17531130372639075 -1.2411870829675153 437.93752104118926 0.07831041772021455
0.1649254555392893 -1.234508905954264 437.93378512337966 0.08808036561291739
0.18479221315418212 -1.2325487201874443 437.93700105964547 0.0976555961980378
0.17234400453934154 -1.2274737236702338 437.93596270833694 0.09279413129040538
0.16641531720665845 -1.288847790888797 437.9341339837549 0.06027077798748742
0.18842881662860028 -1.287120006503228 437.93056401848094 0.08400338360124952
0.18834373648692668 -1.248702526177245 437.9369128898339 0.08249870622691735
0.18691380677032116 -1.2662975359637096 437.93764396156575 0.07740427593800196
0.16247564049657398 -1.2517499691682399 437.93109418366663 0.08317196723864698
0.16284480264814286 -1.2659024383848276 437.9338018933708 0.07850692516707826
0.1677229077359514 -1.2746978809086207 437.9372950601776 0.07868488363982992
0.17852155076476686 -1.1573808620551738 437.9298995980712 
0.17858338913522986 -0.22004573199669308 437.9296688579223 0.0009048332212412848
0.17858772593554917 -1.1847247323577095 437.9296526758344 -4.430562955025613e-08
0.17871669450250582 -1.137481511298752 437.9291714499207 2.1546050915783425e-08
0.1788134981355276 -0.861521878347259 437.92881024239665 0.0027891995332548886
0.1787078488645796 -0.6175349951543094 437.9292044560267 0.000697629723801303
0.1787834106556072 -0.5070158172737325 437.9284293192987 0.0014119012372454146
0.1787998972872541 -0.3614487889064196 437.9284908365821 0.0005050710264611119
0.17868236482581176 -0.5194296505229725 437.92805228261295 0.0033443654891954777
0.17882768672523683 -0.9996015694013188 437.92859452851695 0.002046912887248355
0.17878855863491316 -0.8284389733530674 437.928448528177 0.002700629989811881
0.17884229053514178 -0.8963823311197668 437.92864902034603 0.003558054417013796
0.1783113257791471 -0.2633055134947077 437.93012910851326 0.0007997333117596732
0.17818173010932625 -0.3285887693350534 437.93025871835107 4.9546386782292565e-05
0.1777174178397466 -0.13383912744555046 437.9307230813811 0.0006404550391021312
0.17800592201616955 -0.9362478981985162 437.9304345456643 0.0004704677520346128
0.17827265249109175 -1.0227278128958512 437.93016778602924 0.0030001394331026607
0.1784310303604485 -0.1893784578893013 437.93000939084544 0.0009708232863305817
0.17845846736547027 -1.0345384094385248 437.9299819508409 0.003953427543616679
0.17823629680662376 -0.43774466850060323 437.9302041456884 0.0019044875617540034
0.17704220225761957 -0.5332124430111027 437.9309903247196 0.003335070439054141
0.17739137460509272 -0.1603131567132342 437.9308967744916 0.0004483064744011346
0.1766281707783209 -0.5597598915967492 437.93110125200116 0.00012088543491445675
0.17686374697532953 -0.6029506672187889 437.93103813644484 0.0022017457726781213
0.17700293439907347 -0.2081191635506306 437.93100084536115 0.0004175825176611404
0.17681687344989272 -0.40527330465237665 437.9310506947961 0.0013076553314168582
0.17728553716606943 -0.09692792582712363 437.9309251304499 0.0015597443534203423
0.17645043518941994 -1.0843340785025426 437.9311488709062 0.001524755265786879
0.1766416731505533 -0.7122369315399856 437.93109763444664 0.001101586950028
0.1772900557494357 -0.2517598181014753 437.9309239198314 0.0016639689799438449
0.17865782741772324 -1.209960815215171 437.9279607251183 0.09210111975680263
0.17852036284988904 -0.9093468048071118 437.9274477976163 0.003347409942516659
0.17858601920821326 -0.3416088286239416 437.92769278403273 0.00257959205424898
0.1781470502032813 -0.3148002812636295 437.9270584663651 0.0032617167538606714
0.17846545339635123 -1.0535372123310767 437.9273768695219 0.00485644430900823
0.17836842088250188 -0.41533172896959725 437.927279837019 0.003142514278466518
0.17826832146204954 -1.0759733111510719 437.92717972318235 0.004073216838166653
0.17801052380081772 -0.6877438896603105 437.9269219308074 0.0005026707077733599
0.17813500991014097 -1.1173831974501125 437.92704639348625 0.0022548127157954985
0.17775448763392732 -0.37175377700953766 437.92666589389154 0.001947943658697831
0.17755487146403515 -0.44746017079097317 437.92649892089827 0.002973248676458023
0.1773846000518812 -0.9269060712978995 437.926453246821 0.00232527219103814
0.1775491875017203 -0.39381336529558264 437.92649740222123 0.0020027185649872763
0.17735944143317106 -0.5449951891411206 437.9264465372354 0.00024001356510008749
0.1772090412928049 -0.9703813782174928 437.92640620298243 0.0036919516507220875
0.1765968853338215 -0.9465856751555378 437.9262421942057 0.0014330009042798485
0.176467664290003 -0.7362730248417422 437.92620757331383 0.001030525460705208
0.17565172188459083 -0.23931718956262224 437.9263629182488 0.001469580595369288
0.17566823450861324 -0.16944427571466486 437.926358492865 0.00046678956086198045
0.17584477361493994 -0.6474552448738907 437.9263111803792 0.0012094385820210784
0.17537903395270224 -0.17938276906292247 437.9264359986229 0.0009005699995973981
0.1759798528479591 -0.7239524449249223 437.92627497914054 0.0019600802699400355
0.17604223580941267 -1.0126353191587114 437.92625825386455 0.000714976913555442
0.17585460044549173 -1.065658730249495 437.9263085205454 0.0028795735487622104
0.1757946602072326 -0.7598373341325535 437.9263246060946 0.0003660063309470926
0.17597444840400392 -0.8745801515315883 437.92627642736284 0.0004595909644539337
0.17478974793523572 -0.6322201376394933 437.9268205811761 0.0029139763982982724
0.174328649754258 -0.23035282450434036 437.9272816636666 0.000868859128984407
0.17479833543637058 -0.19698750328669212 437.9268120321344 0.0010467914003356208
0.1749352694877656 -0.6743892388718437 437.92667507187406 0.002387835864523671
0.17462422309617215 -0.4594795665323295 437.92698610283776 0.0025415103320833455
0.17469032547593702 -0.14859871298879415 437.92692003447553 0.000356660126111375
0.1749749225895173 -0.786599578429912 437.9266354134273 0.0005253673554752882
0.1749559685051657 -0.28959107813203666 437.92665440829023 0.0018860689806021816
0.17451019343892804 -0.49539573868812464 437.92710011887004 0.000973379721319212
0.17451231500056127 -0.5802884556976229 437.92709799730784 0.0022695178524213076
0.17509774200507755 -1.2191819055252333 437.9265125701508 0.08301316056267835
0.17444997953359115 -1.0937487422826828 437.9271603327911 0.004069203051439187
0.17432998265832778 -0.6996013116921677 437.9272803296976 0.0010929501062324615
0.17406919193682657 -0.2992395103092809 437.9278559167243 0.0027591135489545998
0.17417827223872995 -0.8143555490369278 437.9274487790201 0.0028170144854718425
0.17404049842316477 -0.8864965112789436 437.92796301407435 0.002539345096042484
0.17387707720140388 -0.11129507716395567 437.9287788514107 0.00042316210203360486
0.17387432970316197 -0.48242179726643947 437.9287685964894 0.002223782621184579
0.1741268690140681 -1.1048624494039279 437.92971118881684 0.0027721739469362414
0.17404144509378466 -0.853678952657892 437.9293923476371 0.002775663427959824
0.17410433979388845 -1.043684971944896 437.92962709945266 0.0006232168301282748
0.17406773624198735 -0.5929684853612941 437.9294904782389 0.0008713165973652399
0.17408241254727352 -0.42625016691666995 437.9295452569295 0.0022186241663905855
0.17413862045443917 -0.9565448728883582 437.92975505057245 0.0015920949202056398
0.17433299059858717 -0.3822860397633368 437.93007450644416 0.0015460040943345152
0.17464771566145573 -0.06683222501386711 437.93038923158906 0.049308624596129044
0.1744845133376622 -0.35107593344836413 437.9302260292227 0.001493489064092464
0.17429935783218875 -0.7472483023103513 437.930040873669 7.153762071790255e-05
0.17474965526486425 -0.798196047625556 437.93049117121905 0.0028959325671000123
0.17477602156044045 -0.471266328594585 437.9305175375215 0.002116692501379824
0.17477953110405214 -0.983111743608287 437.930521047066 0.0019384613974462196
0.1759808772397922 -0.0805376825153952 437.9310771531269 0.012302963910684837
0.17542444798901052 -0.7744089165494373 437.9309280746455 0.0003183253216583342
0.1762333300992232 -0.12410226856578561 437.93114479027724 0.00048621708562809505
0.17518740134837665 -0.9185175488013363 437.9308645651281 0.003520896425841139
0.17535433789744473 -0.27650143343238925 437.9309092907552 0.00179273015215485
0.17634445508975732 -0.6617483385515729 437.9311745628761 7.612220494232413e-05
0.17628212115320077 -0.8404363789904908 437.93115786237274 0.0023183909923727933
0.13068712257910142 -1.410233591053706 438.2262764967563 0.14437688343397595
0.1306560137618923 -1.4046653697495868 438.2116194078918 0.09090228612861578
0.13027871915092193 -1.4218488416404498 438.22262382853137 0.16128943490001832
0.1389920757270224 -1.4161921687767116 438.2162104657461 0.2018717854332241
0.13509569205383376 -1.420230103257651 438.1326011270452 0.16548660410532257
0.1406423505569594 -1.4162717622971253 438.1415419912446 0.23366578144045277
0.13509668347952702 -1.4100111447197259 438.1318058927062 0.16201211461459858
0.12621316438851388 -1.412714625710369 438.13483446444525 0.0660426868727382
0.1312339213353389 -1.41562993224509 438.11739968567167 0.06457923336938003
0.13566137036134712 -1.4155418367426464 438.1958221615416 0.18644889633268755
0.12993366621455976 -1.4091433400377251 438.20207903045196 0.08573734729007261
0.13179302462195575 -1.4057358132840956 438.1429200537957 0.10041741019012716
0.12584394350169067 -1.4185685998673798 438.14364146277865 0.05816861464221346
0.1256136784914118 -1.4183569764318147 438.1678869815561 0.05158933641663594
0.1287508819601421 -1.4087017323724496 438.1554480111391 0.05576340061810046
0.12541278429279995 -1.4189751556291934 438.19156647995493 0.05260546720321554
0.12945719086644092 -1.4065278196888462 438.1684016793793 0.05334263623497032
0.12914336670900795 -1.4074937089929915 438.1908666310369 0.05456779141433625
0.13016225404649406 -1.4048341573683114 438.1801634884355 0.04923189170007561
0.13676264189516224 -1.4138450015589703 438.1827204736041 0.21731026869907136
0.13877143459700153 -1.4166094454692724 438.1593266521537 0.18429721571620086
0.12679660396699416 -1.4216268622670298 438.1806605491597 0.11132835281977682
0.1338733015189026 -1.419349851804913 438.15045497060237 0.1590090391728233
0.13883556332407082 -1.4177546659973466 438.1712542029178 0.19671431941365544
0.12472429302976476 -1.4210995708313212 438.209461379744 0.07198587443965353
0.13142714141637185 -1.4543097820601156 438.22109589758014 0.1228604172321026
0.13286280968221484 -1.4529678546663543 438.20939000034866 0.11055734566678335
0.137599935177682 -1.4425014185440534 438.21851208840656 0.18490674451368433
0.13425518648035525 -1.4407416460931002 438.20957854212367 0.1471023655270941
0.13420780097868135 -1.4377045252909024 438.1355376157792 0.1529998711197858
0.12440104369757732 -1.4380656410371124 438.1419456264626 0.06281763114260967
0.12985901836604888 -1.445003851253353 438.12205927209425 0.07992992933416469
0.13394842054363315 -1.4501141496264325 438.1325640302485 0.151327370374629
0.12948718724757133 -1.4474591662848222 438.2017212317304 0.12794676294047486
0.1279010849326851 -1.4403961901198867 438.1515016831887 0.08601510580482963
0.13028246005459918 -1.4542363331831563 438.14273941390286 0.05839079464367658
0.1370481604417836 -1.4428925476154038 438.14580451826635 0.19215966171529147
0.12941340986943994 -1.4526931189888075 438.1756062546 0.03854627322262899
0.12648469136213958 -1.4436792996968335 438.163460259365 0.054272882473532034
0.12436440540513152 -1.4371538824807923 438.17127974370806 0.04869541287104521
0.13834367549880952 -1.4414290014463682 438.1549521802457 0.20186121137605756
0.12521724598184497 -1.4371708668275127 438.1947053221331 0.045570957238514495
0.1270964596901656 -1.4377918860425738 438.1828786065091 0.07642559073118027
0.13409892803871934 -1.4400446196464272 438.1746472338464 0.1288027650175503
0.13230964689266866 -1.4515547720256203 438.1906170840315 0.07593682725669018
0.1310552103440891 -1.4532646492282655 438.15882417511136 0.08094271228875291
0.13837857723187552 -1.4432522428735735 438.16660594855273 0.24200248224791565
0.13902027089417038 -1.4423731811554836 438.1865460450276 0.2249541226926631
0.1248004950916661 -1.4384906552267662 438.2186976796251 0.12762367135489028
0.15344965052225867 -1.476751982431392 438.20965123742155 0.09474751069067239
0.13897958620469114 -1.4654054243681136 438.2112735791373 0.12502390349365747
0.1538085240868366 -1.4654451031071714 438.2195714780905 0.19401295635858762
0.1521872415414311 -1.4651262183162805 438.21048827788377 0.2064434009060363
0.14252566611747577 -1.4630661153790188 438.2223481538992 0.1620582479990625
0.15182872878104103 -1.4620249149551923 438.13364607734997 0.1765127070338475
0.14239721793624982 -1.4609383453837717 438.1426311055749 0.15640136266125354
0.14501508639268007 -1.470691858085886 438.13084753718164 0.06499075369688541
0.14779618220038845 -1.468608571381846 438.1196961177258 0.09705285395924675
0.14514957604127848 -1.474760761192862 438.14069249217084 0.05631533943470867
0.15523316576989657 -1.4725436598372266 438.1371546575696 0.17944333430119597
0.15263890530708418 -1.4723773815373054 438.20026913861415 0.13523327003607988
0.15251238974437542 -1.460964286869702 438.14352095039527 0.2259013285549347
0.15036768525002162 -1.4749436225510182 438.1754080458644 0.049763258570875026
0.14460601198512824 -1.4707574914956054 438.1593966201607 0.055913555423645525
0.14735616538390847 -1.4727556223981437 438.190543485169 0.052295554688216644
0.14045947312229234 -1.4677449039150454 438.1795691121798 0.045461424044413716
0.14052686254395522 -1.467793887705422 438.19925505270373 0.06966208724178286
0.14947635067157092 -1.4627605129993895 438.1663994746179 0.19474044025196288
0.13910849788322538 -1.4661933892869528 438.16732294707043 0.05133748292676208
0.15130016247683054 -1.4621637186733831 438.181983335281 0.22165838436530766
0.1500266812794703 -1.462577506416632 438.19436650720303 0.1583009395629433
0.15364631261949724 -1.474908522693712 438.157885253289 0.07917858999217331
0.15367012903295926 -1.4673617163556754 438.1518040178788 0.18711245493983336
0.14720691819931953 -1.4726451465550385 438.2236297428183 0.14456864144659756
0.1770898560197086 -1.4755087130870157 438.11695662652653 0.08294804994762921
0.182015961308295 -1.4695502213480143 438.14179284686674 0.21547446238889556
0.17622787492733294 -1.4716847440660974 438.12917771971473 0.1456678983620397
0.17313890163959056 -1.4813072706855517 438.131994653784 0.05920415566957787
0.1826224292295845 -1.4808636046539458 438.1351963541572 0.08821363746373675
0.17962905378304678 -1.4733200029952034 438.1959969623319 0.16058380452005772
0.17200025826523507 -1.4696834869619764 438.1431135698088 0.22136075422336113
0.16811265747366871 -1.4808038865894264 438.1429535629377 0.04933324604147397
0.17839706134044345 -1.4817142789434257 438.1443817388814 0.04937556040219087
0.17875873589725388 -1.4720834924381128 438.15130699966465 0.16596080243882103
0.18588635006100687 -1.4817994499207383 438.20095228673694 0.06949506830030511
0.1852460724248527 -1.481799449920738 438.17306229542714 0.02996572090163284
0.18199940554001312 -1.4817994499207383 438.18376822456185 0.04298473249002039
0.16852058728050515 -1.4802352303232074 438.18033723721123 0.042966689355355525
0.16897500150844438 -1.4796464153284614 438.1660898102836 0.0704510951884723
0.1692649957942299 -1.4792717502813575 438.1566472229315 0.11665502150068843
0.1752329335615826 -1.4709408254051521 438.17371322479653 0.20815242827352362
0.17122777620802382 -1.476455938162206 438.1893925729995 0.12146559180706033
0.1756556000184632 -1.4703592331748374 438.1646296248943 0.19582127235579788
0.1687006712675258 -1.4799357941605087 438.19883935262135 0.10733224321083851
0.18423897742219325 -1.4792843658411003 438.1611480155446 0.07758312270800892
0.1985073766895541 -1.4758769243095478 438.2161769408017 0.11895788443762215
0.2015766263146573 -1.4636172600878627 438.21962212225174 0.18809481316750912
0.21118395601992496 -1.463060061546264 438.22237206880357 0.15270457384332947
0.2016384402568227 -1.4663397871638544 438.2089764366898 0.1712261822023354
0.20271575132598266 -1.464435492779649 438.1250054935359 0.1070837634588234
0.20542439643473065 -1.4610653380160576 438.13537594851294 0.1613791207458712
0.19719126158127395 -1.4740356157529748 438.1418549536276 0.13440770817958742
0.20298538439431388 -1.473217530305145 438.1310140330595 0.08767725639262461
0.2086558702983382 -1.4744857389141115 438.14026005463927 0.05034298406951786
0.21289147204901965 -1.4643092489620688 438.1429311836036 0.0573512943909655
0.20211743238827823 -1.4633780844336424 438.1458463161847 0.19019587722760328
0.21339401517785392 -1.4674723920922257 438.1610887101711 0.055834527558138086
0.20961775741107835 -1.4702159992144577 438.1767512391868 0.05586667978623453
0.20153162773795374 -1.476090982879466 438.1633131395697 0.05181928810199868
0.2090507125238393 -1.4706279430983094 438.195499985313 0.05192361144296769
0.19993818933256643 -1.477248650845411 438.2029863911117 0.09737040181502585
0.19981329540781934 -1.4683709486805347 438.15444306531015 0.1606754889444022
0.19978536898822474 -1.4690138153463699 438.1723077118211 0.15395804659229967
0.19980495896909295 -1.475955924548589 438.183320377461 0.045308076914602306
0.19977323549701753 -1.461855508682194 438.19204671905953 0.20008372666528718
0.2137911472622374 -1.4659983188529921 438.1867680787011 0.03851580399847377
0.2147849243643275 -1.4663221115451968 438.20209624189545 0.08153745238988898
0.2040385353079183 -1.4627988081767216 438.16576236974873 0.2065582611302403
0.20349918052466814 -1.4626211573157721 438.1802062547115 0.18230321822249235
0.2114562622771708 -1.4688782376218177 438.2144797609136 0.1111876594138766
0.20743122364879107 -1.471802577760476 438.2259624758383 0.13633584145883737
0.22862195718701392 -1.436499045396951 438.21271773405806 0.08267836788322272
0.22620040789543341 -1.4435700908152185 438.20517744031986 0.06946519597211862
0.21921620307925221 -1.4535178503927106 438.212539547296 0.15043429824522955
0.21903338276675827 -1.4390714256093815 438.2190758471213 0.21340831556591347
0.2134771109668382 -1.4429172700817525 438.13938693869505 0.2073219337937938
0.2198896355867752 -1.446087220626476 438.12089168254977 0.07124881173479976
0.22067487501842054 -1.4537017356229505 438.14173908672035 0.09952573401895756
0.22697995322835676 -1.4457467643500115 438.13299492893725 0.0411844843246118
0.22186475091037744 -1.43505582359367 438.1416864007505 0.15193119133087854
0.22441209010173815 -1.4424553136005955 438.14955993162243 0.10996079825350842
0.2282200166986593 -1.439905236703628 438.15980364255165 0.04905958535863422
0.22912606920394019 -1.4371168165806312 438.1702145575084 0.04697929409626834
0.22834814226382563 -1.4395109197049725 438.1907807759902 0.04802158248754597
0.2239435083399257 -1.4530669827982248 438.1562345768582 0.04271934609333024
0.22461548212303611 -1.4509987811723202 438.1865281459585 0.05102657704544285
0.22292023289524593 -1.454045529387814 438.2004144811452 0.05131962614514161
0.22310057197406333 -1.4542029273219517 438.1718546433758 0.04600741225014857
0.21402520845377515 -1.4418083279772542 438.1584267840395 0.21230818654083242
0.21481521454913033 -1.4428963356833722 438.18209107936076 0.23351495512855952
0.2237107431407208 -1.4386852671822792 438.178579059846 0.09573952426139079
0.21852457787395596 -1.4403519108445935 438.19407132814047 0.17804595373587664
0.21520910083950087 -1.4414186976610712 438.1729700683841 0.20805038032985002
0.2261034966094171 -1.44641386854655 438.2177452894788 0.09334167584431813
0.2262226974205923 -1.4157115113429384 438.2262764296054 0.14807030600134877
0.2276989324075758 -1.423156304003677 438.2151735237095 0.12382252572921665
0.21896080920747968 -1.4093011257253518 438.20845684439496 0.1645776755624383
0.21837962767367722 -1.4199095952928065 438.21864358076573 0.17813741863635166
0.21771000014258748 -1.4108708665888838 438.13112927691077 0.142999136333278
0.2290741080461202 -1.4204506215098944 438.14113230021167 0.049486781368507184
0.2264618950353247 -1.415629191721876 438.13050351629965 0.09555910751188026
0.22330850456733609 -1.4144658998392576 438.12100438142573 0.11044973815920202
0.21658222396650892 -1.4224093375914961 438.1429829406437 0.21033446455344462
0.22554335624494604 -1.4171720249586297 438.15135417342606 0.05023050101360719
0.22094948082064472 -1.4079217470182366 438.14365255439225 0.08367948832431905
0.22427001790563517 -1.4072935807528841 438.17740568081416 0.05086447031138794
0.22523368426433454 -1.4102593991579808 438.16510598097307 0.054001619322721024
0.2239375884278238 -1.406270525648385 438.19963262759137 0.061690903966702355
0.2271268967370294 -1.4160862231088045 438.20208332527517 0.0952259916637034
0.22859710272233535 -1.4206109490460188 438.19176668697014 0.07518097755597508
0.22485478126842343 -1.421050819695449 438.16881228586806 0.08205628646970121
0.22779462195968123 -1.4220038499486647 438.1777362039264 0.04698325382137852
0.21619074479650482 -1.4182761270865607 438.17953963584137 0.20133792006866422
0.22145770654980024 -1.407406000074347 438.18843664111415 0.07378169499034211
0.21595145403067578 -1.4149395259471742 438.1559778270636 0.21173019077729666
0.2160116329668652 -1.414856531087176 438.1689032837582 0.20811898833101017
0.21454858226224585 -1.4168589222280008 438.19086585876937 0.2456030866607004
0.22374910655842506 -1.4056955773898787 438.21997100998357 0.13697130883222214
0.17522908975993884 -1.4246071194344865 438.2201630211635 0.2944574262084851
0.17546008114134634 -1.4564299863892163 438.2221795746399 0.2583469168593525
0.1846521010580983 -1.452380314311438 438.2217293618728 0.22806236402701477
0.16796126299598974 -1.4672539343757942 438.22689049949685 0.2058000680530372
0.1582145581854783 -1.4547444530800433 438.2229737391273 0.24101071018596743
0.14515123986285164 -1.456338995496392 438.2282430261512 0.1878963175701816
0.13647796915973676 -1.4511167062228478 438.23261025289924 0.157803465454211
0.14726294440813179 -1.4455461730883097 438.22389519723265 0.2404595160010355
0.13553683286352575 -1.432847125801227 438.22817335795077 0.2067079185042499
0.13225564680177712 -1.420380630329184 438.2324844900553 0.16577052894493688
0.14689869034901523 -1.3985278068124694 438.2299098465698 0.15947007970834137
0.1468828015708778 -1.4073857873497446 438.2260893736949 0.2004769835971012
0.16040290810601604 -1.4074941779606023 438.22229893331973 0.2644766660960916
0.15082527114394761 -1.4191956839263369 438.2223376981963 0.2651385935438056
0.17192145223460759 -1.4038622452841583 438.2221044843762 0.24247382864305855
0.16008524339354147 -1.3917334537403825 438.2284800702198 0.17633836326871483
0.1845019891726546 -1.3902726830191952 438.22792008064744 0.2211329625291201
0.20613959778686014 -1.395324114550547 438.2338613389253 0.14043881049948492
0.20028092951696086 -1.404454974769498 438.2249736412587 0.2180934489949398
0.1989176264101543 -1.4168126273712114 438.2220668243831 0.2459584517459952
0.2087118975301506 -1.4149006491219516 438.22552764906516 0.2288878998331849
0.2131221102268493 -1.4030827690539198 438.23387896574604 0.1547706754235434
0.22221686346475494 -1.4270902676036024 438.23519866497145 0.15800832449177854
0.13124204661712888 -1.4405805697960552 438.2349355047346 0.15866319371455853
0.1636536974187591 -1.4740674134389968 438.23444645104 0.171031960363271
0.18397828882765246 -1.4729111267960169 438.2314537869399 0.16870830297142486
0.19756603942077788 -1.4691806010328388 438.2324098799602 0.16610096418327716
0.2120783254436429 -1.4577111312929774 438.23389112518583 0.151298110043748
0.20158585746576957 -1.4481456052046526 438.22317853284363 0.2514233332746702
0.21006939171672762 -1.4421813301586182 438.22572032935653 0.23138384769794954
0.2160218332367861 -1.4329854259786872 438.2277980585229 0.1711203774207794
0.2189545245121432 -1.445804689281222 438.2343304330866 0.14548796584355958
0.17398235895830882 -1.476226738014589 438.2362328846404 0.1609487984752585
0.1876666553628345 -1.3838623362653721 438.2378098862688 0.16880961608966571
0.1676466783840491 -1.3837098504538703 438.2371276412282 0.14924351921154771
0.1827626268376574 -1.4765231581806797 438.2452956226891 0.12110483802143929
0.17078604955637683 -1.4765658547194347 438.2453122260564 0.13833314514291314
0.15334234638487715 -1.4719122520908692 438.2431026543063 0.10805978165826594
0.1416494884123785 -1.4573590792488769 438.24503486616345 0.139380378989754
0.13234452450139772 -1.4491427134999968 438.24473209933456 0.1345802619735485
0.12975206747576454 -1.4212975137584656 438.24506827683393 0.13856280137870694
0.1359666649534758 -1.4103617429702504 438.2449402955823 0.13840583539134071
0.14444413113968582 -1.3965088951498632 438.2435638345451 0.13646660096413563
0.16129288218726442 -1.3867333494190308 438.2451957186759 0.15182032056926223
0.1780067795413221 -1.3856816779803018 438.24356375475213 0.14143763580952415
0.1967149592103935 -1.3880274643263333 438.2451398946592 0.13215041399826422
0.21392287357599873 -1.400716438132503 438.24514096585796 0.10725704466110778
0.22148425945873113 -1.4183880479174962 438.2434244835571 0.12842406826759245
0.22219247971208705 -1.4361889292262766 438.24565502182355 0.13228704645581052
0.22064809728235107 -1.4471617309568403 438.24485058869357 0.12896154293966494
0.21578695403667197 -1.455199738403443 438.2443374453351 0.1484367109011217
0.2024546497903636 -1.469134067011824 438.2447687345114 0.1333001884781626
0.18992810417217598 -1.4702575275834784 438.2410213700239 0.14472902217475658
0.2039163783170202 -1.3961681137084878 438.24398710027464 0.13700622079167796
0.13329104514373627 -1.4370882682208828 438.243979657005 0.17158769638667765
0.14864358216198106 -1.46302456305956 438.2425695528942 0.14826426228748543
0.19869278971539878 -1.4595101395577907 438.23378059428194 0.19692634658743496
0.20718631024395948 -1.4496658048999251 438.2332959063176 0.20687214083567146
0.19347950281031676 -1.4530599910546629 438.22880068201584 0.23042978470407413
0.20083289911178395 -1.43759787618245 438.2277111340842 0.23294072483894435
0.19082687116568678 -1.440990042636806 438.22561673302596 0.22379094176929604
0.16716759489995342 -1.454633848215827 438.2279210103578 0.21588676156913947
0.15711717009380705 -1.4612832334265178 438.23317155266676 0.1815373104231453
0.13553542038440886 -1.4289939140328372 438.23734980691484 0.16347627988372612
0.14773922891096056 -1.4346460457274735 438.2287075293511 0.2343439553113961
0.14446985164771547 -1.4231452146815247 438.2302907360088 0.25026625105347894
0.1572158152026158 -1.444994741273183 438.22720389604837 0.2445204295697537
0.16691415969177384 -1.4008977899101756 438.2291610014307 0.2234576531254934
0.1723781338820359 -1.3924160010783013 438.23386230293215 0.1896065991592829
0.1798004447797722 -1.4007013470567204 438.2288554211274 0.23073027309570474
0.1916514385950024 -1.39536196243399 438.23402919636635 0.19921276585948955
0.18830747916134458 -1.4086089087192397 438.22715976249407 0.24623638704502046
0.20311766058321917 -1.4267485264783122 438.22814846410057 0.2382504287325563
0.2141221395499535 -1.4203618404550051 438.2352630673252 0.18429130894264925
0.15573287164320276 -1.394141226858509 438.23780802902763 0.15026536589801504
0.1419022158641556 -1.4110933876160572 438.2350895088657 0.18245648366566058
0.18272440059300016 -1.461241915521766 438.2302168727974 0.21418948842620736
0.15908270760472765 -1.4329348017477532 438.226221792754 0.2388755020997392
0.1822392746748663 -1.44500363975044 438.2332212083693 0.25582329518408914
0.19209959522752343 -1.4335596893798155 438.234520487847 0.27159408118502376
0.1887963199765768 -1.4188143332297003 438.2311468987265 0.24089960336926391
0.17624517600334533 -1.4131479222000398 438.23344793333024 0.2601711077395573
0.1645938976493873 -1.4172479276433307 438.2288252260153 0.2270362394217114
0.16025319375154978 -1.4265602938011221 438.2361032683028 0.26308697242963186
0.162220342800523 -1.4380314786904191 438.2366345301334 0.2877404421505468
0.17083469147784108 -1.4450272720325639 438.2359422369748 0.2458259802915924
0.19183858963443645 -1.4248065808455406 438.2414597897584 0.2891954025612618
0.17917933609732029 -1.4460731420688935 438.2558373195619 0.2376542949690081
0.1864638983905074 -1.4427351661513426 438.24399835020546 0.2965985294668349
0.19043172542948716 -1.4383830073009847 438.2591380733467 0.2019394606399201
0.19269801011656773 -1.4312407357562453 438.25115363345935 0.2415323641050681
0.18956930926866197 -1.4199197442673868 438.25459215289936 0.24144727367835572
0.18468861951938517 -1.4153289928237787 438.2432591665956 0.28071560917529176
0.17535344421403526 -1.4130566083392573 438.2507904510089 0.25335127427575804
0.16465034421518604 -1.4175843365495926 438.2453599219243 0.25029355316541835
0.16653327879899527 -1.4161389969830533 438.2553240680102 0.23080674396923836
0.15985377091712336 -1.4261089006412446 438.24704045599003 0.2556710820657772
0.15980659471704783 -1.4329640385727547 438.26232239734605 0.22606231240496855
0.16055436983539884 -1.435509510066961 438.2495760686956 0.2396346568041803
0.1665272786421113 -1.4432825136975698 438.24895902552214 0.2617730092220055
0.1670879037067042 -1.443713252360208 438.2602487859861 0.23944695996468907
0.17953478300543016 -1.4480494277798148 438.2658646007305 0.2424170319799677
0.16942417869757023 -1.4518133717430548 438.2693348323596 0.22666495145517174
0.16062101753920272 -1.4512395482662908 438.27703992022305 0.20431824006293306
0.15428025559989883 -1.4430117492790557 438.27391947817796 0.21276500142527227
0.15004549477945883 -1.4382515279497274 438.2829261574108 0.11237738280714389
0.14983624072124818 -1.430177400451257 438.2752537393257 0.23127049008808714
0.1482076080456849 -1.4316186447148584 438.2897179922748 0.12447880676668446
0.15002595804822455 -1.442722936722075 438.3054668298749 0.15020015977896956
0.1471571900107312 -1.4308669048312532 438.30239761008073 0.13164261395691035
0.1495893237840583 -1.4221559592039912 438.2834776549873 0.12852297868790938
0.14594281130939046 -1.4253345215986006 438.3109145223191 0.1299312045099785
0.15532501598839182 -1.4096013685041344 438.30060270558954 0.10732513518628006
0.1626728095705401 -1.4028882793394093 438.30875584208064 0.12354649134616837
0.17703727359562732 -1.3998195228312633 438.30807357666924 0.14589330979664072
0.18096365812970316 -1.4021608862470931 438.28977890412136 0.12428910747074597
0.19051638067159343 -1.4048437600863413 438.2967752465673 0.13543484850885726
0.19090485757051812 -1.406262283680813 438.2855501220634 0.13924127486941343
0.19112581143896565 -1.404223477378398 438.3065315122277 0.14521077208597183
0.19924726366492643 -1.412934894177128 438.2976750627315 0.1275306998605785
0.19396195655615048 -1.4138805367831373 438.2707613045894 0.2627733372724688
0.20348451509097384 -1.428183540896817 438.28222383857883 0.12517391345291953
0.202868313049532 -1.4118672861896928 438.31421395243257 0.1411566678220212
0.2023473852693008 -1.4424005304151162 438.3049702913077 0.14902047977206695
0.2046958774823203 -1.4276382651870807 438.2981838941463 0.12633415124413508
0.20262143078845912 -1.439155930539193 438.2913827719387 0.1408719306049281
0.1993810434545012 -1.4432231197319132 438.27795352938097 0.19740733280653885
0.1962074032751578 -1.438867645052066 438.26857411445616 0.23663832121993653
0.18668565931771977 -1.4538501144434395 438.27579248673163 0.2230655430524849
0.17889069639068444 -1.4575796117105362 438.29026884080633 0.1196301435136954
0.17352507347800694 -1.4565229243688396 438.27965548145755 0.16415501713456768
0.17376392141306274 -1.4583415265312794 438.29972417586754 0.13725255907931921
0.16766742907937068 -1.4565129291093155 438.290442939078 0.13694546142746908
0.1823873787947231 -1.458666004160383 438.30719056056455 0.1508867681943394
0.15867330633154247 -1.4525301359734193 438.30029730448706 0.14076290518212664
0.15918471139159074 -1.455393465771902 438.31161194904416 0.13472092086324056
0.17420965696963644 -1.4662457909186217 438.319715195089 0.10040876114599416
0.1448269501754088 -1.4356518634113409 438.3139207801802 0.151739900272066
0.13906632056933682 -1.4358202335793921 438.3225137307888 0.11934081360877853
0.16253616761514467 -1.3949052241233988 438.320900005039 0.11043854087364274
0.18381710787826755 -1.395481851607882 438.3176814895098 0.1463959352530178
0.16031740446493814 -1.4637690358661617 438.3219799472536 0.14452362299425245
0.18628724026413074 -1.4563308693283163 438.2966698069143 0.1405801114261127
0.19608618656280596 -1.4511049150434596 438.30560914557657 0.1421630996402115
0.1967913744248436 -1.4495147701765283 438.29616586821805 0.13518933633531774
0.19485498233899928 -1.4501527512032706 438.28573795293494 0.11566099474550354
0.20750347731327717 -1.4379396507539297 438.3143313281474 0.1425104417753596
0.1997029006433252 -1.4255128065310847 438.2710132634268 0.20960067845213454
0.18478166733397247 -1.4132025949393292 438.2658165713562 0.22641751926854614
0.18206001520307027 -1.4052348844847187 438.27316629376315 0.22614844076348747
0.16583323587495538 -1.4084478069444766 438.27040428982366 0.2063926369922315
0.16868579158684294 -1.4035085113031858 438.2805828605657 0.15706648188444708
0.16693079228441193 -1.40309489969118 438.29181330269836 0.12661122845673017
0.15789406854826582 -1.4089003569621708 438.2858520166001 0.12788256789513658
0.15424036806046185 -1.4148973195505274 438.2761692346301 0.18774582578121327
0.15722534772567712 -1.424419809053833 438.2665507407629 0.22970201853473343
0.18950992560666569 -1.4633505608634214 438.32425545268717 0.13086485350134455
0.15120296969478128 -1.4541071078461723 438.32020985934184 0.14800915606105383
0.1447628870207712 -1.4450791762106339 438.3233376833439 0.1725237636752098
0.14201749829029456 -1.421502960188343 438.3212540154566 0.12240415934645683
0.14621956102403372 -1.4111010129680122 438.32183367012874 0.12949582928878367
0.15285176344298726 -1.4027956376141844 438.32393717772777 0.18716534771217888
0.17395734756832784 -1.3943376513599672 438.32356019484496 0.10786161404452184
0.19514488525008386 -1.3986508501979473 438.32235940463875 0.16793196845103703
0.203478183990793 -1.4065001017806231 438.32400190917184 0.18476071109131706
0.2086260644830394 -1.4169096014381355 438.3237035693635 0.14940674163262121
0.21157913973191886 -1.4287290453531025 438.3219988026507 0.11107228414841974
0.20809933319719662 -1.449688665696006 438.3221591607033 0.16262840774960285
0.19963869315167812 -1.4587989035358764 438.32359612810023 0.16182316129076377
0.19633983535663402 -1.4353287846150822 438.28434909424567 0.1958604290860187
0.19766367156391335 -1.4323745738254858 438.30237981233483 0.21960806656432433
0.1944158467978664 -1.419223063985562 438.28615799671996 0.19340117278270055
0.19507789841078485 -1.4184353581830338 438.3065570575405 0.1988586720847316
0.18135127405202586 -1.4086867356299213 438.2990663445506 0.18567518019538362
0.15856622340785875 -1.4180691857899044 438.2888351181772 0.15676365404742787
0.15564398961107528 -1.4218537575964365 438.30762749112085 0.19265071509444406
0.155880152716878 -1.436563898694196 438.29518765894056 0.18013973796000757
0.15967820235430963 -1.4425174853243654 438.2852139526691 0.18698976876558462
0.16080619191539589 -1.4456165693959206 438.30779987729187 0.20919771627192707
0.170467953001261 -1.4512123429340622 438.3099481123521 0.19187610555130788
0.18924102859858088 -1.442873715453794 438.2756287635232 0.20822445001641837
0.16549324201578608 -1.4177894750749005 438.2749488734187 0.19816482008272965
0.15967016314983606 -1.431404019031712 438.27473381135684 0.2286841390656621
0.19278799996863805 -1.4241399352684299 438.26464286802695 0.23176417923252698
0.1778283576636493 -1.4565570541136499 438.31577349853444 0.1582048643550549
0.1525017213986648 -1.44294055080745 438.3157984447683 0.18343115534656526
0.16027598647430621 -1.411615357101317 438.31440225094593 0.21020416822255356
0.17131567487886484 -1.405746636572179 438.314584375034 0.22406848561093928
0.1900645203838778 -1.4121985592605806 438.3136036338599 0.20671299454207256
0.20227354004344136 -1.4256406600509235 438.31557782019854 0.1589214042031676
0.1984171584597378 -1.4447951530645398 438.3157564306887 0.16557543171722192
0.19151696126000212 -1.4546982412905851 438.3169156429094 0.15881188852474978
0.11101499428341935 -1.364024636018695 437.92974387891525 0.0203871278187132
0.10006529679302001 -1.3619991577155766 437.92652939721904 0.024594186881336473
0.10660149252155085 -1.3540766567757578 437.9235882212904 0.02301926262978748
0.11198401760639179 -1.5024656794974014 437.92642800929343 0.017647881670418177
0.10223071115950749 -1.4958514063213686 437.9258046139991 0.016883510710455196
0.2466965537246203 -1.4933906234406504 437.9275854657641 0.022058461455350356
0.2403304174823669 -1.500507509664482 437.9257805136955 0.023800882896740094
0.2509049203476252 -1.5028828977003688 437.9230225638587 0.025037742033420473
0.2516400582752849 -1.3567783342195696 437.92828806609566 0.03874980323285019
0.24858382459632616 -1.364342746052746 437.9223390139854 0.02285665114635808
0.24200425675705456 -1.3561618349688402 437.9223390139853 0.027043608683288055
0.18975310181264207 -1.4287546583342774 437.95107651838623 0.23402857434580887
0.18599662667514796 -1.420437959766452 437.9452717119348 0.2101366654005959
0.18898288394792429 -1.4341353755297757 437.93741476929216 0.17062694128574143
0.1858350244062713 -1.4390561416145258 437.9504018672604 0.2486365240441789
0.18101852800931706 -1.4419196598658341 437.94082563421955 0.18539904453975015
0.17611957133878814 -1.442585509589325 437.9498152924327 0.23882691456164584
0.16563366672173047 -1.4362065105454087 437.94697253225934 0.24595206938682865
0.1661021229660464 -1.4225530970931044 437.9483346456996 0.24879486963693387
0.1787044503135498 -1.434850576727238 437.93383301404026 0.18796306060585571
0.183388214923597 -1.4225537078084782 437.93383301404026 0.1552628311319263
0.17654327221308647 -1.4316135849026201 437.9538330134665 0.22431779860655746
0.1894502527519177 -1.4264544403418207 438.19700991096545 0.20439833760313716
0.18852647205407316 -1.4241327946836828 438.207561641963 0.2814416943609572
0.18350257297187245 -1.418524180865292 438.197423423288 0.19866448816976423
0.17464816567130853 -1.4169783150864135 438.19052056455615 0.2362526743952845
0.17564521471174704 -1.4168470425894755 438.20893286773594 0.2709511220208584
0.18363830104907264 -1.4407417672554252 438.20382955425816 0.24923220383459083
0.17433792388893327 -1.4423509355579538 438.19681026731087 0.19784364173892388
0.1672727108957474 -1.43834250440467 438.2064305166202 0.26636130799145274
0.16557285220218168 -1.436077986332797 438.1901513688025 0.19227351252713162
0.16404658503715291 -1.428386063295861 438.20186924929675 0.26167295735516494
0.1688921360570881 -1.4195650208755113 438.1998886933267 0.25629680035244984
0.18270580804299896 -1.4397993834465357 438.187788312844 0.2204573032255719
0.17790141629374967 -1.4151888846486602 438.2202883281028 0.26115538724676784
0.1754968099594133 -1.4358700635400319 438.2202883281028 0.2951306939716883
0.18435050301619615 -1.4275267471661799 438.2202883281028 0.2901375452745253
0.1723821997073013 -1.4455158587965722 438.2147883281028 0.2451075193748205
0.18317684129595702 -1.445591072893043 438.2147883281028 0.2380549616574443
0.18986786294224975 -1.4172314222667421 438.21749028245836 0.25171903352392677
0.16723309523995097 -1.4145356804719984 438.21760320309784 0.26161660018435007
0.1602894907461081 -1.4229816383540628 438.2180794103808 0.24534702812050846
0.16207500120055887 -1.4397821847183712 438.2175676488394 0.24776331729952986
0.19460416695550747 -1.4320741616502206 438.22001716450353 0.23578943397484634
0.2000497258388587 -1.3831200720610084 438.22211884633936 0.16562217475551916
0.2000716842016031 -1.382240801211314 438.2098486905884 0.08035881191533058
0.1989737182678341 -1.3951182918326814 438.21708738916635 0.22638717155101895
0.20954880226930286 -1.3972654679320817 438.2125269999111 0.18567955203548084
0.20351023704266888 -1.3927196358521827 438.1173277133515 0.08564643882165048
0.19832176487128605 -1.3923865535585889 438.1333341421048 0.14855421604389255
0.208536264778611 -1.3952921688708937 438.1304049017778 0.1141833289926858
0.21073024222440156 -1.3857410069166058 438.1426183025429 0.04360177501045122
0.20028950364952983 -1.39734892924506 438.1929242680951 0.21630470119719541
0.203322126695719 -1.3996466648907917 438.14322170803854 0.23542233065778798
0.2101866580609173 -1.390488905522449 438.1539940050201 0.046824639501251264
0.20110150970700474 -1.3874346916395701 438.1447919915531 0.0980423576207494
0.20012240863303582 -1.3822409612229978 438.17956383929175 0.048163124842466966
0.20559585244615913 -1.386217609017677 438.1706247695321 0.04937302240567102
0.21305524395677472 -1.3916371553850435 438.2030162970991 0.06641895914392731
0.20072841609429734 -1.397657893434599 438.15510074574337 0.23155480010183638
0.21450880623349006 -1.3931091396347408 438.1636807095109 0.047600295842670705
0.21398170262485905 -1.393305102413389 438.1746254997223 0.05367555496107722
0.2104556506471168 -1.3945000446445932 438.1891191356474 0.12413622531092158
0.19982057623319527 -1.3869109245915385 438.1981590253787 0.13456499487920698
0.19983049354304014 -1.3849716680107726 438.15568053562004 0.07341393196471574
0.19979554680819567 -1.3958908334017512 438.1736951620586 0.24174641221643092
0.21123385896682892 -1.3903158281538512 438.2225323382002 0.10554304498130314
0.1740619287543371 -1.3776250579955251 438.2262762084823 0.13333290252867228
0.16722507497019984 -1.381601135658354 438.21927682600676 0.15559585739312332
0.18414106779705966 -1.380078729271732 438.22336207243893 0.17156837369860298
0.1714635250262052 -1.384665407809153 438.21002985442817 0.19776988075262708
0.18281020399998782 -1.3853907522861062 438.2149667562101 0.1960396787817302
0.17260291864294372 -1.3872770695573613 438.1335021038276 0.13134648777819974
0.18070969097744358 -1.3905796179955594 438.14215432925783 0.25476998231158443
0.1797608829218749 -1.3846000243999144 438.1246871870858 0.10160313918710441
0.18413331127542862 -1.3837503715721615 438.1363516434168 0.1309476057488546
0.16908664953156832 -1.3791454563996983 438.13801446652855 0.0859045709486302
0.18074446768273394 -1.3797576617975036 438.20128693922095 0.12097965285454214
0.18031726682071084 -1.3772080282625179 438.14382987828486 0.04596642386423522
0.1721675921410549 -1.37956612574509 438.152027647341 0.05677945423245977
0.16746185501512523 -1.3775562477112497 438.19502046514754 0.0473387512395433
0.17185017794735646 -1.3775562477112497 438.1829365797037 0.044397866371641066
0.1838199727546537 -1.3775562477112493 438.1606529814584 0.05100385449777032
0.17727826239427183 -1.3775562477112495 438.16985652367623 0.0539120271579058
0.18028360982439556 -1.3775562477112497 438.19018327342764 0.07918264688372563
0.18602282466559478 -1.3776393449159376 438.1815121228001 0.03706317337677124
0.17832399154273842 -1.3883077126209753 438.1916131904989 0.22399193304267298
0.1678778931164166 -1.3781874033388417 438.171581931361 0.042524422827551894
0.1702508319563723 -1.3814726996342004 438.1624633420985 0.10878976579334806
0.1764013417640296 -1.3899943242592572 438.1636747297517 0.21397131724009388
0.17557568553093145 -1.388850649191444 438.17983421634494 0.24889632790276034
0.1804530991196036 -1.3853160782409586 438.1528554420562 0.18458913059541857
0.17763766035799977 -1.3775578498841081 438.21263508708694 0.13247646648529723
0.15079470641463094 -1.3880354384878506 438.22627646458454 0.1335027191851288
0.13860439756160373 -1.3929983718923344 438.21016453012464 0.09486961190480536
0.15576133823431126 -1.3845627356117445 438.21318861613133 0.1642442263379215
0.15334011137750944 -1.3980736759537713 438.2154241364305 0.1959766219804106
0.1466840253863737 -1.400121587954019 438.1423066428326 0.2226583814754721
0.1528548629826268 -1.396140077758321 438.1316887768284 0.17430803917205517
0.14995451227452042 -1.3908687520406484 438.1173187757625 0.06258334636894251
0.14638519161287303 -1.3857281793217133 438.1356361698649 0.05338299064157816
0.14014417246026528 -1.3916341410843136 438.1402494706254 0.048979934627951194
0.15092384719373322 -1.3950019690403035 438.1956468192901 0.17056630076366158
0.15622136783691476 -1.396596587902231 438.14285354270515 0.2074086748997955
0.15606211938990655 -1.3856852906253034 438.14297409568803 0.09113491055942334
0.15267368676165644 -1.3966029096001786 438.1528597160164 0.20605841094164046
0.1395281469088368 -1.3922874020656497 438.17313619648405 0.052495273684791184
0.14223463743165912 -1.3903210441095126 438.18232383722534 0.05437395019050899
0.14579914295916302 -1.3877312992899642 438.1662860609738 0.0537899722723917
0.1404224472091617 -1.3916376665339756 438.19311100436414 0.05302416232983912
0.15326713478250348 -1.3823054634952978 438.15630359135287 0.056291321175575726
0.15127725157542538 -1.3837511863865606 438.1804333925347 0.05069087423595754
0.1515124748125927 -1.3835802818391578 438.19292282014555 0.05001386612843431
0.15273741150168113 -1.3826903097179783 438.2020284929106 0.06508855824636647
0.15364558414423224 -1.3826145945135133 438.17069941672116 0.05703735964193811
0.15370381983836806 -1.393706052428375 438.1814808001511 0.16281854632427992
0.14332185203295436 -1.3945471815597097 438.15687481642726 0.10445060510811088
