x y z curv
0.08646122871080542 -1.7233766285799836 0.026629519976140496 0.02829739784209461
0.08821114067726976 -1.7293669986381546 0.05871063405123093 0.019268998657835996
0.07880393786762648 -1.733635593893341 0.06115044409974199 0.022077298485704337
0.09045689828692147 -1.7353368181749282 0.09164356685142201 0.019304795614588022
0.06571777246421345 -1.7268942912015117 0.00374039954484974 0.029650523798433605
0.08123234832894213 -1.7232908149931156 0.016195986811669047 0.026735744505065898
0.08609699219871246 -1.735218160932424 0.0827180625380319 0.01675649582023644
0.08503677943190396 -1.7263655194349168 0.03823270437063222 0.020243184522351108
0.07433622885996972 -1.73211035826726 0.045273000626346704 0.02482479169221065
0.08896488435959152 -1.74045754154458 0.11334056212932606 0.025700979867686952
0.10410146878514903 -1.7644886563034208 0.18921777547618474 0.10430083763099728
0.09022719657536532 -1.7593532608278668 0.18161210288750462 0.06934917356241295
0.0730669160152281 -1.7588637321631289 0.16149370925462647 0.024534815661752245
0.06982013917645502 -1.7400840726845472 0.07247502912698629 0.022319066162326828
0.06734509040223144 -1.7471169795023551 0.09473480863228435 0.024688123350718065
0.07283919892906075 -1.7547314435607824 0.14336669085092676 0.021451091835240677
0.0671690019142714 -1.7371710518547603 0.05222168092313692 0.02495828647216829
0.07282409470347097 -1.7492084004565294 0.120006991594455 0.0222410211178117
0.05581879605736181 -1.7339948835149812 0.00636013190894827 0.028114507815453618
0.06376893495022906 -1.733865355641677 0.028351058096304067 0.021326022006079397
0.06201471975962008 -1.7558527333116987 0.1164841467730585 0.01981469539888777
0.05979499317070812 -1.7388279864326024 0.03809901165960547 0.021008589907359303
0.06356123667194759 -1.7312879748613665 0.01684818783685201 0.021257102227168635
0.054148191509132304 -1.738831365296437 0.022104087446575927 0.022133229927339983
0.04245261098120645 -1.7633255066495734 0.07135331766332283 0.018880436287560646
0.05823994585861493 -1.775573286968017 0.17398573357578218 0.0691934677875232
0.059124333837157025 -1.764405595117614 0.1374756976895662 0.02276086593896118
0.058789192372851934 -1.770657177770635 0.1585110904429769 0.02190461472317825
0.053746363596302686 -1.7629760444868512 0.11229161553452911 0.025900302660124608
0.042134158627830084 -1.759885337252531 0.05789946621926159 0.019671823582657462
0.051692746381718405 -1.7519503788465545 0.0648254701693887 0.02092543358136018
0.05842653482982842 -1.7623436334798206 0.12746882790191064 0.02036755611589446
0.050766639613399216 -1.749675356038833 0.053152042749397506 0.02159905455539531
0.04181966179705296 -1.7572056338159594 0.04708895342174913 0.02292151685031867
0.05079590908445732 -1.7564435805073295 0.07773666206293298 0.020836874731324048
0.048276323755232525 -1.7493755922912257 0.042800753131612905 0.01947771961393102
0.056168378153498 -1.7576232798592655 0.10199544940179721 0.019737242052096347
0.04002839062338523 -1.7484434958294162 0.00873683935824242 0.025053964114939882
0.04514364925429329 -1.7473633751999293 0.02386635457627065 0.019409925559694723
0.06433168407503664 -1.7630834875463393 0.1521192916366215 0.022937114547216263
0.049148348183861296 -1.7401070865389507 0.012528456040690564 0.023695692577518485
0.08359406596188182 -1.7674078114254348 0.18526703910079975 0.09369437363628398
0.09398616398056948 -1.769019342392343 0.18997339230275895 0.10180088665449019
0.04198619212113133 -1.768596498496641 0.0855179582884862 0.02362053830975762
0.02676089437470739 -1.7682751610287155 0.01773149025573272 0.024483757315368372
0.03486006565767802 -1.7613340928367738 0.034140189739853256 0.019180052619221524
0.04992427581889689 -1.7755614908298376 0.13964163453659284 0.02347596195142959
0.031162214929906548 -1.7710452340384384 0.04472428018856724 0.023383822583575586
0.04252001993094985 -1.7776151898272095 0.11248299982487525 0.02489062650293206
0.048614299199683214 -1.7890147978946571 0.16920080509684027 0.05306305885620514
0.03236578187847399 -1.7772528533457674 0.06672336481339973 0.02497627744056605
0.0387565569569298 -1.7782764971324292 0.09760452779094278 0.020272579915157553
0.06385982852869973 -1.788304046993174 0.18606582456497664 0.10918432420743096
0.03932070203730138 -1.79703355319574 0.1384419208710135 0.01891278579740844
0.04391937733864244 -1.794625073753395 0.1567448475208655 0.022230771547678153
0.013418156500775416 -1.7965560609199422 0.010711006141067249 0.023005594635555446
0.023586183182595512 -1.7803144808693543 0.03138475344493771 0.021448860498367764
0.02113387146275495 -1.7894493257045305 0.03579642436956412 0.02168108308702105
0.03420163554888545 -1.7811619532502645 0.08499127985455414 0.022916794114471943
0.02265754619667431 -1.776804124738089 0.020509934860501507 0.023242573576962605
0.029058110816855023 -1.7934808253525103 0.08193082342935258 0.019569960832440694
0.042777958589379536 -1.7875702704289267 0.13860326924893107 0.020440735216097797
0.02516955456213728 -1.785745709212783 0.048929447166412066 0.023486426648516516
0.033553540988508435 -1.7926159033669962 0.10242920074826954 0.02044251854008496
0.03617615043078287 -1.7915766508924642 0.11342542962088215 0.02156739027183611
0.01710266273510127 -1.785504935231547 0.008918632325433128 0.02357434621628392
0.027416754056286904 -1.7890034672440858 0.06581864943099966 0.025376197251077225
0.0151612283698512 -1.808986552886057 0.029231324726316718 0.022131871106269355
0.02223857166651616 -1.8015474717229396 0.06037517644096612 0.022195412139440783
0.018884243871505918 -1.7993006049303264 0.041341312089769086 0.022520075938027833
0.025316998330042185 -1.8004887674281507 0.07553334769924866 0.02116993309662851
0.01797638073704396 -1.810264621730159 0.044755884403403653 0.01990356548721827
0.041526863709715985 -1.8053878945635475 0.16310390452131523 0.022306019834576238
0.02775519371435149 -1.803496580110407 0.09038623357867621 0.020854461383455543
0.029764572973475664 -1.808755080910887 0.1046845132635175 0.021298014632288455
0.02058767321426796 -1.8150249276436434 0.06144220787300518 0.02319117369496983
0.03879742946855778 -1.812152610537089 0.1532526375509631 0.018197266713599194
0.03514110146519887 -1.8111689052220183 0.13388077719428293 0.02416467295645043
0.032540742439939305 -1.8134746112336848 0.12190878946057303 0.022314468423441477
0.027510213251874388 -1.8371999679299746 0.09200689854592192 0.021726842750982793
0.029040265319101224 -1.8310243297993385 0.10245724637817179 0.025808021752297707
0.0387002798929477 -1.8322320927852271 0.1525088400836935 0.020871205468778926
0.023731438361493717 -1.8346276788186358 0.07325985376943642 0.022809794788353665
0.01987362881799924 -1.824503724840425 0.05667141485857997 0.025859919750392448
0.013210835049551676 -1.8179485036565768 0.02397801284094208 0.026256915293404993
0.02640055682061931 -1.8206134574103752 0.09237004651623255 0.022040082786662658
0.022815548369067077 -1.820230457304232 0.0736593258465621 0.022633395230123744
0.018319332457431434 -1.8328757271983551 0.045519008513508784 0.021315790192523536
0.031545256340523596 -1.824892833771639 0.11789292412561955 0.020381341990663264
0.009954854995968147 -1.8186437418705996 0.006613113184934285 0.030321370416186707
0.015603703698953895 -1.8220909032872572 0.03508274420661877 0.021366149992003067
0.039884523491888875 -1.8215669542020845 0.16291841174038668 0.024667981747714392
0.012770956748667047 -1.835378608492135 0.015458850979457489 0.029365373569151986
0.025100136283743458 -1.848143346731214 0.06542814968004944 0.018691889011642388
0.03503831639109867 -1.8380674331400682 0.1303907368868204 0.018030346758600792
0.011392256854089988 -1.8421186226095079 0.004580939077652739 0.02854394919277936
0.015277142781207911 -1.8559340037540901 0.004348517075704069 0.03312918620939253
0.019889276590614933 -1.8506787425227809 0.03533254609676248 0.01796003261246896
0.02218070782032054 -1.8496045475175997 0.04850805035542736 0.020798154533861295
0.018164635250470625 -1.851406144517998 0.02553307319613046 0.024210075008170434
0.030817051666147264 -1.847561370917358 0.09524141228536093 0.01993440001342714
0.03423451914572843 -1.8451929327786263 0.11592928179308484 0.023082862491475408
0.039807374077643176 -1.8481802956435625 0.138992962855114 0.023656814989490415
0.025859258034006162 -1.8564522218201196 0.05673005623343847 0.020550996255717865
0.030516305705639228 -1.8541653936080436 0.08345616986574629 0.020247105381530867
0.04802252139151076 -1.8435691279888688 0.1780636244304971 0.0637806558139315
0.07720867266160739 -1.8441171677027175 0.19295187688006338 0.12294758800147754
0.10599922662204203 -1.8442008155501974 0.19780706470382942 0.21838299076523987
0.11039499489453587 -1.8702134123316663 0.19195787518635216 0.07511561655809651
0.12366995685213811 -1.8601480364894882 0.19419556416531542 0.1411972156458
0.13409207419325947 -1.8686490360656878 0.19162510042064354 0.08346712913365455
0.12970982013855414 -1.835914897425785 0.19874221449199586 0.2254504383789942
0.16166394204332935 -1.8312371358764212 0.19251625079615875 0.1190463454304108
0.13905677579607267 -1.8289350181385546 0.19769805815931274 0.22654771827345302
0.16117606970357912 -1.815797010237041 0.1928789915179542 0.12414809890953758
0.16325700430009632 -1.8009770084735457 0.19142207623962731 0.10446391014070223
0.14543028927228552 -1.782180336953941 0.19206454129775208 0.11926270913118313
0.12320098187743164 -1.7683928389564063 0.1910579875915059 0.12283498115193918
0.11340831090265235 -1.8081313944893687 0.20012424440082846 0.2456958055050439
0.1130012942987811 -1.7938786224542789 0.19688183775118992 0.2452731112811374
0.10088668202725842 -1.777143916193559 0.19254796634878224 0.1438812649689848
0.07330974443775506 -1.8020822948236626 0.19257480387349862 0.1364358762306807
0.06679810589321486 -1.8327107827105553 0.1916826261997719 0.08211802821408215
0.09558359197796396 -1.8260064867193457 0.19871580757358664 0.20788111878592594
0.013297914142261714 -1.8689075765718934 0.01333370790637108 0.027069999347439845
0.031386371248001976 -1.900905732803061 0.0031362938489733613 0.02100703657018634
0.04400120254437081 -1.9087069927625864 0.015802224610934324 0.02661430824364961
0.05456512495858112 -1.9175902214271692 0.009818209811005953 0.02749324027010565
0.08574396393884592 -1.9304484134194624 0.011558010677605614 0.023233898143714037
0.13057682516368996 -1.9339566369803445 0.01176442356671536 0.023520313115410092
0.20938779912860314 -1.8867860471478153 0.016879978377141055 0.025675790165720632
0.22071112057917716 -1.870377708216699 0.005630596122579089 0.0233858547977663
0.23051954748024892 -1.826922393014143 0.00306378993228359 0.02596360192968821
0.20256371156277408 -1.7443263945681706 0.002675883307424759 0.028414560152757527
0.20013720435292554 -1.7451956674836584 0.017619759221387043 0.025842802968387094
0.17482242439427292 -1.7234440202846808 0.01066026151848349 0.018359715701576067
0.16867420512353448 -1.7193190689672853 0.002904277176748387 0.031389356643971626
0.1614571900097359 -1.7176573161294586 0.011840045623286617 0.029259515497583533
0.12897168392416855 -1.708159711488905 0.01493318797486108 0.023628622396704657
0.07759512595923451 -1.7151278824110865 0.011080223279986638 0.028462748854453924
0.010798486760954264 -1.7787674279263717 0.0031343785894754807 0.021347159633494144
0.0033760500219268625 -1.826975693228858 0.012233219328643073 0.026702929693909756
0.014037357647468184 -1.865454220707395 0.023878559018266157 0.021916522932354673
0.02048166570240268 -1.8741654407215824 0.02580842188738723 0.021155442824897924
0.017061236136936817 -1.8634523244763648 0.03618542933903788 0.018112060823232367
0.022084318330508865 -1.8722978421274092 0.041582124362415915 0.018396829021625698
0.022961736504049354 -1.8685181650250864 0.052754339586015664 0.018450722834682853
0.025085504427030204 -1.8673689593015523 0.0725279687071302 0.015766428204439284
0.029355327460544985 -1.8779243273632007 0.057128362923923925 0.02049669212620665
0.03347010773093759 -1.8720138458367828 0.09842200372150524 0.020708253586833612
0.030437558549522223 -1.862282721153753 0.10461175852722211 0.020677610291128665
0.03452075458866762 -1.8631551436369103 0.11639682292216005 0.02278103147793748
0.0391961961402057 -1.8754558748457097 0.11084085170755308 0.01800192814216958
0.03921023417580652 -1.8604074030872937 0.1418787127411072 0.01733504690759966
0.0417735669805106 -1.8708239403506903 0.13219965262876338 0.01623179152849573
0.05333023205500465 -1.8533406614543664 0.18206544648103867 0.06552250261087302
0.04825920707937413 -1.8605134290395124 0.17412570519049336 0.027319921930996686
0.060256568078114296 -1.8437726762059157 0.19253154554987767 0.06414683460766103
0.06537651658574178 -1.9214869468128595 0.009918377951394325 0.026488238303664802
0.06113371960722672 -1.9165110811063366 0.021382566938085306 0.024797791581498873
0.06800023594558764 -1.9197158874212938 0.028474806974925146 0.022462436349302933
0.07641407358935343 -1.9247023187353567 0.021536727337024972 0.02363451859300876
0.06811912779755244 -1.9130970106607172 0.04398566999218103 0.023269740464903814
0.06465757155949209 -1.9128288096541493 0.05820970096559148 0.02181209298647197
0.07976976142222733 -1.9221960831924103 0.0437442358591583 0.017699776766093585
0.07708453070771641 -1.918981491327372 0.05511879033226427 0.01823194273221961
0.062032817281703234 -1.9083228300633792 0.06802432353045089 0.025711856122335584
0.06500893356818044 -1.9075895024364238 0.08132506470265445 0.022658710324174956
0.0752272394320201 -1.9100162581805689 0.08972086412651799 0.019180139253818396
0.08599650038311867 -1.9130786981061267 0.10091608117631155 0.0176860382894522
0.07876623111463635 -1.9019509297676853 0.1361732802105641 0.021193093569258456
0.08200433748762709 -1.8890466321012704 0.1787889142691404 0.02845772092342253
0.08128098853360329 -1.8989839226621352 0.16114092443370326 0.018950403037020575
0.07888523677515476 -1.8801365306124362 0.18622769745299345 0.03044823457160151
0.09079432214122124 -1.8883367329555805 0.18469219026280215 0.054122867544096384
0.05233736361031428 -1.9068765009024427 0.03678838375917387 0.021385860008496793
0.05126818237533316 -1.9119772225550968 0.02144165163533384 0.02267005582210924
0.0592907189482713 -1.9136485087529351 0.03226926440084709 0.02323818448684816
0.04403008487502962 -1.9002761262928922 0.049771136637011174 0.018349258964970822
0.05333141653852184 -1.9047086314291328 0.05308014843435084 0.021996228415525655
0.04836592764209301 -1.8972985331322576 0.06436621008943834 0.019425150785067957
0.04867307044527575 -1.8967446453957417 0.07716856464601896 0.021592510578395934
0.05573139214147548 -1.8968942367782675 0.08806776612601734 0.01931247692487781
0.05027943443938997 -1.8906037834772351 0.10579365362033934 0.015905756149750684
0.057361287173589404 -1.8919294283731305 0.11633622435156095 0.01663482725995473
0.06485404232187547 -1.8982302767586345 0.11284526707002447 0.01908453867858957
0.06607321456201078 -1.8946627099776734 0.1307730811993017 0.015103794221451724
0.06671381787197549 -1.8923893649350556 0.14136493440563455 0.017082319970998783
0.05988430087036036 -1.884205911329032 0.15427178282296658 0.012444450755007637
0.07045001062438479 -1.8749831172292322 0.18242035233627363 0.05191489331335174
0.07156260005928831 -1.885831833930283 0.17462336612590212 0.028495327495647448
0.07379158809358306 -1.8681803359685025 0.19090608414129795 0.05558250880104316
0.10175184077158689 -1.9350196664458246 0.009291911316935542 0.028754043689699377
0.10657882461313228 -1.9301251298328543 0.02046036630198436 0.025815996433409347
0.12031199610841296 -1.9312356041647225 0.018857477884595117 0.020583388348751067
0.10707890534966719 -1.9269725184407285 0.03987347929571784 0.019400083981570906
0.09638022111720669 -1.9269155873047779 0.04670332153348252 0.018066068549073437
0.11111198534668362 -1.9258205828822184 0.05918047336572874 0.019453387195156248
0.12180255630600877 -1.9291122149221742 0.04124243848211653 0.019718052186424362
0.11925883267744647 -1.9258808098333855 0.05249530674651407 0.022201813476967383
0.10761215360400417 -1.9201880573756096 0.06968974674749549 0.016475729611321988
0.11341356779324918 -1.9206455162630884 0.08628144535704418 0.01793653142691502
0.1226409093467649 -1.9246509651414974 0.06758398375906324 0.020302970754838078
0.10562746854140802 -1.9142420348907414 0.10055345613081458 0.021918462912266456
0.10430292972958256 -1.9109298386983022 0.13093224704605236 0.020336228842589867
0.11986591867021125 -1.913731482695132 0.11899010103281085 0.01714803881136544
0.11738369073984085 -1.9104035505888222 0.1357757969279757 0.021108246991401253
0.10752808412871817 -1.9080372510449053 0.14130477007373698 0.019916511991850946
0.10422302976787526 -1.9057919543632857 0.15131681902742747 0.019635443962392262
0.11000546791175952 -1.9063209087202226 0.16077800050517932 0.017836257174181004
0.11119914348109952 -1.8983757498129403 0.17493307549814832 0.028646723636817847
0.12208256013308325 -1.9008148924458697 0.17310878260885765 0.03333067108999125
0.11515074086797507 -1.883086604786868 0.19107510632699815 0.06004943292444282
0.11607551527827434 -1.893936758962113 0.18336734798252854 0.02979601970958983
0.08666551533956807 -1.9270440428474116 0.025428768015613196 0.017169649353628916
0.09064065977256838 -1.9251143777724367 0.03733996079613178 0.016379400400096677
0.09662448022088467 -1.932097346739527 0.020753951586293437 0.022321624650340665
0.08383009612166113 -1.918627355054884 0.06662973388729483 0.022997921153490915
0.08482077087492555 -1.9172834228667255 0.07832326132325934 0.022608835140096064
0.10147128852964069 -1.920002413891067 0.08253148584990415 0.01899827174460067
0.08194620554469878 -1.9086054937514003 0.1157216067523632 0.017459802870495335
0.09399401514849567 -1.910584266487647 0.11414290258809591 0.023829240791100513
0.10202536226110101 -1.9130938481852642 0.11961089498660353 0.023089188104335773
0.09090272584217993 -1.9049161997786246 0.13244689383184077 0.02161784617398947
0.08974650894199689 -1.904505726408427 0.14624205381120078 0.01741047847501109
0.08985352826739615 -1.8948772246190162 0.17660940954231188 0.027301262130935384
0.10102309360095953 -1.8912616962451236 0.18067010196913097 0.060171339023179594
0.09874539752975851 -1.9004913349616643 0.17223998022413486 0.029179651729164924
0.10471079233371303 -1.880251231731126 0.19209762700732647 0.05927158901130517
0.008777522855232277 -1.8500487318032168 0.01155900555927693 0.027102042475998418
0.008655533689374764 -1.8440286102214745 0.02234686068805309 0.022505780318641224
0.009592632229116311 -1.8472914942737126 0.032596886424342775 0.022359079144414675
0.021565406523808724 -1.8490268852328982 0.08304279867280814 0.01784446277088431
0.02535345108093666 -1.8411631970681375 0.10199441526950209 0.021568414510260675
0.027583743837916248 -1.8506626371044141 0.10720723537451757 0.01904594167882738
0.03205975176401349 -1.8477422771095027 0.13256528112633315 0.020868726322491708
0.028796343409643148 -1.854192461240562 0.11665587061702469 0.0169316229057462
0.03255324578689499 -1.8388005874069115 0.14412010461376001 0.016185158592156672
0.037989164101025416 -1.8475208348938568 0.14909865309264816 0.019745774330236353
0.03902943874253247 -1.8350997613337179 0.174834326505428 0.02387517483212313
0.04138174588982487 -1.848160056627734 0.1701206963983885 0.02227195094406613
0.03552494684003102 -1.847368893478444 0.16153640403787287 0.016419757896557936
0.05187241752046485 -1.8390592854037218 0.1869452763961519 0.08103453358062418
0.003877518408183969 -1.820113538617007 0.021543214757078964 0.025313881893518318
0.009067804620497501 -1.8288456371020319 0.02957313758472494 0.02248736871560429
0.0095817213840337 -1.836354992995108 0.043195422682136074 0.018703111165744118
0.009971153214281232 -1.8183043160129058 0.05218643165195544 0.023636300720340866
0.01520710797286255 -1.8305573777820738 0.06664150703495617 0.021011917828979907
0.014405390875017555 -1.8382886050066796 0.05842332879243086 0.020980658627897397
0.017519910506893388 -1.8176155820283588 0.08482476477359266 0.02098404047280417
0.016624752654966407 -1.8265167168986765 0.07925567405165597 0.0227257304757684
0.019949319940319572 -1.8298735567121858 0.09075781619063165 0.023726427133619128
0.01822887216887934 -1.8372866030152928 0.0827739581335841 0.020671067960899462
0.024493618790178775 -1.829297980436706 0.11147242543250516 0.022132508992401632
0.023315778867891483 -1.8173997652158944 0.11328228439682976 0.017388770809630933
0.02446198533058564 -1.8407476025190725 0.11354429667839436 0.01780457661731209
0.029298041212216592 -1.8241032990735704 0.14911178615567694 0.01592021437111813
0.030233289937636576 -1.8229595875019822 0.13678272485029402 0.02343921649398788
0.026110380261272756 -1.832502669009404 0.12673147762522863 0.01750473548851886
0.03494194093151981 -1.8348783930163204 0.16170763065047944 0.01564265362168608
0.04171768638849294 -1.8239383064234576 0.17708489179774808 0.048976105907452716
0.05228284366105137 -1.8278022719769647 0.19010768633856145 0.06828422837648955
0.11163800361273843 -1.7082729390444327 0.015143929490170837 0.026726280399225474
0.10618813261746066 -1.711000373239798 0.025153965104928493 0.026205701964750236
0.09430073889588542 -1.7141800228073505 0.02761528486685903 0.025338256198795064
0.08987375758793825 -1.7112263913424806 0.0107969808611892 0.028792224247443262
0.09725637057985559 -1.7194671770700958 0.05331411931701854 0.02491804612063668
0.08411992611324504 -1.7193683579467698 0.04620559950714323 0.020073880860779682
0.10686345332524466 -1.724810086523805 0.09180947564474155 0.020908867924245712
0.10835184498549007 -1.7267876514807217 0.10819239549529382 0.022381203362864362
0.09401763521133802 -1.7250752803930958 0.08909522064007566 0.020094484466583164
0.09666399241740642 -1.7331634806395952 0.11951344019702616 0.020641861610671337
0.11502136227560601 -1.7345838176424342 0.1488485708722799 0.0208581847595359
0.10571669918301782 -1.7371959318574859 0.16125886638524262 0.024202670413085322
0.0950167761191132 -1.7454001858198318 0.17402233494135136 0.02675903397715503
0.09812896690042558 -1.7549397963805253 0.18676000660811157 0.07539932205128481
0.11964449024543408 -1.7116533691935991 0.02493954334443276 0.02226905828426271
0.12150944173598066 -1.7140444726029105 0.04544099525781251 0.02285958545421489
0.11038432389714534 -1.7134219932772714 0.038427169083941094 0.025563776275501184
0.1281015638212597 -1.7193420335678853 0.06987665484831326 0.02140246527857584
0.11172492579065996 -1.7160511586340914 0.05285890095524385 0.023259149216152984
0.11187096801895903 -1.7187802470440388 0.06950280074122894 0.020302029034780466
0.11962370758258573 -1.7202649186366274 0.07590034840754419 0.021765938647359782
0.13346873027716452 -1.723992725052463 0.08865769793887035 0.020564624156498762
0.12371915181183643 -1.7267021026351186 0.10483616937402844 0.02354191371717066
0.11337028616042565 -1.7291898898495155 0.11835031768785435 0.023190430167196907
0.1203023706090831 -1.7300024239536818 0.1255361593025107 0.021876229875992834
0.13161873069374555 -1.7342819931145976 0.1398103535564978 0.022946757605489004
0.11058696073325944 -1.7332114932433091 0.13420439444432616 0.019802575250732864
0.11758446440283762 -1.740435652850725 0.17026878102654433 0.020468325015841168
0.11931919745078474 -1.7494146644718924 0.17940754103749043 0.07687559190090709
0.005254234641414815 -1.8067385292301705 0.010240815136428836 0.029664623024090807
0.008686725302725068 -1.7951746914949416 0.020244982969547853 0.021721404892527493
0.008426066228602426 -1.807482974867187 0.021155866070102027 0.028150886433965308
0.01371520091654609 -1.8010236300395612 0.05471318031635858 0.018966124437155795
0.013581254372779558 -1.7905096621115821 0.047156873305893 0.022620363660876504
0.008006546621259419 -1.8175406059028822 0.041595688031027006 0.020751117263803166
0.01767924961890297 -1.7960692566091692 0.06944619730681803 0.0204381924318341
0.018050426915514325 -1.8072294788934122 0.0690951999476926 0.019291423840742478
0.01828999317892343 -1.8064595106509431 0.08689260199475234 0.018021454651486243
0.01962108507043177 -1.8215261672958836 0.10031317205737844 0.02019237714214134
0.026256213895978816 -1.802915804226288 0.11629883701879794 0.018197245261977663
0.029594839296987877 -1.8014602316092836 0.12779881798320974 0.01940373004161875
0.025562401883757194 -1.8195758030911608 0.12705451024882713 0.01975685072906852
0.030865276457945956 -1.8039578543241963 0.1404155062427843 0.019027276302541477
0.03290567546028583 -1.8043934011172085 0.1573724171094938 0.014106998761050133
0.030974320494628317 -1.814863431806474 0.14492533669727353 0.019121934756946124
0.04101669054373068 -1.8072410947156392 0.17633996463686424 0.027435862377650135
0.032910315703148604 -1.8154886780261092 0.16481455868674552 0.015240201482458367
0.04675985923621201 -1.8053307496424975 0.18438814639520257 0.05665251003736375
0.044792473820014396 -1.8161882082110112 0.18437440163062574 0.04754811470140627
0.011408372342472769 -1.7834730579339688 0.02117274808217172 0.020306123753853038
0.010792807977283122 -1.7961658520518313 0.032936847894943326 0.02017077289043402
0.023441698256945007 -1.7807035572358476 0.059584089397338384 0.023867881384724142
0.01877188077377472 -1.7894982361769485 0.05661116840224831 0.023316858062330127
0.021848376911709485 -1.7840993470453912 0.07506994891290956 0.024021638060748137
0.026005513270830907 -1.7868559924572618 0.08912996198095173 0.01946474100048804
0.023484285780903055 -1.7934197740055695 0.09879703185758835 0.017874160970952072
0.03252919654300253 -1.779074010408789 0.11082745252610962 0.02251071095306996
0.03325790065324918 -1.7927395584820431 0.13116046404730364 0.022767558591641007
0.03417087385143136 -1.7936000422609248 0.14938971481997942 0.017287284709646068
0.04676263102863881 -1.7957875454935786 0.177437735827444 0.07236910173146943
0.06451709701072497 -1.7966012157579843 0.19360140402201395 0.1004544274916223
0.021021261476866022 -1.757687398121276 0.005491609410748668 0.030881650483594772
0.028979167759887233 -1.753574598449546 0.01860598910321387 0.023231497160480723
0.020594886084430313 -1.7677574934804559 0.029700341937941695 0.02168335745812046
0.017660307849432257 -1.7678489306500063 0.012249285952153249 0.023742557161622314
0.018725387641626432 -1.7771190572206637 0.04808442666930532 0.02064222426564045
0.024327633408145123 -1.771591869390055 0.05482356528921036 0.02043353194444548
0.03504191916444064 -1.7578249436208484 0.066590567494051 0.018214405151496298
0.029746305036725148 -1.7654620563873031 0.0626507894052569 0.01863188143804179
0.032548818547683975 -1.770674571415729 0.07751915269826601 0.02071680569264449
0.040286458495988116 -1.7681616446201602 0.09743283053902188 0.023605712916419726
0.0386154638268547 -1.7682370472748021 0.1121582841249384 0.020014129812407494
0.028042375905136096 -1.7821548368201368 0.09967204807693524 0.02211499827384783
0.030460567359673982 -1.7736398330848224 0.09077055310964816 0.02022403073040486
0.04691278839877682 -1.7615116976529572 0.12421747819416216 0.020131710698537288
0.04335274440345617 -1.7736668521145738 0.1257778726764831 0.023087685410539568
0.0351911436735809 -1.7817645814500866 0.12876652827204083 0.02218338476986666
0.04909924121854494 -1.7699204055537838 0.15184063083779684 0.020199833176308715
0.041313077664499105 -1.7813222352627893 0.1567733114706465 0.017524671687592717
0.04734449567594204 -1.772997929207099 0.16211370088468569 0.01621910491275905
0.050164163479083736 -1.7849398269304406 0.18028822992663301 0.04698113044649839
0.060102769890440624 -1.7782215246734352 0.1848978145362762 0.06782877908776613
0.05497714053925851 -1.7938688790368913 0.18865613063864095 0.07658972338403985
0.037445329175484245 -1.7407435724222218 0.018765227114230343 0.018523644076926787
0.046506492203181114 -1.736583992343673 0.02909661614977377 0.022884752678752403
0.039723711922816214 -1.7473428971791645 0.035841756196334215 0.01922656729415677
0.02989849709538217 -1.7540289629331935 0.029380886470469058 0.024579973678732676
0.051492294563411645 -1.7404551678555806 0.06350577514691397 0.021692326117622666
0.04356200553044167 -1.7502369369121227 0.07015782077016061 0.01913357019761313
0.05449622852163627 -1.7447918350796132 0.08942859176757552 0.020681356766939902
0.04795805172326347 -1.752941052838237 0.09441107987317574 0.019293448459487963
0.04616389559673258 -1.7584070049362248 0.10616642253576396 0.019995753211122683
0.05882059945620988 -1.7557193790634762 0.1440757846336885 0.016931991852173076
0.04517379552937599 -1.7667485563451208 0.13295089671788995 0.02140749795396695
0.05682302616639545 -1.7665814588790427 0.1689883881491262 0.027038260569234137
0.06460962954266078 -1.7618104183523724 0.17519322126689607 0.023278706678138857
0.07075617029466275 -1.7686487990165354 0.18569438024137822 0.07194289154994842
0.07742234549888347 -1.7750740026411989 0.19236661151121778 0.08648893387573876
0.06594469398658317 -1.7204773412292134 0.015600910226365382 0.02715323297834673
0.0439298104702255 -1.7320203949938935 0.009081458451368435 0.020402834168566315
0.05983498047919935 -1.733522217931417 0.06003544134093967 0.023457887156209726
0.05538850749042982 -1.7378020131127618 0.050604249884783514 0.0197572411867654
0.06768881709367873 -1.7309903567924068 0.0669643532614431 0.024974467092983343
0.06249058569543002 -1.7391678691396573 0.08043610889065415 0.023968867371208933
0.05521931808913763 -1.7438807824048437 0.07397507928052338 0.020632519321387953
0.0723241430814973 -1.7375890725115564 0.10122805913639471 0.0224277570683826
0.05907770935123461 -1.7467665503134588 0.1078620988607278 0.022597215839603786
0.0752632562539052 -1.7393637865148461 0.12197530323927841 0.020001738441515884
0.07069764257253341 -1.7458708388240596 0.13076155400339584 0.021838525924174165
0.06025081447301174 -1.7519077222072983 0.12775991985710555 0.017413577380469236
0.06793136527437194 -1.7529636393026076 0.1555692808071235 0.018823166586709895
0.07538606751621255 -1.7484419307159176 0.1641186267480799 0.02205143638956157
0.07545093047401942 -1.7574374082972615 0.17818917729766592 0.04835336681318361
0.08404736707966036 -1.714239502096194 0.02326399632679033 0.026499039834438035
0.06780725266026119 -1.7231303714836175 0.02705867743473991 0.021460298898514415
0.06909200525287315 -1.7249002115917234 0.037384301512133525 0.020420665000849422
0.07642650286291733 -1.724987697076658 0.053081538448329836 0.021235591347169666
0.08558787156864367 -1.72356274268885 0.0685006443845885 0.018385176657326776
0.07920200338273008 -1.7320642944441818 0.0931024099717404 0.02369709132254314
0.07507197024975779 -1.7283075804921837 0.07414955935132951 0.02160538869114376
0.08435016017256636 -1.7327038770708052 0.10639126601035355 0.021462531668705407
0.06940153346730248 -1.7400407955668686 0.11333626554075962 0.023325368537353446
0.08632871341754862 -1.7351017408205565 0.12596948880501282 0.021004275948433477
0.09110671727881016 -1.737857744673585 0.1416789780363019 0.02096157378778079
0.07832986058794304 -1.742957736174258 0.14595636096971742 0.02291166357946648
0.08801843596803788 -1.7412004656513478 0.15223987515284115 0.023632559861870815
0.08546650716035624 -1.7466266427396122 0.16844450428465152 0.026539423114705394
0.15498559291555636 -1.923059382570276 0.018948251073545606 0.02112991091709412
0.17031157671659258 -1.9227464677192125 0.011509448700995887 0.027393721228214585
0.14792736434017073 -1.9213512494047145 0.04377633280306265 0.021849330626335883
0.15359872751555925 -1.9190495190291472 0.05866969432956936 0.01859131988007791
0.16034346271531824 -1.921542204361946 0.0347226964466679 0.02041407116210854
0.16205023688625253 -1.9155861409353248 0.051764392031486924 0.020978066530671868
0.1557451610350927 -1.913919921809549 0.0673922469754457 0.019399532676273652
0.14357818672047862 -1.9137047705141796 0.09526830173960314 0.02170619409487058
0.14424390345662075 -1.9123466167213938 0.10614361705147833 0.021538707972356085
0.14154634046476303 -1.9082005995327298 0.13091198501340778 0.020116439527200294
0.15053730453916583 -1.9035604600805052 0.13745156020580698 0.01764868710044902
0.14551720249673883 -1.9007701630685805 0.1582593337088139 0.013858970911697308
0.14400339657673222 -1.8924856810369035 0.17770628412067666 0.025247761899564472
0.12203651928059082 -1.9316876674354853 0.029114186402309616 0.020781131823926737
0.13241048651079973 -1.9274539884405948 0.041053788009261995 0.01924587801165777
0.14506426716340667 -1.9295075079818274 0.0233552752428643 0.019283597711197708
0.13253093858595946 -1.9252692014088715 0.051922580370813 0.020606094555227467
0.1342571154754299 -1.9218813013081857 0.07109516173256974 0.024476888250704893
0.14326254203544136 -1.9207639928267448 0.0656323061809269 0.018794104308116313
0.12582251332330308 -1.9219145228106433 0.07873392739014148 0.025188323763952455
0.1322809915097846 -1.9170604146870078 0.09639049320630035 0.024056420724731624
0.13829844105274525 -1.916590251454792 0.08525805187676319 0.020617432461803562
0.1223346271890112 -1.9167904935578268 0.10692855749028102 0.02352730047040481
0.13670885408164302 -1.9111652070619838 0.12008777164913417 0.018820306539916388
0.1318905510635609 -1.9067879257617677 0.14527829994946892 0.016391116856898588
0.1269538415617434 -1.9017654737056116 0.16388716001701056 0.019893952421690727
0.12630889017835262 -1.8905570130078984 0.18374114825797205 0.04435207342107759
0.1337758532397979 -1.8994040829615222 0.1731343027804511 0.023886898115860186
0.18704968429058166 -1.9088844854823197 0.0158765523338005 0.026773907045408194
0.19643809570379378 -1.8995893148144003 0.010760878544649442 0.025790389647312468
0.201088509516103 -1.8920456513737236 0.02183534249457294 0.029380981415025896
0.1933576935798147 -1.8996153664767446 0.03298480212452414 0.01889669357840528
0.18948414644298256 -1.8954009933113962 0.04331184690873738 0.01980082613301165
0.18470504656798342 -1.9022599299295573 0.05104155964217578 0.018274614883888537
0.19929529460023745 -1.8925076356026205 0.0369273609198838 0.02109685105696103
0.1895292507574973 -1.8874793021624248 0.07082368537343678 0.02388878336334467
0.1811220322442613 -1.898511652907545 0.0784811737376936 0.020085512078193476
0.19060551219262845 -1.8867518005156143 0.08199409246102794 0.022514066432513347
0.18074788387142676 -1.8883128855330724 0.10329632480583707 0.023486716530943315
0.1784388124988082 -1.8851936809357666 0.135954213816454 0.01905475643335981
0.171897879203737 -1.8830973454813362 0.16481356916273487 0.027925695616012262
0.1686972382704423 -1.877694407635397 0.1768225558603917 0.027007738062893645
0.1795640321056654 -1.8709223983199483 0.1712878707840585 0.0252189267131324
0.17958751770833434 -1.878257654499943 0.1615948476490326 0.02734779306064373
0.16775521928592393 -1.9198054614758207 0.027086347427809434 0.02188014565850907
0.179836654745157 -1.9123664165062195 0.022907461603945235 0.0226960927989872
0.16961999037924028 -1.915730284969362 0.0429260720203908 0.019788356338904772
0.17893337935071213 -1.9088138634984655 0.04441972808842159 0.019249724580847075
0.1711542915300363 -1.9108038854902598 0.052655309721001804 0.020220611950635358
0.17193745338205443 -1.9062191308524088 0.06310025620224452 0.017965097616830617
0.17061932256763002 -1.9016927129840462 0.08953047209425236 0.015653631988528306
0.17975129881565516 -1.8965968133251412 0.09193320013781765 0.01954530109108899
0.15787691776899856 -1.90667916532404 0.11041239047580342 0.017346684881161194
0.16940357573634365 -1.896568069401178 0.1198101803695125 0.01935409652242752
0.1738210579785073 -1.8952205569998601 0.10970844482206232 0.01926810246026009
0.16186382755142667 -1.9000324834795705 0.12782213228716494 0.01903575488469016
0.15799415809056735 -1.8945202518926927 0.15529906951867214 0.019243473769558476
0.16843553797336921 -1.8878306754978778 0.15529894856209758 0.02316915271517549
0.16178562366728005 -1.8866441014985937 0.17345876622911574 0.030435422057916335
0.1547875185355574 -1.8801061613717978 0.18317536516276509 0.07133437305345894
0.22255858626392783 -1.7787450943025536 0.01058835096204044 0.03229095002470056
0.21450683954203154 -1.7657333685074939 0.009164659480837074 0.021670659198386306
0.2147778082670471 -1.7727521081467266 0.030554775334610762 0.021784725199897482
0.21096029692350451 -1.7668830852616342 0.022997087472205517 0.02143707417040377
0.20871651209526562 -1.7644854010155386 0.03858155801552014 0.018643409150167704
0.20522700695559185 -1.7658106152574846 0.05220796776342213 0.02247815077823496
0.20517540920696223 -1.7782259073984807 0.08258485671457816 0.020491318367372204
0.20171159644926956 -1.781286561869782 0.11222586889953934 0.022858580533582664
0.19587545639424947 -1.7696665556620954 0.1041964099496765 0.02146228772588926
0.19974712379638182 -1.7870517801831174 0.13150799362219054 0.020696047474872616
0.19501769227652602 -1.773653564792912 0.11840594152564068 0.024311848215534847
0.1946918303900816 -1.784289237675 0.14115190517921347 0.02227743639425335
0.197535390436629 -1.792021935216017 0.1504461207886561 0.01930465666169186
0.18766710579887907 -1.7754243758660633 0.1520300188228732 0.018152794827170922
0.188846923180252 -1.7808877987410856 0.16417181071599043 0.015522164118847654
0.18058992033299784 -1.78536654917918 0.18251886906809672 0.04772217828575059
0.22436795954373448 -1.7927083254844873 0.021201111455828727 0.021656398211246392
0.22300056012801978 -1.8013883886834972 0.040824782543036967 0.02321669387002175
0.21907387866684638 -1.7903154784283952 0.04291467558722891 0.021130625463518644
0.21892961964860236 -1.78654723806221 0.02831486100557366 0.024166712079689612
0.21523304921305977 -1.7961943580262933 0.058150500864414326 0.021780881288860753
0.21484279459622324 -1.7835095869446675 0.05362994013596558 0.020045798340207314
0.21258622325570886 -1.7849694445636415 0.06845734396012805 0.018226508491309863
0.2126883859723448 -1.7999272789404994 0.08274316983681729 0.02066904867086537
0.20953265232884072 -1.7946172861437102 0.09859504434994398 0.018949800465874803
0.20867235430838166 -1.8032948357618581 0.10884766048486215 0.016900261600404854
0.20470190885607503 -1.7960273613934348 0.12111791540309289 0.01774831957079724
0.20502662781639056 -1.7917271341641718 0.10859308615456185 0.017714492350112243
0.20215704726392802 -1.8058447351632716 0.1366798982303536 0.019289913231369252
0.19832721013648885 -1.7941416278699012 0.13946039144723146 0.021350197355148075
0.1963577388365491 -1.8007145942702427 0.1560331249027279 0.020444105743769564
0.1966917904982036 -1.805274302326198 0.167081497021062 0.02123828837304211
0.19023901114029157 -1.8053437538446013 0.17667214100446332 0.030319822099076403
0.1924100722832422 -1.7962203197156656 0.17294350403015113 0.018101842994144447
0.17581807818353523 -1.8012127281144625 0.19086695340973273 0.07478057484514634
0.21658369811050374 -1.867158036854556 0.020818128957223517 0.023795723801039597
0.22687248510269328 -1.853190674711442 0.008990045554662257 0.027397809203725268
0.2114005735685161 -1.8610811752333103 0.04524718049447989 0.02202662243125359
0.2135618807004818 -1.858657811958039 0.05542398284660006 0.022492940629581272
0.22052431020394206 -1.8511493823983676 0.03945805590491536 0.02065921070803093
0.20887584333534717 -1.8673120105829786 0.06732312403126099 0.02504704297103059
0.20685174815975554 -1.8662064066149362 0.07855665699402346 0.023956577115319087
0.2090578019411847 -1.8564617600650892 0.08502969543116402 0.018926909159298087
0.20413359164562073 -1.8575564129392492 0.09427148132224376 0.022342060836255822
0.20800317023134005 -1.8466687238682238 0.10744611256162381 0.02008209856581417
0.19789300677285804 -1.8541225507106618 0.12887406185885694 0.021703109306432156
0.2032794200994674 -1.8479985059153716 0.11957374907944146 0.02229316233794808
0.2018575067194866 -1.839877146808487 0.14798442805858056 0.01869315372390044
0.18638542919098128 -1.8493605746686845 0.18051283131821977 0.04348642908871977
0.19700406042952823 -1.8454923747166565 0.16385107006930735 0.01874012348575769
0.17905769072336103 -1.845361140520838 0.18685244169075424 0.06476228866767939
0.20553510064576233 -1.8818948948439038 0.029604467959007535 0.022623930014262033
0.20572294446567432 -1.8816164137368696 0.04531003918297042 0.023824371132595057
0.21258724135036391 -1.8782612824929794 0.021079621171922264 0.022993627629893848
0.20179650945501473 -1.8803894585891126 0.0547514252874923 0.02169633423011618
0.19683477921155795 -1.8865061465784558 0.0617026060568232 0.020467989431887375
0.21071906981817284 -1.8708949083053354 0.0506134945084085 0.018302443799173278
0.1988318474635201 -1.8812275659541031 0.0758923894292181 0.0187425174401542
0.1952768703674791 -1.878302932714714 0.09087374606043712 0.01868311124064494
0.19278369108354854 -1.8726508840370393 0.11706474701878715 0.016679385127913615
0.20230792164090713 -1.8603843513663039 0.11144468479200986 0.016835925007310137
0.18692675500195166 -1.8765351957249345 0.13224106698891774 0.019219723680387723
0.18511788004263222 -1.8707182863887375 0.15363276836606415 0.01979447054335489
0.19229512814966115 -1.8593487260138608 0.15657613977024176 0.014405851558499789
0.22913720944835866 -1.8253927744945493 0.013357655360251769 0.024480083800728022
0.22566386807546784 -1.814876873419958 0.027639578100798763 0.022553028119118464
0.2285480287964188 -1.80289230685799 0.013097739725789943 0.02204550648194869
0.22361086957332782 -1.822536447033813 0.03944307939238552 0.019884554235430132
0.2198516808512847 -1.8073463766607656 0.05074964515326219 0.023682791763614895
0.21935160626954012 -1.8196880634100114 0.06318559054192427 0.018783211374474286
0.21613405925657864 -1.820844182041906 0.08459400452278226 0.020093441584054753
0.21515326727401796 -1.8061789809227087 0.07181857822710994 0.021849009153908056
0.21998969289242615 -1.808138615826552 0.06213459283345514 0.01966954029568387
0.211894748156736 -1.8239731997469504 0.09616838641242542 0.020409780536353624
0.2086353243139892 -1.813328739161618 0.09804793105892767 0.023249644316818644
0.21064228282981062 -1.8192622764972266 0.11246665742990078 0.018603266996126286
0.20464190089354067 -1.8222349593306109 0.12356044208946138 0.01965160189176966
0.19981657430233124 -1.822291316712042 0.14799728769240306 0.016812073153841915
0.2003988904350013 -1.8106645878029703 0.15627227347373374 0.023444923375775945
0.19451074356163178 -1.8151628802637922 0.171046154717052 0.03430951336707433
0.1959748183229711 -1.827329358544158 0.1740918740445559 0.03249200328244338
0.18985508777063306 -1.8164090819150511 0.18237181311674633 0.03493808128716442
0.18122704229648284 -1.8160843271812752 0.18833790945586165 0.07077128240259783
0.22663764427628394 -1.843143721794436 0.020416687289327568 0.027097355127348816
0.22363227494511326 -1.8504294072202467 0.027769891794961674 0.024280701325085426
0.22187097346787876 -1.8377953251715662 0.03614695308854852 0.02115085917300963
0.22242663843407934 -1.840492834466912 0.04670210946872753 0.01928034972042684
0.21634957343817549 -1.842552237917712 0.058648769649888806 0.024219223157485578
0.2165951169673742 -1.841420685072399 0.06941004296059905 0.022006694075295128
0.2140048163185661 -1.8462076613725649 0.08088279423745859 0.021163427201399063
0.21167601733155572 -1.8449882900206895 0.09363216296339788 0.021911508226704495
0.2127423118130886 -1.8317361095887112 0.08953482624422862 0.022273785176106807
0.2114237733940304 -1.8334736375865748 0.10277442219267574 0.02127748476474893
0.20189573148405418 -1.846115487741479 0.13569023909767783 0.02011464757161536
0.20529881800575078 -1.8324302468619247 0.12867487894646218 0.021357179994457687
0.20447451033212463 -1.823182638379632 0.13760250176977043 0.01592244409658424
0.19634720798708677 -1.8343576860205775 0.16642363214682085 0.02164314894105474
0.200744464727698 -1.8219948256081029 0.1630365415049537 0.01891502139075546
0.18969681667746363 -1.837696127826491 0.17767333117385695 0.05296641731342812
0.18535460730036404 -1.8260929439820517 0.1864519882009108 0.05840427002034109
0.17658749449976924 -1.8285485448084566 0.19179569328741514 0.06314450598491257
0.14248179410790102 -1.7148314940623584 0.014459941203595852 0.0253943340186724
0.15353837648297827 -1.7170449352426527 0.020561038700656713 0.024647500031361517
0.14196412330961483 -1.715095963615283 0.026849101939699936 0.019393047636887446
0.13829889108763674 -1.7192627403364886 0.058499347603532634 0.022986324955995827
0.13436594257228834 -1.7136725084856443 0.03713956178809831 0.02004555094330524
0.14619042679465022 -1.727340687394434 0.07061002242159808 0.02287834235727215
0.13757813509784828 -1.7256863714740995 0.07746330649328584 0.01976676654315855
0.14961055318550634 -1.7293347101175516 0.09266474880552768 0.024459618733236255
0.13534471601652898 -1.7297253551847438 0.10821550509949855 0.02202593528482152
0.13422865325703376 -1.7320648378716335 0.11879361846614135 0.021630131248885374
0.14395565359471174 -1.7389222769434487 0.1420526892806861 0.01829571921471851
0.14529235251456463 -1.7413080979769289 0.15234965301763378 0.018208268289390924
0.12863111875477518 -1.7395878996200311 0.1674901482108664 0.021065889390060915
0.1385474762984975 -1.7571336409187461 0.18673178887620367 0.05073738326353983
0.12481094995375289 -1.7549071861842922 0.18843774609742614 0.08260781347443723
0.16428292612162876 -1.7235347878716243 0.02669581598161627 0.021524907200779778
0.17218318927438253 -1.729003902025529 0.03745794249398723 0.020496236704614368
0.15344215484560808 -1.7195781713784135 0.03428708800127932 0.021518979522603916
0.16411998783078666 -1.7284948197417842 0.053003394590737565 0.0175226838574053
0.16196673318683952 -1.7308399452016814 0.06465143387040215 0.019463753915388245
0.1500086561937069 -1.723200588035962 0.059808496308774016 0.01947791678199013
0.16973243139587568 -1.7365691741610352 0.08172999305014943 0.020330610804886608
0.1570405118716337 -1.7335912394320192 0.08819678806941761 0.02120986147859252
0.15565100685093655 -1.7285020865380272 0.07706185913980522 0.02285393301031352
0.16183826794982697 -1.7374467797979538 0.10372570109503008 0.02136052677359923
0.1621637915350347 -1.741332661268295 0.12197277352526019 0.02531823625080515
0.14801814413399716 -1.7328693983626038 0.11057310483537713 0.021392606789765317
0.1522939781341021 -1.7367315275140538 0.12233575709347817 0.02452725184273874
0.15972578563959178 -1.7464850478578293 0.1510764500430951 0.02113586214221756
0.14541461542307668 -1.7439832574729688 0.1639678287718788 0.021491857779289598
0.15456762966338028 -1.7537922411985667 0.17493296654383905 0.027821843718433617
0.13823959703888722 -1.7651896152625923 0.19231745639385645 0.07135899093385902
0.19112437844803948 -1.740388301201748 0.015756562866868995 0.023370963747609937
0.18396377475240178 -1.735034846150189 0.030367945046300342 0.017633590585333005
0.18864038392625612 -1.7434071004944636 0.0412824994517212 0.02115192902641529
0.17817545258933437 -1.7373586683978357 0.04276994432018601 0.019390019880125776
0.18058122670279547 -1.7395038147998976 0.06115735620900419 0.02104825016621351
0.1830337436152621 -1.7473385252799298 0.08105543839688885 0.02165816750781723
0.1730045811307279 -1.735598643790561 0.06762675435977802 0.02172161460215991
0.17822528705946794 -1.7473965579369453 0.0915651593204405 0.02488447535899945
0.17008608658662813 -1.7395827856427992 0.09374424351086395 0.02210015804354562
0.17286200893790668 -1.7549658531505232 0.12499724956638929 0.027113704685107216
0.1662323385998575 -1.7466618542300405 0.13358546642378336 0.020005771577426616
0.169570844726045 -1.7439088310055681 0.11429587145573411 0.020229844537986652
0.17571878635642338 -1.7559072701701808 0.1394137292107318 0.022563906291481882
0.16869004934792056 -1.7564432367414171 0.1464304668083381 0.024121586278298423
0.16893322188244506 -1.7553792181281753 0.15814556717537598 0.021330256921489182
