x y z curv
0.2158852364068249 -1.4350158652006577 0.5577625542893141 0.0075012747419070875
0.22988428135997993 -1.4320646246994237 0.5884493376654595 0.0072951517047596965
0.2258072456604351 -1.434447139026433 0.5730190852257797 0.006009740335350749
0.22026727362853338 -1.444738948836 0.5219765973919382 0.008622417536785859
0.2151889351989964 -1.4314940075321994 0.5718770354599221 0.007191034879226052
0.21271181717561455 -1.4715704495462933 0.3978124308634378 0.011801159112536503
0.2142290768550718 -1.4457003787354175 0.510068557797867 0.009681364214832249
0.20327427360392733 -1.4695195252498086 0.3943507406847642 0.012858645032867528
0.21236559855079776 -1.461269540224774 0.4412813244680726 0.009719871461785084
0.21492319053532258 -1.4401315515374065 0.5347082618291861 0.006427505031583069
0.2063225558909797 -1.467758056808786 0.40580288068041737 0.012397939513085572
0.217554831952132 -1.4542173990076321 0.47805848288666203 0.010611303856276805
0.21461066326250205 -1.4593770333528142 0.45225333124223527 0.009323594734594993
0.21559976802433817 -1.4689130861508284 0.4128767523056726 0.009317294758327427
0.21315729607968203 -1.4486727814136766 0.4960099537320078 0.009504733499690736
0.21192832930144606 -1.4556209733731185 0.46479777377396975 0.009479986826670207
0.20452592687035118 -1.4476017246546893 0.49087365714983966 0.010731542188235386
0.20264772258865188 -1.4217028896907007 0.6048828757065985 0.05932320238098437
0.20016269973673656 -1.4424307765468867 0.5118951110032448 0.009810915485640228
0.18543058572673718 -1.4276393270570458 0.5710437630124929 0.008701672779898757
0.20926006060029803 -1.427268159770858 0.5830952262725003 0.007543389696899223
0.1869588836995037 -1.4233183454426164 0.5908693599846606 0.09249544965934152
0.20158966490391314 -1.4193106471140644 0.6150274908841333 0.07799495774529389
0.20062815471516604 -1.4495883801689144 0.48036322121626335 0.008887815458119912
0.1870000727331467 -1.420917062133321 0.6015340759067902 0.10163065395759803
0.1985815657971338 -1.464257532653305 0.41442992448091404 0.012778353821839249
0.19652790183303817 -1.4448097629741157 0.4997600063170891 0.008658009525907534
0.19316827800767844 -1.4386061083262907 0.5257984908045472 0.009308801415199174
0.18910058058711832 -1.4171921578278177 0.6189666763967873 0.08111481413192177
0.18043639149903148 -1.4507369906809284 0.46645337875709186 0.00978281735911741
0.18566717528109533 -1.4598865991513132 0.4281703026374165 0.01174672829412363
0.19030604556471367 -1.452591099713931 0.46254246173053487 0.01040636814000335
0.1850507370699657 -1.469949142999817 0.38328619289167337 0.015885954969203777
0.18377275032623744 -1.4402358564469573 0.5144697965196968 0.009360232568239505
0.18900563579706595 -1.4646134149777374 0.40867052221104677 0.01231322699509693
0.18417019854193944 -1.4428919779889788 0.5028667370086459 0.009197249063836807
0.18979034345803295 -1.4577524025860402 0.4394332793084522 0.011254443215949499
0.18599296264694348 -1.4364606700338753 0.5321775726866792 0.007734840742936531
0.18896877972610127 -1.4492679422047001 0.47669261208433567 0.008536331879520048
0.18102412734258022 -1.4469371221095426 0.4835577394810355 0.010188650080263118
0.1693521798632465 -1.4190808217196997 0.6095576463897827 0.0649149148303838
0.16564063487030453 -1.4442250057497712 0.49969513632915036 0.010374120096730376
0.1710544610096214 -1.4542411794956362 0.452921654417301 0.006744436851040363
0.17165616630212446 -1.4594968691774701 0.4293564239894855 0.008899331738449395
0.16153299446382838 -1.4424116869265582 0.5095287222241209 0.010190954343608618
0.16817662521902643 -1.4290748776055857 0.5657597434270873 0.007432364502159202
0.16933939044775456 -1.4220205154146577 0.5965293320907641 0.09634628955894481
0.17056060729316852 -1.438665878268222 0.5221944785587685 0.00890022130413641
0.1669066171264672 -1.4352165810697537 0.5390834972833634 0.006594303706840368
0.17306230153688631 -1.4616196426196304 0.4193305093116651 0.010154425890956156
0.17086480599704743 -1.4259238107746954 0.5785569202804404 0.035775567601340756
0.17136824026409286 -1.4413550463673677 0.5099186650077981 0.009317977058212546
0.17186287642000558 -1.4494118204433364 0.4739808517631352 0.007534030143063539
0.1739497365731984 -1.4661588832192707 0.3988170624440647 0.016744944426595233
0.15990845397044468 -1.4691476109534343 0.39169739556224026 0.014273682674884462
0.15173297983589162 -1.4317254944350484 0.5611883067673877 0.008081792950728353
0.16133551309901167 -1.466664437166457 0.40208402129484616 0.012742106411127194
0.16671854867519717 -1.4577455732928164 0.4392774477653171 0.007828935408760533
0.15336657223699612 -1.444760409577238 0.5026812161913488 0.009882773979343808
0.15561834307946942 -1.4604619023714964 0.4320812023487585 0.010482140392625029
0.1566567114414536 -1.448966013410798 0.4825978057882549 0.009236596502089892
0.15759934372973347 -1.4645392722229764 0.413138034563386 0.01154113647066345
0.15200391428357374 -1.4562818742315868 0.45219282918276227 0.011042257201348757
0.1573061577178882 -1.4538100669152296 0.4608368167638465 0.009990041384231669
0.13156819502696293 -1.4350000363296378 0.5689896085068326 0.008096910113274751
0.13547262016215778 -1.4314952598067765 0.5788822357712099 0.009685178798050791
0.1187322040087597 -1.4357332652006554 0.582464192931532 0.0072685435656935915
0.13937239796851825 -1.4243180233041997 0.6044379373838538 0.029428947016784276
0.13097892752806206 -1.4258554207873817 0.6087386003991082 0.00925790930960558
0.1235100986197176 -1.4389563292695744 0.5625438850586832 0.007818291900522243
0.12699934371316407 -1.4292777438206854 0.5992947047502886 0.005812294706187883
0.12701930265396816 -1.4434216550714614 0.53896813318141 0.006854188569850077
0.1434169995492212 -1.4439000939015605 0.5157214526685718 0.009635331398823319
0.1400089726518195 -1.4369082535061228 0.5499378257800418 0.007588959828824283
0.14548920815359564 -1.4511898062862885 0.48196273595274447 0.010727768343906357
0.12100145831427747 -1.4289187961741467 0.6085820155458588 0.006912709962869146
0.14155256732692698 -1.4393031400008107 0.537731223187702 0.009318410987966251
0.13390605269329628 -1.4481517721852892 0.5098953432017027 0.012082131521468484
0.1435354017552342 -1.4635186479005124 0.43192714806872406 0.010977201481571419
0.14503034547013183 -1.471154237778086 0.39744044264386874 0.014447795293143105
0.12767346071891994 -1.4521664538669656 0.5008398434540653 0.01211999302129029
0.14174822166942427 -1.4697610554114395 0.40762483803953914 0.012422362305615133
0.09207126035917232 -1.442000794528423 0.6103537260317763 0.009845092934590849
0.11518037036511006 -1.4455109775401118 0.5480286391945034 0.0070220564062315055
0.10871056923664524 -1.4459377876150854 0.5599393267260728 0.008406940784388568
0.11896749184111763 -1.465665558542759 0.46088478674849637 0.009220532761190987
0.10201642098874177 -1.451824083406028 0.5508700758077801 0.008316661644108325
0.10836536578471623 -1.4366106392683955 0.5973120220156143 0.007083138221581996
0.11054328199182575 -1.4610583549208718 0.4966794307381959 0.008987278997719431
0.10423198680120216 -1.4454447737692329 0.5712822360620815 0.007371827912970283
0.12640921155673307 -1.4647396681781806 0.4488938627607211 0.01007198811475111
0.11280643077328312 -1.4532075584413102 0.522773342373748 0.008914391065656333
0.12290795663346624 -1.4583343372050823 0.4814145631344837 0.010669934240141716
0.11692323793498893 -1.4556445619210487 0.5045520075645452 0.009853644180085337
0.09764563211464644 -1.44320894593249 0.5938995937766389 0.008280010078848458
0.10508054761138653 -1.4357262334712695 0.6076856581517338 0.007385273558704299
0.12181643764188084 -1.4725669818318394 0.42778482149219427 0.012206678128717056
0.09313676700803947 -1.4571707633839723 0.5485109526251851 0.010109348316138021
0.09792812806764974 -1.4622317131070668 0.5185630627967406 0.009817931383219734
0.120668475655059 -1.4810395026348508 0.3969059132142792 0.013068830957856815
0.11908691741183554 -1.4773581952137746 0.4146918621423324 0.012113834414694914
0.10655937185462058 -1.4701999932050207 0.4691274419720581 0.009311907045572927
0.11590845870058201 -1.4814502599945505 0.4052888087349879 0.012103754677932163
0.10744858071004598 -1.4670979648654212 0.4794482957348022 0.010149135017769364
0.10118604889337093 -1.4683427970489777 0.48770951474395924 0.009215710797885322
0.08821822953150221 -1.44968324235996 0.5882603004259164 0.0065829000559545926
0.08977837884919791 -1.4517271922678892 0.5769527396355856 0.0072588296765738695
0.08915683631860762 -1.477660343209618 0.48672940005990356 0.010198248386280721
0.06798462829550163 -1.4586320962746535 0.6121014970548245 0.012955600111463243
0.0617256964747409 -1.4664407622243358 0.6028990853349259 0.009367175468036634
0.07201981528255899 -1.471637726405262 0.5559062446084594 0.008517222051013965
0.10463248599978668 -1.4819497467549165 0.42821724120210075 0.009452801507364977
0.08557555042445614 -1.4734856953393738 0.5112285659650515 0.00879276445119944
0.07730144653566655 -1.4623532873977048 0.5729533065204175 0.009134329338623404
0.09372297895781612 -1.477560171501193 0.4741688091721573 0.0108489337257005
0.10224409682237105 -1.480449672497902 0.44013383069058837 0.009878975046361763
0.09203683417147604 -1.4717042930238426 0.4991016432699113 0.00917378325524039
0.07615089615593364 -1.4530521506152114 0.6082375510902931 0.009956145915168845
0.08350320794493493 -1.471956812723549 0.5223511066101889 0.007831579316363352
0.07144671714699807 -1.4595711297020317 0.5990824228924139 0.009343576150484466
0.09308316247547835 -1.495832032812089 0.413050344510614 0.011303077348409605
0.09008985320284439 -1.4951572583482562 0.4238343914208062 0.012788386406728731
0.07471908545087202 -1.475870367390523 0.5337002525452126 0.008073432429355982
0.1025220604670546 -1.4939470562009909 0.39286430081851337 0.01355933350469427
0.08770710254186283 -1.4862656959391785 0.4611907318202406 0.010355820896360751
0.07979908972754969 -1.4851314254863575 0.4874479813901816 0.008969929168019718
0.10735530776550241 -1.492833973526327 0.3830371568965694 0.01656301633832995
0.09842259418816995 -1.4891213991396415 0.4210700530493504 0.009494032811773015
0.077897351602766 -1.4782859435931774 0.5163982698658944 0.007420192198726603
0.08278068668927137 -1.4956727913638401 0.44371316360904517 0.009278408750828188
0.04988798181039168 -1.4788716206410584 0.6044793211158973 0.008643922038653414
0.07663740579352121 -1.5010057074183163 0.44979752449740623 0.009137777344899543
0.05263948163702831 -1.4843580158540939 0.5794968850442397 0.008222829129031241
0.04219126561380619 -1.4881693753770016 0.6047075934534294 0.008700000191431138
0.04680131138619767 -1.4941547379022566 0.5719141981888191 0.006225819147612464
0.07673051943111567 -1.4915121390275148 0.47630897255977445 0.010876286184812126
0.06998047139577063 -1.4923480943098053 0.49719297229113785 0.009152214231896987
0.05597089616786127 -1.4881617051132903 0.5572731747887069 0.008472205334491502
0.06376644761403896 -1.4917160430824135 0.5203800382479065 0.010540343401094419
0.0670275029445408 -1.4851875303491924 0.5276010353723009 0.007922138941360278
0.06736707043329004 -1.4796172110841106 0.5421752472945791 0.007830353873123948
0.07739493819503408 -1.4960173741529028 0.46128739929880175 0.010083019707002577
0.05611757241210671 -1.4772123560492223 0.587714699257577 0.007688666641366742
0.09035516826607906 -1.5020586375706033 0.3995785497127551 0.010307451522061166
0.034586415390560246 -1.4920403130168405 0.619957557630255 0.00831313743236854
0.08346870001389642 -1.5070268874124753 0.4092530595879016 0.011106320478130092
0.07813434715068589 -1.5094460575007358 0.42078677904538203 0.011147950929038539
0.07054312702277066 -1.5099778942951003 0.445427257234385 0.009318297451548734
0.07625409076770862 -1.5161989707343064 0.4081761548665019 0.01431046111311604
0.0682050926049229 -1.5014236933884146 0.47765645159674625 0.008434211513704905
0.05373436125804117 -1.4989439295006928 0.5345013265769277 0.009716610955832294
0.08488198825229046 -1.5102271374800926 0.39534076607672486 0.011882805386249182
0.06673087469546587 -1.508998831257157 0.4613235644660963 0.007968591727060421
0.059460641671706754 -1.5049836123967588 0.4977101563143912 0.008905478833117458
0.042220347661874436 -1.5156104875258256 0.5394249964262642 0.008253362790049058
0.042128389889811095 -1.5198406315021282 0.530902286161505 0.007418449209878742
0.03583109480721675 -1.4992610596875948 0.5988658974733693 0.008132187127944853
0.04383820506843431 -1.5012882755374959 0.5631472931303881 0.006158285705814789
0.02668761552233681 -1.5153337451906017 0.6010365733055035 0.009587821112654774
0.0381106950559028 -1.5015777162861974 0.5850436404858104 0.007947858657587783
0.06103253272134182 -1.5190457789943836 0.45829447724661854 0.010882968999710899
0.05727983336140231 -1.5192676289250486 0.4725734577195598 0.011406254858492403
0.06570694563946237 -1.5215457202261626 0.4346777228273318 0.011093447367571571
0.0365301620658511 -1.5124558844710683 0.568407771673252 0.008678980399615599
0.05026907988844886 -1.5184381807038698 0.501861714026693 0.009454819430619682
0.04808405303007375 -1.5081590941893666 0.5320348428821382 0.008141287495222256
0.04474884505591574 -1.5216928579218831 0.5167161432760026 0.008759875974302953
0.029939102161854587 -1.5015840675278083 0.6171376824275874 0.01021866693294449
0.05033041154757661 -1.5228113384987079 0.4924363545742925 0.00993933083333224
0.0633598444621224 -1.5311320015389596 0.4237670644307435 0.011510893077277883
0.03296049342875 -1.5274300866948067 0.5509851734221474 0.007668934883923318
0.0731744815704036 -1.5238496772244807 0.40049799048444906 0.016401593603892303
0.04416922099693882 -1.5274225385662876 0.5069602999507502 0.009326239837817185
0.06624670152557748 -1.534106921762595 0.4061763649323535 0.013774488681631036
0.038295006489910605 -1.5285740888656303 0.527622502526828 0.007387037756539657
0.02172658077713729 -1.5472426617281885 0.5718073345981268 0.007956019655161429
0.057613058019160404 -1.5414817772818676 0.42626014482881247 0.011243105803841249
0.02768776567733193 -1.5471715107675856 0.5464845868664108 0.00964622938969153
0.019966857014485383 -1.53465089880855 0.5955940844748522 0.009257021033661196
0.03606481967374447 -1.5401244290886116 0.519883756983745 0.010488287096659187
0.049698392317769534 -1.5459533551018492 0.45422042916380495 0.010264836695135615
0.04278359633352999 -1.5475279761534524 0.481664404609648 0.009741340315197546
0.05365574376151819 -1.5380643246348147 0.44755130318479314 0.010423973461029157
0.023142098303667938 -1.5352480189406523 0.5812846115260822 0.007452887444621407
0.04665034626956125 -1.5419355935923056 0.47241139031127916 0.008940582546722605
0.014154264251431854 -1.5428239058286113 0.6098055444240876 0.006876419262130705
0.017050462954370082 -1.5328774722639442 0.610321261485124 0.008487138560780115
0.015579951175324565 -1.5488828285298761 0.5958915614943215 0.008016304896019583
0.042311058305819486 -1.5407296754765283 0.49247096266069207 0.00950437364998321
0.01210172554896875 -1.54016119766633 0.6219998523260669 0.0077804874059451854
0.03142774054481777 -1.5586568551558315 0.5156860368565832 0.010344702323616941
0.05573134614527863 -1.5601572342796892 0.41013018258004735 0.014805159532392169
0.0535017468318298 -1.5492674797114347 0.43371923803085227 0.010562351178277897
0.05918529775445583 -1.5480884265227493 0.4110129511977836 0.014109275607773523
0.045091701533944296 -1.5570609411042187 0.4594953616550382 0.009122750109172406
0.02384688390150739 -1.5576221539878106 0.5493442447375073 0.008855942441353367
0.03567987239979185 -1.5511347121920744 0.5072857803535422 0.010800958319439065
0.02400044080379821 -1.5691320498093566 0.5427569854987063 0.00764222203675445
0.0491127260274887 -1.5667765918932082 0.43244372080191923 0.012251785393554688
0.03385434598335301 -1.5647810185947864 0.5009671891365478 0.010458252743726436
0.01757903767906675 -1.5610941125038724 0.5747380685591594 0.007125439426904171
0.020783899250195248 -1.5749674390290787 0.5544700866363292 0.009431822900055021
0.04358688118551332 -1.5719466403589886 0.4546862713784621 0.011793900422015051
0.030726165255277722 -1.575262989633216 0.5102593876307956 0.009959990989275197
0.014854392958951709 -1.5655176820039232 0.5848867489871528 0.00849544018658849
0.011095428046982384 -1.5824741216130642 0.5941483359627358 0.008713565841969298
0.011815331907587576 -1.5626388236312854 0.5996183987769814 0.008438716725507714
0.007360185699803495 -1.564632303773988 0.6185009137872975 0.011271789607388418
0.015762426586370552 -1.5778045061787749 0.5754951690371235 0.00893346605315287
0.039302952699627934 -1.5649100956677302 0.4767530005664393 0.008772209362578758
0.02678286762085952 -1.575280643109708 0.5277353188181747 0.009271546587728092
0.03705687491526698 -1.5659173912977737 0.4862716938639321 0.00938624674040765
0.03229976702121861 -1.581588388234584 0.5005201596258794 0.007877731121364542
0.01864371185740804 -1.584898212639046 0.559622465583993 0.008426741872589032
0.036171667493737486 -1.5848048714535152 0.4819484681850072 0.008102650075918769
0.024249926626813433 -1.586074608714006 0.5342521290551142 0.0071680469272658535
0.0408214398827868 -1.5759807441132307 0.46518591448284596 0.00985579039354528
0.050671475035707826 -1.584019230277086 0.4180028761442038 0.01114396504412608
0.05351525943931232 -1.5721306207503978 0.4105858749380842 0.013960909977642965
0.047946591203753844 -1.5845846732459052 0.4298374343672618 0.011332864134104994
0.05501580416068535 -1.5812800371574167 0.39993734402969733 0.013531294442513147
0.28396332295045845 -1.4531478987460182 0.619214723320209 0.009507876300004884
0.322038885760741 -1.4931443219761722 0.6197922841479944 0.008295781815246369
0.29398606886438655 -1.4615480855823344 0.617870071803878 0.007831852398778677
0.070092294987414 -1.723568426226575 0.6186184980892567 0.007528768924835748
0.13691055098038807 -1.7583875215969262 0.6171259987881329 0.008120002629790613
0.2358029418388003 -1.7520433975775807 0.6186219415929837 0.010814666598272779
0.3500474317986684 -1.6244858940076534 0.6185676676654364 0.0065115587663627465
0.26542734801512174 -1.437625274927197 0.6175160322175595 0.007130547173910767
0.14012887101183438 -1.4191814454471798 0.6173693046717686 0.011443968883882449
0.09044810292380992 -1.4382471912969905 0.6196111160778234 0.009688384092581593
0.00604567321319702 -1.5838103232540754 0.6189016686029726 0.01006423111708605
0.17661447163327154 -1.4680106246743592 0.5973359700477032 0.00018765949337207067
0.17622889724304736 -1.44597824181954 0.606218039726069 0.24670854028044173
0.17588475156121827 -1.540831644285137 0.5500829774467791 0.05075679367629321
0.17586379706477018 -1.526881249194742 0.5765707007530391 5.103807151713911e-06
0.17667228303798796 -1.560797980889147 0.4260675732003855 0.2233947003963265
0.1761012165810527 -1.5448033545774023 0.5296056729225936 0.12596187146894455
0.17702018110186848 -1.4346813407600771 0.6125976162185072 0.1706589378714219
0.17698826378258464 -1.4592192639429593 0.6032758733407639 0.036403456079301746
0.17840957824535075 -1.5099255547696777 0.5831414391815406 -1.781829417997881e-14
0.17891088575136982 -1.5564810485196396 0.45208433253906605 0.1139773506385506
0.17825698638578993 -1.538590668213049 0.5711069750852298 0.04569378864763415
0.17815306096383943 -1.4934832901616542 0.5877277275748206 0.0006826661766021951
0.17709836233271226 -1.5522868515690798 0.4685677440108687 0.00864189294977171
0.17705946266598704 -1.5475990245131062 0.49902441136552067 0.08037941799758432
0.17685558624739353 -1.5521988886844258 0.4850605917418069 0.08134166180788861
0.17725697671238366 -1.548226998446626 0.5125135869740759 0.10552103236756055
0.1781524925468051 -1.5594207326702159 0.4382893217285252 0.23859434299502402
0.17884390348383117 -1.5562080460848473 0.5713490175723894 0.20756642771920192
0.11513989831332268 -1.6253108076711356 0.5793339374193895 0.0008574735423326849
0.04876299519512993 -1.6627955430073371 0.6081267386382826 0.19986630196438643
0.09944625890102599 -1.6348517086935626 0.5873138823223878 5.349346247695788e-05
0.1379284534049716 -1.6126340089454303 0.5479533368907231 0.05160488554401816
0.08600057288533251 -1.6416944141534773 0.5944441222972926 0.00017086053269960638
0.07558551511800396 -1.646980751287241 0.5991385774286103 0.0005017123007139806
0.0361096314854728 -1.667968158820486 0.61451894064786 0.09630773205420076
0.13893826411567528 -1.608856792116383 0.5265528179648383 0.10083722011644305
0.0605736033623684 -1.6547169013954959 0.6028327656711177 0.0778928637799011
0.1256884685801363 -1.6171897476170365 0.5742993012787684 0.0009350093386696095
0.14387714386050796 -1.6075190029381594 0.4871457087478001 0.07139081357660969
0.13660294124612551 -1.6130251343446307 0.5624321703617691 0.03264658930938146
0.15252357971365704 -1.6009017583142944 0.432156180713246 0.16694995383914168
0.14375562139337414 -1.6065439853287793 0.5009910628113606 0.1311131172179089
0.1473652858131337 -1.6041706124505417 0.47236610041824506 0.07119594440106772
0.1474310879416166 -1.6040929717396497 0.4575763224912857 0.015252231088038398
0.14024471332656605 -1.6088876980918343 0.5133412658070213 0.11034290864396139
0.15521601058370316 -1.6004866625129757 0.4234383716614771 0.22490937343380915
0.1549180084513727 -1.6018407346589143 0.5712039868300126 0.22762351323574112
0.1365428025653849 -1.6130824612120414 0.5729980702707059 0.0733659647962754
0.1446123334054057 -1.605430870633353 0.5724277141356244 0.15944135237233006
0.17283636462631874 -1.5889823787510398 0.11394855672648396 0.07054457810985132
0.18288234783733529 -1.591222241985678 0.10977650116985493 0.07525126659998034
0.17995900814303875 -1.5827782709900595 0.10598161444020235 0.0831442096506649
0.1627058980047323 -1.5903575174629685 0.05519948629890193 0.14481795013578483
0.16143938974469701 -1.590641801246653 0.033813784975392384 0.1414964427856967
0.16414609352157442 -1.5975914004421579 0.00088004094450007 0.20727923061435036
0.16699128278022365 -1.6003316973949 0.028489359541954896 0.161607501137174
0.17397014926105087 -1.6026032849507947 0.04697830159118859 0.14945776676448705
0.1730778476265485 -1.6029776211595708 0.021102997576322054 0.18100627763055843
0.1782364897180297 -1.5961354047859087 0.09991134656716813 0.0711971658045702
0.18381521311146048 -1.6006196268615895 0.015402228627785047 0.1801640938963282
0.1850425979080966 -1.5937795737138118 0.08912248750955636 0.09782334763413793
0.18696970517159903 -1.5962791663495137 0.06540944827980552 0.13099526549642482
0.18992818478300122 -1.591023261019774 0.05448612435704267 0.12078070315106246
0.19021902104372912 -1.5912640211836613 0.029057017830600274 0.1440763612220519
0.1903841272284205 -1.5911530920934414 0.010958204976395805 0.23273905257398092
0.1877305248309289 -1.5800085775169457 0.049325357807305376 0.13957859628055053
0.18821817295542617 -1.5806530417199205 0.0013868029799945997 0.26832103401558555
0.17822385120349732 -1.5745869899476048 0.05672808932216431 0.13679132645147737
0.17910825611646536 -1.5746926106527932 0.04513603560872014 0.14572222959168737
0.17287129644658725 -1.5748080381096428 0.0121020758032857 0.2135320957774164
0.16859584453466198 -1.5764352169182962 0.03509655593561431 0.14335976540448284
0.16490639891473155 -1.5796460863223707 0.04911668644787747 0.14270552709307469
0.16400779463126386 -1.580852466367105 0.01626093299384306 0.20730406385887015
0.16661492319180882 -1.5865453169401396 0.08925887763859937 0.09217733547733133
0.1616546024200443 -1.5859800059276248 0.024441207465581746 0.1715179932164888
0.16117771077913623 -1.5866642066329482 0.00746663888605253 0.24119088198406552
0.17070172079561668 -1.5909041578357488 0.1026702217636506 0.07435709946338347
0.16332718044327799 -1.5897749675221764 0.06633248687084872 0.12601180407499632
0.16499788424295858 -1.5978220335090416 0.043610464014783426 0.14031095428425153
0.16454806058987742 -1.5984705203766159 0.012186075701031193 0.22610227829067414
0.1661903916393977 -1.5929521993704694 0.07969967398238136 0.12200632144655031
0.1675434308002326 -1.597827907018408 0.06968362558301351 0.1497186927309167
0.17428215824455365 -1.60334350709604 0.03509283787306708 0.13780956381478074
0.17519959001385332 -1.6037557193972987 0.010662869473081588 0.2106901008065677
0.17362797332459462 -1.5977370594537204 0.0893142140864762 0.0963140188173365
0.1730220500842905 -1.60065581570454 0.061813901778992604 0.13906446107603398
0.1800951181525357 -1.5997726488886248 0.07253820156478914 0.12328960775729637
0.18523953381063216 -1.6002099796069167 0.029803007947298378 0.15148101058164842
0.18249462328916963 -1.6001971354321587 0.05518905992115915 0.13216712587018048
0.18739834354594875 -1.5978620284024423 0.04302094264838272 0.14343801412385598
0.18930404972956366 -1.5936968297430618 0.0009673471467436415 0.22012585581958846
0.18949154714298094 -1.5832814107317847 0.021300696968283024 0.17476320765627387
0.18852749806937283 -1.587614170773369 0.07853734043966158 0.11816270750005411
0.18453738085452998 -1.5819777927180405 0.0920832200828298 0.0866466541112349
0.18618874925058487 -1.5790480126468878 0.06421278990613453 0.1485026316885419
0.18789496418343266 -1.5788378978864965 0.031187132620066567 0.15467250591140816
0.18764745605340177 -1.5787506934086255 0.011420757297495721 0.22387495314238107
0.17736652947481302 -1.5735516934319767 0.030257313281211656 0.1673226127497022
0.17729113330851565 -1.5736110696665915 0.001586987106678691 0.2623420185530456
0.1799846542176979 -1.5780395961334248 0.08323227000322368 0.11746588457683983
0.18004929804220182 -1.5748644567047885 0.02126311337526559 0.18936531499147
0.17559508049157402 -1.575283645335238 0.07059985987829918 0.14321529755914447
0.1676379348071398 -1.57860712587511 0.06393623001693248 0.14508731476310388
0.16601263026844093 -1.5831874069569847 0.07510221655204864 0.1096021414319211
0.16438585598313443 -1.5794335867699638 0.001658658365258127 0.23061581046779836
0.17853784826509983 -1.5964377020284153 0.0001731469523751223 0.25060883254900623
0.17192231463649996 -1.5864571724191552 0.00019472600952964966 0.28221851079472426
0.1800514413726232 -1.576303917149899 0.12517157323875938 0.10025007211569574
0.16833423819960955 -1.5970170339973158 0.12512594266757981 0.08998995215884327
0.16752313373841524 -1.5810323116300498 0.12753022652320545 0.09229740099193072
0.18859819037677972 -1.5853112131219183 0.12433609008789019 0.10828467029697511
0.17735197558486593 -1.5883841073075406 0.12838488769531478 0.11031664089688582
0.1831109408516294 -1.5990186553377939 0.12450250337180038 0.0860405918424735
0.12859590239789145 -1.5755796310892927 0.3998473130195133 0.1139299509196987
0.13363084303054923 -1.5670893334640918 0.39530865111119484 0.13332234494047748
0.1286956644427671 -1.5846835241958133 0.38875785578640165 0.17971506979668597
0.13712434773293547 -1.5777181601369223 0.3864156826463256 0.20742230947950754
0.13411976524097557 -1.5801181514589926 0.3035152576417135 0.13173800948335826
0.133206163395001 -1.5845264134473063 0.3157949720597365 0.18908083195362932
0.13916082101243252 -1.5751293798222503 0.3116347522504956 0.17477542401649931
0.13251248150919487 -1.5744688784799803 0.2922537501275186 0.06179141925866087
0.1262828664058991 -1.5729251306061027 0.30879841625489785 0.04596738677423816
0.13708146208553423 -1.577344848521251 0.36790412381400456 0.1911581448814315
0.12610339749206434 -1.5792331105929704 0.37621309112106543 0.0679699707687784
0.13105135473569968 -1.57004186056343 0.37463884458363805 0.09318062591721277
0.13173287255354124 -1.5674097628858394 0.3172681206802187 0.10997180936913953
0.12930439303962535 -1.575683705119646 0.3227058006069612 0.08634149550721809
0.12513514857638283 -1.5798299436172893 0.3666026926989175 0.0449576185456341
0.12936704481374256 -1.5668055220251063 0.3509995020656407 0.042952529563176176
0.13090851564445227 -1.5668203321662184 0.3640948806591948 0.037981154349652206
0.13229328655745398 -1.568796227358386 0.33343096873217665 0.07230385110253758
0.13562807986495357 -1.5732913925254404 0.35662975924866797 0.18679880110931527
0.12614579439515639 -1.582376166523033 0.34197234607433036 0.04663628162610286
0.12488486038901911 -1.5827835568337292 0.3530444707648896 0.03931279409907925
0.13567094190867748 -1.5793143331066932 0.345217742547915 0.17438765609377282
0.1389952468633976 -1.578245241776766 0.331055172236338 0.19707158381684536
0.12743409199705252 -1.5727596636908416 0.38851473376895657 0.09056246464061146
0.1249935490179593 -1.5969238301913595 0.39045747053125 0.11277684060813756
0.12592510554726488 -1.6016096741359385 0.3998399714975453 0.1355908965360551
0.13483467300602028 -1.6036554453316394 0.39541324772750097 0.15910250845317558
0.13672098519788997 -1.6071340394198557 0.385831521171138 0.19731926021358143
0.13836841525058272 -1.6045393089377755 0.3090505266079899 0.19730958398442183
0.13379152487008095 -1.6027037106107314 0.29629960386003174 0.11660688300765923
0.13098809820346838 -1.5963236302550088 0.3133446016268474 0.19822574903503723
0.12318893043856721 -1.6044302278732825 0.3162341107857609 0.05061773548843176
0.12997284669057735 -1.6133535909736099 0.31307302382262264 0.057263789961557725
0.13130191212711106 -1.6101990028706663 0.30409792323993273 0.05051039697049367
0.13507612285873213 -1.6023491331410553 0.32104684587357585 0.19555960139749426
0.12670083428523066 -1.5990488425974254 0.3285411765734269 0.05578666655914804
0.13142318712519085 -1.6114029060036614 0.3274460758513887 0.08241921401727344
0.12953614756101334 -1.614205778309816 0.3616998974514368 0.044101397997094095
0.1297615792026094 -1.6148996206752662 0.34920574477068766 0.041830451485470946
0.12675599554924966 -1.6056492995304161 0.35271809305857815 0.060136988075963134
0.12480981931309798 -1.5996594893741536 0.37366863811512885 0.07141556353600671
0.13682167735109593 -1.6015313109269578 0.3318268790861044 0.20752392475846607
0.12467975789414769 -1.5976323207580423 0.34791478113850965 0.05390161616996777
0.1245012941129989 -1.597552529991392 0.35989074183669423 0.0407906132506946
0.13164054352229435 -1.6126023128806555 0.3720108626402451 0.07478438780293394
0.13203109239803115 -1.6120612892979336 0.33857668086315057 0.05171731282411152
0.13728339315456184 -1.6048806931129538 0.34776345484709803 0.15125558656762236
0.1389635498940221 -1.6025808961752592 0.36208586441851454 0.2106228803281855
0.12694539505894856 -1.606226986297683 0.38176065790996394 0.07690407160803031
0.12901604206375197 -1.6125997010640976 0.3955635023755843 0.1185136071687166
0.15342439938500016 -1.6238508819015836 0.3872108261908197 0.206576827954638
0.14432385998980038 -1.6240397546244794 0.38196457455076516 0.13638044792679932
0.1413880384258842 -1.6229628548177013 0.39503653904593183 0.12803093779131977
0.15087330711048322 -1.6229218800918723 0.30550322849484945 0.1503085958498158
0.1429972571018464 -1.622323491086658 0.3126083570239842 0.12922257624226513
0.14729747236847682 -1.6272755976194273 0.29304943018094953 0.09126644478742749
0.15191827900965774 -1.6330992962354476 0.30528849009508674 0.09959552815363643
0.15182543799069964 -1.6320007260744132 0.3737126102636447 0.11615998888548407
0.1447677808193568 -1.6274820395824992 0.32267020133734114 0.08009399518398568
0.1490561948959858 -1.6367470620030098 0.3169694957017219 0.046356386726259496
0.15491849168729271 -1.6237269868275828 0.3174074591143789 0.22330342033638684
0.14790422582755217 -1.6337290688504327 0.36129765742978054 0.04503419472189213
0.14206184314088077 -1.629484340295515 0.3474094148626071 0.05711342627305369
0.13950564147930858 -1.6276271502392496 0.3689913242072898 0.03849223376433641
0.1402025991192441 -1.6260881813507078 0.35788737646761876 0.049800385602605905
0.15070363395536593 -1.6226615598593415 0.3309988521451597 0.17700385958402323
0.13835803931933233 -1.6267390463361497 0.33762838131810174 0.04466102026003227
0.15316250202044318 -1.6218504490743808 0.34282527690961734 0.2172405277617452
0.15330181670000492 -1.634870796460912 0.3485969006386416 0.04230946350341853
0.15330053624076656 -1.6349081817510485 0.3378703448491945 0.04674055799240846
0.1533389392879071 -1.6225223275692877 0.35659907780564887 0.19408292969764396
0.1501189782957758 -1.635336219210006 0.3875832346019716 0.10276384296055713
0.14906140353949326 -1.6345678488828672 0.3990539056297891 0.1302839884574278
0.16677827190959074 -1.637428105348116 0.3896270952420041 0.14313804793908586
0.18471494659725207 -1.6363754399061432 0.3916514402310287 0.16203590463163756
0.1779131773660753 -1.6325688787153152 0.38486061808895317 0.20292546855179863
0.17952218177472323 -1.6288826028208487 0.3163322458301297 0.23075815616677312
0.17096984542353097 -1.6360814009035771 0.30415255314203327 0.12363126287654502
0.1683158523738277 -1.641235015046154 0.31306558250529054 0.053720716281135374
0.17702255774918982 -1.6454490076000534 0.315992137051493 0.06049767892294986
0.1787036459571948 -1.6378546360298065 0.2958251247831944 0.08610464650822436
0.1846507943246053 -1.637248821168904 0.31308092069440596 0.1476189837121344
0.18275865877654807 -1.6411707435968848 0.3760511232464569 0.0829445522555368
0.16865011099307126 -1.632231518560139 0.3167503970057448 0.23990633084099666
0.17162930043284957 -1.6402027310068454 0.326243063736188 0.06447983368013445
0.18110480940646279 -1.6375314104758107 0.3249323783359888 0.11033575960086135
0.1836321681562298 -1.6420995900145319 0.3455968176350191 0.06073744982020444
0.18335937274072495 -1.6420995900145319 0.3628700634117164 0.04092080764162854
0.180453420730683 -1.6420995900145319 0.33384649695402396 0.05737167016630162
0.16795108249278237 -1.6420995900145319 0.36024166707740696 0.041373773541029266
0.16828623421582362 -1.6420995900145319 0.348285635873335 0.04956679639238323
0.17294555303334486 -1.6420995900145319 0.37084657006967253 0.052088607792895564
0.16947682596277408 -1.6386759324293743 0.3363099389615725 0.09018881390339376
0.17483096395818395 -1.6312201111733107 0.34193105121898276 0.2103212258484028
0.1767000374189497 -1.6298500548972361 0.3324823213684706 0.23919633223164838
0.1776874728530882 -1.6312176593460512 0.35250068279443403 0.22269288828772513
0.1766302006293129 -1.6297547262132581 0.36168515408994945 0.20773962863235224
0.17367357631441457 -1.6420979878416802 0.3813008985157357 0.0762512191104427
0.17060970373208562 -1.6420979878416802 0.3967327417211372 0.1307779793403784
0.20989624995846345 -1.626387207314714 0.39850734230534696 0.14606455897353682
0.199896265635302 -1.6360914961720967 0.3822465285421801 0.08393412988315364
0.20077145823977077 -1.6252536435819083 0.3943507134235306 0.19245258134214413
0.20125884694398377 -1.6256393371766102 0.3835900019547807 0.15808921065462406
0.20506013919463925 -1.6206852876532198 0.3121300990476362 0.19209853764613916
0.1952545107979735 -1.6267004956544857 0.31548256933788954 0.21264520609197832
0.20268011536947436 -1.6296894344307704 0.2936783138592972 0.07949772315090951
0.20150457390127074 -1.6339813222748383 0.30635818359099215 0.05811703435102162
0.20646499852306308 -1.6243982740192777 0.30185444516088283 0.12342375703097871
0.19848406544449462 -1.6363605999426583 0.316780167762988 0.05077044125284416
0.21079146211900862 -1.6301961216337733 0.31747712070956613 0.05066327209880513
0.20250031800172028 -1.622959047356683 0.3258977921721325 0.1880534367487886
0.21352583527393437 -1.6272753755872738 0.35068734003813434 0.05241202502372809
0.21011353705778898 -1.6297546021136973 0.34132491849419405 0.05723104686130506
0.20140353539393205 -1.6360828483409091 0.340293325395055 0.05414968423753994
0.1999821472824469 -1.6371155640141752 0.36709352368673526 0.04444333979540304
0.2015158592206171 -1.6360012431646505 0.3547777484214867 0.051868020969854295
0.19926519070284734 -1.6353637034097428 0.32993432535430284 0.05024383471388324
0.1991900825183846 -1.622318068330368 0.34616862537925014 0.21968658303104754
0.21403667651497024 -1.626674216257469 0.367003473522405 0.048159411828228395
0.21389554820715936 -1.626633017955614 0.3305938505311389 0.04425925412850747
0.2056376818220693 -1.623919915058471 0.35776371847903893 0.15889627170575502
0.20243972441224145 -1.6228702278499152 0.36807509399829813 0.17238875414593016
0.19920030220083196 -1.6218069948441285 0.33457148778965456 0.2082452623945738
0.21100605502385406 -1.6291041896109075 0.38739527459459977 0.09409800503241257
0.20004902941144626 -1.6370649543714335 0.39454846360606916 0.10469716812853946
0.2201167956933609 -1.6082301407399804 0.39984745073230293 0.13996898370842048
0.22831086389787264 -1.5971785729078414 0.38841581455593815 0.09430555192289959
0.22309005197578924 -1.5978227126618438 0.3967388965831409 0.16793645944968716
0.21889768865158485 -1.5995926263882194 0.3851958697460162 0.20179128681360894
0.214729013339774 -1.5986610175925822 0.31532315745309575 0.20640128965266827
0.21935639376408503 -1.599807967883927 0.3040588895691913 0.1577800401479484
0.21946551442355025 -1.605784970497576 0.29261242262743464 0.07656723933150904
0.2180344455607896 -1.6093078939223293 0.3040342683236281 0.14222297306432036
0.22706692583793817 -1.606124910752876 0.30960023849631796 0.03992249106176943
0.22608681114566015 -1.5974222282112913 0.31446459989682396 0.109868457125703
0.2168890893215446 -1.602294053116637 0.36882332169575455 0.18265972093224878
0.21373840531262955 -1.6077228519478899 0.31757529031892423 0.2014808076871316
0.22180782766115886 -1.6119765227476717 0.32779442273503834 0.07445185546849839
0.228337789496878 -1.5978120839539032 0.3490533881106949 0.04165209691191191
0.2282849243982269 -1.5979747871846801 0.33884073504006185 0.051749722536762424
0.22545911779477368 -1.6066717276600133 0.3577591603930954 0.059451616954941985
0.22293134588596913 -1.6144513977720831 0.33873193075208685 0.045071034005586166
0.22381311732991604 -1.611737599710741 0.3490233813870085 0.04987090461659698
0.22181033062554284 -1.6139145752812558 0.3676630343539964 0.09324563402963834
0.2141333120028805 -1.6033663864890775 0.3407076986476921 0.20893927331709605
0.22728412691398414 -1.5978275069481795 0.3641723751455181 0.045560373612132866
0.22653873010906397 -1.598065828566169 0.37537490599276974 0.09697397495967022
0.21933893497334198 -1.6003848005869774 0.3514682253757137 0.17046750247627027
0.22148305550960537 -1.599696480135435 0.32639423693631536 0.149529790931319
0.22475035684760947 -1.6088478394375767 0.3796129228123878 0.11523074550667863
0.22477700542068535 -1.6087659010425046 0.39021358512686943 0.12360279961508297
0.22552937950306898 -1.5748285311875865 0.3998473556445813 0.1284170034808278
0.21957631557768867 -1.5665938537112298 0.3949870735273511 0.1572630739354685
0.22089618765147767 -1.566665702026507 0.38314621034333307 0.1367328103329163
0.2142345646769867 -1.5766834403602783 0.38771770038252745 0.25333887106285546
0.2210175709551933 -1.5796399195250932 0.3803883276605218 0.1582511672005665
0.2148979715435065 -1.5723541175059688 0.30979842502249144 0.19413012156630496
0.2205538369208237 -1.5813202392888555 0.30433055953479465 0.15229904806761216
0.22640093526193394 -1.5838115189872615 0.3165058042873106 0.12120710754563989
0.22181510552578143 -1.5763518335649844 0.2921213363810687 0.06975214844047779
0.22588180319033813 -1.5687587329829251 0.3148076580798669 0.04723680077345124
0.22021792577462362 -1.5713017109141778 0.301629263624489 0.11972105271481706
0.2174979866648024 -1.5736051197397734 0.3705076305403866 0.15351664865682624
0.2135305051091752 -1.57894110991078 0.3174315630960869 0.23076543722543366
0.22732170160798132 -1.5810210801267286 0.3290916451686983 0.07453143251559995
0.22332074120142734 -1.5739378393907468 0.32420776652331884 0.10172469087272616
0.22298065264664388 -1.5661911895042555 0.3398875156385546 0.05193807721415669
0.2260260902461234 -1.5755640340643433 0.35474486837550984 0.07714241405414086
0.2250777611355949 -1.5819558805577754 0.34011333708354063 0.07873090398146368
0.22397640100732163 -1.5816467613652037 0.36724480639324325 0.13809212967350723
0.21430217321221545 -1.5785059125465897 0.3498661102357283 0.24943804964004856
0.2224284102550756 -1.5658102168557975 0.35530450092189897 0.07312402238499031
0.22234109897405768 -1.565927101790452 0.3666714660937868 0.09536191197090167
0.2158198014081725 -1.5748508583867218 0.3349992410231783 0.1953033700796475
0.2136121021931648 -1.5778712161091168 0.3605014921719339 0.2493569782097755
0.2284479417327692 -1.583023010735729 0.3924167604009116 0.1359476607317213
0.20599313680667125 -1.5520831298448177 0.39984738907231104 0.1625280345089866
0.20999293519648582 -1.5546244548487937 0.3806098041509178 0.1691668911874719
0.2002537297589077 -1.551236970517254 0.38061312546026527 0.16834492451881367
0.21005276452958307 -1.5579032787042664 0.39204204621083144 0.14986573513415619
0.20077296943284037 -1.5559421011256278 0.30204047315901456 0.1895443525180479
0.1957819652261973 -1.5545938064854923 0.31422689137938764 0.216514741360922
0.20496646503366453 -1.5525792972067438 0.29198025677409023 0.10161503755018916
0.21231274308888545 -1.5492879737470766 0.3158566571697478 0.04618705185413388
0.2004411364419032 -1.5436901180853635 0.31498199459235615 0.08497773750454506
0.203056481313308 -1.5470658294326047 0.3048305449671242 0.10647913123697961
0.20046108670975354 -1.5580955771211604 0.3670328152541535 0.21381019711209245
0.20051653158450305 -1.5572019004196784 0.3260806520473699 0.19656806372707328
0.20763429238415906 -1.5593659606291614 0.31751249459118397 0.20599534707275957
0.19963872752772444 -1.5431258844029911 0.36681849910027464 0.07630816487894267
0.21269697932814263 -1.5526132003925048 0.33285530421573284 0.07678609939266574
0.2105091568097 -1.5510236765404437 0.3506455075358564 0.07758585737803445
0.2104387436516964 -1.550972541796766 0.3629883776116815 0.07194060029071486
0.2021447993744181 -1.557743219160372 0.3552042303378091 0.20860892041565968
0.1992443343030648 -1.5457485357769865 0.35496101206683434 0.09951515280865984
0.1992462485811205 -1.5455764847896896 0.3442955392278501 0.12294874806981693
0.1992463032155421 -1.5458441963535168 0.32940887588080203 0.15633910511638155
0.1992067625434808 -1.5583836024384685 0.3395068158735552 0.2088529717928235
0.20200522883947497 -1.5448472161722935 0.3925598610439409 0.12131546631721182
0.16681259917392022 -1.5388614582485936 0.3937639219274091 0.11066375281789093
0.18576903364086889 -1.5409757213369812 0.38981982894204387 0.16113362823949587
0.176918713758286 -1.5496401723057303 0.3916512875223089 0.2221267966758514
0.17552466350921128 -1.547328231488013 0.30006352634647976 0.1547397655605109
0.17852621999257412 -1.5504271901762174 0.31139219514133354 0.2181359014793712
0.1814084506302488 -1.5400735713127645 0.3059733774639613 0.13176738791861398
0.17920585739555883 -1.535795597527219 0.3149167069482669 0.06013404468160409
0.1689392492547502 -1.5397726184946374 0.3113298048490791 0.1323672548301332
0.17524951899504881 -1.543658241980257 0.29115698532767875 0.07352439825699897
0.18446822861802437 -1.5391699468138147 0.37617502516005963 0.10966326755817862
0.18145601736734018 -1.5430778196378667 0.32591288955183645 0.16969736378241698
0.17366507354123495 -1.5459978422379144 0.32177144216408426 0.2038400281803383
0.1676602989734663 -1.5383912884703423 0.3421982432016797 0.07566087425522766
0.17338996089667283 -1.5383912884703426 0.33224516686536426 0.0847521697222371
0.17894505798491725 -1.5383912884703423 0.35680775949614263 0.08179837344864556
0.16877754741196138 -1.5383912884703423 0.37561955169502725 0.10251264839765169
0.18318665340900575 -1.5383912884703423 0.3477611062079133 0.05454694447390199
0.18539364891611707 -1.5385820043229814 0.3382044112821222 0.08084315602353873
0.1825958079879758 -1.5425521858524625 0.3676537266878323 0.1500203960928795
0.16835001744452788 -1.5402568085311494 0.3559625019076691 0.08677055562652111
0.16876989566405606 -1.5408403536449633 0.3656670841865137 0.11553761223091288
0.17550173093061192 -1.550161920631366 0.3320875734646975 0.21166695953211695
0.17446663725956027 -1.5487284166284363 0.35962919565453794 0.21430744040253902
0.17568205962142314 -1.550411312301412 0.34932201948562674 0.21428950001208194
0.17708352078951003 -1.5383928906431938 0.3870778798093443 0.11501672875520504
0.1786398318208347 -1.5383928906431938 0.3994797082940248 0.11665111682424717
0.13870374181168235 -1.5546680873197882 0.38919154062796946 0.10223008266094659
0.143986578772602 -1.5558706412666918 0.39808892028302917 0.150030558364835
0.15054498977299116 -1.5576131807275906 0.38589267916799025 0.1840265158339636
0.1552908309512289 -1.548192586231702 0.383439639399772 0.16662424941350942
0.15366178457810503 -1.5504097666235295 0.39651985473076184 0.16482533534863936
0.14961497290254855 -1.5599402240419296 0.31198054066548775 0.18561445823578163
0.15146064327911096 -1.554297992241394 0.29790911461509817 0.10933599263053932
0.15293268536216603 -1.5475637433301221 0.30670323375589476 0.11416060575220466
0.14808720285198487 -1.543498933237506 0.3158138158080957 0.051538622789783946
0.14211150685126522 -1.552219988759615 0.30803564698744995 0.0835363918534151
0.1497144079719881 -1.5566163721874366 0.3692169084055369 0.1656453957621595
0.15507334525353625 -1.5532274639177328 0.3183328450608716 0.2036188477916878
0.14217381819419628 -1.5545930312302403 0.3179010695031093 0.15398527925572641
0.14552924484358082 -1.5484873313554375 0.340940152367976 0.05109828778947054
0.1500197851697243 -1.545224744016985 0.331937134710866 0.05140547629372439
0.13970493390337638 -1.5527189157704366 0.37439691082025783 0.04241949034700449
0.15116801634052185 -1.5443904495393668 0.37525150416373887 0.07296637436891877
0.15306428729861227 -1.543012735320988 0.344979626032494 0.035892238999568206
0.15334835103442376 -1.5569805810032478 0.3291367409362009 0.21356226254280924
0.15332238140556925 -1.5431992436758994 0.3583345103684332 0.040198311139934426
0.15335711264591767 -1.5569853174040995 0.3516968104037534 0.23320323360644074
0.14187199849809345 -1.554918114294073 0.3599341281475932 0.06863538991534637
0.14261342238011154 -1.555159770237775 0.34896313901746484 0.10015752706397081
0.1395252039721662 -1.5541446910765586 0.33036332238136595 0.08141092385804653
0.15202620869243566 -1.5582505947278504 0.340553962238186 0.20243037259648958
0.18675898817513437 -1.5805613067825712 0.3679698392906905 0.196314028562019
0.18784890895642664 -1.5819817297004082 0.37828018851592377 0.23270650410746352
0.18174583156206825 -1.577057324791515 0.38669750145417037 0.2886870910498069
0.1776591555663874 -1.5762085417640201 0.3737459055830336 0.2418554905214271
0.18899972029199083 -1.5925369476846174 0.3762308262548229 0.23938522900973352
0.1852469265276658 -1.5979088839771904 0.36823490356074307 0.21167831980386723
0.18251613479443585 -1.599615913952815 0.38225732457185824 0.2806314876154028
0.17453008448705748 -1.600424481310057 0.3645671558018781 0.1913853516980245
0.171183036486855 -1.5990691046120395 0.37613972315525096 0.19476863280230985
0.1663207261446251 -1.5935086474780533 0.3833501927106561 0.24585197884107485
0.1652539247836724 -1.5893235669090269 0.36526573015410185 0.1821139411709922
0.16581143741181856 -1.584713175232067 0.3762181774244236 0.24203258221246204
0.1708317605121487 -1.5781928117778086 0.38242754220081365 0.23429494592054245
0.17907605152491118 -1.5887222141727375 0.3621401885151873 0.11216867996262653
0.1953296705392662 -1.586263874236953 0.3954007873535159 0.25190289866727816
0.17203923583987993 -1.5925746490105026 0.3954007873535159 0.29082134809425464
0.17548883478765837 -1.5818412500415486 0.39540078735351586 0.28470044154538604
0.17069237297867668 -1.6054889955487714 0.3892620474284803 0.26768576952067835
0.1924505939805958 -1.5778647995929922 0.38971795231816586 0.281453420572342
0.18157412689908053 -1.5705138619331476 0.39368601118954144 0.28003547112674004
0.1715257788754196 -1.571075008276396 0.3907535633216481 0.2668632294997435
