x y z curv
0.04465620169589449 3.8149878348138127 233.20322903733418 0.00532011322991092
0.048192026622622355 3.8054205539738195 233.19324728230234 0.005229560733167378
0.04855810763212903 3.8159790176762423 233.2143210515211 0.004978476155944002
0.05260250605365932 3.7932492251009715 233.18034192080188 0.00507929204241042
0.062026849047874116 3.7886394035637725 233.19372578649023 0.003602601912223114
0.06424898404928497 3.7976580839516787 233.21622572937767 0.005380972819543207
0.060624846913890786 3.785416202061082 233.18425217684046 0.003907763158354321
0.057576771853213 3.8067346733918757 233.21787748232867 0.005119602704392567
0.05519180468193516 3.817209539359727 233.22610426818278 0.004108744174965409
0.06932970035710778 3.8215087155208547 233.2470919503372 0.0020897043385205826
0.061800343602436816 3.8211153449242765 233.237748327111 0.0023872584371605445
0.0626974559131589 3.809373088384634 233.22746123106066 0.0035004337527485027
0.08866222173880216 3.8081992526933703 233.25723553953924 0.002263942515365262
0.07938694229972638 3.8267602857300638 233.2641428671373 0.0030085550949047624
0.07408693223218031 3.7941066720901864 233.22625668476329 0.0037848419090345626
0.08691981920454243 3.843056456999202 233.27883510061326 0.0023920506529866736
0.0889863506782955 3.819000074234199 233.26761610326582 0.0025832352136327206
0.10220445308477821 3.8448407085230167 233.28957832711262 0.00235065227687397
0.09682691208102688 3.837796296782048 233.2824522023094 0.0025557678205534442
0.10643579052653458 3.855060348542555 233.29762451233015 0.002728308946631854
0.11284160024412944 3.8450788042836517 233.29653152639094 0.0028812543762222003
0.1223285377543098 3.8493094851192313 233.30482846949258 0.005950436690807044
0.114764278889619 3.856926503220577 233.3039446141561 0.005061065672073028
0.13086255610157943 3.8510422821745625 233.31187966177592 0.01118469520882945
0.137685999499736 3.8616007686257583 233.32704528430313 0.027316857530200227
0.1412734783638343 3.8638070090228664 233.40973163975428 0.04334989311996331
0.14185977434828737 3.8630852635021062 233.38909472154972 0.01352802028665871
0.1437746434297708 3.8607280101368264 233.42203597152667 0.07246382764382384
0.13797714529861846 3.867864880282161 233.36206065131665 0.01076565671917942
0.13800838746054825 3.8678264203727815 233.42500090337415 0.08123359032245278
0.14324837874531549 3.861375855574646 233.43505509989754 0.08221278852984203
0.06295334703501058 3.7731144260233274 233.13188341932548 0.07016553219938375
0.061050344133531526 3.775150346578775 233.14217267510722 0.09900634843912745
0.07100976172307377 3.766340482023484 233.13658197001092 0.10136985941998813
0.08992981906495082 3.761788065005546 233.18823036180598 0.0025293393376225387
0.09675633321689069 3.759941717210633 233.19694686844966 0.0036856146458750577
0.09757117067702094 3.768605255858556 233.2189217470048 0.00397837760271486
0.08766383341720702 3.7737859902581192 233.2121652123901 0.005009970388141451
0.07920365375194235 3.779849360015767 233.21025870541212 0.005046733364432084
0.11633488394843908 3.7907118103959707 233.2638030050199 0.002851266326826804
0.08273976675578794 3.7892399365930185 233.22956349078544 0.0036804540545328644
0.10559445082149152 3.7822838358475437 233.2433837423466 0.0019782836992828074
0.07972971139549 3.7844414196049883 233.22094034883557 0.005060113310703879
0.10785583018615129 3.7888651336877675 233.2534051871457 0.0030053746597460637
0.0873692184343353 3.777980901017107 233.22063709497965 0.004974803715278344
0.10203511640745658 3.775166223298999 233.23146869188682 0.0031124996887923785
0.08680206651091679 3.7957229869113083 233.24120951029732 0.0013968570225318334
0.09598521243664437 3.7967406730722093 233.2513013403427 0.0019320749393728315
0.12010040958103099 3.81449832717587 233.2825517460632 0.001967390569122568
0.12068917814898408 3.8060505856105884 233.27743535588678 0.0025963822001946395
0.1101428108455623 3.8216237245723503 233.28193322312822 0.001514040184200724
0.12520915029860447 3.8326986220185 233.29690059165756 0.0022004335117319996
0.11973221395447006 3.8251360530983507 233.28918913551917 0.0016422209808618345
0.10201978504464612 3.8157452702925787 233.27392299587802 0.0025220698473786174
0.14480754507950516 3.8336782038826374 233.30775029157837 0.011677933713865971
0.1299853808090083 3.840761539555237 233.30456784255645 0.00481560348189964
0.13845929893137354 3.8419108255503183 233.310063673392 0.011649192436720864
0.15338946081030805 3.8524752528760677 233.34159304666645 0.02460238919768179
0.1559606184687553 3.8507887855033407 233.36262714357275 0.013056397607258392
0.1541583161082372 3.852252838803763 233.35177435082522 0.017056714960006096
0.15506266970512547 3.8515182107539543 233.4164121703081 0.06073753610386183
0.1538514256831739 3.852502133233779 233.39961005943982 0.020512454025679396
0.15122619348319358 3.854634672119014 233.42972603893185 0.08721678595766687
0.0951499207693379 3.749221866989696 233.13008772790758 0.1006541988321934
0.11874480541575606 3.735777981153251 233.13206413245274 0.07949686457216129
0.1024168514095596 3.745367207723813 233.14805181386004 0.08543846732663997
0.11428008877060966 3.7390848231576737 233.14683911412646 0.07691776064495917
0.09312318966629866 3.7493020780445203 233.14023317260794 0.07881388188299472
0.12622282743581018 3.733445387845647 233.15170590311382 0.05961822783353901
0.10638261028788704 3.749305173807267 233.182369775275 0.003143172618078102
0.10399525469003125 3.761404662071011 233.21164559624054 0.003367470899027167
0.09822801138400171 3.754850086163831 233.18592811481824 0.003126952663851104
0.11684171432022887 3.7420027424486424 233.17729238544234 0.0024665593876896917
0.13175680235477288 3.743050799270369 233.2009417666438 0.002150188571603341
0.11831817342908911 3.7491732538612883 233.19867895934618 0.003038843116631229
0.11121307157237384 3.7605605879908643 233.21944842661895 0.002728115379197401
0.13257728911067904 3.7465699521279316 233.21157174306538 0.0034280225052562233
0.11630699475306208 3.7805300934557406 233.25038938231924 0.0025009690934841263
0.12264101707222451 3.7682942003572046 233.23819773371991 0.002480304668265678
0.11108759883857709 3.7740631216917526 233.2379029905503 0.002353106509010487
0.13775668466456242 3.7588466899236233 233.23599664807256 0.0023440284264805117
0.13617875995813655 3.767684977535033 233.24691712149013 0.0017092057323465127
0.13785325618444944 3.7919722764031603 233.27468072737582 0.0031337634092698193
0.12478683638938856 3.7945208464372877 233.2715816682054 0.003281206367081247
0.14546859314109667 3.7784143701133566 233.26762251140457 0.0033990864206131237
0.13222007646649503 3.785451950654849 233.26775028738547 0.002988384293359981
0.14815414958284448 3.824498772020929 233.30248203553964 0.0033709464284076666
0.15008827648428452 3.808956293633912 233.29180553173757 0.0014735346230643571
0.1593469850111414 3.8212928867833518 233.3043857412124 0.005343287224649918
0.15446101043736055 3.8307391849282677 233.30974382065511 0.010257155336245079
0.16542522553617323 3.8410037733225035 233.3273766172331 0.029162089124999405
0.16829316102082809 3.8441225849290186 233.41024643170297 0.03441759124242232
0.16212004858214601 3.847320624657728 233.37248438985523 0.01615087941211614
0.16566897565077782 3.8454820691684968 233.34771844020344 0.017107562060488166
0.17117597004982316 3.842629118238335 233.37570856752268 0.016070126383997387
0.16285802918258904 3.8469383067747023 233.42197549018204 0.07412177428988256
0.16541666659921098 3.8456127802771705 233.39893894316594 0.02134174413164808
0.15758061220563635 3.849672322933472 233.3820078096629 0.017723554060700433
0.16187612691216013 3.8474469906034408 233.43212098370995 0.08807788273446465
0.16984263461242233 3.847849489167469 233.43979075226352 0.09896656175482124
0.143175419624059 3.731334145804129 233.12783876856372 0.09569617877771718
0.1641058937832035 3.722338092576426 233.12942700259646 0.08661149558085787
0.1544537572258896 3.7232075150041695 233.13521120597778 0.1071201460601846
0.14630244195784267 3.7262554268405497 233.1419822167178 0.09798709655304612
0.15205824239076982 3.7264734771100008 233.15998984582995 0.04510898918034029
0.14158174401965512 3.7297981179275252 233.16299385570696 0.031497569346990224
0.16238467219921013 3.724899625534778 233.17340396369667 0.0053621945251031535
0.13174615172310045 3.7393428412201177 233.1903368369723 0.0012547505261026766
0.15528521806846418 3.739637662006676 233.21093141439962 0.003920271834232393
0.1557520661146402 3.7330187911254242 233.19202259018886 0.0023463907869154268
0.16250288722141656 3.7288110706759867 233.18541300188298 0.0024294244557415087
0.15286117802610932 3.7370774639705444 233.20143372244587 0.0032478537950373972
0.16568834373426922 3.7334788825637237 233.20169473833 0.0022001623279076154
0.14817466404544843 3.744071053956721 233.21789744805506 0.003923292001393141
0.15775761521797127 3.7485000649397313 233.229407141555 0.003118885405703518
0.13810385490686397 3.749519957917906 233.22258530636623 0.003235217165829731
0.1582921544243926 3.7425305249376626 233.22083992872956 0.003696803019996402
0.1491658849272488 3.766690717284687 233.25256446765505 0.0021424222656535033
0.14703836691330663 3.7525235917073756 233.2307940541761 0.002841032273951437
0.1566914463000879 3.7607179160408286 233.2469534550881 0.0022586136878561276
0.15619896164829136 3.772433189444719 233.2640024271837 0.0038313624224291113
0.16613073800700276 3.774670537014905 233.26947059939 0.004028147796994862
0.17098176688665312 3.7814410307835327 233.27595731954486 0.003151321463820092
0.16092201394950173 3.788327064239081 233.27912995477794 0.002801446281153261
0.16323189212366548 3.7988040356954214 233.28798075980365 0.001983493935096294
0.171965379879714 3.7910957709842674 233.28385197362672 0.001946915714165542
0.17225501275311894 3.813543593940747 233.30175127378925 0.004023626204482591
0.18085811726604747 3.8169936830850926 233.30645717772325 0.007218810393319409
0.181359483344202 3.8253396826786856 233.3143127713418 0.013544892248950068
0.17274720111495218 3.8307570048614448 233.31716807081023 0.01786843045967782
0.17915121151569469 3.8375638322685446 233.33301264091648 0.02799716145589875
0.1813725410687916 3.839622638239206 233.4010221983771 0.023120753138230064
0.18624193230034242 3.838222598707019 233.3881195393908 0.01719716798887436
0.1762110796561028 3.8411066533199416 233.36363784796544 0.015544893736505262
0.1796143458808864 3.840128151690747 233.4121275999159 0.04387758404985468
0.17537037897987706 3.8413483702257065 233.42430507958977 0.05958956747277927
0.18374322415243363 3.719439105739931 233.14472348743178 0.07516156230573524
0.1930688459193339 3.7213225378283292 233.17199563272018 0.01012738428718308
0.19584373957996884 3.71963472532424 233.1577249877784 0.04216715055094375
0.1829929187865577 3.7245660927850253 233.18048466233876 0.003001182355821791
0.17273983863305767 3.725433992390786 233.18026495193214 0.0029944231520520636
0.19411425257292994 3.7248838053808404 233.18452525281936 0.002765450174774003
0.18063920475263184 3.7484973392740217 233.2361028696513 0.00161025296083099
0.18021757298189117 3.760897036466895 233.25496032916715 0.002960549266356714
0.20138499909114535 3.7368988092602846 233.22131222523706 0.0032148248487864697
0.19130827841435977 3.7578255986629054 233.2518269314035 0.002428407155696645
0.19149264751291406 3.7838289954688626 233.28026602652764 0.00245427765602232
0.18578817671615122 3.7685349425470287 233.26725262525727 0.0034266049789251846
0.1828109331795118 3.806781349133052 233.29849424683226 0.0025060201901247123
0.18009349667584568 3.7987399941498174 233.29167329617982 0.0019009047516479016
0.19641844934091268 3.768170602386686 233.26775524660164 0.003808811752659983
0.19643531615968912 3.77725443159418 233.27523002954933 0.002634832874834906
0.19227093265747028 3.816948232312087 233.3075728490094 0.010253288108509732
0.1980852191425144 3.7988945950826998 233.29315850087846 0.002328747927333998
0.19481710255973722 3.808420512951345 233.3007490511282 0.002959212134423968
0.19068197408244011 3.835352310473551 233.33385782572356 0.02844030242767778
0.2003004711927441 3.8360134125619902 233.33963901808536 0.028812491851163673
0.19036871302832128 3.837760074508113 233.35705738625984 0.01144509875024234
0.19918810181944435 3.8369509749882447 233.40602877751738 0.022341337604154035
0.18698386390174918 3.8380706039413877 233.36846450159163 0.013038452632436841
0.18877753090489952 3.8379060511423875 233.41877199815127 0.056237263742592296
0.19408674738288462 3.8385282907216705 233.43823073497825 0.09119653701829555
0.21160179005964364 3.721884315179001 233.12796707396856 0.08854876991825746
0.2190295929360777 3.718524233635435 233.13582205604564 0.08555314097032249
0.2038440027537242 3.716995651753739 233.13447420634418 0.09230778301772363
0.2179642374464583 3.720164944309985 233.15313175545106 0.05894154304252019
0.20600297753388122 3.71904786861058 233.1529358002586 0.061601884047862966
0.2104981614169906 3.7206116774045075 233.1644001876469 0.01825419973821318
0.20409483113940646 3.7209913639818386 233.1740302252109 0.011591431036034026
0.2241964057524595 3.7217656698352766 233.1633770402372 0.0252119870855718
0.22877547358062028 3.7212019702728067 233.15358126270735 0.07568887780216157
0.23677819896681168 3.722917860359936 233.1633558385701 0.0312640111670528
0.2071693102657593 3.733404577610711 233.21073215537075 0.0038700126265028786
0.20833593554724134 3.7295623343470172 233.19880606496378 0.004691596661346201
0.22858065584628143 3.7238230309694895 233.17586553907526 0.011706374835659264
0.21862389838308816 3.72423558863579 233.1798699463425 0.005089436196142683
0.21602986185932024 3.7326498124728693 233.20599804938942 0.004181291893067891
0.22405142327148064 3.7308569648033485 233.19836157070557 0.004533890999657133
0.21769593543696644 3.7517386406357627 233.2417006184809 0.0027523287316462857
0.2253374034431216 3.7407764152224416 233.22390757957737 0.004471180126236331
0.2017890128632772 3.7631646422915668 233.26135803404767 0.003123743509549441
0.21195918505660127 3.73821500435412 233.22187245506598 0.0045431465214158095
0.22535586248063816 3.7477318860762043 233.2345159672685 0.002887051613459544
0.2165105426159789 3.763930829540671 233.26046636738658 0.003229702570364939
0.22798508027707753 3.7548478801423575 233.24500378178868 0.002369350260617643
0.22006417660347788 3.758639038219582 233.25189606681195 0.0024000463251001446
0.20269578868121685 3.8145925034362924 233.30624112594472 0.010143613985719106
0.21126810755502157 3.798643258610717 233.2924721780273 0.0012131747649170288
0.20173401800721222 3.784838518652627 233.281834325464 0.0018875986108910544
0.21606141202275989 3.786625281097876 233.28222284604837 0.0018449680014297094
0.21294623086388964 3.814636421879376 233.30550351381146 0.0064996782711899195
0.21100544168985913 3.82188047528106 233.3123671596544 0.017798781868883454
0.20680598533958006 3.828801742455032 233.3197131959187 0.019471681271377606
0.2078492449086015 3.837321344035279 233.36856676523965 0.01149068436002924
0.21438215523413828 3.837920730582639 233.4249615377784 0.07290039983210547
0.20618557961786305 3.837168704775762 233.39445281655517 0.016407203943184297
0.20384294318556334 3.8369537707428565 233.42114999592826 0.0648211397982256
0.20985257931951032 3.8416386999263477 233.43978010345322 0.08656134438189521
0.26573310522580623 3.7282508601694797 233.1361899788455 0.08800866663414993
0.2462085636393727 3.724996011005218 233.1588692989507 0.044034787255699544
0.2557589517652107 3.726243871077136 233.1444660323109 0.09736529933110348
0.2673797903438179 3.7301521818947263 233.14991827557665 0.07087808008043736
0.26367234416161334 3.730286687287882 233.1614603087411 0.023727332934375657
0.2476168355545937 3.726486599493967 233.16930764622444 0.012539052677624563
0.24757433194245443 3.73431396248752 233.1955258049281 0.004390678977595502
0.2396531766088463 3.726538229804012 233.17949325074906 0.00492047133247134
0.23497869872943553 3.7376184428115944 233.21572154203258 0.004342497163585616
0.2504611996427958 3.730490048020754 233.1819551706855 0.004992938797267885
0.26779531652833694 3.7344255655315566 233.1788981398953 0.004957644200625152
0.267370604333407 3.7409271511172895 233.19821235881093 0.005206149441292874
0.25606716187902 3.74047400126459 233.20636773531686 0.005122343446430188
0.25488517815914924 3.743693060951784 233.21674523455192 0.005718225051749883
0.26563752802597324 3.747705741221486 233.21943120924342 0.005863210272525274
0.23900224071319426 3.755093513284272 233.2417628249758 0.002156718563275541
0.23803155595831704 3.7439595034490925 233.22577269085969 0.004317284452866912
0.25053588719598063 3.7727498129091255 233.26288701954215 0.0038150465248158894
0.25218682316942753 3.7659303922974194 233.2521422070317 0.0024847201044198813
0.23764299286393434 3.765588566712772 233.25779855643307 0.003357211075991
0.2574993604581264 3.7558523454649286 233.2350463331648 0.0024084098646461917
0.23815180984351578 3.7809733415309545 233.27418476008134 0.0026752488814512356
0.24828489040521037 3.779077000149014 233.27036372312267 0.003713635835741697
0.22414781934359024 3.801802210988054 233.29393049952802 0.0028076085454453036
0.2306456238911237 3.7705825375142115 233.26764452394545 0.0032212989810025063
0.23924883747133935 3.795961576827952 233.2858412621882 0.0017662142578622885
0.22746431403330294 3.793170191623922 233.28631544807354 0.0020300065842619864
0.23518146011302948 3.8214144900473848 233.30699078088867 0.0059946509499455005
0.23970630489034306 3.8105323471527655 233.29731217590066 0.0021787545299838704
0.22201658559356144 3.8201537701287047 233.30917323641694 0.008066046488898962
0.22901215284443077 3.826622785308089 233.31350080784836 0.015259940463739845
0.22081707552003627 3.830045180292054 233.31911083558094 0.021785610309773648
0.2312638933834459 3.8404139797781043 233.3356099166853 0.0257442952099128
0.21774961608312787 3.8385076396843476 233.34517382327712 0.022606644873440006
0.23149889283418468 3.8424608817716717 233.38819310352224 0.0173291185812538
0.22727306197581226 3.841245855504785 233.37616924706631 0.014960361999864231
0.23091237017964522 3.8422922426435866 233.40913783537434 0.0381866054837165
0.2247154951112461 3.8405104945724817 233.3983194282813 0.02099440331364494
0.21725388422071767 3.8383651050552183 233.4125922834814 0.03854998366207024
0.22834360752765712 3.841553662657741 233.43285307245918 0.08580704648014009
0.21961877665417007 3.8392779661965064 233.43649172619268 0.07481214459271397
0.27686165175321437 3.7323654719463883 233.14171941781927 0.09587379222060716
0.30146965492230504 3.7443611664091003 233.13502997476976 0.09023142317915639
0.2828950525631115 3.7366675239065708 233.15217320133496 0.0688282388437114
0.27711924073446337 3.735684641118432 233.1700290783702 0.008109379259510866
0.3031246042672859 3.7479215730148843 233.15905008035062 0.05262265352996919
0.29256113619005575 3.742079721949616 233.15576835632004 0.05782425222707485
0.27680515885643325 3.747183397663044 233.2043134843736 0.005074840818371825
0.2775210973752963 3.742536340484234 233.19078965830448 0.004454486341595895
0.28474979412138396 3.742260959559129 233.17995459193202 0.004106033193904877
0.28927343308516407 3.7487042971283886 233.1910039143067 0.004391463629298916
0.2994953743175719 3.7536839734707614 233.19015246588634 0.0031425265308466866
0.291973448184771 3.7605350965237876 233.21911928593323 0.0029055100848044504
0.2683715694773103 3.7734378522859324 233.25365619714077 0.0024052198488842404
0.2661323323628459 3.7552438495102316 233.23046417756126 0.0032204445587663117
0.2739750685101539 3.754846933944458 233.22439190575284 0.004683373673998933
0.28335359918272984 3.7601222530612195 233.2249592129462 0.0032248018040967443
0.2641805704521861 3.764683376668395 233.24469293672405 0.001973245272382968
0.26378140892435026 3.7794956473921024 233.26514164624743 0.0032803320748779462
0.26311786255395114 3.797458204214811 233.27948058593012 0.002120146341262202
0.2737681595725624 3.7910332200407586 233.27071167654367 0.0033997616105039337
0.2674963951588363 3.81723434144639 233.29233583577766 0.002183345279778716
0.2539818686287689 3.8312558695776016 233.30777211204827 0.008349504839970512
0.24157561955877388 3.8284593730174272 233.31093509867208 0.00835045554018793
0.2436393093931979 3.8367599361949702 233.3174238321475 0.017558976760901866
0.24380044334993872 3.843524783904035 233.3250222871987 0.02985912117734047
0.24333964855845924 3.8485949586553914 233.39295728422775 0.017894419558233107
0.24147173708450537 3.8476272565293983 233.4040659280947 0.033136394445883954
0.234327933769073 3.8439262922425934 233.35922817240606 0.014533046733330803
0.24376924106781417 3.848817516089408 233.4223523036764 0.061905157694906995
0.2382257993987716 3.8472160060906613 233.4382673368375 0.08378638961889168
0.3135682405368014 3.7568368668415566 233.12783416552273 0.09534760134595639
0.31341247112509674 3.7523691163026704 233.14528407291627 0.08969104317009736
0.3179103937376841 3.754882878722848 233.13642643229326 0.11166052266725265
0.31144296463614446 3.7521098998678526 233.15570063711647 0.06044186067454599
0.33823137699805966 3.7751183513292808 233.165393654415 0.012861782402021925
0.32652952297379445 3.7659304403005227 233.16786286041702 0.00883495487872028
0.33820737487966557 3.7737311826433224 233.15476703293882 0.05530685009771774
0.31449210221590196 3.764905387415153 233.19285451923668 0.0026050907041539114
0.323049013176229 3.7703725525542238 233.1893579485678 0.002539880358994212
0.3040323771592108 3.7627867794668757 233.20788421373393 0.0023975778687849213
0.3396604238186369 3.778031517375534 233.17560826262002 0.004890236315318267
0.3341320596375649 3.783437249885987 233.19892899802483 0.002105808723266987
0.3228238312732805 3.782679096118714 233.2187887188491 0.0025144987883515733
0.33245837255981664 3.77746150757679 233.1880512704491 0.0022633612863115437
0.30665407992015015 3.769197811976901 233.21797303518494 0.002670896781807109
0.2941294368268951 3.7892355688556214 233.25482756317044 0.0023246485051964818
0.3057916757523295 3.800030696214683 233.25640082174348 0.0033128094639955185
0.31998061369634323 3.798573494875092 233.24094506152915 0.002156601878646464
0.3069956933073145 3.7930438711113936 233.24691912301074 0.002564405358074727
0.2626458744831108 3.8278270398213756 233.3016713885704 0.0040494625175430754
0.2858442672220621 3.7980052821289254 233.2704276002166 0.0033067948532513806
0.275452014824275 3.8112204743217775 233.2843314290242 0.002402759126182385
0.2825256986420999 3.8051167645218182 233.27672383896012 0.002381676899075075
0.2782933936645552 3.8206208441567204 233.28888464023362 0.0022903351381177886
0.26972348315634187 3.8412361170316833 233.30658891491666 0.007105967857885382
0.28049088154717255 3.829913550247057 233.2937045174026 0.0026321508066130626
0.2978557062186719 3.818631868818529 233.27740572201867 0.0017458721035633047
0.26508033716720997 3.8473191498985697 233.31396288718253 0.01303438211230945
0.254524599551406 3.8434189817472393 233.317630292905 0.021511769831441978
0.255021767919673 3.857273047002291 233.38189460911804 0.018326099119394975
0.2562488339492912 3.858269830307667 233.3613523829396 0.012989741442447657
0.2569719660034919 3.8588572526156866 233.39702779980004 0.019933730409287465
0.25111588217349695 3.854100176422776 233.37236787738257 0.013864970058558777
0.25341755046377223 3.855969892045965 233.42895718939388 0.07771971999025928
0.2563753899474821 3.8583726356198085 233.4200149841921 0.06511342413370755
0.2478401180252566 3.851439172909922 233.41194159674825 0.04920168046613954
0.3608849784252363 3.80132008320361 233.1287320858422 0.12049524602512632
0.3481003319208405 3.784432383455656 233.12921094983392 0.10955089050825638
0.3479950297661345 3.781642862202215 233.14002757331252 0.09839661317155159
0.365383514101033 3.802936171439005 233.13931817197027 0.08217022258965824
0.3548835319084075 3.791968353178638 233.15167615880654 0.06005710153671173
0.36096527853951954 3.798901921161952 233.1481843258358 0.08515622434767918
0.3585143297264312 3.7986690025821668 233.16575765498905 0.015522496099621738
0.34511810017329236 3.7921430572514465 233.19066485877795 0.0020949900294224178
0.3503921859555163 3.810426447537343 233.21323489162853 0.0026435146709770973
0.3470642210421023 3.8025411788808903 233.20598305980798 0.002446597512725315
0.3520533632968069 3.8027376466981364 233.1946025199634 0.0024233826616041087
0.35933926806993144 3.80783121403898 233.18718382488615 0.0020936550869769875
0.3540926621982263 3.8090768845972156 233.2019316043473 0.002838017839158547
0.34488012285812897 3.823869183652492 233.23602984063928 0.0019672437172842563
0.33083511741053384 3.7909089936823817 233.22087621418402 0.0022354052798060162
0.336191239650183 3.8289637168750312 233.25129996938804 0.0023771915764134897
0.32611267814304656 3.8191762810411567 233.253833178332 0.002548609961569852
0.31475229945560257 3.810609073999837 233.25907229899437 0.0028575239526324363
0.325109125326119 3.809463288287623 233.24563513304068 0.002070188107423015
0.3127560171921252 3.838202943016183 233.27843798523998 0.0013813612746307554
0.2806669909713775 3.8490746793602417 233.30470885679006 0.005711868116457913
0.29884957384288346 3.8473827217658716 233.2921532785188 0.001977638329214971
0.28973364310146077 3.8509147126159586 233.29984767492118 0.0026491715070034584
0.2743872880946272 3.8610164417282418 233.31647116356157 0.01654617621412655
0.26501121404482225 3.8609083911279125 233.32628623310734 0.028591430842172003
0.2658559942874137 3.868890557985709 233.3840002077966 0.01555045633362213
0.2680900317071799 3.8716407385385407 233.35497293958773 0.011285899107558712
0.2616365187556605 3.8636962315845915 233.41370042287724 0.06288713432721375
0.2680719202750963 3.871618442713117 233.42540438305022 0.08779349671043604
0.2646580288393342 3.8674158193581807 233.4030558057535 0.03544376575229811
0.26270473479966683 3.865011244021024 233.4329522454722 0.09173111430115305
0.37272883038672827 3.822955220075968 233.12782360946582 0.09605020289083928
0.3713864250770685 3.811259498124132 233.13195266498303 0.07130214537255025
0.3819923059140533 3.833304529674473 233.1454688353819 0.09309788715789857
0.37448026838312887 3.820799537158974 233.15465426791394 0.05711991344154243
0.3840754039931012 3.8434555562600217 233.17369010214503 0.009377900683052007
0.3829454083229322 3.8391096934591697 233.16372454935103 0.02687172118479531
0.3734460610805485 3.8212697683745236 233.16600946828225 0.010061084266279196
0.369429862598024 3.8165533689252693 233.175904596854 0.005733499020619199
0.36644071101064873 3.818427669831806 233.18657754831383 0.003199790714715204
0.37163349111637756 3.828304163908436 233.18637238597307 0.0027712188277612525
0.36458930577624094 3.832984747860742 233.21189216978132 0.003126062378807105
0.37038561712461443 3.8334726421334606 233.19695186139165 0.002636279520464788
0.37692691806996015 3.8408390869039017 233.18960772904572 0.0027641761793407993
0.368329918177339 3.849156071062701 233.2221038312935 0.002571461544404454
0.35255891427231945 3.8251412001905982 233.2266373769744 0.002997626632271744
0.33012278858145305 3.8356410529230387 233.26459059987488 0.0031755156300331717
0.36127937580300157 3.8437025706606986 233.22785662098596 0.002967449535634836
0.3456238603119163 3.8385635752647165 233.2455470530189 0.0028689964140170194
0.3491976046576152 3.833993701731991 233.23745797726977 0.003094608529359629
0.36226237307869386 3.8357530856848174 233.2209110742417 0.003007253085939196
0.3421358394745839 3.8526818169725976 233.26025435327077 0.003139808018807427
0.35423857114987684 3.8503158988802593 233.24210750000958 0.0023671977002546222
0.3370849527840244 3.8401332643022013 233.25828008987628 0.0036072088348442434
0.29515844514144046 3.8597138124507735 233.3005718497922 0.0031566377686852833
0.33442655046013897 3.855853388353103 233.27027034946119 0.003427614189177325
0.3208819103793226 3.867633866126025 233.2846968488471 0.001757883450226894
0.3141492207621911 3.8715756702792117 233.29113982685215 0.0018488190179607258
0.302217801286149 3.878179707707659 233.3024127186032 0.002528184465564564
0.29263243202181616 3.868894813708111 233.30591898163522 0.008107226120393673
0.2838004176236535 3.8803500753338067 233.3186626092314 0.019003437365290563
0.29362227666449736 3.8796201214665635 233.30951015771294 0.008904626072817482
0.2784106924351602 3.887631267679981 233.3379286136444 0.027292929825604727
0.2721368899034401 3.8783158480990325 233.3630701505615 0.011540445182941984
0.27588640709218026 3.8855534665029174 233.40949372915435 0.05232483868905047
0.27024272010927186 3.8746595698444546 233.39153816459327 0.019314348792001265
0.2724462465167392 3.8789129930126496 233.37808166094214 0.015029710042822017
0.27138594864454574 3.876866321132752 233.41570130057858 0.05062496462794952
0.2752948431713142 3.8844115824401935 233.433163486746 0.08067023644408304
0.26995942293831465 3.8767553553639065 233.43839912262703 0.08763914877271782
0.3978494111764548 3.8811289465060983 233.12991401244093 0.10906133863199131
0.3971305461561141 3.8748911286246757 233.13967414484753 0.05678967829465074
0.39042182558939365 3.850841377964238 233.13769287087973 0.07183531208998774
0.3878258794452703 3.8496338133476664 233.15931363898477 0.027358099723335822
0.3874950435206271 3.8523029049560322 233.16987286616055 0.00938088079581128
0.3937500864257145 3.8735242621071624 233.1683970998464 0.012531764575531372
0.38185064776352784 3.8568806797205077 233.19313401123662 0.0030172932871411137
0.38657591154571747 3.858979154798699 233.181114835184 0.004518510065098968
0.3913516300928672 3.8764392534668746 233.18182747592382 0.0036106408663214027
0.3875507067697179 3.868317641309195 233.18610164506745 0.0035745841536909792
0.39071934907516764 3.866848977862481 233.17563082515102 0.007788400707906834
0.3836585586156597 3.8821388048117136 233.2090384923112 0.002329345266551642
0.3878662941940958 3.8808071296742837 233.1956525161129 0.0037662074954887127
0.3644274192032386 3.867202415068614 233.23635147925 0.002308210750388089
0.36129841872723967 3.8552215254513467 233.23588632277333 0.0018929185209014526
0.3744523416194274 3.882008921248163 233.22785516028932 0.0031448359303148494
0.35954646711414534 3.8860950214384653 233.25154339350107 0.0025642486207291524
0.3532053030784125 3.882337153668022 233.25929281887957 0.0038888939722100694
0.3439013831842248 3.8652185508585584 233.2657477366118 0.003102992521986792
0.34760465205366076 3.8770226480787464 233.26529209931974 0.0038079657595518858
0.32203373656199324 3.879577023256735 233.28701781070416 0.0017737118263758472
0.3501278154341423 3.890233717318397 233.26713328074626 0.003948161991985062
0.335842027393426 3.879126119348669 233.27594513619323 0.0033528576370334337
0.3003437295133545 3.891583658975163 233.30699142116566 0.01182257911263331
0.29252903057929264 3.891384255239144 233.31425423439237 0.019704881183730566
0.28153421410559004 3.903043272875773 233.42760468636783 0.13317357819555162
0.2797867233061304 3.896965432800206 233.37233515925152 0.03473398204092052
0.28044328130684937 3.899248966727788 233.40725847353772 0.0725250389733317
0.27826606804864823 3.8916765354464093 233.4216824137353 0.09346748271757456
0.27829284457183223 3.8917696652218234 233.39844783401173 0.047124235435064936
0.2751884087302033 3.8942128442203288 233.4397925135508 0.12239968751981896
0.3963144178902659 3.9022581138403334 233.12773892980044 0.09731421491233001
0.4007591621904818 3.8945913508519157 233.13369972698132 0.09885600026778166
0.39963805392855367 3.8864126446818954 233.13845948990428 0.09654724176476356
0.3992268802234191 3.897991251844558 233.15313058306538 0.06513243259668401
0.397070852739348 3.884425964570566 233.16220629625604 0.04273553433172173
0.39953464285313145 3.9102786252685156 233.16129059399523 0.0398169226986436
0.3989589847645859 3.915536426219612 233.17182533803592 0.00935126188967302
0.39488374290425043 3.906427640323508 233.18321250148867 0.0014146702442407678
0.39337121507440803 3.8872391473352996 233.18246390081913 0.003726024188761097
0.39157945545504286 3.9094504326317336 233.19402830882086 0.0021626723018930358
0.3845435612843766 3.8941915934409246 233.21104796474793 0.0034008516643876277
0.37741585201129824 3.912766268920265 233.2288372861141 0.0020910762302131986
0.36825998279270616 3.903848060253954 233.24155690592653 0.002047757652162009
0.3560475311143868 3.8949269404909157 233.25893911562721 0.0036727516594274225
0.38032326758096957 3.89180570271426 233.22146819268212 0.0036628585699596873
0.3821352894306249 3.904157578562997 233.2204326254281 0.002940194689316399
0.3558392231512163 3.9079218805510676 233.26107568080718 0.0039022870373833117
0.32928232480310726 3.901854601808664 233.28523733977872 0.001613222553233335
0.31507280879244876 3.901074927713548 233.29686903971904 0.0021716153948599616
0.3344970051184821 3.909431918139366 233.28151901886673 0.0022043488924825294
0.3487368431871118 3.9040824781049177 233.26939974616914 0.004384237937104781
0.31241406806162153 3.911737577672598 233.29986126849354 0.0027068246135024516
0.30559867850469546 3.9059539731116386 233.30503192789467 0.006921086727626265
0.35221493898207723 3.9181633993235896 233.26760105236497 0.0038788603382360486
0.29569123934867647 3.9037626502880354 233.31408748673752 0.021684114885897356
0.28384637152084746 3.9115136424507293 233.33728735467471 0.02869023994288836
0.2829040550758949 3.9171934046365036 233.41074750607854 0.1159784961788353
0.28259271383643675 3.9137997066178234 233.36089870990975 0.053417072176098465
0.28267683788901354 3.9147166800038415 233.3477793416235 0.020047844577064478
0.2821192803004235 3.9086391616930936 233.3691063753186 0.06200529772455305
0.28243021491462517 3.9120284273939423 233.42223191350524 0.13269954249084306
0.28166360623914805 3.9036721995212793 233.34712954700657 0.017985977708510667
0.2817007523271926 3.915657005455999 233.43816045040245 0.23648181415207076
0.40052804987903684 3.944665891985196 233.13381973689496 0.10800404891728525
0.40087481065905145 3.9300509418701317 233.144428410121 0.0793192846618651
0.3993145956864932 3.9456390566407524 233.14572352703613 0.09665247957035837
0.39843555111497375 3.940338468007797 233.15931831264095 0.04570007358882937
0.3927123320689073 3.9293046812819634 233.1899764335376 0.002808965968622598
0.3917172809869148 3.941953077887869 233.18947701825488 0.0031779795752894424
0.3965629847359562 3.9444977322020174 233.17413887228503 0.009303940617497791
0.38757197893540385 3.9195676839869678 233.2081970334914 0.003094020912557437
0.39326422506338565 3.952807138494661 233.18179836647454 0.0036195376031892498
0.3852994063969312 3.9288347592601167 233.21249230404013 0.003107720431925596
0.38796002696373977 3.933593305689788 233.20313934439838 0.0028040667363697057
0.38462404330748357 3.9381393916067173 233.21195388560932 0.003576613223119343
0.3674444274872076 3.926581398058733 233.24364767066612 0.0017370706299419563
0.37155904578107773 3.9341653038533844 233.2363091129339 0.0018487285099232401
0.38069273278200333 3.935335764895763 233.22221131858137 0.0034950480103747134
0.365146764467864 3.9387836838138606 233.2454449892934 0.001976342645935134
0.3699630551583642 3.9472721033643903 233.2369093766048 0.0019020372438969784
0.357523422231233 3.935899450771025 233.25747849798546 0.00331238612521069
0.345486296829719 3.927197217692605 233.27246640945333 0.0036082462442129774
0.3503782079793657 3.936182153834199 233.26776347954643 0.0034325056789905467
0.3395755929557313 3.9188452177750266 233.27795975049364 0.002989143699861314
0.3143920092557141 3.936641339247853 233.2973356321838 0.001892361599384712
0.281971224642016 3.929452188133822 233.38369438457715 0.07429012571072857
0.2821438919301426 3.9275702307985227 233.363891220463 0.04654814913028831
0.2819072294129018 3.9301496930993673 233.39906143345624 0.08347379502909713
0.28232014587564097 3.925649181309618 233.424453409994 0.13575134335362155
0.2816265165456361 3.9329911189232423 233.43546181798405 0.1364941162191391
0.39392254613423017 3.957113015995568 233.12778964689846 0.09506049034720908
0.3972940938354465 3.961700568556499 233.13778688551963 0.10288689817168482
0.3902616592254118 3.986032651115727 233.13813738628187 0.1260197033750311
0.3941643872138087 3.971383109916528 233.14111134339092 0.10256556560402026
0.38735039586088704 3.9893384571807053 233.15698945805548 0.045102840281217166
0.3870950473714693 3.985880465971029 233.1690037586053 0.007839948798516051
0.39257854133426706 3.9657156901282 233.17202543228285 0.009274807696176352
0.384437125894601 3.960609364843226 233.20151128395406 0.0041529727751673535
0.3828223217278368 3.9544893172404456 233.21135095139576 0.004047907356466008
0.38638573933417486 3.9679618733606787 233.18966496403803 0.004046558647847308
0.3732430629050304 3.980156546496571 233.217764143477 0.0039578299918415485
0.3754684015698271 3.985667133758772 233.20665518804634 0.0035653840595831097
0.38286346202280214 3.9781897075044883 233.19136077788758 0.0044437831402237395
0.37912169768363235 3.9513289275350907 233.22230674938442 0.002310742588385611
0.37300890000279063 3.9560945230485784 233.22929294194657 0.0024761574275846284
0.35980066002325084 3.96139694169966 233.24650390413842 0.0015322923960007428
0.3545762508025147 3.9703322635046767 233.2504154254392 0.002210895261278634
0.36577849377858956 3.977168419977459 233.2310182038512 0.0030285075122441266
0.3601038103018914 3.972546017332713 233.2413352565872 0.002315910092929908
0.3056378515388351 3.9379381964796436 233.30437446786297 0.00610082660018409
0.34036831736404555 3.964104878036742 233.270806787674 0.0020796302989801348
0.3249676003259522 3.9511157561524217 233.2860084399904 0.00150678291806856
0.33324274191392056 3.9703270500014973 233.27504631014412 0.0020334244284232416
0.3023676843757479 3.949888151585085 233.3042428274087 0.0057019866361515915
0.31693438917483846 3.9592657093420085 233.29052867521375 0.002033397249849053
0.28985076628617745 3.9498250585992425 233.31553362158294 0.01977190418058502
0.29271406932243305 3.936170416680409 233.31656530003485 0.01886566030638528
0.28271304293326294 3.9404410007948973 233.3312193078532 0.03097995926177966
0.2778720804687628 3.946247294853412 233.3426894822727 0.019404860086559478
0.2801024006242348 3.9384144103459007 233.35662433939973 0.0192848748700719
0.280935201435106 3.9355179500294715 233.34454943387502 0.0213996075893133
0.27906816065653517 3.9420114709935397 233.38448007875817 0.04401660183179099
0.2789097123052646 3.942562550382114 233.41422374545004 0.0717658866238367
0.28054371637957926 3.936879525226092 233.3692561418107 0.03537031862553172
0.27954034204900513 3.940369235962555 233.39457778603366 0.047500392439947046
0.2787065533557805 3.9424443635213713 233.43651233988874 0.13459032797423556
0.38356056347158407 3.994584499808882 233.1282747276164 0.09111337647411369
0.37951171323481914 4.010151212604294 233.1333872803304 0.10706864540413266
0.3806280024643134 4.0056884334006 233.1460121874484 0.09375481639301515
0.38631327282715405 3.996027819958426 233.13996519526916 0.07839997519370233
0.3715937710505073 4.025084942949242 233.13699816954903 0.08395376023731078
0.37924092471310855 4.00340807130846 233.16883635120837 0.011892021381167168
0.36808979594399566 4.024753740254606 233.1696602316158 0.014242928405665288
0.37159966816996226 4.02014932585398 233.1596676752107 0.04738184964049103
0.37419018822829747 4.018207992780771 233.14558482196315 0.08934523091271969
0.37886174377869186 4.000164695243407 233.1780734956355 0.006283671073809772
0.37221458630749893 3.9950221979027836 233.2031682368151 0.004269042169681291
0.3594500171072415 4.011578900536818 233.2144531247498 0.004400452793522624
0.364427370799777 4.02453822341395 233.18294446656233 0.005991832259559933
0.3645232064760581 4.017185363177472 233.19295244648072 0.006255125115387327
0.3509896704957378 3.98030748723727 233.25066021418758 0.0019481970937897347
0.3539382538017155 4.012630823691585 233.22384644001903 0.0034101405378073333
0.34676589694259236 3.9903424660578883 233.2493327982666 0.0031607841244305304
0.3595529119366107 3.982955181238278 233.23713365899357 0.0022650181918066775
0.35377728157860266 3.9939674518825488 233.23722979251704 0.002447624825285841
0.3337685549461644 4.001594773557067 233.2590920612914 0.0027048545479798065
0.3401833125125918 3.9928315135946413 233.25653943601515 0.0026785233863153993
0.3342940526131352 3.9910066315966173 233.26584493033482 0.003338070081349178
0.31400366008292024 3.9697699760569494 233.28939496589106 0.0022441663232337897
0.32112486251751865 3.974618011385342 233.28232198952725 0.0023429826512600146
0.31238074151014594 3.9819410712495693 233.28595680965566 0.0018460751807190937
0.295326767228721 3.9769513834358126 233.30037688656873 0.003904477695353792
0.3040775637387722 3.9790999143538626 233.2931342495953 0.0017119898372265677
0.28651276398452136 3.9701700773768582 233.30970106587313 0.0100095600147408
0.2805804120292439 3.9544416015460677 233.32233561875339 0.025814179693883502
0.2742449669993242 3.9571048220632887 233.3375520298987 0.0226747965448051
0.2718477583649034 3.958719838007372 233.3615259950235 0.012692538682134264
0.2737469978338931 3.9550538222979688 233.41423914243683 0.0673598385792526
0.27321494759082265 3.956080814723692 233.42689551044197 0.08077353413060265
0.27680701457542545 3.94914721092607 233.359109632636 0.01427308352937614
0.2756676792408035 3.9513464181893982 233.3869364647441 0.01746354353977671
0.2769103537518862 3.9489477400060053 233.40421446331794 0.038094423216515724
0.26984347174872153 3.9597784830681437 233.43851507325115 0.08526940893710964
0.3584602884559151 4.0414804984070365 233.13096666721611 0.10914158590134493
0.3685847312577944 4.027691365422373 233.15136992565323 0.07075495179214177
0.35036599451810385 4.052784045044827 233.13455047377934 0.10159493368453684
0.3533534057154395 4.044229382608117 233.16533253449512 0.01923303372395201
0.3529391975865158 4.046515749324504 233.15412012281382 0.06379228691173508
0.3449013133848472 4.056277084298468 233.15496324551754 0.06622453105687472
0.3578051571012815 4.024523816809117 233.19869068005139 0.005363126336591188
0.3502093125841914 4.044568086024466 233.1782210423035 0.0055948830493197125
0.3443018581714398 4.053741860258913 233.17458118966164 0.009013491419110412
0.35151017155487596 4.035540865214847 233.19243561532414 0.005943549266803459
0.3396631193080069 4.038535305417447 233.21462061334796 0.005656533867201816
0.34722448230588543 4.030643054934716 233.21191006368412 0.005953823660249497
0.3373074360518717 4.017968726352626 233.23986133267317 0.0020031924590190042
0.3431459631845743 4.020680463288926 233.23028861800594 0.0040736604519206535
0.333384285643782 4.0388747991801415 233.2243149077101 0.004092347511701968
0.3349734889182417 4.028485127746006 233.23247012998135 0.0040014106681728135
0.3264988052256399 4.036113092080922 233.23518228130783 0.0031290855723281664
0.3257149578515949 4.004157204922842 233.26701753200877 0.0029368245101363518
0.32932276132196214 4.026611816121157 233.24100850335157 0.001644508935785439
0.31185272344351966 4.003341492962399 233.2763755808753 0.0029331513407247563
0.3158612394649136 4.011023249580345 233.26979598506006 0.0033218582210532955
0.30231911306856246 3.9931755926796524 233.28779779304784 0.002789747307093243
0.31270165878031825 3.992977850081359 233.28123533633476 0.002427429695924898
0.29598579737029607 3.986513757716302 233.2953380054348 0.002539029943260717
0.28363556007847956 3.983524948091909 233.30482553328105 0.005292715735329474
0.28829346653035937 3.9931258711430146 233.29682816089985 0.0025453685091505534
0.2704593592289385 3.970207182007522 233.32309371822765 0.02750704025773733
0.26334080224945333 3.9706834575036964 233.3978369187829 0.014554757943089549
0.2647373523185591 3.968964268248402 233.347890384688 0.01409896372266381
0.2670161382437572 3.9661590238362017 233.36953777313215 0.01029677594612602
0.2686185014939696 3.964186473231834 233.39117017024068 0.017290441612053294
0.2686706020826035 3.964122336059701 233.41714528217386 0.06742541634460567
0.2676789647914132 3.9653430672127605 233.40521071100153 0.03522761937652909
0.316014579095391 4.080348426459558 233.1291284717823 0.10048731920057986
0.3409053998704672 4.062855621139891 233.13688915953557 0.10506745874842133
0.33114748841517083 4.070608845024324 233.1382365743856 0.0928216865733363
0.33585308985752826 4.0648992229116265 233.15289928680698 0.049374728693854605
0.3314607074529755 4.067258126608394 233.1622942835598 0.04056486599837682
0.31945985973986524 4.078868139445982 233.14783165403284 0.07907783917346209
0.31396191674898205 4.084659616006517 233.13753398399575 0.08437444041398708
0.31481395787184263 4.080345636458447 233.16567504386202 0.011762808458285399
0.32459829895710185 4.060218146573767 233.20026440217697 0.005801883032614266
0.33375192059825093 4.054079749602687 233.19720727390745 0.006021836020106377
0.33113913773779846 4.063421784699197 233.18019469525382 0.006784756764634265
0.33268591670007935 4.050537503899582 233.20759492887464 0.005870536810031594
0.3230586548350971 4.068526115816104 233.18363433327045 0.005575568625951634
0.31182680666498885 4.073120640965793 233.19430764198046 0.005300619271036617
0.3096651302973565 4.0699525858848355 233.2059108581215 0.005761720792345065
0.3173160890086085 4.061489885923475 233.21120724190925 0.006317310195489224
0.3100309249115577 4.061850664677236 233.2220597128587 0.003380936447170009
0.2942362864278186 4.051615262476833 233.24951815371597 0.0024917953379277346
0.3023326273332823 4.048023070552253 233.24596506984645 0.0019729016842548004
0.3036256992036775 4.03764318458947 233.25707125106788 0.0035093794269017565
0.27793119791037696 3.9952138759906584 233.30232624059465 0.005333210638685547
0.2928122129978414 4.012143689745821 233.28369667133933 0.0017693230600157829
0.2863290004226546 4.040485289806417 233.26888247681674 0.004025795238103166
0.29122972762727684 4.029045902899362 233.2736707562122 0.002841353690392834
0.2812719832368469 4.00244658445728 233.29594058568753 0.0018367321566710958
0.30488342368825144 4.023806817412665 233.26991365916 0.0033940259800545793
0.263941770021928 4.007387916530587 233.30180618238515 0.002804815802896701
0.2655003115676705 3.9981105327193447 233.30694945524158 0.008075836024591223
0.261201158973274 3.992031972788161 233.31418074762746 0.021877446478878997
0.25759969847902614 3.9807197278670916 233.33221967291203 0.02663800265570291
0.24992348311616053 3.985365061929767 233.3368675238753 0.021860520824975475
0.2473322110195014 3.9854510298149126 233.4113777773724 0.04244808393132098
0.256855520253451 3.9777150180222534 233.34324731006922 0.016340929830891467
0.2498907858412198 3.983372638311814 233.34866961174444 0.01641692634175533
0.24831621328663933 3.984651701245864 233.37686644150074 0.010396955394010433
0.25912406303072844 3.9758722264835087 233.42376778793673 0.06251378997554935
0.25103629010513817 3.9824421178092755 233.42991853889134 0.09992447421852407
0.254487727135015 3.9796384329861927 233.38553653523707 0.012452347753701501
0.2554644083503545 3.9736126215135186 233.43979376356805 0.0953049798657904
0.2434993485988512 3.9802600012278893 233.43928191054363 0.09967360667039944
0.27607020000995175 4.105088043047283 233.13272812299743 0.08918839008701782
0.3036898319753058 4.089559473964635 233.14753236400622 0.10064343981511258
0.2778049092913343 4.1012978186720845 233.16238778756608 0.028970002173351155
0.29743479734957634 4.0907018924302 233.16617684791277 0.009829515536231213
0.2958996263187578 4.0866288619058375 233.18483712044207 0.003745831240992837
0.28993886117831014 4.085120742018752 233.19722419225442 0.003129324485911993
