x y z curv
0.07759485998919638 1.7085742256554088 0.09198985437643978 0.04918582940292215
0.07915601580822088 1.718052912820716 0.0992398995270282 0.07009338051916779
0.07007548555122278 1.7036870051228217 0.0719433586325702 0.04667222239877067
0.07032755623425696 1.7042510658552215 0.07288297824779695 0.04823539363204014
0.060447698409212436 1.740378151736219 0.05546300870625185 0.1574831396699621
0.08213189324062706 1.745434306055568 0.10030518164892287 0.142273493801114
0.08629755486166041 1.7393378805151063 0.11270956420843295 0.12828487437816125
0.07739699228765867 1.7402387287744185 0.0928663011495105 0.12999649923305376
0.07166945999828875 1.758957673418501 0.06865221434360083 0.20148981712315722
0.06650897787147823 1.761737001620963 0.055852108260954623 0.20020353482167885
0.09614224501104089 1.7636867990341396 0.11022230345718148 0.19987183011379406
0.08522511801642355 1.759870548240642 0.09452435745011081 0.18523188797123852
0.0896229411079427 1.758344944100697 0.10451585960227822 0.19692096669220852
0.2151148320009869 1.7785974432364122 0.06859675608988262 0.219440023311806
0.21074323593750824 1.7768810611511134 0.07831082918000483 0.20730134044685994
0.20718521562078884 1.7600549350878212 0.10550755737856674 0.1931678715646727
0.22556255848318899 1.7793668939876977 0.04944002087021746 0.1521204510082702
0.22159901147073163 1.7737945505087565 0.0631981923720445 0.19848664767374874
0.21615777413650167 1.7897490863455392 0.05140488843511311 0.004738992659963894
0.2271161150968281 1.7506007575283125 0.07376793450517208 0.1829383073963026
0.23586551898860314 1.750489862078823 0.05523772081674644 0.19753601733379636
0.22125521623695504 1.7481214738108928 0.0877661794646178 0.15838622333069746
0.23527456508796613 1.7321258795857233 0.06311637281969734 0.12196672830294414
0.21263773586097515 1.70650642782855 0.10868732657188988 0.03733050430686259
0.22809043684250618 1.6972276041914638 0.06749942967738806 0.04391243039889125
0.2232651676480409 1.6995648269096861 0.08006954825236941 0.043299320668625046
0.21831788716509973 1.7004084463399685 0.09164095852743555 0.036800898264241245
0.21759309809165628 1.7111290611961913 0.10014741547557593 0.05696367002366422
0.21675417089942636 1.676613569162349 0.06771982754724687 0.010983304482077788
0.22517849354845976 1.6815542369897363 0.057583924663105225 0.014123195939127647
0.14586215561002 1.7057789491429833 0.23269849206845247 0.22237938721979433
0.16555099424595268 1.656409291932824 0.12634746849836506 0.04403275986393519
0.16264901556285583 1.6614787722911841 0.13996928664204125 0.05640860063689548
0.16443387244774285 1.8429910987512526 0.0018060734149696945 0.0053697930681122115
0.16728047651145816 1.8379252496173777 0.011258831092596346 0.0039453347827787776
0.04315740991352028 1.7065801446619058 0.012768665433745963 0.10647775422913401
0.03989794625837843 1.7034648304062654 0.003934359100285487 0.1135213804547427
0.14171452994557684 1.6873774620292208 0.19467746423097934 0.18107347870688356
0.22227657343563278 1.6457961251319326 0.008816377233063114 0.0012078454576241768
0.20792561980829424 1.827410116008477 6.013925845421877e-05 0.004534051558978811
0.21678265206792144 1.6742110710835987 0.07019807642264053 0.007987165311748454
0.22100346802437024 1.6700772898076852 0.05585235707539844 0.007559475031830648
0.22154013298250477 1.6709551574863353 0.05638891715476706 0.008521495558297336
0.21252849261708745 1.6894034726284803 0.10314917046124016 0.016988887030987866
0.2421018428048704 1.6687231751564517 0.01653695009524112 0.019589419815545715
0.23585742919116326 1.6578598333318084 0.009270931905222808 0.007997024759919178
0.24879823568865855 1.6760989012200231 0.017154739731604488 0.03454703899407566
0.24356566765902396 1.6655260506924772 0.00859890826592091 0.024618569439080962
0.23697053579281108 1.6685276212486835 0.02522244990453151 0.012488296681922674
0.2380868841533112 1.6813565354530313 0.044795910253212674 0.024135858825403443
0.22883456548224634 1.6628715382199637 0.030020017534548818 0.006243633179989365
0.22797591436014208 1.6845212521650923 0.0678692878768927 0.02079495382540238
0.17314376637517181 1.7000732525105908 0.190592552034889 0.15203143367866254
0.18400696041695286 1.6983486913304255 0.16849511458797967 0.09235689282992107
0.16474550949692748 1.6949549293033819 0.1968489874198969 0.17587301752817278
0.1857970290393771 1.6841768540592557 0.14154775718610227 0.003357183522788898
0.19499396618527706 1.6460681127338028 0.06133640034669364 0.0006248751654639596
0.18028205755098803 1.6855247462155605 0.15355880691157942 0.04832010668602491
0.1766903944786009 1.6884020172645642 0.16473652993056878 0.10174069080235303
0.19067537769475607 1.6932644422323664 0.1481747700042507 0.035067609118771624
0.16125075078776888 1.7050282782851778 0.21993176727160413 0.14313159795072092
0.17221053548927134 1.6895651643598542 0.1746077332718003 0.12451765072576909
0.1834230689798163 1.6975632467570225 0.16820916061083685 0.09800891005779447
0.19999683955305664 1.6674475960902964 0.0883713744979699 0.0015217055214182004
0.19841456515598038 1.637007050871721 0.04008352188817032 0.0005860459404004438
0.15524680419637582 1.6932593211075995 0.2115427880049125 0.16331769732327092
0.15586732465258307 1.6329852899982742 0.10890498888635959 0.06898450737008567
0.16738098871059875 1.6201945471909716 0.06677893269533995 0.032571304715711485
0.1651337724885206 1.630881064153714 0.08880734550930694 0.044373969677985785
0.15130956726613043 1.6953564208071978 0.22218726012003087 0.14568550940988287
0.15583358407015446 1.6718754860867127 0.174524211418416 0.10066158074744261
0.16857595766371516 1.6153589857261939 0.05649311915280002 0.03086762739033865
0.15502661678546295 1.6422475802527612 0.12602040661564745 0.06661055434361202
0.1707730771708687 1.6075205833888782 0.03935537764076841 0.0270696974427893
0.17032378868064188 1.6076460308579503 0.0403693074216373 0.025235284859521197
0.16097742036239565 1.6633256323754573 0.15092412389408685 0.06400308031227374
0.15684979179714995 1.6505329876441173 0.13673118751447777 0.05935168212934641
0.18248242539415496 1.6158026945232025 0.03255207858631756 0.0007003736613984816
0.19175106283598464 1.63835768390982 0.05421553869438639 0.0005612657822185196
0.1840154415466078 1.630121684362873 0.05398334855413842 0.0006621733753138436
0.16236580749316226 1.6648274367855898 0.15068835503312208 0.04732294833984333
0.17418657393042192 1.647724100178959 0.10099898276767519 0.007388856043811065
0.19561821544165553 1.6178942485092294 0.012897615930725793 0.0008661524790489859
0.1631910767806263 1.6865955297346433 0.18592497308154535 0.16067408377999404
0.17332048785630005 1.6631191343968095 0.12847763543032834 0.014403950883194688
0.1630851562282152 1.6732002291310493 0.16353237893705017 0.07419686734352658
0.18603305525459235 1.637068871370727 0.062133350027446896 0.0005571048544521499
0.177226320059279 1.6539645788692188 0.106154032224126 0.0015169198195604853
0.17612502134928165 1.6067925345521936 0.028582872806277304 0.005574770240782686
0.18369852320161084 1.6109953486856172 0.022302692559578372 0.0008419731917349945
0.17492028107268315 1.6166617308857683 0.04734461858213391 0.01052098548390585
0.15414986404388384 1.613210035189787 0.07846693212540048 0.07502996431759133
0.1504926582259663 1.6048328101690637 0.0707648305665787 0.0673697317893963
0.15838590636517816 1.6122980414581622 0.06941361931480088 0.06294473580595508
0.1627869488628184 1.5869822315800342 0.018745092073190882 0.0813051626556609
0.16368538189786386 1.5989068810715208 0.03734436382021011 0.05104838291773149
0.16251484006066647 1.5873615368809397 0.019869720905171365 0.08118009910402323
0.15288886936187157 1.5776611448273477 0.020507677913051903 0.09687171732015623
0.16815940900715748 1.5971196589856833 0.026387170990595798 0.04323746988421085
0.16037813621073604 1.6232096957698618 0.08435867209987924 0.054959638774232086
0.16259022298366516 1.7007807535868835 0.2080594226866748 0.17179679700069098
0.17308911173611483 1.664605487100548 0.12883608333905996 0.01276177131246986
0.17530506548673172 1.6757331231796837 0.14359519820782782 0.009221285102043753
0.15707196534897605 1.7103127628203918 0.233612620020817 0.20316483836772067
0.18533138128128127 1.6946284412383348 0.15731409069402055 0.06303336741797677
0.22830400320493915 1.674431518234004 0.04776587190076534 0.012745842596050376
0.21339970190983126 1.661751492368066 0.052714240803123674 0.002680792805279314
0.2152743138848022 1.6821369193772124 0.08358056189719082 0.015544220819342447
0.2522958283577007 1.6756211265953678 0.007581113723519713 0.03958455876949744
0.25243367257179217 1.6758202130557929 0.007673173295717023 0.03956026061467234
0.18723451324579599 1.6863484736992091 0.14016230240805583 0.004605823139821244
0.1908248452733794 1.6840697111098235 0.12998727435292187 0.005152818084114128
0.19776162014341986 1.6929145141846964 0.1325122449315248 0.016260734459200624
0.19002577507820229 1.683453009828722 0.13036985899835915 0.005268785154612865
0.19726386593215517 1.6923198243127648 0.13239800677636465 0.015821157088589447
0.20736018698322042 1.6666360638557833 0.07154995082070556 0.0033822138010196276
0.19816843912189425 1.6727595430665603 0.09807080565920454 0.002656087615961456
0.24150142186994109 1.6772863986264528 0.029338211094152557 0.0214628312306994
0.20924043509652906 1.653447981342092 0.046103619910873764 0.0010832915749574468
0.22892245192987612 1.669460885573945 0.03834173070451835 0.007455440631770592
0.23302035188890274 1.661944085625952 0.018484727345577913 0.009713840573221819
0.2202412469153064 1.6628560786925817 0.0425353085265003 0.0039442582371967076
0.2088626777313458 1.6473318415226808 0.03647498623797308 0.0008592769139412855
0.20528784333075994 1.6291726369195012 0.01220767681604083 0.0008714195055630663
0.18544985742843992 1.6520536842078395 0.08584451062722369 0.0005286232487904542
0.18188466849875096 1.6628975396575654 0.11034599352499215 0.00046630522180057614
0.1828584429417957 1.6631014359574465 0.10896414863418141 0.0004685394232364396
0.1922930569648333 1.6550697355716117 0.07880669063145873 0.0007074187675465918
0.19060146566033903 1.6648364455316371 0.09816688682332304 0.0005859304749846975
0.17683851074282164 1.6986636602604648 0.17901669368177414 0.173787704791905
0.15660539790019506 1.690227063735486 0.20140515913125406 0.18211734643626568
0.16177696285777465 1.659253453698149 0.14013514589770432 0.057399900045785025
0.17517289010302786 1.629613824943385 0.06622413412651974 0.004477534793640646
0.1611227082331516 1.633794543969608 0.09840291470744289 0.047236136209184695
0.17588785592567524 1.6293771569131759 0.0645464574239933 0.0035513949586622735
0.1781347275956656 1.6033258114530873 0.016559426424519158 0.0008157782099655016
0.18097128784219305 1.6242515032651266 0.04686919515275971 0.0006437537489190702
0.19536477616842304 1.61856895748973 0.01184547353327796 0.0009682716730908313
0.16439667667851035 1.6078299434589853 0.04878417947266929 0.045937544435629744
0.1631495486657852 1.6068085916983104 0.049296174247261515 0.047084886219508335
0.16259759429874782 1.6746215874373507 0.16439502420546653 0.09484902907150787
0.15067618843609032 1.615251240121805 0.08599624589852534 0.0684059391222512
0.16425846275392364 1.6418504143473882 0.10633179104603936 0.0485660553612748
0.1500652557772056 1.5887232248233678 0.04219203776722155 0.07433265140219036
0.15325281954622352 1.5786765803168747 0.019452628386026665 0.09908168625736914
0.17563762646038594 1.6238458135417055 0.055696160554220775 0.00883374486883386
0.1549636011484809 1.6027338770629869 0.05711085985108687 0.07125005049990707
0.15194034849871238 1.6551553073009493 0.15120772956560202 0.07092329428623133
0.08432562257960804 1.715287353678356 0.13315195231789667 0.049238728067777106
0.09149008657238365 1.7165461641879132 0.14781713439363553 0.046803481486231306
0.12281291621084654 1.7193014659557393 0.2097081440840877 0.1283209396458924
0.08344755993302941 1.7248062169389045 0.13892469687310113 0.05898136682865605
0.07674556891310508 1.724469272451299 0.12608232587734144 0.07271783481710503
0.10877464419972317 1.7265247013012952 0.1870805379933065 0.1331130914863884
0.07919433908399882 1.7424144263777608 0.13708545673129435 0.10610383850929625
0.09379436686238746 1.7394261098601238 0.16247271861984708 0.07449638250355356
0.07560003354352691 1.7562341659631473 0.13024364564825974 0.14386311464173737
0.08969612582750638 1.7564128316275605 0.15260445020893604 0.12592378592890147
0.09567658480936919 1.7525596374939654 0.16313186762758072 0.08879296502289702
0.06862022486668361 1.7686838421595725 0.11590750210520923 0.15801059918818963
0.07326211406795226 1.7650721555741122 0.12419447768404247 0.1425861649106151
0.10231785412690116 1.7548491637710502 0.17198815127925052 0.09584080438989857
0.08777366672339972 1.766362103659139 0.14529874761609685 0.13145654708575324
0.11342247204194518 1.7454628607489633 0.19253773105213728 0.13670527421371154
0.078146562850722 1.777520805229879 0.12591887815592348 0.17393415677586976
0.13051545077055915 1.737240614792209 0.22038903583794128 0.15751997343420127
0.12025337119522989 1.7485676991612413 0.19962248449456438 0.14252180944003584
0.08103730903316334 1.791290319281628 0.1208819917399781 0.18877186721857603
0.12093702220028765 1.7511432515035594 0.19845542602318414 0.14804537466915885
0.10369537793538317 1.7721785144365343 0.1621284725088461 0.13191040085545117
0.08196744097932918 1.7928785543202448 0.12072204277248544 0.17616471347546017
0.09040334218159526 1.7941158509035242 0.1292401342549109 0.20650630255538338
0.0910159614255444 1.8035570368967755 0.12169208093058431 0.18218378072274366
0.1119128037076374 1.7811717943538048 0.16242012555245125 0.1679160758623162
0.11262980525870867 1.783681997282374 0.16052929126915622 0.15863999219806504
0.09841693100030723 1.8139319932937612 0.11841216354518218 0.13904016452733886
0.12936941819473377 1.7607647831730864 0.1972212239933912 0.13294722717638172
0.11065535079621189 1.8022204375602957 0.13976521482027315 0.19476951041880827
0.1076593750469287 1.8223578321683256 0.11626992588001707 0.1129799852640802
0.1288766894329865 1.777504895753149 0.17863690726493237 0.12276028613329888
0.125189036523124 1.7980012716745368 0.1534588054495298 0.1471848030934937
0.12060987105480374 1.8116830253441716 0.13557003295657238 0.16959025204360767
0.12627417655697423 1.8052438111853646 0.14564724775957932 0.18031067560851177
0.13987597604114255 1.7585618752994359 0.20558320990522091 0.15516876546737499
0.12455108266278711 1.8259454951785112 0.12082662097969152 0.09629673239202358
0.13446577760764888 1.7937846036791492 0.16217970629875017 0.1763261203158891
0.1349655787166299 1.8270774448560032 0.12259829029951558 0.07660882014483093
0.1358609532278488 1.8085092655074466 0.14505948241461292 0.1697589879682019
0.14693775067858422 1.7438483903444948 0.22504570332600074 0.14844577580478835
0.14404475491586322 1.7925608685036198 0.1657839319708747 0.16262006957986277
0.1489544652688513 1.7619583644496781 0.20324337374854112 0.1441633806061319
0.14709179461116323 1.8246465832573406 0.12709742614323605 0.12646808240006932
0.14925511271331995 1.8055468564982233 0.15034498783549619 0.20437486487394313
0.1542773832789703 1.787947965971806 0.17135750839373382 0.16931706417934617
0.158355474559354 1.8086484379864896 0.145802877850982 0.18833652690744593
0.15715715290596083 1.8274865113677787 0.12317903721240979 0.09895266812243089
0.16358199958497088 1.8197609795956713 0.13133490855902052 0.183137724058144
0.15839013779300504 1.801020751586933 0.1549573457446669 0.1821696097941905
0.1584545235479098 1.7589140390965625 0.2051776556112046 0.1376360460205872
0.16157179787873238 1.778079111305006 0.1815329714935794 0.1253898583891814
0.16323754250269396 1.764106707056907 0.1970429298099866 0.12532224123792363
0.1640738558117447 1.7712698141382257 0.188466351275787 0.12301615943548985
0.17996248727529499 1.828011416241092 0.11581633098663985 0.06308114064781493
0.15834453140627958 1.7463081250786072 0.21980499644176274 0.1478779864178238
0.1748674176159945 1.7895956028123279 0.1620412624324581 0.15856348822311545
0.1780404523287063 1.809960521463468 0.13740660697157348 0.20510806515828356
0.18446545624376867 1.8191095263914914 0.12358934479836282 0.16731636737588348
0.17502493390980836 1.773789320356064 0.1791031859703982 0.12208894186393417
0.18924248438665853 1.8094185371430838 0.13113698441891403 0.20114018986890095
0.19564814902071706 1.8177532403227992 0.1177651867464889 0.11869530476326735
0.18408864304254702 1.7813114536842565 0.16423854803960056 0.14850508304958657
0.19907006659871476 1.8084531418289687 0.12453313048100406 0.17623527440547357
0.20418752771379983 1.8127105582317071 0.11607867188275069 0.14796255359678767
0.1833617532018073 1.7759130448261502 0.17016790889024336 0.13933042404142784
0.20578382076069804 1.7996520401152665 0.12668532508340188 0.19412182937751163
0.16898229584262667 1.74683173957033 0.2111619399198435 0.1542275557185664
0.21206517245952738 1.803000092956491 0.11745487669938989 0.2031394320954644
0.18885030592669744 1.7676120881014945 0.17232069169282177 0.12007605348016166
0.21557132418684768 1.7921452483927767 0.12223657456226214 0.1997054022351845
0.20471860498494854 1.7881323331757637 0.13787427778493772 0.18462767473167757
0.18172221326062768 1.7524766600442867 0.1924226634232938 0.11187944072380622
0.19893320897032507 1.7610946324804624 0.1645339489055078 0.11051017825974609
0.22611735055072507 1.7816969705296255 0.11550492112193024 0.1609827849520608
0.22418179876715766 1.7740288392440515 0.12208757987173716 0.1623510583478485
0.2052228470865877 1.754554183313417 0.15856932954650382 0.11370704545199911
0.20080934626769853 1.746490684581269 0.1678199674288257 0.08328989496913819
0.21901241206404873 1.759498935718954 0.13536841562693092 0.1343576018097524
0.1840699068979582 1.7329213199008389 0.19770528364159506 0.12253380410875521
0.20668901409080379 1.742805707621714 0.15875098320225095 0.08860114590768685
0.21228876213665349 1.7453493970375993 0.1491006828328133 0.09924853029533774
0.2306290354177656 1.744151772211577 0.11699648658711355 0.10620657380339917
0.20425781047739297 1.7313939669916587 0.16172361517194478 0.07024598299458418
0.22742814669598796 1.727560186457217 0.11700150748195771 0.0811402531727379
0.21380743306623734 1.72499539028178 0.14110044099687225 0.05578249668085903
0.21246413794614996 1.7246134482743365 0.14334967865884535 0.06498029110058683
0.22305431757567193 1.7175922715402046 0.11810721341083227 0.05791075442788731
0.21612858628766293 1.705384415853845 0.11826132164665623 0.0419991539316176
0.13948227774320207 1.7156896396464487 0.23834442839073097 0.20612636454215977
0.054364737444027596 1.6936954467444285 0.050794530583671414 0.04057563873220431
0.09408726497085426 1.700404691300125 0.13298552189958954 0.02578418215191304
0.054468997941169106 1.713563377018022 0.07469901995439358 0.07218006342044668
0.04201712425845092 1.7111699421855175 0.04892208705905923 0.0777015849428806
0.05479517602603784 1.7134742450873977 0.07521409309835622 0.06856868234050542
0.05694202036429452 1.7256997878896563 0.0892150126514537 0.08867953033229944
0.06180101387478303 1.7273633998393494 0.09958152196239622 0.08680952553420712
0.05079681818828693 1.725703976395601 0.07763408444422086 0.10504418850709936
0.044133679973083165 1.7278108280832878 0.06660249589113425 0.10726958631356745
0.03702978476761368 1.7226156004283042 0.04944174686727741 0.1013450633202133
0.04385687993032518 1.7166330357447173 0.05737729013214996 0.0827182708860999
0.03316730201344075 1.756941870036273 0.05738347316051998 0.17171533476547315
0.052541708199836515 1.7380928238911242 0.08766698432207762 0.11779482530645055
0.05354854013136758 1.7049985107737053 0.06386529136741309 0.05806583180198901
0.06742990982336258 1.711225534045312 0.09711121918013518 0.055625898736739836
0.053590533333299245 1.7058780005896579 0.06501830065008775 0.05966225841191946
0.05506129435229977 1.7611563928897251 0.0952892189367963 0.13692352378403577
0.05274214362999376 1.7770483258117198 0.08850969666675298 0.19717163020131606
0.058769274413115614 1.7708068855091734 0.09989713393141633 0.15841480830995966
0.08374053024298714 1.8021538441046336 0.11540957137556965 0.18815023628831262
0.06933005180263159 1.8134060932760239 0.0902399509261253 0.10439739985843957
0.07344731800010346 1.7906612447851702 0.11180216694089136 0.1909545722268653
0.07091180237107395 1.78030914731226 0.11435052596050524 0.18867310384314523
0.07406527176130348 1.8226593279375798 0.08753601841757647 0.00400527987497512
0.060449437466587264 1.753669690054384 0.10486294114091055 0.1505164326091517
0.07575797079447363 1.6901872820376187 0.08416267805859978 0.02358159103369832
0.03685350434545172 1.697591634208462 0.023512270709381628 0.0729214989683098
0.03374280321355389 1.6884626119991024 0.005458627720738541 0.08418827873276108
0.04393453267408302 1.6874332825176812 0.022786047285484976 0.0563529269549579
0.023169646661438455 1.7079975953007138 0.009872418777903376 0.13370150974588507
0.030567879077234367 1.706404188244494 0.022159432708383164 0.09743479502658581
0.032254243040278414 1.7151299556733273 0.03409687958185153 0.09504633589274518
0.02782110711742332 1.6971497713462753 0.0061703473246747815 0.1065494519271539
0.026751866868356358 1.7214083665144453 0.029086358542233147 0.11200947173125524
0.030743191478179423 1.72388998660445 0.038506279216187406 0.11232989783947943
0.021785057796373592 1.7231932935198424 0.020983079281820128 0.13835941451610795
0.02251610336020144 1.7893091387064262 0.03721404140144101 0.09550516868094784
0.021412693912676268 1.8082260068158589 0.02919488209727418 0.0032335169983184315
0.015840659290978918 1.8088289486266875 0.02063095840914963 0.0035136180704352107
0.015343435402912917 1.8067429680701814 0.0207750267824346 0.0029590908173596484
0.02918284504511229 1.8028802291285781 0.04304594475894348 0.0028270634784413966
0.029584608281444665 1.7897465231595895 0.04838498105767933 0.11473430256194471
0.01917567182366124 1.8227191518805033 0.019190501385116902 0.002794387424224547
0.011415448723412538 1.742613334303253 0.013246306544488957 0.16186466359983354
0.0058591618411429494 1.7615794028498897 0.009234447724959764 0.18371610079712572
0.01596504759754512 1.7673456558093117 0.028062693468840737 0.20952276306100184
0.021131275763089683 1.7634524992640281 0.036761020620949325 0.1779537385191439
0.01574102636978369 1.769230508495903 0.02778838125977227 0.2101858780955322
0.021058860613864906 1.7762791283839314 0.03688291022542993 0.16376827671162533
0.011374217285394915 1.7808488473626163 0.02006764569085323 0.12921873037439527
0.0464076460087827 1.6806172274025424 0.016404486797494892 0.04341683475687196
0.008548012042209294 1.7345638209925025 0.0036317074982113954 0.16820740741307477
0.008243860199156851 1.7335286405617787 0.0024589176680422675 0.15353751462718374
0.017332627407853702 1.7348385018974048 0.020257798590575297 0.15865754611423094
0.015421875676192822 1.7239602807147336 0.00948477656028254 0.14762121877891826
0.016955967753289627 1.7871533444556955 0.028658528883788226 0.1057872762940393
0.0038600539992293672 1.7973101045586029 0.005266649209169398 0.0027484325834268063
0.028906477148294155 1.8204195243014587 0.03412579885912788 0.0026729839690916085
0.028355811591449363 1.829205581927137 0.02812102009533833 0.0021860309077616318
0.09205141771025847 1.8180426207326914 0.10896028694574866 0.10917622993403485
0.105803401799622 1.8235245140830685 0.11377070519810593 0.09090553565554967
0.10028393592541583 1.8286457338744415 0.1045313237586558 0.004284939775704212
0.08721889741274573 1.8378024790810594 0.08519107703759057 0.0023100888896296174
0.07495465503361737 1.8682837996353971 0.0442129074676666 0.0025892548871368683
0.09670904693353384 1.8656613609842059 0.061770695015544885 0.0028203623780524395
0.10056681363957182 1.8494593032447337 0.08204349500703358 0.0036329520532092023
0.0872095410146918 1.8736116478166414 0.04726921751651103 0.0022375722990828776
0.08691338898127143 1.8642927945146361 0.05710113494528155 0.0027192805144296904
0.09169668637321428 1.8895429075637162 0.03230220965352698 0.0026871355352847933
0.0915403671601851 1.8824564037739733 0.04008236816311983 0.002162442152066342
0.08277552187090767 1.8988709017983736 0.016673116063661994 0.002231033623062993
0.12907420357867275 1.8452080526182981 0.0995122765175205 0.00386184893830556
0.1305353635658904 1.834192116097563 0.1130520637655454 0.004875832920812395
0.12834876512281196 1.8535951973558418 0.08929260357122619 0.0033234274208855455
0.13272831966006668 1.8631793753104944 0.0788152612312944 0.003253290290134391
0.12524027374276228 1.8706421773945703 0.06814519818681998 0.0025242029492171243
0.12741305497127375 1.871008526223994 0.06820707039747606 0.0027961478506711903
0.13922838456699554 1.8341202642164716 0.1148950981368781 0.004941681866864724
0.1412991127764798 1.8580973608916804 0.08621853252085947 0.002181688472655247
0.1283952218134897 1.84445076095462 0.100245264521869 0.0038606088277232118
0.12130904944936842 1.8590994663412597 0.08063377460933954 0.0035827571957657927
0.10435673523166776 1.9051381553939792 0.020319683877055517 0.0025832523311345628
0.12727895805959547 1.903705652768413 0.02898272139844231 0.002351111563247298
0.12785413500210138 1.8907825294525402 0.0446065126299066 0.0027393423390578986
0.12288659291815096 1.9093380110616915 0.02122583621121978 0.0030162953772319926
0.12158974463600064 1.8831505055885978 0.052247799981416425 0.0030927421536033847
0.11326544552876978 1.8859950963068237 0.04621267317162488 0.0024086767399474867
0.10328468912325178 1.8726874278095929 0.05735441350868849 0.002216457215103872
0.10290000093445179 1.8838662853932928 0.04441838299798278 0.001957372758124212
0.09761560612534827 1.8761426804986379 0.05058240158883788 0.0023499468906341375
0.09770956625077311 1.896311717330774 0.027640956355441046 0.002301400471335515
0.14399587013609888 1.8676123840712193 0.07481377431337352 0.0023961312662518787
0.14674622135564283 1.842717083405808 0.10515703828526347 0.00326720769565518
0.13809053825756124 1.9030929717782867 0.03138923449422097 0.0022515415242527577
0.13755310714656457 1.8957527909194334 0.04018560038433244 0.0028144663163855435
0.13160009041579346 1.9121593995809372 0.019538569650747545 0.0026218724101069106
0.027340354369715943 1.840242578630509 0.019600849168954722 0.0033190897953657887
0.04308431395531824 1.8298201719229057 0.046637120462096573 0.0019588796967301915
0.0353531103407598 1.8337632136351827 0.03414919485766897 0.002299768388074866
0.05083737908642118 1.8424551531290967 0.045879060776604585 0.0020435070074860864
0.04873336278294998 1.8492886091645966 0.037929511496121324 0.00194538246643706
0.05757892199008621 1.8413588693309688 0.05414596484436601 0.0023035693770286176
0.049396640582451516 1.8637983294194533 0.025933842338213216 0.002594252486531668
0.041727912449353345 1.8650609064897024 0.016929228392319785 0.002202065683730172
0.04391859948945458 1.840236613341882 0.039859365812730224 0.0018165157712044253
0.050655103747366426 1.8331395368595327 0.053192020127128356 0.0028855557703360954
0.03586035216313312 1.8424051802245227 0.02865204397598837 0.002896115197418269
0.035856840249061606 1.8422340840309612 0.028775875139623104 0.0028961629949530976
0.027660430189269447 1.8542513702894086 0.009969249236544978 0.0027710826947176873
0.033214064029742196 1.8506245261376204 0.01933281468911291 0.0024835365979081784
0.06126333248274524 1.8536037833206218 0.04683930915408109 0.002107058340549914
0.049973105163775594 1.8715290845107528 0.019351317857283994 0.0026140315987906136
0.04855909066911643 1.8765946002886975 0.013264011349769681 0.002613725893508959
0.07029299582797785 1.8596356846874076 0.04917958766059004 0.002543900518008185
0.06402015810111304 1.868104103540123 0.035438987117488864 0.0030900595423247607
0.08009232502740682 1.833078815614292 0.08377981713737571 0.0032451107188877994
0.0770740087239816 1.8384549745197505 0.0758886828657837 0.002906863831839114
0.14138573910278207 1.886893508259636 0.051295497814016336 0.0024516415921696103
0.14356763016998197 1.9108434187567012 0.022344404342640567 0.002037743359795281
0.14860155176446152 1.8816598462789147 0.058004341314685806 0.002238890142074402
0.14881309025084705 1.8978236404609103 0.03839010677626214 0.0022324693530154753
0.154828111980214 1.8665373254714754 0.07611572790122594 0.002508366109569495
0.14917116687972926 1.852943919392657 0.09283152355651031 0.003074917365540715
0.15013339896392325 1.8344845476469611 0.11519459035279823 0.004850884213314281
0.16886514221657178 1.8631438503526798 0.07811779198764274 0.0028228105300518577
0.16541797041344775 1.8390305348565388 0.10780869498745771 0.004427357876707158
0.16947180825347777 1.8499874031556613 0.0937749951468399 0.0029222586057127413
0.1750755763550787 1.8725868510941859 0.06526025986382249 0.002567747276738176
0.1738024113289415 1.8427754942565737 0.1010177772846554 0.0036737051989986897
0.1560747615161108 1.839759963815938 0.10847793645958717 0.004236782409460135
0.1581997293907785 1.8595013563550644 0.08433427053245224 0.0031265338345805057
0.15937028384791763 1.8465777844373847 0.09981004991589415 0.003658303653259542
0.159534482698041 1.8474848828322321 0.09869210093683145 0.0033318643905985296
0.20071098338288829 1.8472574930254724 0.08266417394521139 0.003632486712911338
0.2161333744643974 1.85208327360459 0.066580023922782 0.0027470974387813884
0.20136477971703312 1.861396578583472 0.0666878217151769 0.00338502335413185
0.18502985918835219 1.857967553727485 0.07895785847306575 0.0032661497637829343
0.22765935756222638 1.8434648593612684 0.06520585026819578 0.0025648901523131033
0.2333014820138472 1.8454983364085884 0.058029340492563065 0.002953986855650022
0.23454534714281844 1.835627891441681 0.06560571902362988 0.002764183966699557
0.2473644896133727 1.8261058750580546 0.05894478424898292 0.0029282499431828707
0.2299719047250722 1.7869769335301615 0.10721430683266173 0.19361873179430322
0.24847812781840659 1.8161144932157485 0.06461995617621576 0.002641197996503572
0.2302995931738856 1.80410529062886 0.09574365068954697 0.10247709199286123
0.23725798884061025 1.8107376912301527 0.08241953768857835 0.03532392668866955
0.2321771367274323 1.8275933207837987 0.07501198664302153 0.003443953738191481
0.21303415354246263 1.83853468756694 0.08285859710576467 0.0035455203318330705
0.22378400783890315 1.853220034284327 0.059174773325569446 0.0025468116809529073
0.2187143226507151 1.8434212517792885 0.07321522845770354 0.003201392869636077
0.2314505899105549 1.7764643711730166 0.11027801134850648 0.18806957689465267
0.24764454279533765 1.7673904114574122 0.08750180157259842 0.18022977296432155
0.24141538349315556 1.7651159983846108 0.09817421580660551 0.16055459301196948
0.2580606072554795 1.757442685166883 0.06983943612585503 0.15183017074442448
0.24506413110140735 1.7560744420057288 0.09240710582814106 0.14191999395956467
0.2731394380240338 1.757456020492622 0.04326873696548703 0.17328642060830968
0.26428692864491354 1.7781185387177543 0.05835020829581068 0.1920910071099572
0.25236416963525354 1.7755920643749727 0.07817041750021685 0.17762968403787155
0.241598778116938 1.7657962455906808 0.09775939949174708 0.14626973333816035
0.19586923625736638 1.7030803129478778 0.15245633922375046 0.048930299152567594
0.15810799903022207 1.8965992030635892 0.039486336833305644 0.0021548179530297184
0.15106950351160822 1.90605925615807 0.028324948855687312 0.001887266195969372
0.1596191093488976 1.911485445182723 0.021336750820912374 0.0027165310516706702
0.16052947257023323 1.8809808852916379 0.058067857166843984 0.003006755878582701
0.16724023008699873 1.8965653542915395 0.03833061460221654 0.00227978248448116
0.16471707098514712 1.8906275554580754 0.04586069513915485 0.0020985021583998513
0.17694959457222142 1.8934408606687176 0.039960948354354146 0.002699854939285002
0.17422904363236014 1.9038459615681615 0.02810185952530552 0.00269764365819813
0.17415543418449073 1.8854062216469298 0.05024257415951455 0.002868100353597125
0.17314118304794915 1.8854373782508764 0.050438141137294126 0.002253587058450047
0.18833780584866303 1.878178571825831 0.054055673945353884 0.002295001894549267
0.19214672308149464 1.9058687369658422 0.02023359952609638 0.002284420941531255
0.1903345225148994 1.8789784659663873 0.0523242740039371 0.0024032417486352558
0.20621351096405768 1.8851962664477606 0.037385919730441794 0.0024339924813638297
0.20521990357891834 1.88667207493823 0.03631275349694229 0.002540873464262105
0.21423534107090708 1.8883061808932924 0.029208773240829707 0.00196259580004007
0.19823544531432938 1.8972283248288833 0.02778603575954506 0.002577298300014752
0.202869990353754 1.9036915539885912 0.018110160739879776 0.0026430483278159773
0.18431570599615973 1.8863215256431587 0.04610160814706206 0.00223963426124329
0.20783295863061713 1.8640925518261933 0.05972217905528139 0.002769420736351726
0.21251440244475872 1.8781268971296743 0.041462876453655616 0.0022877024435371497
0.21076978264062096 1.8712178931650776 0.05008096745131389 0.002589695699985017
0.22307595792545404 1.880725047321404 0.031528521702621215 0.002638806635810922
0.23265499536133016 1.8626552745385814 0.04229140158836059 0.0023047889406302355
0.24821752696294969 1.863339896124325 0.027089163126163482 0.0022294552066458493
0.2533356151393191 1.864972544366807 0.020406292375670505 0.0025321798239674015
0.2360878204517162 1.8519773751707547 0.04933966914811825 0.002672462190581449
0.2513508104854758 1.8746200682628653 0.013643833464467316 0.0033361968655071486
0.24561533737292507 1.8425131644486799 0.04791486335934747 0.002144189271545281
0.25548348862992476 1.8453012094337837 0.034725358578849265 0.0018745173567099856
0.2578332002105846 1.8564480065415725 0.02298137977994959 0.002063377787801332
0.25390199647571665 1.845791768205863 0.036088247464664526 0.0019369317828608458
0.265624223151156 1.858486996355892 0.012620750699808708 0.0018931002770232344
0.2540263238653069 1.8356961746921976 0.04379718557249637 0.0028665889426418363
0.26425435943435294 1.845239257259604 0.024431481213528904 0.0026330113473467926
0.2662552020946581 1.8472273021800305 0.02054539327825825 0.00206787981517864
0.27317943411112344 1.8508513834176932 0.009535699969508343 0.0025747501280659313
0.278313219044267 1.817929191363377 0.02282411804409947 0.0027116849655680424
0.2654297895929097 1.8076916682408797 0.04645193737222855 0.0023466225881500044
0.2779901751873711 1.8255782240358358 0.01942394725729856 0.002863201554021613
0.26763161418982234 1.820012347812292 0.036831965580864705 0.0027635983265181397
0.2666877281192363 1.820018053189756 0.038091172419916344 0.0026159555023017138
0.2599539175465641 1.8236356410973489 0.04490351233929306 0.0024871047062396605
0.2619573928273917 1.8307561334497011 0.03760285435416128 0.0020596540990925646
0.2738359303364505 1.8425596529800161 0.014475276261584902 0.002918689945898894
0.2231730660714003 1.8803263911282444 0.03187625728351765 0.002638330565359595
0.27832101351751004 1.807483454869107 0.027438673478450176 0.0021906754234809643
0.27281842896182434 1.8090982585118451 0.03495601564891499 0.0022866757007668093
0.2705854232411444 1.799319337679432 0.04242797069196156 0.002870111799973443
0.2835499866919891 1.7989381382042713 0.022355462028499067 0.0027137956871332645
0.26516473417618736 1.724118259989829 0.0432918932577959 0.10995663896060565
0.2561886017694555 1.725527282623529 0.06122023102528855 0.10911007772096609
0.2511845844714792 1.7241574704284552 0.06966654817398613 0.09551866297563635
0.2590097101312645 1.721934256902799 0.053322441271078824 0.10845894398929218
0.26215027964596394 1.732452216613595 0.054449693325411726 0.12361171768332105
0.24579403453344578 1.73157139883536 0.084578057217844 0.11032363734375111
0.27666054275912905 1.7817565483555282 0.03731350992867929 0.1689674234893066
0.27686884712605475 1.779695497103076 0.037211949795664695 0.17986178099846395
0.2926836206984738 1.7822516079040256 0.010315806569161711 0.1043744989362729
0.2907397760945267 1.7648792654982914 0.012855566729417045 0.17463321319205838
0.2913243917944635 1.7673764821237643 0.012235566493965393 0.15891420142132898
0.29557569293043084 1.773519121100089 0.005327203058687084 0.0555638520266472
0.2874581837907916 1.7744881842421254 0.019379972923357802 0.1440531023557003
0.2424284865549207 1.7075330985228887 0.07132504136745536 0.0649345275194216
0.21113167061148275 1.6962416130175062 0.11429494218741179 0.02557655868327126
0.21921868671069927 1.6965276344434577 0.10025897200339853 0.031120497646310637
0.27919932741985154 1.7206599981090662 0.014110008383113914 0.15641399712122472
0.22207385918886433 1.6911667204482066 0.08665104592609045 0.027115667061550768
0.25836778642039065 1.711087601664255 0.04499167355551259 0.08602553518147193
0.2675474173536251 1.7014915245127344 0.017149478805464972 0.09204697413903791
0.25897812230527767 1.7125451618744914 0.045325314940531505 0.08268661868650964
0.2656981155695381 1.7152373113842572 0.034950902909404294 0.1038328374298622
0.2669501721077071 1.707135467401564 0.024512452298114232 0.09953642377139642
0.27750098116078303 1.7073356503256432 0.004770330738428381 0.1605941064695467
0.24617384670237197 1.6920722775674328 0.04451476159009012 0.039614882372027586
0.2826775498151709 1.788572008258986 0.026304551680134416 0.06548881470477347
0.2895340901207719 1.7490095648869266 0.011249647189152886 0.1786543696517308
0.2792367138840835 1.7510728290624333 0.030760617236477 0.17499516558251801
0.2886450421814516 1.7494976077044022 0.013042484674454962 0.17837315550713426
0.28429926469826655 1.7553084740316343 0.022772534418980448 0.1904079441067298
0.28866123265907795 1.739245152876978 0.008486644308944484 0.15622440343901361
0.28872929401388353 1.738489013590465 0.007918190849156364 0.15441833128892202
0.283993089730745 1.730665372182397 0.012307403588917354 0.14418801235910508
0.2739669390256732 1.7307366857083835 0.03127204180512595 0.13357114096066883
0.2603539598291112 1.6841895999165968 0.0070464109620383755 0.05835757286078564
0.2515835886855124 1.7009186874156577 0.04633436174244404 0.06075682018180689
0.25303056536642166 1.7016841664075493 0.044569526011902144 0.06147780996230517
0.2630724825038696 1.691987112590499 0.013321070888809673 0.07211270856014962
0.2895944546050487 1.7985419829721958 0.012987453014965334 0.003022423910858789
0.148291685402871 1.678701358919257 0.19621518043317931 0.11749143689163664
0.14761224989225463 1.684478478424106 0.20483773213929143 0.1706999329398316
0.1156644950085679 1.6256703485632995 0.0490034382672771 0.00045826223407483517
0.14528039990788988 1.6402639527723684 0.12622817046511967 0.06980726930502926
0.1191687348763682 1.6274848078630362 0.058289444192030374 0.00048564171247590063
0.1389352637201851 1.6287831239898858 0.09553242430110577 0.06589394386852962
0.1305863545617003 1.5911014298459978 0.016898723031825776 0.05360145782781357
0.14757749710557955 1.6189055944964563 0.09412321654625162 0.07253629164197878
0.14807665294193145 1.59420934774688 0.05317761604879381 0.060969103864391264
0.141042706653727 1.5909577822716177 0.0351971387881631 0.08679971250773114
0.14812379407118312 1.5827290853360187 0.03381583558372607 0.08273533477829051
0.11651484120393736 1.6045599778461122 0.014747409135429176 0.0006247420653618516
0.12518403223070781 1.6138959362791425 0.045933327027445306 0.019368946442882114
0.12237128314131572 1.6057330494627458 0.027117489047770973 0.010154117625773658
0.10917413957479666 1.612084767955277 0.014481456654912607 0.0006542542005015477
0.13343356566237577 1.6169352076832313 0.0657076809463009 0.05273750328127589
0.14536104447029558 1.6597333746745446 0.15906326614863145 0.07806062331914539
0.12508026956305673 1.6517149060580194 0.10952760453802173 0.017233136303798118
0.14009366203723417 1.6921211582277127 0.2040450746750524 0.16635928570720077
0.12674137821857873 1.6663498434406987 0.1370427056272414 0.02007207293769311
0.12904649262638973 1.6539487649685989 0.12033227749330964 0.035269711313135756
0.11862467201946006 1.6535776786986036 0.10116923519309814 0.0005916045854091192
0.1470138193563631 1.6498249272036558 0.14537540870692206 0.07537908174367912
0.13455869141836574 1.6786588789004544 0.1716063468017372 0.12194703704120818
0.11844392448947452 1.6607721393097006 0.11292126257097142 0.0005929289158313524
0.11259105099318306 1.650436287880253 0.08516368726185214 0.0005620178427541367
0.12972746120641143 1.6382465926366163 0.09519269508972227 0.025789728332838397
0.14394643060226753 1.6712060189399889 0.17579980756481733 0.11734674541443094
0.11280359640661167 1.6905756638727798 0.15289552513244442 0.049492243393161786
0.1112141930218299 1.6685475637570761 0.11310449951826637 0.0007656140500627739
0.09994526212661838 1.640360902011519 0.04575641319979465 0.000631790134905893
0.10200205808471918 1.6695320229641877 0.0983650088355657 0.0015974649347072524
0.1041549346771947 1.6990324262102823 0.15169709614765395 0.03536731138368257
0.1398090881682427 1.7023761181775672 0.22074819534908385 0.1445795541052435
0.12633263815676354 1.7037163828755004 0.19901813028778448 0.15587025422474868
0.11935517598391174 1.6823628949590326 0.15077197709502807 0.03783681121892365
0.11576805360563994 1.6786797599487393 0.1382090439382616 0.003103616709423139
0.1336344149032356 1.6987096512569049 0.20360913079714177 0.15672735609438437
0.12472709859564009 1.6962263441807106 0.18359313121058018 0.16005959211216597
0.13341625379681096 1.6930471492713186 0.19371932266115138 0.19776977043648114
0.1101560500109389 1.67942322660226 0.12947098238302746 0.004285155321344657
0.11229615949348254 1.6966017049588866 0.16210427218525064 0.06816872087147102
0.0953001842107683 1.667588537593741 0.08322193683657568 0.0025516750295328573
0.09412100723572639 1.6857149089206687 0.11156550044511485 0.012534102101505651
0.09698341751889449 1.655600657886811 0.06606861944925402 0.0009412130143717679
0.07784978611521079 1.6815955684106592 0.07608713050510002 0.015542349773099366
0.07560967352609485 1.6572407610369102 0.031272104463165376 0.00440792043664169
0.08000373118105139 1.6737758591996634 0.06674664416334039 0.009501457676155877
0.07281038957318464 1.6471772663572601 0.009462163217248246 0.0022521340559671877
0.08994921766249474 1.6317319590547497 0.013652240580416416 0.0006540959625113136
0.0810005769988639 1.6732266532741225 0.06757637365241563 0.010144253798424485
0.08875795004953453 1.645580831503767 0.034804044442600414 0.0007166146699647162
0.07549828086408919 1.6626712367009384 0.040191291659862786 0.004101688598307491
0.0834846811700334 1.6651564280289413 0.058395525043852745 0.003508531274583255
0.08754447736227555 1.693722188985919 0.11344536915633131 0.023084891292785178
0.08914690308672725 1.6647934530363635 0.06772512688321847 0.002410202412237519
0.08568898283939397 1.6740346082623077 0.07716407408140706 0.007925556014651943
0.07741984680883116 1.6819634707649298 0.07594927776147407 0.015534011800641671
0.07518768423418651 1.6736795467579921 0.05812295963717269 0.010555006051268266
0.06426759338609192 1.6545856834110695 0.006889841020557406 0.0049085812716304685
0.05514379271628909 1.6678617044731059 0.013147623851212879 0.019651062448342513
0.056104291582597166 1.6629708764670252 0.006625186865207628 0.01606757278126238
0.06543849249469813 1.673373659083622 0.04048379093982527 0.013617584486029444
0.05787570719324133 1.6706636954060667 0.02264997229133332 0.0173477011597866
0.06934998108091278 1.6819163511408646 0.06169436446187063 0.019218941070502548
0.059744110296037566 1.6810828997414036 0.04342149609888003 0.0231592800007287
0.06735661610445084 1.6660801145137007 0.03161041679046904 0.010219800599616831
0.14231043747221428 1.6961155195120106 0.21227792500804407 0.16850448719916625
0.11678623794580276 1.7001791422954782 0.17316371015250104 0.10788427630992552
0.1163669704009398 1.7009510252502924 0.17370234983234406 0.11136141266204554
0.1199298383899586 1.6898103951599295 0.16153597482634321 0.08993716553072319
0.12477273380307027 1.6919742254605354 0.17369558271795876 0.13615122664242546
0.13320168024532086 1.6888007383437555 0.1837586875653121 0.16563048132160343
0.14765213889688855 1.6042446747693802 0.06715834152793365 0.07815652401532251
0.1395780248769417 1.6032955515088805 0.05112395352998449 0.06657628732918526
0.1431882978443108 1.612231338135393 0.0727103946765597 0.08184331995396525
0.1125352740227471 1.6341550011042367 0.05507471031183309 0.0005121365521373249
0.13220909164981826 1.6119814565120119 0.05266961074542455 0.04710541063121836
0.10178163087029787 1.6897332509801064 0.12930501237452136 0.012831956510289117
0.11064501469609686 1.686911412240756 0.14031620262463 0.006812686819868469
0.11562455471337962 1.6125481197858407 0.02400072393884749 0.0006848412779932484
0.12947706942727216 1.6456641327287365 0.10451905178433477 0.024440706132289932
0.13825634121169916 1.6461683647740049 0.12120683698729144 0.06099722549939072
0.13563545320073886 1.6213714681392544 0.07465157324735393 0.05060842774043912
0.12772962897252907 1.6361638036220925 0.08544863456096627 0.01921214209318577
0.12121548890116636 1.6471843898541725 0.09238378313990413 0.0022879480258929307
0.14309267815981214 1.6142037735614507 0.07586266130907135 0.08227480626108072
0.12632163167905108 1.6294918902419475 0.07174202845078567 0.014157127434291105
0.13328327960306585 1.6600383041823545 0.1356024961722298 0.042743867364428874
0.1394811563203116 1.6613705046293035 0.14896316245375715 0.08259768363513247
0.13084531076139144 1.6747651810085702 0.15588571252294373 0.06449428276026403
0.1399485768730815 1.669308556437879 0.16326196386713548 0.07143788534411327
0.1480259681958896 1.6445302050883268 0.13603821924297438 0.0669197640036458
0.14689297580786972 1.7134185255316492 0.24932787954772562 0.21370797353976473
0.13570546967932529 1.7027905417048004 0.2113263153294154 0.170700220823709
0.04826095500010033 1.6723685542525746 0.0059948700130557685 0.032815852305390296
0.08400632851332133 1.6559210176360772 0.04128356020089023 0.00197483522868448
0.09392572841735469 1.636042947144545 0.025316732347967153 0.0006751463102298428
0.08049597183193127 1.6404640703808406 0.00907408189482672 0.00106515847663565
0.0857326081056559 1.6430717963255939 0.02271103441734479 0.0007766638617430798
0.08974827770937951 1.634262566311964 0.014943696957341678 0.0007486838666580187
0.09427516908506602 1.6922449442642735 0.12023996015669469 0.016563464135910404
0.07331712762678803 1.6702087155881364 0.04644329185936209 0.010516435922370655
0.08107323380354817 1.690721775511729 0.09444415908800467 0.020806545141366022
0.1064829301768008 1.6466904854602422 0.06539769855991638 0.0005717130233601801
0.08964131005436227 1.676364643322051 0.08546512776942834 0.008014559230963586
0.1041890930990157 1.6620106168567095 0.08710103876430782 0.0008190693139959109
0.10508417746318009 1.6607603348297921 0.08658420695025466 0.0008289018314491262
0.099738358151263 1.6598476885128823 0.07557623842482092 0.0008113643340773434
0.1684002914927029 1.9126632855009063 0.01913758226165961 0.0025439983497337506
0.29260821755587985 1.8115841018221308 0.004872156565522275 0.003251222643941662
0.056074038719050874 1.8832262457625348 0.013706148641685019 0.0018417905503849586
0.29739177366300246 1.7826684726993849 0.003060132551973377 0.002956440132576762
0.28364304891299197 1.7163378642199247 0.002596376843161574 0.14260772677147576
0.22637022003789137 1.64742217471218 0.007622825638633252 0.00121210333388974
0.18749947610046286 1.6105954376706668 0.012699085146558377 0.0008659691933028939
0.000810091155375815 1.7720166019967531 0.002630629728219579 0.07459950545792247
0.14132485634322237 1.580852426609809 0.01793031157766772 0.08935020236076396
0.027366108378271185 1.695627520787562 0.003507068775020527 0.10642719725631138
