x y z curv
0.33009598404058554 -0.1111611954243721 -230.5822960699371 0.07976342364263916
0.8396477593174806 -0.11065060256584394 -230.5822960699371 0.12494474036543861
0.35475133335694076 -0.07599937073283687 -230.58229606993706 0.0006574824269921088
0.38626590033863456 -0.07254643025200815 -230.58229606993712 0.000559394765116726
0.7950051766211205 -0.10854363921089627 -230.58229606993712 0.0847268753238144
0.8494718477920258 -0.02978677189345519 -230.58229606993706 0.08850296472145548
0.5070724726522073 -0.11017967632293481 -230.5822960699371 0.07763131795246164
0.5315142997802933 -0.07918724596384034 -230.5822960699371 0.07371140296910975
0.3127872447225004 -0.08992181293238409 -230.58229606993712 0.04277063115447841
0.27877465055649875 -0.0844111805347484 -230.58229606993706 0.0236884230477084
0.6411728130405685 -0.11995112854334451 -230.5822960699371 0.08036788414360688
0.794329486281434 -0.07636381156627352 -230.5822960699371 0.07360830200098877
0.5518718008998431 -0.0632511390909345 -230.58229606993706 0.1273163691767907
0.5814825925452869 -0.09472525764629434 -230.58229606993712 0.04123996830856323
0.47335161996844216 -0.0784569483101643 -230.5822960699371 0.0007014959399613077
0.7142708067429028 -0.08554336256483379 -230.5822960699371 0.006137364960790429
0.5044026774666113 -0.1190841774288451 -230.5822960699371 0.08689178295754593
0.8341058196226961 -0.11888427234149243 -230.5822960699371 0.1016521087551764
0.46676635107102427 -0.07241382636436257 -230.58229606993712 0.0005657116115916185
0.3318803131317457 -0.08839909931705692 -230.5822960699371 0.02624897209493032
0.16212268180099024 -0.11950987739582873 -230.5822960699371 0.0800734486065494
0.3844563065012204 -0.10182427780299326 -230.58229606993712 0.07838856433574609
0.5160895224629507 -0.09315502901671124 -230.58229606993706 0.03055546218333201
0.7237425286669432 -0.07582371109304226 -230.58229606993706 0.0006232360317311568
0.5308564627711083 -0.08878865905470736 -230.5822960699371 0.04009511616739245
0.45534508488314096 -0.10861107045688294 -230.5822960699371 0.08386580125164494
0.7533695407818675 -0.04796431782089474 -230.58229606993712 0.012271621781107068
0.7022312683540515 -0.02529927414037677 -230.5822960699371 0.03541493495250476
0.826187136278194 -0.09173735163200017 -230.5822960699371 0.07456343543078661
0.6386477124915915 -0.08959096117388012 -230.5822960699371 0.031002998342616835
0.37072662715622684 -0.11974441179785443 -230.58229606993706 0.08465149615054668
0.31367735775900696 -0.09983540536286357 -230.58229606993706 0.06337642701436766
0.3096713557809974 -0.07928317945738936 -230.5822960699371 0.09021455895780835
0.4772131346311168 -0.08721046273725254 -230.5822960699371 0.017800533712043314
0.6106147883264723 -0.07418514412919179 -230.58229606993712 0.0006119384168170139
0.751862910802725 -0.03287064397585801 -230.5822960699371 0.018436367001637883
0.79474315808331 -0.03147882912376122 -230.58229606993706 0.053607698408153576
0.6707849659133287 -0.046680288387377145 -230.58229606993706 0.0007006974471012289
0.8048904059190796 -0.10315442867429085 -230.5822960699371 0.08378781188690834
0.6193590175871594 -0.1176835860723255 -230.58229606993712 0.08872831158321996
0.5665137869920731 -0.07026534533567393 -230.58229606993712 0.05774792067254009
0.21558322490267484 -0.1130929136104648 -230.5822960699371 0.07674436797401578
0.8129900542754481 -0.11140183677332904 -230.5822960699371 0.08192948227469796
0.5205969200795155 -0.0619924345318028 -230.5822960699371 0.07186429123693393
0.6758462704679941 -0.08943005895196983 -230.58229606993706 0.019244598515361942
0.6351762738117457 -0.04680454534506535 -230.58229606993706 0.0006475818345365673
0.26653755333419105 -0.11021260391608836 -230.58229606993706 0.0707793932913437
0.8476649999734589 -0.11931080748228863 -230.5822960699371 0.10141170391735012
0.6762112118797515 -0.0985692830764132 -230.5822960699371 0.061304796435126256
0.6234916693241197 -0.050318628868336185 -230.5822960699371 0.0006396887375719279
0.5487116932148548 -0.07968176495968239 -230.5822960699371 0.07790163036343155
0.6572212760436076 -0.06447949168466625 -230.58229606993712 0.0006684273864722716
0.8490076127722851 -0.10288011043396846 -230.5822960699371 0.11017676759910139
0.7687720600721998 -0.10526797909872689 -230.5822960699371 0.08385129737115464
0.5299989713716222 -0.05696421007651537 -230.58229606993706 0.09762196270612761
0.4895189158076495 -0.07259141924618252 -230.58229606993706 0.0007022202547042553
0.5740184023397767 -0.0808668793497856 -230.5822960699371 0.015499438204220185
0.3561917888847237 -0.08688224837597204 -230.5822960699371 0.01649410413249991
0.6370041963119195 -0.07566344409927486 -230.5822960699371 0.0006506704974092923
0.7729111128608985 -0.042342564492310664 -230.5822960699371 0.07188010775191296
0.5945691949828211 -0.0951039474914276 -230.5822960699371 0.04359143857609828
0.8126938266661334 -0.010001159118235483 -230.5822960699371 0.08894934871190067
0.30612497359907115 -0.1188854405123297 -230.58229606993712 0.07689259676157338
0.8097137269935404 -0.05683156034675721 -230.5822960699371 0.10084723419994186
0.38170467067287495 -0.11162128159615646 -230.58229606993712 0.09853325260282615
0.8304690476167784 -0.036280419459958586 -230.5822960699371 0.07204522375406593
0.7119866198612228 -0.050502573322653815 -230.58229606993712 0.0006910135306602049
0.49909185399369377 -0.10717910760502579 -230.5822960699371 0.07511093705941185
0.5383224081664264 -0.11991520381715932 -230.58229606993712 0.07367173300074806
0.6482526536653179 -0.0697705424464512 -230.58229606993712 0.0006462874800492016
0.590829959821752 -0.11928910405933908 -230.58229606993712 0.09544633366739318
0.7106212495617843 -0.09433694950226615 -230.5822960699371 0.04639002500127809
0.8258402839483605 -0.023173265126098616 -230.58229606993712 0.06294832222996617
0.5817994614935587 -0.047092389482033134 -230.58229606993712 0.012782161139586141
0.5754402327800493 -0.1034583733747227 -230.5822960699371 0.07444225114458414
0.8123008488647697 -0.09343957297147089 -230.58229606993712 0.038073218081253926
0.24545908288029836 -0.0914552442075614 -230.58229606993706 0.03701792340826695
0.6256903579429406 -0.10345063254007102 -230.58229606993706 0.09184807143990384
0.7843604703899776 -0.08801884609307502 -230.5822960699371 0.049088201595977696
0.3834500635437588 -0.08512493990984117 -230.5822960699371 0.008149002512097358
0.7419405602802807 -0.0656571709993859 -230.5822960699371 0.0006650877229187357
0.42972082498620207 -0.10302024192533846 -230.5822960699371 0.06469020222080847
0.36580127993562717 -0.0966417690592574 -230.58229606993712 0.05200947844657829
0.7844673226600055 -0.1198242243718089 -230.5822960699371 0.07362173969181604
0.48035884793232514 -0.1090695830077192 -230.58229606993712 0.08012012225342331
0.6005621473683995 -0.04156477716720087 -230.5822960699371 0.0007044488013723166
0.6097068179516015 -0.11351190790397893 -230.5822960699371 0.08797854727307397
0.5119628229126308 -0.1010745495491228 -230.58229606993706 0.07522195438101818
0.7158631482913037 -0.04194278567960247 -230.58229606993712 0.0006026233900039029
0.6680496318067146 -0.1091945929377718 -230.58229606993706 0.08299538392077319
0.7607613281532694 -0.08357711960090292 -230.5822960699371 0.013348043819716727
0.8401132579152704 -0.0061600689910691776 -230.5822960699371 0.09789135844713463
0.7223237989647004 -0.05027435303137946 -230.58229606993706 0.0006795300837457348
0.40437276221269813 -0.11348367336948215 -230.58229606993712 0.08031378159000166
0.7655247383833764 -0.11799580869860223 -230.5822960699371 0.07642964701211895
0.2679731214540431 -0.0874297207680822 -230.5822960699371 0.01546924283539384
0.6514769637280076 -0.09262299457125761 -230.5822960699371 0.04093651456868121
0.7926499846291899 -0.09688037669072583 -230.58229606993712 0.045688124144539495
0.8215351146337816 -0.10010594008915201 -230.5822960699371 0.06452349381422898
0.7743284709997105 -0.07712370450830763 -230.5822960699371 0.07827127989961692
0.39745207714053177 -0.10159708447669037 -230.58229606993712 0.06854004606981612
0.6378488229245562 -0.03384494519973845 -230.58229606993712 0.01852329990064835
0.5065023942102451 -0.055787451598626955 -230.58229606993706 0.0072569741986049305
0.6570475622621317 -0.03839942445661975 -230.58229606993706 0.0018571292919491954
0.5004408854641422 -0.06897248906331191 -230.58229606993712 0.0006458500432181464
0.36073866823544964 -0.1184849890939142 -230.5822960699371 0.08235283130600615
0.6484354086900468 -0.02935300560571564 -230.5822960699371 0.040029015096960684
0.5292343981298449 -0.09999127479891685 -230.58229606993706 0.06640054794447874
0.6371739315821766 -0.0884465035808591 -230.5822960699371 0.026572080865443923
0.6626806183980914 -0.07772753067406984 -230.5822960699371 0.0006691807673296306
0.3685508427288302 -0.07534889268852198 -230.5822960699371 0.000650304094212555
0.6968010049552178 -0.038502242207463205 -230.5822960699371 0.0005863985400918125
0.7525608535388513 -0.05744948997697118 -230.5822960699371 0.017517977510280978
0.586241612628032 -0.10576561197913796 -230.5822960699371 0.08159891213824536
0.5754539529225968 -0.08313296677142666 -230.58229606993706 0.016286856727652774
0.2575108830359616 -0.0924003427787584 -230.5822960699371 0.026896596617566687
0.6901996909279987 -0.04924590234150936 -230.58229606993706 0.0006084824224508717
0.6604800701336322 -0.1174106259332649 -230.5822960699371 0.08767984917737101
0.7341489904211423 -0.11816968543964874 -230.58229606993712 0.08504507340349327
0.4880944231879324 -0.10276761418134216 -230.58229606993712 0.07198173865644993
0.36105431682109856 -0.10610950567842216 -230.5822960699371 0.07035538450069463
0.41114141294555273 -0.10352347532986306 -230.58229606993712 0.06447712177638404
0.7991575268153823 -0.09004734480919933 -230.5822960699371 0.045359527088364056
0.8272236757389879 -0.11006020849478056 -230.5822960699371 0.09675989188610319
0.8107833957281478 -0.09009201477326495 -230.5822960699371 0.03334137473203805
0.18774662416410298 -0.09786047326982322 -230.5822960699371 0.0691467137984516
0.1528893233088777 -0.11482666624180245 -230.58229606993706 0.08476641347723218
0.7136223314407513 -0.03077283364691948 -230.58229606993712 0.031087863374182012
0.295390841887461 -0.11757065314314102 -230.5822960699371 0.07715445508711796
0.8131721194277581 -0.04396793912970828 -230.5822960699371 0.03687293560457365
0.47478193039465194 -0.09969352824253404 -230.58229606993706 0.07895862965914816
0.6705423922631526 -0.03557891829755512 -230.5822960699371 0.013670915691780649
0.25189533665218033 -0.11530884500958814 -230.5822960699371 0.07253725151752234
0.8435035219839127 -0.07540799524808799 -230.5822960699371 0.0838771383679288
0.5644100468935904 -0.08669627214581323 -230.58229606993706 0.04707133554991682
0.822403250292683 -0.06278627960940475 -230.58229606993706 0.038209985383160575
0.5679365404448985 -0.04590893190500789 -230.58229606993712 0.06908556427303852
0.7385783522467818 -0.029847020319796698 -230.58229606993712 0.018389967922073636
0.8323233950133535 -0.07261946597893489 -230.5822960699371 0.06663222182639353
0.5579652974386571 -0.04329100996372084 -230.5822960699371 0.08504271309862473
0.5388472437192597 -0.10262476714508291 -230.5822960699371 0.07924333597971375
0.3713322477204688 -0.08451052515993938 -230.58229606993706 0.0071731035190103895
0.21787995385394568 -0.1027027276467361 -230.5822960699371 0.07073476722703907
0.7440593485867139 -0.04215725490540652 -230.58229606993706 0.0006880694064181698
0.09850900630799977 -0.11797758773731101 -230.5822960699371 0.07537317275940793
0.3946942360565151 -0.11095733572953913 -230.58229606993706 0.08939686813435217
0.6153229109813945 -0.10716826113664164 -230.5822960699371 0.08914014028692792
0.39036687550955307 -0.09251358911609603 -230.5822960699371 0.0328585446609017
0.5426877134325889 -0.09287987194158431 -230.58229606993706 0.04214143078561113
0.8152833059597989 -0.02612964368662411 -230.58229606993706 0.039882933411815986
0.6921884901499762 -0.03057372626004878 -230.58229606993712 0.03004933374372241
0.8382934528099154 -0.05099661768493807 -230.5822960699371 0.08869546542331373
0.7461289067226649 -0.08799581270592334 -230.58229606993712 0.024203045224463014
0.35509879606091355 -0.09651393285347289 -230.58229606993706 0.051307079621439065
0.30574885936718466 -0.10444271726287988 -230.58229606993706 0.06845675173428852
0.666316691051222 -0.08679036888144809 -230.5822960699371 0.013218808848975324
0.053677407551346416 -0.1181965885621195 -230.58229606993712 0.08395168473372196
0.7721882372158148 -0.09153029519021463 -230.5822960699371 0.031762834241391834
0.7669426682256542 -0.0493319874463441 -230.5822960699371 0.07081818153196408
0.5642435247224051 -0.0984276650214911 -230.58229606993706 0.051674614909176624
0.5518884068104528 -0.05103376428235376 -230.5822960699371 0.113296253647744
0.1276719248374495 -0.10790118463082432 -230.5822960699371 0.0746816111354376
0.33129425455536066 -0.10291994555131402 -230.5822960699371 0.0737811924330619
0.6234123218137051 -0.09269562388901909 -230.5822960699371 0.03553121019020729
0.45914594376475626 -0.08082147092404578 -230.5822960699371 0.0025538195586638497
0.2855577303960748 -0.09577275568289252 -230.58229606993712 0.04647414306163564
0.6270197140818764 -0.03330760549571403 -230.58229606993706 0.018716581416024378
0.7427831039827528 -0.019575945939377778 -230.5822960699371 0.06356650047174771
0.10411679692529432 -0.06430381848994784 -230.58229606993706 0.002466311681504202
0.7930190816985732 -0.005356243589590319 -230.5822960699371 0.08216208927611941
0.09643483466400166 -0.0017490327888596221 -230.5822960699371 0.0836644621241854
0.2441703635031873 -0.03996862192377864 -230.58229606993706 0.0005998807582367133
0.014740733373358012 -0.0010302880113845414 -230.5822960699371 0.10013866430859016
0.7402719112863876 -0.01062331092684808 -230.58229606993712 0.08930968992995468
0.14998941072103458 -0.05226977584965324 -230.58229606993706 0.0006744088592237563
0.10858128992131479 -0.07341400260553926 -230.5822960699371 0.0005876696562332677
0.4474052980397655 -0.029749012898813737 -230.5822960699371 0.036448025250583896
0.48812985163321054 -0.011727636993090658 -230.58229606993706 0.08089391996514549
0.16333012437520175 -0.009673837097058493 -230.58229606993712 0.07626283839890646
0.18220702331701666 -0.04762360463938435 -230.5822960699371 0.0005222154391578148
0.04128983018194432 -0.04248643452153763 -230.5822960699371 0.049177310783187864
0.3370341252952955 -0.051349934497374156 -230.5822960699371 0.02492907600481671
0.22672602761008542 -0.014229821666518894 -230.5822960699371 0.07473983826840888
0.427249450565488 -0.006639053907537707 -230.5822960699371 0.0803355623691458
0.37446815260282784 -0.06630014235216766 -230.5822960699371 0.0006424075670297593
0.0749593646967498 -0.02142308227144971 -230.5822960699371 0.05727533076868339
0.20886449673798918 -0.07365158905011261 -230.5822960699371 0.0006996100619367597
0.01858788937913738 -0.03783823791601622 -230.58229606993712 0.06688509689855922
0.0017016187732692561 -0.07889246201984813 -230.5822960699371 0.08985823276747776
0.21930895594708977 -0.0665945245358051 -230.5822960699371 0.0006584750292465502
0.08962968494610189 -0.05943751035579789 -230.5822960699371 0.037292117847123385
0.0799161869475959 -0.09664755343121259 -230.5822960699371 0.05900968437790226
0.6502438526437019 -0.010530392444120589 -230.58229606993712 0.09431338203946664
0.4757209557626169 -0.005592159583820006 -230.58229606993712 0.09846197404318514
0.026777755622842105 -0.07089861363778491 -230.5822960699371 0.042779875031955336
0.18099519919583112 -0.024315093603760163 -230.58229606993712 0.04836586976619278
0.3746685643108259 -0.007732469084538706 -230.58229606993706 0.09405063728488558
0.11403895458897685 -0.011216663655677193 -230.58229606993706 0.0916311390123088
0.12893342733745022 -0.050069683174350496 -230.58229606993712 0.0006502388210102885
0.6183864696578327 -0.0010923268319284341 -230.58229606993706 0.08066889183002718
0.06171955537239295 -0.08946267661847943 -230.5822960699371 0.042163478944142005
0.036108733503002303 -0.061276915779055974 -230.58229606993706 0.04614931418211772
0.6841650606532251 -0.009611695324930902 -230.58229606993706 0.08083382718052971
0.09216278072692555 -0.04614248811118228 -230.5822960699371 0.032587895372626845
0.22625026821881947 -0.0025674985227031304 -230.5822960699371 0.07638679441008195
0.42893779471507304 -0.03752617349749446 -230.58229606993706 0.006074388641192001
0.17563356009218303 -0.03767669079519755 -230.58229606993706 0.00541445105310852
0.31823116100084464 -0.011199806384125448 -230.58229606993712 0.08375230330066602
0.27355584834894914 -0.07653832984404063 -230.58229606993712 0.01915723105640046
0.2444493141253712 -0.018799238186890648 -230.58229606993706 0.059047323049859
0.14479588875973318 -0.005849467193213556 -230.58229606993712 0.08546705676025358
0.4838959991932311 -0.026124641178628102 -230.58229606993712 0.05071405540908459
0.3541346341248984 -0.0357084071715994 -230.5822960699371 0.005841144999899804
0.028636128031849555 -0.03539078698005571 -230.5822960699371 0.03688477941471021
0.11612066034762178 -0.038369613915079745 -230.58229606993712 0.0005787926004561282
0.01277125894066106 -0.060956560161165886 -230.58229606993712 0.0842135121930081
0.11572153552696554 -0.02222387407151864 -230.5822960699371 0.051762354548654015
0.06143513581090992 -0.08900585931072443 -230.5822960699371 0.04216525580592878
0.0543490503624373 -0.016844640358233243 -230.58229606993706 0.057871389705798276
0.600102119489272 -0.02338439992493816 -230.5822960699371 0.03786542922935832
0.13602945144872672 -0.0018152521113380734 -230.5822960699371 0.07524731037821043
0.6511422129101672 -0.002259422918838968 -230.5822960699371 0.09162664550324365
0.16432309311406562 -0.04154040275467317 -230.5822960699371 0.0005923323623992959
0.4239923613065144 -0.024965702337662418 -230.58229606993712 0.0417559149626236
0.07604998951438144 -0.06563647290465231 -230.5822960699371 0.09669627414148016
0.1480946752838901 -0.09087976850912205 -230.58229606993712 0.03443867448736843
0.018856308276039162 -0.08751412099031622 -230.5822960699371 0.06286828504358437
0.6204014569334415 -0.022894230374905896 -230.58229606993712 0.04399807717994373
0.27268578034801416 -7.62334135007918e-05 -230.58229606993712 0.07567650538036537
0.261071983883987 -0.05215110909344469 -230.5822960699371 0.002383199771029065
0.15701683013175274 -0.06552839122433375 -230.58229606993706 0.0005970014727808375
0.3265869426262232 -0.04295577834268535 -230.58229606993712 0.04034547349897801
0.5065628974872121 -0.03175278750009387 -230.5822960699371 0.019550676094841877
0.004455367013565558 -0.06776403972778562 -230.5822960699371 0.08116722278422425
0.10571587412878694 -0.03973979122337544 -230.5822960699371 0.0005975027103854725
0.08146956217234327 -0.03683290477711716 -230.58229606993706 0.04158479023302795
0.15364334449284087 -0.03859845168123994 -230.58229606993712 0.004872217524474364
0.3065997988652221 -0.0031047343063695496 -230.58229606993706 0.08251433149606892
0.22858706183177585 -0.08679325530545444 -230.58229606993706 0.019127622830081695
0.5932291071880605 -0.035716432243924526 -230.5822960699371 0.00970694918549389
0.7105020403166936 -0.005793720956485211 -230.58229606993712 0.07591737449220984
0.45544735291608646 -0.04942340292485836 -230.5822960699371 0.0006328053666933342
0.125769437519239 -0.09404338857530692 -230.58229606993706 0.03327466592438061
0.04929954269616442 -0.054193049986981066 -230.5822960699371 0.12066616163545019
0.25134767404108077 -0.07991576395064635 -230.5822960699371 0.0006891155488305484
0.29156356555411783 -0.03396434252398349 -230.58229606993706 0.05235745047558758
0.3270435022285754 -0.05817146458148885 -230.58229606993712 0.07436415553644797
0.1258534833618877 -0.0197883979689187 -230.58229606993712 0.06554568046652204
0.23270157719014248 -0.06167342290608076 -230.58229606993706 0.0005858357417938148
0.31231014412491537 -0.033336081500984986 -230.5822960699371 0.05615057059191712
0.11381301569451292 -0.06159290548824664 -230.58229606993706 0.0006085569933171069
0.1791860434248077 -0.06090817529405573 -230.5822960699371 0.0005533274060607842
0.28162518147464344 -0.019752206353922185 -230.58229606993712 0.049564626517483744
0.15141293593822938 -0.029123844502824472 -230.58229606993706 0.03531590432608253
0.10670630035018706 -0.0076262646777332365 -230.58229606993706 0.08377612803445497
0.7595964907219879 -0.0014454383136088093 -230.5822960699371 0.07402792693456015
0.016875437541780617 -0.02739261753875028 -230.5822960699371 0.07852963070705743
0.02802140142084221 -0.014005725439360092 -230.5822960699371 0.078277725408148
0.20384286031327636 -0.003957599800571564 -230.5822960699371 0.08356401672219058
0.22642693769395056 -0.0017529725456768193 -230.5822960699371 0.0795833771882112
0.366322947476589 -0.029624070164975026 -230.58229606993712 0.03340847322062041
0.36898196871352584 -0.01917458927143917 -230.5822960699371 0.05068722340340637
0.5623150620790904 -0.033247069128888244 -230.5822960699371 0.03304930314506275
0.22136125839677517 -0.07967830682052038 -230.5822960699371 0.0006578609044548063
0.08937507382903592 -0.09313042447653917 -230.5822960699371 0.032533144108621244
0.2667716376915711 -0.06745853380876325 -230.58229606993706 0.01803079917834981
0.133561578644567 -0.09998974107741991 -230.5822960699371 0.0571934291375917
0.4033136691955314 -0.011475188341486591 -230.5822960699371 0.07528169459440372
0.26409965746796715 -0.07707380488625232 -230.5822960699371 0.006833078497736163
0.046555081779481 -0.007322854187972387 -230.5822960699371 0.08863569966134295
0.16507629643655297 -0.032041925107564484 -230.5822960699371 0.023020377264777327
0.53708361821735 -0.04411346186921571 -230.58229606993706 0.09968174299467801
0.1886501372974383 -0.03319093484427497 -230.5822960699371 0.021118698982133546
0.5110639412275599 -0.042099633769351406 -230.58229606993706 0.007987140212758504
0.14305238686426353 -0.06014143912005703 -230.58229606993712 0.0006159177275353607
0.06483515470914164 -0.015053283393275 -230.58229606993706 0.06506085192254586
0.19281031777333296 -0.059642434126780206 -230.58229606993706 0.0005672082386754014
0.19476704573463438 -0.08981970544746598 -230.58229606993706 0.02851216801270804
0.49200918844477265 -0.00034782780092185113 -230.58229606993706 0.07579364189525001
0.8012221184270403 -0.0007267189127434757 -230.5822960699371 0.07726787569873061
0.12645419160093263 -0.06026775082828663 -230.58229606993706 0.0005989008599574405
0.5734187263843205 -0.03791005088909085 -230.58229606993706 0.019685125370048635
0.3970268252806392 -0.056091360297190876 -230.5822960699371 0.0005272621494881307
0.19591664014756438 -0.04104144303501027 -230.58229606993706 0.0006796568591676145
0.21613647752083906 -0.02316283540684813 -230.58229606993706 0.04550119495332401
0.09639368374896143 -0.07336559083043377 -230.58229606993712 0.011505979825198501
0.16168696622442094 -0.05607533490306765 -230.5822960699371 0.0006078324789096654
0.24319678584617918 -0.028672664853844437 -230.58229606993712 0.03457109481969758
0.001971164159298476 -0.004306458913666484 -230.5822960699371 0.11299923024580188
0.41276397279713806 -0.02610547571982588 -230.5822960699371 0.03823071832803277
0.28315833286565506 -0.07080928045937299 -230.58229606993706 0.0866631406943126
0.34317868534548757 -0.019930538323669988 -230.5822960699371 0.05553564752571111
0.5613294940474505 -0.021628936549744317 -230.58229606993712 0.055901269105113054
0.3610047152617875 -0.04429335560845685 -230.58229606993706 0.0006775957758130459
0.25848634865723485 -0.02515256237098036 -230.58229606993706 0.03848589629580229
0.1209274749913231 -0.07493161972886044 -230.58229606993712 0.0006295496153726849
0.08228986384701047 -0.04882864561403714 -230.5822960699371 0.049139467872559045
0.476766013507521 -0.017433177906252942 -230.5822960699371 0.08835002590353795
0.2795866968649272 -0.007571586312387199 -230.5822960699371 0.08438909799451906
0.032504537191676786 -0.11197341950819784 -230.5822960699371 0.0804858037095835
0.47083239340052846 -0.02751766982044606 -230.5822960699371 0.030025878845348613
0.6692462371761475 -0.02376491100505267 -230.5822960699371 0.04620052078865821
0.6898872356663253 -0.01839896972632165 -230.58229606993712 0.05512335353590594
0.34465437938460713 -0.008980486586526096 -230.5822960699371 0.0795786249484279
0.4591876210822036 -0.02612823338437495 -230.5822960699371 0.042896165798897636
0.42328901415126574 -0.05834923696760336 -230.5822960699371 0.000552539855648091
0.03944526258204498 -0.10412850863357452 -230.58229606993706 0.08030448763205976
0.3940839641181151 -0.04479437022914495 -230.58229606993706 0.0006346834486838551
0.12097805090576978 -0.07161024592338425 -230.58229606993706 0.000607976653704003
0.05183315570979087 -0.07976885573589612 -230.58229606993706 0.05976018857153183
0.3021736958924312 -0.03432993559145762 -230.5822960699371 0.05733141242352359
0.009125232874482343 -0.04591782778001821 -230.5822960699371 0.09201412908688485
0.11525251887456453 -0.05188896962161169 -230.5822960699371 0.0006804423355783914
0.5271886684370087 -0.02793576992021594 -230.58229606993712 0.041591594705039245
0.2985651760308117 -0.06780407052506908 -230.58229606993706 0.11750448848603359
0.047842643116054295 -0.09526469632892734 -230.5822960699371 0.04577968648191367
0.26945377597647713 -0.04189747301016645 -230.58229606993706 0.017109937295025603
0.702666241903769 -0.014376626885242884 -230.5822960699371 0.0741343836315471
0.5171656383475046 -0.008154617864081226 -230.58229606993712 0.09178247070825343
0.17804367352630804 -0.09029253905598608 -230.58229606993706 0.03156398026202365
0.16694219446049235 -0.07261238860200513 -230.5822960699371 0.0006536232391221012
0.08351738768959042 -0.015889609651493563 -230.58229606993706 0.06462552308746157
0.27988359168326316 -0.0335329457019096 -230.58229606993706 0.02324345646143636
0.007134761557272569 -0.03249147532710131 -230.5822960699371 0.08129956183262704
0.14871626758537215 -0.07293991102598385 -230.58229606993706 0.0006610392984488071
0.001538749605719818 -0.055208466875541956 -230.58229606993712 0.08223398036828071
0.44185542108404946 -0.0027146978940418526 -230.58229606993706 0.08048062828163427
0.3289229745102716 -0.0011451543736635797 -230.58229606993706 0.0841441199338829
0.11664151469851221 -0.09497059770086315 -230.58229606993706 0.045503057415177454
0.19025234189723286 -0.07064019665860465 -230.58229606993706 0.0005649256611611721
0.06313541115235116 -0.07475242892882722 -230.58229606993712 0.09773395735503046
0.21396004019736029 -0.011221919248745457 -230.5822960699371 0.08056451177814673
0.7201956729652925 -0.012155212431207162 -230.5822960699371 0.05376860304033328
0.23442429268378784 -0.060906812713829375 -230.5822960699371 0.0005273638040349256
0.4600151636683929 -0.022875353529739115 -230.5822960699371 0.04800874063111245
0.31844570363216307 -0.000569929250961809 -230.58229606993712 0.0880526196990077
0.38675552953356673 -0.0012673747210065248 -230.5822960699371 0.08135642961426207
0.3186371989042878 -0.026438978222246137 -230.58229606993712 0.03841564843855472
0.007635126534781992 -0.020676451480378295 -230.5822960699371 0.1055060245543833
0.49419105419897646 -0.03189945405826628 -230.5822960699371 0.029694906996353066
0.1960921207669634 -0.028963600009028576 -230.58229606993706 0.022991825439472566
0.23195999498988412 -0.04625603726146917 -230.58229606993712 0.0006273156732570193
0.09923827367733162 -0.10478043781230427 -230.5822960699371 0.08140673207558202
0.13631265791984162 -0.01386856601659218 -230.58229606993706 0.07175548746534512
0.48289762098989164 -0.04445131116742055 -230.5822960699371 0.0005951050480186247
0.7366404229402268 -0.0014940289489865704 -230.5822960699371 0.08905624114044068
0.4658051774642194 -0.01224433404861108 -230.5822960699371 0.0848665451540616
0.41568936240487897 -0.013679413321933743 -230.5822960699371 0.06692861424320658
0.000304887560978317 -0.09425648078432552 -230.5822960699371 0.07749641040354896
0.27422493638413975 -0.05240603401300257 -230.58229606993712 0.03948717883442071
0.15954460842058898 -0.0933367555096102 -230.5822960699371 0.03151179366104753
0.5514957137120223 -0.03164165246727989 -230.58229606993712 0.0590640595947615
0.020683731739567963 -0.04901330667025476 -230.5822960699371 0.05191613251554049
0.032851571349866965 -0.005794253523910184 -230.5822960699371 0.07827856519379262
0.04645710852947427 -0.06564097818815307 -230.5822960699371 0.10490228482752148
0.2580148229922136 -0.03887753551493142 -230.5822960699371 0.0006256042223003084
0.3297668239015555 -0.01395551400190085 -230.58229606993712 0.07110204121580149
0.5816906090571435 -0.03468879799075773 -230.58229606993706 0.01361887881791178
0.15336383860140518 -0.0010377820751127165 -230.5822960699371 0.08245465775516746
0.020831720723422514 -0.09807903796096458 -230.58229606993706 0.07155882614216215
0.5766011407982815 -0.014944854245388613 -230.5822960699371 0.07932245245019692
0.29790819622561576 -0.0069330569885324945 -230.58229606993706 0.08294966420358495
0.10426525545426428 -0.05242473552735768 -230.5822960699371 0.002573860307462376
0.24586110120705437 -0.000353606396626886 -230.5822960699371 0.09275175400982796
0.09552088983731499 -0.035211496050299426 -230.5822960699371 0.008780508912216312
0.3409531544384277 -0.059732409233279375 -230.5822960699371 0.012618911047956236
0.44147821987806896 -0.04322482292128345 -230.58229606993706 0.0006634923139943749
0.5649913196436965 -0.008127601457604793 -230.5822960699371 0.08180126139156857
0.10125358117257774 -0.052398602206578916 -230.5822960699371 0.002849674232365741
0.2705399643430138 -0.015117235363638779 -230.58229606993706 0.07674603596271931
0.43213027641648594 -0.019868968030764888 -230.5822960699371 0.07143153576111992
0.047470631210536504 -0.05435001364394958 -230.5822960699371 0.11648177918189748
0.40606768578049496 -0.04444822007445785 -230.58229606993712 0.0005832362079518482
0.027683736537161156 -0.10502425516311437 -230.5822960699371 0.08155405486636838
0.6318396337931531 -0.012394290719906786 -230.5822960699371 0.08547392116573256
0.10183720155644746 -0.10499676737267957 -230.5822960699371 0.0749233833175853
0.5785725220550595 -0.012280362775141697 -230.5822960699371 0.07763960160923374
0.40877811682013465 -0.001200728015332533 -230.58229606993712 0.07581336343552775
0.25222991888184526 -0.08056888440455667 -230.5822960699371 0.0024333839797221588
0.506802912165068 -0.020809980166041842 -230.5822960699371 0.05140776593316988
0.43318980482753044 -0.0013776495267236568 -230.5472960699371 0.025002779101430422
0.6129782946741082 -0.0012772563661942976 -230.5472960699371 0.02496390125286155
0.738992055634084 -0.0005992292861034189 -230.5472960699371 0.031428513375723104
0.5037393403262309 -0.0006175400284985851 -230.5472960699371 0.012696269421067417
0.8134558928009326 -0.0011474672218022759 -230.54729606993712 0.020462451844413018
0.7391773840897347 -0.00038998775968237945 -230.5472960699371 0.020825184028462344
0.6693059656687477 -0.001114282701564236 -230.5472960699371 0.02562766808196535
0.17835726207782093 -0.0006941064032396967 -230.5472960699371 0.015444139378540752
0.07767881773736045 -0.00037552282823084034 -230.5472960699371 0.022580791721493017
0.3093540339277532 -0.0006683799379880125 -230.5472960699371 0.015009344854789676
0.3590838479170241 -0.0006048696685685243 -230.5472960699371 0.016371909714120076
0.03334487361203445 -0.0010909759204213666 -230.5472960699371 0.05796473094327465
0.12151100052672176 -0.0002474314855413197 -230.5472960699371 0.012572647498393827
0.23336728357742942 -0.00030021083015253767 -230.5472960699371 0.014225242377149628
0.5861014426916792 -0.0003263442747726532 -230.5472960699371 0.02874216918115487
0.0002552501140855608 -0.03955508515006716 -230.5472960699371 0.026298081001996484
0.0013078335570964582 -0.10512018959065704 -230.5472960699371 0.11186876452476611
0.0399154923386915 -0.11881492327673836 -230.5472960699371 0.020269116075177018
0.4430406236568801 -0.11861784100559998 -230.5472960699371 0.030732714202842175
0.41205857863038586 -0.11871433607776831 -230.5472960699371 0.02083310743784804
0.04840120795813239 -0.11928333961730532 -230.54729606993712 0.021196543928403908
0.5067189107207288 -0.11899861535516248 -230.5472960699371 0.02831772875244972
0.12317280215752639 -0.11915701440346912 -230.5472960699371 0.01710073183747387
0.05775724724395567 -0.1190088561575703 -230.5472960699371 0.02900776417522388
0.10019077412354915 -0.1196806673730067 -230.5472960699371 0.028372937068850135
0.29326238518201075 -0.11862805830304247 -230.5472960699371 0.01624429544645707
0.7067083973531587 -0.11964660615538991 -230.54729606993712 0.022375481374448395
0.5928111311319919 -0.11972742350565407 -230.5472960699371 0.01833943529082119
0.6184794586903457 -0.11930631667253566 -230.5472960699371 0.0208539942994107
0.23896226648930408 -0.11993252920440751 -230.5472960699371 0.02196112899753137
0.20260872421367135 -0.11972963460919696 -230.54729606993706 0.03391953874949083
0.5474916403428832 -0.11924925619392612 -230.5472960699371 0.03008049171216372
0.5800574089113806 -0.11945412084686881 -230.5472960699371 0.02257449939156522
0.383237762893925 -0.0014999999999718203 -230.56942178590356 0.07976380899191039
0.7269151181836093 -0.001499999999971819 -230.57941048904468 0.09715890868649199
0.5853891866606711 -0.0014999999999718216 -230.5577280698875 0.051740555167886344
0.724516633940362 -0.0014999999999718223 -230.55251070575048 0.0525534288787165
0.41916121507133847 -0.0014999999999718192 -230.57760967027943 0.07982059685507836
0.7871210735767891 -0.0014999999999718197 -230.57355796576132 0.08008963596968285
0.8117228861864103 -0.00149999999997182 -230.571315506727 0.07038669993985158
0.6295889812407568 -0.0014999999999718212 -230.56095945532007 0.08139257726550153
0.6076309163766251 -0.0014999999999718216 -230.55785363476053 0.06565884617851094
0.6471559363320155 -0.0014999999999718216 -230.55737471608836 0.06710597092342062
0.7750232948935236 -0.0014999999999718216 -230.55811877677394 0.0564054074965766
0.47592128290340396 -0.00149999999997182 -230.57109097509993 0.0835912300148437
0.7718141244976593 -0.0014999999999718203 -230.5691721339452 0.07179570580557106
0.5720352979730646 -0.0014999999999718199 -230.5718878988155 0.07718689373600325
0.8280403662154296 -0.001499999999971819 -230.5801364098613 0.09187510464460291
0.464220352980813 -0.0014999999999718188 -230.58030140840376 0.09130364778895099
0.2911432902219574 -0.0014999999999718192 -230.57832986378364 0.08564952833612258
0.7343563360962152 -0.0014999999999718212 -230.56150325323304 0.06778450881749505
0.8103187331723856 -0.001499999999971822 -230.55660258237694 0.050326540012292954
0.7811836516725571 -0.0014999999999718205 -230.56637125747957 0.07577860960375118
0.5638430910126258 -0.0014999999999718207 -230.56440567623505 0.07018516774931806
0.7478790099392864 -0.001499999999971822 -230.55487815114725 0.05016560019602341
0.7031278555860319 -0.0014999999999718205 -230.56705932745234 0.07195048627724814
0.5959848947612836 -0.0014999999999718214 -230.55933987503255 0.04614800864416148
0.44514176042315023 -0.0014999999999718207 -230.56509394909864 0.06325321472140603
0.6065238416867921 -0.00149999999997182 -230.57072948466094 0.07711240943163729
0.5145505393600338 -0.001499999999971821 -230.56266730832948 0.07902739428151462
0.4656946843478653 -0.0014999999999718203 -230.56865306405322 0.08580723786801438
0.38213042709398953 -0.00149999999997182 -230.56983954188354 0.08682808631994168
0.41004433490549996 -0.00149999999997182 -230.57067199758242 0.07652554161348063
0.3247349366190626 -0.0014999999999718197 -230.57352843258252 0.07976635614586666
0.755520564064608 -0.0014999999999718199 -230.57287827795128 0.08639599505704958
0.8475691707527124 -0.0014999999999718214 -230.5607051150202 0.13612393682501814
0.3637431326423645 -0.00149999999997182 -230.57093339297504 0.0727155404785779
0.6194689775235127 -0.00149999999997182 -230.56979141380594 0.07931539836063296
0.639029716577745 -0.0014999999999718218 -230.556055682955 0.06112741367611541
0.6731547875718197 -0.001499999999971821 -230.56254949278173 0.08273103305248473
0.5902352012600531 -0.00149999999997182 -230.5697896966267 0.07702335034799306
0.7956340444959182 -0.001499999999971822 -230.55429050586008 0.0433717260079777
0.4353732330262201 -0.0014999999999718203 -230.5679151478126 0.08098832608443414
0.7025453239320733 -0.0014999999999718216 -230.55783128811066 0.06093649729321045
0.8454500110699236 -0.0014999999999718199 -230.57169959096998 0.12316688785800214
0.5017205261571632 -0.0014999999999718207 -230.56494909764695 0.07632741343683459
0.7431427700843026 -0.0014999999999718207 -230.56586308026812 0.07840020217587124
0.4809960040826119 -0.0014999999999718212 -230.5620772159803 0.07929262587410159
0.13085961905976679 -0.0014999999999718212 -230.5621979847876 0.07416377298947414
0.023795169932659635 -0.0014999999999718225 -230.5514688530311 0.09763345650380194
0.5766572116637962 -0.0014999999999718225 -230.5511162695129 0.051292922034580544
0.5558282687203984 -0.001499999999971823 -230.54825433723656 0.04308915450551705
0.18713341292160432 -0.0014999999999718225 -230.55050070293555 0.04793455899144681
0.19772254114163165 -0.0014999999999718212 -230.56162727387664 0.07532128231169635
0.28648576500881895 -0.0014999999999718205 -230.56611427338188 0.0788289497713605
0.025120554169460105 -0.001499999999971821 -230.56266962934663 0.10444061596617102
0.5459823356037724 -0.0014999999999718225 -230.5512043315542 0.044472093908113526
0.48630457632805274 -0.0014999999999718227 -230.54956310682047 0.03622868985755076
0.15868204340591907 -0.001499999999971823 -230.5477327797078 0.03936223705463733
0.4440012239981591 -0.0014999999999718225 -230.5488775860329 0.028299055461874004
0.4294595231040175 -0.0014999999999718218 -230.55697063804485 0.05836632856251321
0.2453382638250299 -0.0014999999999718225 -230.55026390040507 0.04008142192590375
0.16628403185823024 -0.0014999999999718212 -230.5615624519503 0.06671254284697557
0.15924224170373316 -0.0014999999999718199 -230.57256884057387 0.07973077068287036
0.29798610829209893 -0.0014999999999718212 -230.56178237114733 0.06951336438514022
0.3904190291944008 -0.0014999999999718223 -230.55101497762942 0.053470566154230424
0.2311999722268507 -0.0014999999999718218 -230.55623641126041 0.05639953450607314
0.08670704529351037 -0.0014999999999718205 -230.5674724642089 0.07698297526074592
0.054292593666935715 -0.0014999999999718214 -230.55971354991252 0.06374219231387461
0.1108019690786568 -0.0014999999999718227 -230.54942239284247 0.04045294653924905
0.46733965654080784 -0.0014999999999718216 -230.5581224410419 0.05918992221720204
0.6312449865787357 -0.001499999999971823 -230.54845459336573 0.037852765757141214
0.3467840461425314 -0.0014999999999718212 -230.56231153876712 0.07033657297073782
0.47697252804189155 -0.0014999999999718225 -230.5518391880791 0.04624107165565849
0.03968149610131974 -0.0014999999999718192 -230.57806281526558 0.07488056333767992
0.14094161691039214 -0.0014999999999718214 -230.55947870484545 0.07759320531509048
0.03787253254522725 -0.0014999999999718207 -230.5653572316396 0.06921147666199579
0.32097768773662166 -0.001499999999971822 -230.5540678472855 0.05608272030626222
0.5168288695602156 -0.0014999999999718225 -230.55130938882877 0.03115458180737794
0.21781234174478442 -0.0014999999999718218 -230.55718741347175 0.07824577366036775
0.027206584269705535 -0.0014999999999718199 -230.57295491602167 0.08397999472881303
0.14013363000546525 -0.0014999999999718225 -230.55020743422725 0.04817001917949503
0.06405219554360467 -0.0014999999999718205 -230.566467201401 0.07778145725556851
0.19817577704720432 -0.0014999999999718223 -230.55090443543816 0.03994760732462991
0.3473745683287737 -0.0014999999999718223 -230.552581691046 0.04972119027633949
0.6471007959635415 -0.0014999999999718231 -230.54738348786665 0.03920170244691912
0.06283556523114238 -0.0014999999999718227 -230.5498356002692 0.032715741873458444
0.1704679708327162 -0.00149999999997182 -230.57041529775455 0.07890106282367351
0.048589544500141676 -0.0014999999999718225 -230.55031792228257 0.03090592725665257
0.26640111802833016 -0.0014999999999718212 -230.56196904531743 0.06275767087027509
0.3317328179820751 -0.0014999999999718207 -230.56577782085867 0.07845588201908153
0.3795674119465344 -0.001499999999971823 -230.5478987408558 0.01967455027494911
0.25471860096088733 -0.001499999999971821 -230.56379749799825 0.07311521994248993
0.15526777279636855 -0.0014999999999718212 -230.5624903411637 0.0676016004401277
0.05371264875688248 -0.00149999999997182 -230.57108579736789 0.06811216159651347
0.4914476852284896 -0.0014999999999718214 -230.5594469196728 0.06154875168943828
0.308004708617932 -0.001499999999971821 -230.56306496887265 0.07714905275591262
0.4694468372569036 -0.001499999999971823 -230.5476081457731 0.022795924233933007
0.3575137092255259 -0.0014999999999718216 -230.55874582383737 0.05479266883395188
0.10091659137601232 -0.00149999999997182 -230.57048970993588 0.07892281300902501
0.26673633050098333 -0.0014999999999718212 -230.56139980609515 0.06278804872956807
0.1490033124925411 -0.0014999999999718223 -230.55319906217068 0.0464867177786416
0.6574345597207271 -0.0014999999999718223 -230.55318105074173 0.062468488244376535
0.45334306516329054 -0.001499999999971822 -230.55545990022898 0.059780159018846965
0.014343732668737192 -0.0014999999999718218 -230.55396671410318 0.13983662789821621
0.14770391161263352 -0.0014999999999718199 -230.5725272618304 0.07837610928629936
0.8485 -0.07806958568743759 -230.56224367087654 0.07274619132553685
0.8485 -0.11102528168426326 -230.5776013573401 0.11657094215662013
0.8485 -0.10385997573090851 -230.5623090627439 0.11985138486243593
0.8485 -0.11363855915910115 -230.56728097677785 0.14029418786378442
0.8485 -0.11121728635748308 -230.55135179639157 0.13082288981560167
0.8485 -0.028170540736496 -230.55872434525082 0.08623113327431599
0.8485000000000001 -0.0472826779767974 -230.55022433132794 0.053108600111899204
0.8485 -0.08241526808655714 -230.551648609103 0.04438989500641634
0.8485 -0.03562163461570328 -230.56942958356774 0.08254971916190233
0.8485 -0.024322183003842028 -230.57218148794414 0.09313453117859721
0.8485 -0.01773008041855936 -230.56534559091972 0.12011816493870923
0.8485 -0.03533559642421823 -230.54885300594484 0.058094212744956804
0.8485 -0.013485367416442151 -230.55703923813044 0.1314334506828174
0.16320008128688773 -0.11849999999997182 -230.57200622865335 0.08074418150242578
0.10519874281396384 -0.1184999999999718 -230.5721054279773 0.08508474638629383
0.09568069152709105 -0.11849999999997181 -230.57259135391837 0.0779550797409413
0.15188340309161988 -0.11849999999997181 -230.5615407993258 0.07045571454462579
0.2608572695095538 -0.11849999999997181 -230.57325867543682 0.07795312212545072
0.3106962360967222 -0.11849999999997181 -230.56273001898703 0.06321899370771786
0.5440530969200073 -0.11849999999997181 -230.57113231509874 0.067665901507833
0.006848555478723015 -0.11849999999997181 -230.5623615411123 0.1385783284442939
0.5188736144228123 -0.11849999999997181 -230.5701943713139 0.07890493809607063
0.12867137350230468 -0.11849999999997181 -230.57420455358255 0.08807439012001131
0.03267427437273419 -0.11849999999997181 -230.55800442679225 0.06398903444854619
0.3934411965722853 -0.11849999999997181 -230.56775985850174 0.07774526932604296
0.30919701115892323 -0.11849999999997182 -230.58021882237944 0.07952987694788492
0.5050115550669634 -0.11849999999997181 -230.56861836149545 0.06672563916490598
0.25609609873365036 -0.11849999999997181 -230.5589649321215 0.055734049580583464
0.06788511597712749 -0.11849999999997181 -230.55270578470638 0.036644613793314795
0.11999671290820972 -0.11849999999997182 -230.5696832141918 0.08044604947971129
0.005672495036369788 -0.11849999999997182 -230.5497328359728 0.12697398668817764
0.3576297944287867 -0.11849999999997181 -230.56259795740309 0.06410831497103797
0.5124294071476421 -0.1184999999999718 -230.57737805905734 0.07862436875284078
0.03498090993943825 -0.11849999999997181 -230.57049697654526 0.07274466505081477
0.18274826991517426 -0.11849999999997181 -230.57211822810814 0.07616562081936297
0.04105133278070163 -0.1184999999999718 -230.56511104028596 0.06994485738586433
0.16152543249294174 -0.11849999999997181 -230.5601110528375 0.08176129736283749
0.08794230799039587 -0.11849999999997181 -230.55109545726657 0.0368131778693184
0.14906885369932593 -0.11849999999997181 -230.57240366915363 0.09155065832272158
0.37603445140004554 -0.11849999999997181 -230.57503363172827 0.07933571737421931
0.3376279369807054 -0.11849999999997181 -230.56214023683012 0.07792227965256422
0.24404304331047236 -0.11849999999997181 -230.56477470959302 0.0645527901558726
0.2312330930039691 -0.11849999999997181 -230.56274915188723 0.06873904881858879
0.46194732471263955 -0.11849999999997181 -230.5730976759983 0.0765079027376605
0.7068343393489359 -0.11849999999997181 -230.57967672043878 0.07724060168868362
0.44931594892411814 -0.11849999999997181 -230.56877470614052 0.0670682033084765
0.08449410721363883 -0.11849999999997181 -230.55886759218117 0.05541165446009498
0.27112389048035157 -0.11849999999997181 -230.56852087642318 0.07202555471430123
0.3297475897066783 -0.11849999999997182 -230.5739383189087 0.08501724038176905
0.17207114209312 -0.11849999999997181 -230.56947345405703 0.07539312318738041
0.7234818978750008 -0.11849999999997181 -230.57239930927733 0.08886674605321991
0.672418882037032 -0.1184999999999718 -230.56467128567255 0.0783205629564239
0.695846236604226 -0.11849999999997182 -230.54938769720476 0.04148776274850182
0.7198699157266755 -0.11849999999997181 -230.5587259619664 0.05612432147715491
0.7769274685585936 -0.11849999999997181 -230.57620292197723 0.07524035861734785
0.5207025527682285 -0.11849999999997184 -230.54892434744482 0.03566153540746786
0.24838724244839827 -0.11849999999997184 -230.548518523195 0.02475748915966041
0.6409042929634078 -0.11849999999997181 -230.57093112607498 0.08402752780252289
0.16389613085905091 -0.11849999999997182 -230.5490644817387 0.032179164662757734
0.5884669644468355 -0.1184999999999718 -230.5680468538271 0.07268781550470767
0.8309176728846023 -0.11849999999997181 -230.56325933515026 0.12075268234170276
0.5537940185748853 -0.11849999999997181 -230.55560341631255 0.05331771083108618
0.6406128122616055 -0.11849999999997181 -230.55752434617867 0.07606748163734889
0.37832581340598 -0.11849999999997181 -230.54768665969272 0.032646855927207674
0.13708964186666137 -0.11849999999997182 -230.5492863117836 0.029086121484149737
0.7138433792635019 -0.11849999999997182 -230.5507698579605 0.048060344992523325
0.3099868231395704 -0.11849999999997182 -230.5482861980222 0.02986520128646182
0.11608751891305452 -0.11849999999997182 -230.55010087859728 0.04471254321925776
0.47738737609820436 -0.11849999999997181 -230.56435546527354 0.07611753320136141
0.5770515503776885 -0.11849999999997181 -230.56007574909052 0.0556598897039964
0.17670602501783159 -0.11849999999997181 -230.55119677474661 0.03480695407185075
0.151619800473079 -0.11849999999997184 -230.54739613686573 0.024292679070152257
0.5527580700515472 -0.11849999999997181 -230.56699528124324 0.06817184043772519
0.6775930520473339 -0.11849999999997182 -230.5492328446187 0.0388545761027671
0.8306890131569106 -0.11849999999997182 -230.54782523081707 0.09085009262094138
0.35982020997429526 -0.11849999999997184 -230.5479808149838 0.028341307914615355
0.5300596338602551 -0.11849999999997181 -230.55354588706172 0.03939980909338628
0.6374664078238433 -0.11849999999997182 -230.5487929181339 0.0358916568138166
0.5643269389723548 -0.11849999999997181 -230.5654572781606 0.07054767174103362
0.6491510027480485 -0.11849999999997182 -230.54960560893582 0.030598436303954316
