x y z curv
0.5671793327063283 0.7983775530872547 715.5437323299046 7.084756127202628e-14
0.567015283233868 0.7983775530872547 715.5075247271409 0.011406629705170016
0.5673863772119829 0.7983775530872547 715.8071650931893 -5.26093178485787e-12
0.5669583605588201 0.7983775530872548 715.7285120812185 -8.089039629140013e-11
0.5673252318612183 0.7983775530872547 715.9276042309453 1.4764740088371923e-12
0.5666112675129495 0.7983775530872547 715.672152699765 
0.5671537822403727 0.7983775530872547 715.9871476198231 -1.1718722024251895e-12
0.5675947135794901 0.7992300352496328 715.588468131462 
0.5675947135794901 0.7986861153853384 715.7553987163337 
0.5675947135794901 0.7989978687875239 715.844503573719 4.237007159065388e-12
0.5675947135794901 0.7987588547342014 715.911985907502 
0.5675947135794901 0.7985028217978221 715.8636938889364 7.57064381714301e-15
0.5668675525312704 0.7993775530872547 715.5625946167053 
0.5668034850315252 0.7993775530872547 715.4917791988493 0.14676005198606595
0.5668798293270118 0.7993775530872547 715.5194439554048 5.563987154231652e-12
0.5666889511450162 0.7993775530872548 715.9669637275247 9.844355404792963e-06
0.5671276710709873 0.7993775530872548 715.4775304238715 0.2588365048599246
0.5675572352255331 0.7993775530872547 715.7783341450249 
0.5670603216357007 0.7993775530872546 716.0243713573008 0.16144566680170716
0.56659471357949 0.798718502322618 715.7134435144662 
0.56659471357949 0.7990818247335165 715.6318757446727 
0.56659471357949 0.799030864309052 715.8280898672758 2.9324866374262463e-13
0.56659471357949 0.7986956003304616 715.9987987957215 0.08186845750247236
0.56659471357949 0.7991147500347731 715.6978835690468 1.168082465940062e-12
0.56659471357949 0.7990638946286925 715.8958657631349 7.961282112547627e-13
0.5273531346059356 0.7983775530872547 715.8033090496671 -1.668672822281184e-11
0.5274970659616804 0.7983775530872546 715.9334133992802 1.700166941515792e-05
0.5270291219196586 0.7983775530872548 715.6601707460337 
0.5266567988751854 0.7983775530872547 715.8874047814974 1.9116239181512427e-05
0.5269182863074247 0.7983775530872547 715.9109544285755 4.194407596942794e-06
0.5270188670824425 0.7983775530872547 715.7926030736057 -2.1180919976949093e-11
0.5266772875683742 0.7983775530872547 715.9790665504698 -1.5902118800719327e-11
0.5271767615845672 0.7983775530872547 716.0201042884506 0.11039552470040762
0.5275947135794901 0.799046519192989 715.5075433432776 -9.614439742284724e-09
0.5275947135794901 0.7992125717761966 715.8477757931269 3.4826934384943205e-11
0.5275947135794901 0.7993730866625406 715.7705280552271 9.157767403105765e-06
0.5275947135794901 0.7992823886802134 715.9460961764396 5.633622665763829e-06
0.5275947135794901 0.798611606673898 715.9649611356041 0.00020409198221738218
0.5275947135794901 0.798479974477788 715.5512669053239 
0.5275947135794901 0.79859704720811 715.6885794376695 
0.5266366513725229 0.7993775530872547 715.4862067515478 0.2234022518263885
0.5267912104162065 0.7993775530872547 715.8344192828454 3.521072924513371e-11
0.5268994641823862 0.7993775530872548 715.6456861427602 
0.5275216249636083 0.7993775530872547 715.8620169910153 0.00011266934466554564
0.5269059993178348 0.7993775530872547 715.9974793697174 0.07598464852249939
0.5265947135794901 0.7985080528034529 715.7039038514667 
0.5265947135794901 0.7986930457866748 715.7338208178398 -2.7120884121188857e-11
0.5265947135794901 0.799350675589932 715.7561767907837 -2.1739463294163828e-11
0.5265947135794901 0.7990640360300055 715.8992334519994 2.266544006875381e-06
0.5507680435178367 0.8114745476603262 715.0819309081066 0.07582425221006428
0.5277377990199462 0.8217360620924902 715.0819309081066 0.14099845557713336
0.5329349176297896 0.7940027685440958 715.0819309081066 0.06339287794109208
0.5335877800208714 0.8060668373065911 715.0829309081067 0.0785662629320922
0.5612106041060578 0.8151808205351245 715.0829309081066 0.12937488508850753
0.5565055769096351 0.7745775685648219 715.0829309081066 0.11501593668788529
0.512248033757492 0.8124700127516148 715.0875695780744 0.17560421746222463
0.5191325500787354 0.8280306253546967 715.0875695780744 0.20406231814387607
0.5325308026464146 0.8293002538800153 715.0875695780744 0.1820114770575422
0.5160851039357914 0.7783228424412203 715.0875695780744 0.2004442861055154
0.5111710620536823 0.7659770731972142 715.0875695780744 0.18390260855863066
0.5152994417808391 0.7933038842031993 715.0875695780744 0.16648747696440172
0.5383380870342207 0.7687213236694619 715.0875695780744 0.17638935417935472
0.544144760299543 0.7944607269657655 715.0875695780744 0.036236867823110544
0.5602000614867841 0.7874394501616144 715.0875695780744 0.10314422879173787
0.5371012719434931 0.7841002635205816 715.0875695780744 0.10252415503408627
0.5221218928993581 0.7611190887162509 715.0875695780744 0.1989239630355238
0.5460581962345421 0.8282881142130128 715.0875695780744 0.18503331521219624
0.5220895094502276 0.806574384452933 715.0875695780744 0.15451742789842351
0.5662538373466179 0.8357445257316539 715.0875695780744 0.1739174663000708
0.5690924213316185 0.8248963516853393 715.0875695780744 0.20988757771305305
0.5731825667751942 0.8137576456735942 715.0875695780744 0.18096781346368848
0.5706723654186836 0.7776538072503654 715.0875695780744 0.1668270944811665
0.5619391646404812 0.7654538267965975 715.0875695780743 0.19467649695318304
0.5507255748272045 0.7648696864076416 715.0875695780744 0.1582635483463098
0.5843578244814174 0.7781082389741084 715.0875695780744 0.16523490614951858
0.5766081412440089 0.755833743481596 715.0708096462185 0.1543764587655104
0.5889518747817526 0.7716725560789566 715.0702935834902 0.15367212950288026
0.583962172728955 0.782603083181551 715.0682287599677 0.13316124321564624
0.5165961777834996 0.7592820662546622 715.0700895093244 0.14435903565638417
0.5047392995888952 0.8312418384003539 715.0710574406755 0.13297760433155012
0.5205769433697174 0.8468136194956162 715.0714593455416 0.13278467858367535
0.5658578115065618 0.8462260101113629 715.0706013207378 0.14716434848620036
0.5541017524809626 0.837762688590006 715.0682092954964 0.13966587533634545
0.5283605738160542 0.7586279532866884 715.0688825255622 0.11536026744642262
0.5082127059530119 0.7776789368699946 715.0689214117411 0.1366431794559657
0.5126125757098899 0.8033845253459972 715.0693734806739 0.11022038647671363
0.5241645828751886 0.8370631560969333 715.0711787988505 0.1314430136168939
0.5124634212721068 0.7920329601213757 715.0722628774629 0.09780046491628211
0.5088153306949602 0.8164471398677218 715.0741480141395 0.12684659278429222
0.5368865659334537 0.8332188745721401 715.0688436831623 0.1258947173306761
0.5639941512643993 0.8356964708049466 715.0737618596518 0.13683693215181766
0.5826518317797202 0.8302474563082516 715.0715657135315 0.15323894340934896
0.5850632383864558 0.8198989988654432 715.087087100919 0.17765240745817454
0.5828307075365953 0.8120861289304951 715.0691786531646 0.11808261417034623
0.580403417951787 0.8016699483883989 715.069662392259 0.1132249998550166
0.5653128430709725 0.7605914773119915 715.0689473040943 0.14220699915007978
0.5496354244037102 0.764546670562331 715.0761816472054 0.1424165876052749
0.5388336230131698 0.7639574408434552 715.0686970310654 0.08851686334523798
0.531357325769684 0.7618535962489248 715.0811754715232 0.1626113199510551
0.5803052293553763 0.7993348807723089 715.0840720764534 0.1584185394243635
0.5443181301187787 0.8136103349711539 715.4044309157362 0.24471150136461772
0.5525550148881158 0.7880653358070102 715.4044309157362 0.3045228710485325
0.527301202546866 0.7604475691655251 715.139339961399 0.04031958964657525
0.525902010116895 0.763106323453193 715.1525765187795 0.039704407064109375
0.5178456423759563 0.7627133746644249 715.1283108117032 0.062103516021055356
0.5136656449370526 0.769845263681364 715.1412093341019 0.04227105041666608
0.5161993013679171 0.7720284289890995 715.1595819190258 0.050444319869009456
0.5096200850023267 0.7687398710130846 715.1195917161782 0.05175868287240342
0.5083708472902355 0.7784441976557358 715.1374551495314 0.03532363795027372
0.5055160356767805 0.7806666001259376 715.1195437973787 0.03772406010111831
0.5083188541800827 0.788630197394147 715.1490992046172 0.024137317718725133
0.5071163735554718 0.7909357304239097 715.1356604942453 0.020364202573055372
0.5064790322511153 0.796293271634599 715.1240755959925 0.02045654749279818
0.5084416573924286 0.8050818249595914 715.1492176707167 0.024295452812767356
0.5098695548871639 0.8080417451425068 715.1631952521392 0.03961940618394276
0.5076721850417691 0.8096906213903262 715.1387173009231 0.020920429571027268
0.5059121050760218 0.8164384465027015 715.1225979901099 0.04180788608262051
0.511043162372381 0.8169187372448501 715.1561142710468 0.03440560169880639
0.5142567539367291 0.8261897268717018 715.1459940125897 0.037975314827466085
0.5178046058398736 0.827375482365861 715.1563149343004 0.02946299748968364
0.5151409247899257 0.8315458028863388 715.1300327140266 0.05985877237554398
0.5215979990270848 0.8372735499218189 715.1225319171697 0.053575358187835896
0.5228997725509633 0.8338533290278245 715.1442379140939 0.03969840502861374
0.5271975212913009 0.8375014851252871 715.132490424691 0.03720385799089939
0.5306917306117591 0.8352586709536306 715.153617494497 0.036891257833316635
0.5382253138524107 0.8382503321333012 715.130457940061 0.022314585287342866
0.5378270202515074 0.8373014174321467 715.1427647693995 0.022485386351553463
0.5424310627715427 0.836061970359665 715.1576598875879 0.026920430094184464
0.5532658675175668 0.8375814740119523 715.1366489657336 0.01570044974590273
0.5563006521623569 0.8389823438606466 715.1226759980857 0.025378720719153425
0.5569253285717654 0.8352415867386711 715.1607448228585 0.026086354413580266
0.5600410527191355 0.8360083596343395 715.1488315906535 0.032727368084673795
0.5638169566918507 0.8378571329286897 715.1307040431425 0.025042300401713343
0.5752595152263382 0.8288236865214736 715.1508979394014 0.04798987755212204
0.5758555714321412 0.832977861578741 715.1314574597671 0.04521856993244267
0.5798425888614264 0.826913568403887 715.1399155811981 0.037159595877933584
0.5821706714333497 0.8183180949294737 715.153338562724 0.04045300819571244
0.5866755254153795 0.818539411662734 715.1247423297949 0.04788755539658607
0.5851386771203189 0.8112445565596527 715.1444172822779 0.026191206116347437
0.583424009591835 0.8092871137742411 715.1607941918743 0.030708187338300958
0.58644188022164 0.7989762149735768 715.1273153957598 0.011189343159787892
0.5850752063095545 0.7956099652557956 715.1462564230166 0.021710134440400375
0.5840220614538592 0.7963291116471422 715.1618794429478 0.03415236811772576
0.5836873233425801 0.7865052462903687 715.1565446947656 0.03160226571100367
0.587056415123959 0.7813608445434883 715.1248388097993 0.030661388377722282
0.5837926381884329 0.7800774886937536 715.1458471594967 0.03601013103295375
0.5795278882099879 0.7769998599462369 715.1635054234997 0.036448718666020515
0.5810405527127218 0.7680122083970131 715.1283946980814 0.0432719578649071
0.5791719787386417 0.7702434659842567 715.1438642332912 0.04375937787459789
0.5691854668924639 0.7628487947503527 715.1468834517821 0.03882465615393
0.564792033247143 0.7630395945950923 715.1586389522233 0.037458241665758535
0.5651197955930238 0.7579250641396484 715.1245700677706 0.026347488459013642
0.5564348393869851 0.7588717609725848 715.135997906321 0.026465564037769958
0.5570295283911647 0.7600924182653745 715.1481545778346 0.02755557678322179
0.5506146465789894 0.7606829812342173 715.1578671513944 0.020111156919793274
0.54979384154222 0.7581869961464374 715.1223827202836 0.01925642036668039
0.5456338891282769 0.759418536356751 715.1397709321812 0.017759687640016945
0.5381668875827456 0.7605296758538055 715.1524805106833 0.02080037384287761
0.5346260168481336 0.7581498395089161 715.1268493049644 0.02413827474787709
0.5266243422934227 0.7685157882115146 715.188177205753 0.032899127169400154
0.5243256375678743 0.767464223599245 715.1725453762051 0.030215225521214705
0.5145950836880812 0.7783878289532706 715.1747670365862 0.0390422306968444
0.5151729081030212 0.7829163046917428 715.194781713426 0.04637315125323065
0.5098918083856961 0.7911257685865171 715.1669137372044 0.02405272333316331
0.5114513418664287 0.7937909375068142 715.1889374610248 0.02914238645337115
0.5109562550554496 0.8072211796057538 715.1755950078407 0.03540602891233196
0.5123628344140577 0.8062029206534067 715.193088846175 0.04198386729820872
0.5145768883632128 0.8161796769011009 715.1819485155359 0.04997334768516161
0.5182091249938313 0.819033898714241 715.1941968344964 0.03832357415580923
0.5161183280331937 0.8219000705545674 715.1699984811739 0.0340398318954753
0.5231580953100162 0.8274019383567506 715.1787860687219 0.039237524495406635
0.531690091000635 0.8306914658381677 715.1902714471172 0.03481675173909054
0.5334021470096911 0.8326086291049487 715.1799259344839 0.03550068495313034
0.5349701638779426 0.8346466294702082 715.1648463271995 0.036262507949534895
0.5480995099083941 0.8337617848238127 715.1886646199923 0.041692503929677036
0.5466695357226351 0.8350883312178371 715.1717659543804 0.03445256060413097
0.5573225162553463 0.8331675878983711 715.1804157002633 0.038226371581546924
0.5641895384795831 0.8294710879952552 715.1892987926265 0.044923258714152224
0.5694802172437106 0.8297511833985152 715.1674163365863 0.04086758690847081
0.5733103547215848 0.822256669218654 715.1892163905807 0.03835089561355873
0.576948603346386 0.8220998144012557 715.1699665123977 0.05082998110207895
0.5793797308027502 0.8152077979696635 715.1803761491832 0.03790381616916202
0.5804555535768754 0.8062427540070822 715.1972105477564 0.037800115809639025
0.5818167917036594 0.8037678605188525 715.1869073986231 0.04380457397709065
0.58298781498984 0.7998480057533659 715.1758329129991 0.028604904201597857
0.5812750748668748 0.7942106777556478 715.1948064716801 0.04266387371181162
0.5822821228252177 0.786809445778349 715.1700669501579 0.03628965858580204
0.5787143227561347 0.7829034435560114 715.189506884378 0.0456881347229038
0.5722736791637705 0.7743933263106846 715.1940200722856 0.04402449847499362
0.572654325827888 0.7724158807879102 715.1825498201312 0.03450148955611011
0.5712539131850334 0.7689586750473274 715.1712397458219 0.04024067726916501
0.5640363190009218 0.7687328861279141 715.199519260269 0.04614510309001068
0.5617868415268085 0.765575050576215 715.1855992109497 0.04164902522091132
0.5525326653229274 0.7622847978574743 715.1758532727648 0.031298567060917756
0.5470489152538525 0.7636959470573979 715.198051678273 0.04908942007595388
0.5422906325989775 0.7612994978347797 715.1655616407862 0.019139479963203736
0.5389300886392334 0.7635546876675908 715.1867933757916 0.02883515941063066
0.5348077577681553 0.7694176157716895 715.235116062354 0.034062479422806366
0.5328554997287673 0.7691591922074705 715.2230665593333 0.03584391866100964
0.5295975420447219 0.7751220422095539 715.2593301772795 0.05662934535390312
0.5267797499470024 0.7704799030923051 715.2007395113194 0.05171910182994044
0.527491556214317 0.7749397373044872 715.2435642039792 0.05814660524095592
0.5233992928951496 0.7764882458127729 715.2255847756498 0.051859273740828264
0.5189731554837074 0.7794770332546352 715.2089987180059 0.04734525505283938
0.520526371878521 0.7816262717964452 715.2361497103836 0.057904317367357
0.5202017857186144 0.7840645459506608 715.2474342798972 0.05640579104771633
0.5170904724288432 0.785567542728411 715.224764053717 0.038867790181058036
0.5201745222597576 0.7864721787138289 715.2601784969557 0.0642616514565395
0.5138503264957681 0.7904519265341716 715.2091656911039 0.04471263089892473
0.5161947008439753 0.7913567506275171 715.238248504582 0.027537117152890304
0.516767417630051 0.7944271172866813 715.2521672267235 0.04997630150430952
0.5143209367595488 0.7963119591347617 715.2259701460946 0.05056212482262009
0.5179432194978985 0.8039863553520255 715.2618719322302 0.05442014722173802
0.5155279020248558 0.8083106169750433 715.2207708327053 0.04026536974071859
0.517568429197683 0.8087213410818557 715.2406319017246 0.058172446889902016
0.517298132959717 0.8143232344137598 715.2106996662653 0.032014767982801604
0.521848802407693 0.814882370147987 715.2494746248291 0.07339853906867078
0.5242043365963089 0.8161100251289202 715.2617411327625 0.0628814014134306
0.5219044297746092 0.8174457589304938 715.2332922480027 0.06052765242424685
0.5247235574172544 0.8244183728885217 715.20285274685 0.04273444342136225
0.5324226015741256 0.8239183755683875 715.2562698861939 0.07827038645826365
0.5339702730846267 0.8286906422201494 715.217380505492 0.05010202709539553
0.5344753225280274 0.827150659331686 715.2355328422664 0.055715971270266194
0.5345719142252411 0.8304350835604088 715.2019174730859 0.03364070781089383
0.5436801721470397 0.8318467380703325 715.2110548982951 0.034929912360140244
0.5466434511236189 0.8292613002683862 715.2433892075198 0.04295835751166597
0.5486314955590816 0.827570112474722 715.2622965851854 0.06785929831823674
0.5547000064776799 0.8300624914342983 715.2204400108398 0.04317452282000491
0.5576002456676435 0.8301869747845698 715.2086123421334 0.031666300795447466
0.5586997871674007 0.8265694755384225 715.2415141216236 0.06365297035056897
0.5594196576441602 0.8247329051462944 715.2559863773557 0.07846751236430466
0.5625832113552174 0.8254861683977767 715.2310416273185 0.05241694032050089
0.5674049010941953 0.8254416685646743 715.201506982636 0.04755135416028062
0.5704002381495172 0.820549580412345 715.2187214857192 0.041458510144970144
0.5662894882601338 0.8187099219878561 715.2641509860194 0.04792685618923591
0.5700682631472445 0.8169070288235631 715.2472370392675 0.055765585071146866
0.5717665422419043 0.8164315365033767 715.2359434497719 0.04443270977533918
0.5785449087961896 0.8082029038538301 715.2116623244092 0.030316873758689952
0.5760183274360544 0.8022303744269424 715.2571046218944 0.06665348430902066
0.577997153852842 0.8038220834935088 715.2309236002071 0.056344029470760115
0.5773371536987707 0.8003313487748772 715.2441505425296 0.056147828037250776
0.5797723834441411 0.7945179972016851 715.2132104317868 0.04962272061190117
0.5752503578302044 0.7959261279564548 715.2682535517956 0.05171422111682583
0.5775215735730361 0.7913103634805367 715.2320084158971 0.04983532880750718
0.5745945987038656 0.7898596940299338 715.259203433527 0.07415656279783059
0.5751534983562744 0.7878078818873749 715.2446169531912 0.05272121400459152
0.5761017770288186 0.7852694606364429 715.2231432654276 0.04871610312995489
0.5781200738542546 0.7848619559952089 715.2008983799864 0.0438532599954639
0.56516370952429 0.7773279077331464 715.2667647033645 0.04776727347914024
0.563929564619249 0.7726305610266442 715.2354599797002 0.04916020918663462
0.5615720838306544 0.772278890052323 715.2465083295032 0.052739350045099026
0.5621467522929392 0.7696661149403766 715.218556217921 0.05207082294273428
0.5574489138223718 0.7712306105180118 715.2579233284208 0.06542403035070815
0.5550062915048753 0.765726473754924 715.2086340326505 0.05300436702790617
0.5536632794487257 0.7677845998377304 715.235786809078 0.05719448951956936
0.5473292509494624 0.7678670016811053 715.2476912461653 0.05263758464751544
0.5451142342445129 0.7690694239912279 715.2614694055753 0.07084966548513966
0.5434227609677248 0.7655934352904291 715.218714384084 0.05351511442696401
0.5376953837531933 0.7658448392748965 715.2084149037734 0.035722131160668025
0.532611887547183 0.7549154864257475 715.0995477163148 0.09191242317182936
0.5204180465321632 0.7516532138223688 715.0815389668244 0.1215437144087645
0.5155548491062224 0.7609625410952334 715.1142566284744 0.06402665118204671
0.5253816190844245 0.7576686964613844 715.1188355493665 0.03726489161971207
0.5047900148473793 0.7748132064549008 715.1104989387543 0.06194825885487559
0.4986155787177308 0.7773190457783795 715.0745914547656 0.1245057967155013
0.5010359113738135 0.7750822947285363 715.0902303513446 0.1532322845105453
0.5131198016655524 0.7588948020704569 715.1003185538241 0.13487007460432518
0.5081195851001231 0.7561066302502615 715.0772317696797 0.16129377525921992
0.5010039977145551 0.7845883834712948 715.0831627163045 0.1381222907736235
0.503159334535362 0.7875394096341363 715.0951875508928 0.126256232583077
0.5031637323073732 0.7983700903259985 715.0717573752273 0.15037157953585628
0.5019498520218779 0.8091909222415401 715.082048325239 0.1555704775215233
0.505628527847229 0.8028662903312673 715.1117804470888 0.04128018965905435
0.5038981388905877 0.8127727824413513 715.1076178232152 0.0880065970229316
0.4990725801847862 0.8235510697120055 715.0777900140516 0.15504863375884403
0.5006909152944229 0.819223333123019 715.0882587816939 0.1358589020919345
0.512973308390476 0.8384991695062831 715.0977221414528 0.11779802520719382
0.5086546523429104 0.8409395970555034 715.077695640764 0.182136640764552
0.5101367954246409 0.8295318619085374 715.1175650673534 0.06347596804665206
0.534809392305913 0.843876784088279 715.0747107366565 0.15745048500870557
0.5463919407342974 0.8391478905224145 715.1133895531889 0.03562993417576116
0.532863339370067 0.842843213833885 715.0926067095666 0.13583003632066695
0.5530643294045186 0.84036856310186 715.10193895773 0.09504566210623715
0.55751727886787 0.8429451728274198 715.0832755322723 0.1211311514052207
0.5470684729797772 0.8407042082190982 715.0900925019845 0.1676966877927281
0.5239765202199658 0.8450295001956571 715.0847760504022 0.12523521671173554
0.5300169095553913 0.8404230747168445 715.1142848553949 0.04373172414989751
0.5016229055776185 0.7660981436669627 715.0815831079658 0.12342152265047197
0.5044582811866337 0.7907744518167448 715.105679655736 0.10526711399460226
0.5364125194255237 0.7732146263794719 715.2970513890922 0.06469115674298713
0.5374661200893028 0.776673104891864 715.3959458028362 0.15497631025381084
0.5048281638231638 0.8007699840552551 715.0979014794632 0.11288278819838303
0.5055420925211616 0.8303675188229054 715.0978450604298 0.15126330816804615
0.5400486151194506 0.8402179672085304 715.1047889350318 0.07225791738538012
0.5669032918839487 0.8429227939756666 715.0963232268332 0.11045396188823839
0.5784063305966346 0.8403371093648744 715.0949776915306 0.10542848603148053
0.5808475415766289 0.8417556858180621 715.0838772215295 0.1558844461639667
0.5860730323564022 0.8409223546496658 715.0732942503735 0.16462721991994672
0.5832210202160103 0.8332903597693959 715.1063184174699 0.11445577058242933
0.5900678378323716 0.8302401070132329 715.0887297166607 0.13128699998987903
0.5806063650839618 0.8325259494849008 715.1169696401421 0.064569342453838
0.5900534687732519 0.8240596787937978 715.0991764543376 0.09003159079877723
0.5901486080788323 0.8058431109194121 715.0852986228576 0.15809925031029678
0.5890381105916395 0.8085695996640181 715.1056023946204 0.07113151428275065
0.5935872312249159 0.8186514300812926 715.0808015690832 0.1416200589225939
0.5883997911195057 0.7987948860263564 715.0978130165774 0.0888855451409207
0.5901504433693857 0.7951947897717895 715.074178739624 0.1474766992382718
0.5872136957217062 0.7925853771196252 715.1180384181404 0.027644608740334392
0.5931821391865298 0.8304541696682295 715.0744749117292 0.14969725154192973
0.5879985855953147 0.8231437738851364 715.1108437897899 0.0947471811013391
0.5908858832040689 0.7816993558952942 715.096597708287 0.1137897639134259
0.5894670295515231 0.766773771883253 715.0910361021829 0.13735856114060555
0.5896155207280929 0.7613709777791676 715.078317984071 0.12129983613896979
0.5836882441143422 0.7672748091541883 715.115301049245 0.061740696654706745
0.5757644267256607 0.7528744651650852 715.0843662407577 0.1555140140191923
0.574395276737306 0.7568799172810963 715.1050974826273 0.11515106875234499
0.5834553912233843 0.7619325431173889 715.100993873987 0.12474433739723939
0.568694680858982 0.7530091717945372 715.0923979532322 0.11505683638992581
0.5613702641167864 0.7517689817184754 715.0738878145678 0.1238297720504999
0.55675252163506 0.7541120468901207 715.0835826218394 0.12453502886943169
0.5481881417909038 0.7566065372605175 715.099644710732 0.1258594416795746
0.5427733235348494 0.7573789655532617 715.1121048426279 0.05822264805365955
0.5411658134553384 0.7549440562565977 715.0806681642931 0.15462768965036872
0.5931195734930195 0.7831129145375673 715.0767529822095 0.13875841994883148
0.5889500250091999 0.7859811598155226 715.1074974194246 0.08175159362773317
0.589752801776545 0.7905371663219567 715.0882564289263 0.15472939011910694
0.5589038154189292 0.7553224805382748 715.1041891089803 0.10170757415322051
0.5643331231757188 0.8412972303806874 715.106785027899 0.07815067041148623
0.5350417533091426 0.7771176523977756 715.3768346844304 0.1007723137562102
0.5304067235267083 0.7793656670109455 715.3526006128931 0.07988950767446391
0.5288966494069455 0.7786181575880207 715.3060097244726 0.09116007990027306
0.5317966027705148 0.7767442490566617 715.3168922480373 0.09543318316479213
0.531735753259982 0.7774844270369453 715.3334235073619 0.05525531576798598
0.5260864932827853 0.7805007518395677 715.2858783888425 0.07631638266256241
0.5284386346401053 0.7829450445343036 715.3869387013307 0.12427900262568067
0.5239959714643526 0.7823031027305204 715.2719280637948 0.0893610379127742
0.5238425169520649 0.7857831905607628 715.3252996831369 0.06740447068005037
0.5252151942206993 0.7865715302139972 715.3708713348367 0.07525837296223638
0.52262211912309 0.787096828745357 715.3133998643108 0.07600293186583733
0.5222764228953561 0.7908890974687539 715.3462871367346 0.07842384223025106
0.5200326360277334 0.7904493531575564 715.2858620008287 0.057100414268083766
0.5240787413831858 0.791244213901306 715.3946129855651 0.15319199017053114
0.5225654460981397 0.7953350708284361 715.3797140530191 0.08428984300459913
0.5212537687269971 0.7889672617170927 715.3016038311655 0.05906426952362848
0.5190637898324348 0.7993161512360591 715.296456153994 0.08383065136239926
0.5195367284793966 0.7989205558848393 715.3085886689739 0.058707131713587664
0.5200589770090519 0.7994727884433307 715.3213089383568 0.07149802907164203
0.5214576135331959 0.8000534982923653 715.3553034827528 0.10034356821991325
0.5220396745065432 0.8062200821681283 715.3367684591517 0.0777535579109495
0.5236460260217308 0.8054855457023345 715.3836244253512 0.1313495634189204
0.5229501178957531 0.8050026172025274 715.3693723159652 0.09491470765809244
0.5233929025876641 0.8022327927096884 715.3973302356583 0.15188161515425633
0.5212922335956449 0.8102222777576463 715.2723986976276 0.05339195649965963
0.5222630026176239 0.8090288727504067 715.3121503942838 0.06798173830664843
0.5226576902767784 0.8109260794754437 715.2963287164241 0.06955902170081302
0.5225884131832722 0.8116935820405039 715.2834203182292 0.056237236758691904
0.5246938518017206 0.8101074978752671 715.3583116045604 0.08890539147523885
0.5270448959615415 0.8155879587354375 715.320651968088 0.09548564264364098
0.5268794604126676 0.8139924806614789 715.3478203558132 0.10547800888860796
0.5307009962057438 0.8153677547437418 715.4038807204191 0.13324678004018808
0.5299558139983837 0.8200999866079943 715.2820180377395 0.09374201985930344
0.5300866668140543 0.8190268376641874 715.3092958543252 0.073447059230828
0.5363253419714871 0.8203838818349487 715.3754084576209 0.08588450145071912
0.527464250226575 0.8153804316621425 715.3341111889813 0.07749756468980912
0.5289479127644381 0.8141306946518259 715.3921688252859 0.14489019226673663
0.5287768230164291 0.8151446033092972 715.3676717437066 0.09893815179991046
0.5382254884518327 0.8232467380173611 715.323947901195 0.05653052646651827
0.5384342935543897 0.8252291119114924 715.2759053938823 0.055658373008835575
0.5394105217011491 0.8210628607701791 715.3897921282196 0.13441198495729184
0.5410464399390076 0.8234460240370199 715.3416048249917 0.06543897285127573
0.5396083881531142 0.8246317519076596 715.301315285788 0.07814342372761014
0.5496682208911747 0.8265023851995232 715.2767523014885 0.04879559371721677
0.548159936136744 0.8230819411463124 715.3662933944863 0.07090514282917197
0.5483532521140337 0.8218778811722247 715.3962998033992 0.15745935781616457
0.5520431714603404 0.8245488152713766 715.3141737910689 0.07098139698823304
0.5543283487852962 0.8222096785143818 715.3554700483792 0.10390746588407938
0.5517269609807139 0.825214630446341 715.2995269344761 0.07618539427229738
0.5448270269070778 0.8262370222280654 715.28733945936 0.06251215972431148
0.5585991625259249 0.820740080593648 715.3430790509576 0.09073067405615712
0.5577089428676596 0.8193974230354605 715.3890884621259 0.1331066736202332
0.5602453779250021 0.8205056483924515 715.3242068657626 0.09159880234119808
0.5662385396067278 0.8167631591428185 715.2947592302415 0.09106155936278411
0.5665213274155716 0.8137731880103722 715.346946014642 0.07486903253464507
0.564906457041821 0.8130705891547041 715.3974385080438 0.14761636396181801
0.5641965356771819 0.8147901513945112 715.3798884534039 0.1162230664273174
0.5688014980153264 0.8121439904804573 715.3206362886584 0.05291173098588098
0.5713557316544309 0.8105265377009021 715.2818843965999 0.07093624980074074
0.5628588663521854 0.8166975480313878 715.3667863505598 0.10743358718874918
0.5649482209944869 0.8187580539090595 715.2790081692217 0.06328560454521073
0.5647881418833975 0.8175691714204758 715.3084005303057 0.09139977946182137
0.5697993108358658 0.8037622265094888 715.3896554385259 0.11787138723236006
0.572899982821619 0.8021511248609552 715.319995850788 0.0705642021272496
0.5730898415012599 0.804988433906676 715.2987745821326 0.08003678039897565
0.5726127442110289 0.7984494742596118 715.3347996945034 0.06744229479111251
0.5709584927174587 0.7966673444027017 715.3748744185602 0.07854578456481442
0.5730050560406819 0.7923876467062105 715.304816078833 0.09955655103375964
0.5697174662615823 0.7922362050339681 715.3863824428302 0.10772851989897585
0.570863271207436 0.7917288591996663 715.3536527572625 0.07442325500888651
0.574275828825696 0.7945266665631905 715.2850730852242 0.0738578932612705
0.5713801997447998 0.8003497400854724 715.3638067163716 0.0917286092471183
0.5702212942433247 0.8084745858601141 715.3368995501944 0.07228771854202426
0.5696126952796786 0.8081683295254447 715.3556779975081 0.060268058411414305
0.571460730918262 0.785888706751083 715.2743218705194 0.0707200453038865
0.5693955217879457 0.7833761099034589 715.2856520767593 0.06927515724491912
0.5681984070968258 0.7832719771412875 715.3123782722132 0.08743635682950614
0.5604144789509595 0.7783413385247494 715.3723869853181 0.10396125099289359
0.5629449149989239 0.7762603872629076 715.2781136931983 0.07448307798466104
0.5606616990119365 0.7797980298907822 715.4026216879602 0.16896302965989107
0.5653707314292882 0.7822723372115056 715.3596961884618 0.07338141291926417
0.5662576967159118 0.7803781743966238 715.3020562645869 0.08386990869888612
0.5557309763898458 0.7752709090115579 715.3607071553553 0.08250160900425114
0.5553510153493179 0.773367175900134 715.3165298870869 0.06244998354592055
0.554700402205788 0.7740295977099089 715.3398268274661 0.08909852626674306
0.5530204317748151 0.7711300981613719 715.280630619595 0.06888717002870767
0.5520921193215207 0.7748686953490272 715.3811860332123 0.10233159830749132
0.5498116465342161 0.7749154208707857 715.3934184653951 0.12397809713490958
0.5514466081620824 0.7715908412478741 715.3024878215338 0.0774240459523552
0.5444116925327293 0.7706192274385961 715.2885600495201 0.0830356570017204
0.5408813072954842 0.7707674712173523 715.276495582111 0.04686549171418665
0.5420705492970705 0.7733802661941126 715.3487474361087 0.07611488661653079
0.5401129647616265 0.7722386824283418 715.3077707314892 0.09489899154341759
0.5426039571780414 0.7739883681623647 715.3669803179735 0.11420627197507692
0.5482844997730634 0.7721655782931858 715.3285675826737 0.08809928550287338
0.5476333889097824 0.7751401312351328 715.4041622115113 0.2030967069713755
0.5704345271770488 0.7894378326821918 715.3433560128892 0.07928787182395164
0.5712493842494676 0.7895277331289745 715.3242005108777 0.06888020640759443
0.5553938628629688 0.8209022936841339 715.37842323594 0.0802856529399301
0.5565847197953091 0.8240370619363385 715.2868239186208 0.09151571046488013
0.5055265644951672 0.8163485581394712 716.0659460219372 0.11704341050000415
0.5158056954828207 0.7927695071735998 716.0659460219372 0.15680429845327615
0.5286538234813377 0.8358099868925142 716.0659460219372 0.14611109000573885
0.5188153891518561 0.8326701516699926 716.0659460219372 0.1217423215089653
0.5270186657239961 0.8220574953955545 716.0659460219372 0.1505310666687051
0.5343893703026501 0.8103519531598957 716.0659460219372 0.19733031686096367
0.5233588530597844 0.8115081197377441 716.0659460219372 0.18372462220675154
0.5249039715213124 0.7813285278706986 716.0659460219371 0.16604141486976462
0.5283132896550375 0.7992177536200197 716.0659460219372 0.1943651601874273
0.502858587797773 0.8005491742867245 716.0659460219372 0.12403424885964501
0.5245753282603706 0.7679326794352941 716.0659460219372 0.13528178408645317
0.5141693172743157 0.7729144569601272 716.0659460219373 0.11400127893049383
0.5348875284759701 0.7546624089510758 716.0659460219372 0.10936160382214744
0.5421897758296819 0.8373668961595877 716.0659460219371 0.16494088904407447
0.5490521600968763 0.7988357456532962 716.0659460219372 0.20324124443178918
0.5584059868317168 0.7922573832449379 716.0659460219372 0.16803590132536927
0.5435926759611246 0.7884716334172905 716.0659460219372 0.1931695480560535
0.5719265328458083 0.7930385977498244 716.0659460219373 0.13594787638002456
0.5699013695101541 0.779729492649808 716.0659460219372 0.14615401270723177
0.5438046288431583 0.8231170625749951 716.0659460219372 0.18681241427804438
0.586726144507581 0.7802586979752217 716.0659460219371 0.09576346631040034
0.5476865540930751 0.8099880097992098 716.0659460219371 0.21674066653244123
0.5471986908313282 0.7774619587098847 716.0659460219372 0.1709652980793562
0.5398971046546843 0.7663458932192181 716.0659460219372 0.17219566191058416
0.5577886957247188 0.8230157355344793 716.0659460219371 0.18681824674133887
0.5740211839764049 0.8032474197518695 716.0659460219372 0.13755660735837974
0.5660878830481625 0.8140373720141667 716.0659460219372 0.1480058679037354
0.5637927757038994 0.8402178532605673 716.0659460219372 0.13864348674731347
0.5739966265120979 0.8341654007609833 716.0659460219372 0.11436325892326853
0.5747299525971702 0.8210533082080829 716.0659460219372 0.1401817199086161
0.5897333081257583 0.799569996143918 716.0659460219372 0.09216300464499234
0.5601988608054924 0.7551959217945108 716.0659460219372 0.126994386333366
0.5666015643128596 0.7656480207665508 716.0659460219372 0.15824080669998494
0.580628316141805 0.7699441833191284 716.0659460219372 0.09440531727871837
0.5562402685392449 0.7728948333584803 716.0324059535872 0.14796335707575275
0.5673250280488649 0.758975913397165 716.0421739437525 0.08218056501677228
0.5791869471945332 0.7702375255881027 716.0393259736759 0.09213127811912124
0.5655805922963244 0.7845898487028292 716.0315173765665 0.1645831241625029
0.5761949173272609 0.780817969300013 716.0347503031873 0.14405258577364938
0.5860903525047372 0.7771148062019992 716.0434625682203 0.1438875844103311
0.5907210090171069 0.7895415728713812 716.0448775965921 0.1171065089774423
0.5769909369023714 0.8050665043698526 716.0336429360087 0.13926060491923414
0.5869463457076636 0.8099066634661936 716.0384971968743 0.10427837891802202
0.5715308015121768 0.814598981765501 716.0331966573804 0.13248783858410104
0.5838969073107897 0.8214195058133665 716.0404567454854 0.11668847057817643
0.5585839152077554 0.8097362831841799 716.0303212966539 0.20248651495930634
0.5749776287075494 0.8311082723832828 716.0397042307848 0.10324333981876503
0.5636732928179614 0.8298866401161538 716.035336115081 0.13522001880928974
0.5653032502749739 0.8390279918286047 716.0428918029172 0.0989265982641511
0.5528874667557977 0.8236254936880739 716.0321185696787 0.11327486050598382
0.5534819337291488 0.8340160931260131 716.0355287228356 0.13226565990823322
0.54081754168614 0.8340831835635696 716.0354880534733 0.149330226716805
0.5389496668847774 0.8193024466849642 716.0312386217273 0.14104726218581587
0.5299948431002145 0.829799278826448 716.035207955131 0.10505015514922662
0.5282961499850913 0.8393170066581197 716.043706416298 0.1050788005839611
0.5248121261720589 0.8181203276467197 716.0330902985106 0.13313461363311022
0.513738310983051 0.8252269853552576 716.038806093518 0.09769727218450715
0.5197572744389303 0.8089600112201627 716.0329081090596 0.15171681706191603
0.5069122568643771 0.807329446492739 716.0376678267933 0.11180980642474739
0.5216120155718686 0.7971693658592187 716.0318815366908 0.17256860874503754
0.5104487607886344 0.78586520430541 716.0364357456549 0.09556047606237211
0.5221241589282337 0.7832645054239894 716.0328839229002 0.15506203953093678
0.5156565168077014 0.7741815441457138 716.0369525324509 0.07360583162481582
0.5343124399402713 0.7866725419524986 716.030382307508 0.18190650886043253
0.5353143547020565 0.7608560020728614 716.0368887103256 0.09309849482418076
0.543534869342089 0.7806447585720884 716.030521806347 0.09910985662662304
0.545354012144203 0.7673598014765961 716.0336206198067 0.0930528165833001
0.5530631647980602 0.79747883001778 716.0296504941283 0.22656821872783503
0.5530099831915731 0.7536142920684823 716.0558984377649 0.142685501915175
0.5686059222031016 0.7589354503968572 716.052618044494 0.12634120390984693
0.5832240662998358 0.771860066766299 716.0557766851825 0.14960071284725837
0.5894749191347726 0.7841151243326157 716.054036164852 0.1392915900725785
0.5916018861928335 0.8009335380233179 716.0495655738923 0.13311975149931138
0.590723548595206 0.8087148645018665 716.0602686545283 0.10029203884380926
0.5863239883989971 0.8200309259859337 716.0553964657428 0.11054507669406263
0.5777630491905188 0.831172272556943 716.0563631567579 0.1513967106124829
0.5592711343491605 0.8418099216912979 716.0554800711641 0.12977097877373983
0.5515617239601001 0.8435627353602113 716.0650373361475 0.12911247511068927
0.5482293558991584 0.8434353800167942 716.049805167446 0.16605370913002893
0.5458380483509745 0.8114611148791324 716.0298973052711 0.19151827366367383
0.5336954018859859 0.8003663453770065 716.0298953654053 0.264695307508348
0.5357342005828438 0.8422064194331805 716.0529537288916 0.1688159884700792
0.5227051620920141 0.8367045673415541 716.0530261212041 0.14603816052926846
0.508783892680436 0.8230517384418031 716.0512704832296 0.13171061427121913
0.5030022143017786 0.8105074194744878 716.0564916022969 0.12468891916743842
0.5015551515812923 0.8001223076126489 716.0492377957814 0.15124101835576811
0.50356524423171 0.7847204269091371 716.0512110292449 0.1252251675726151
0.5028700183997663 0.7862389189832821 716.0623137984983 0.13612065733945033
0.5097605295871506 0.7723160433919334 716.050998693391 0.09141159668896735
0.5227999697436517 0.7601001849172562 716.0489547886457 0.15465403310082917
0.540422594392273 0.7537738278006874 716.0472604499547 0.14080001013743376
0.5326357729186193 0.7553683848787425 716.0548980573162 0.14328353046195225
0.5300404607717351 0.7868624656621322 715.4694309157361 0.1431480896131445
0.5327004685442853 0.8043596644066515 715.469430915736 0.2655485532808522
0.5428430751195826 0.8100676859750453 715.469430915736 0.22837154680756117
0.5447801382011331 0.7755534437112671 715.4694309157361 0.08033079422914527
0.5585441330011263 0.8149664885356536 715.4694309157362 0.15897782485522807
0.5595436531615844 0.7973733811602959 715.4694309157361 0.28009352406295646
0.5668684321075582 0.7886969449655465 715.4694309157362 0.20679263068345538
0.5461646691368472 0.7892132297896679 715.4694309157361 0.2267755327092047
0.5426408740533577 0.7932707193184292 715.4044309157362 0.28883143021520363
0.531560310024265 0.7963114644892546 715.4044309157362 0.24814983665924256
0.5543704343463314 0.8044397999019224 715.4044309157362 0.28048481881072135
0.5474118652228271 0.8212694209577809 715.4291323649588 0.11858822281141766
0.5484639805663877 0.8213130659444603 715.4130643350533 0.1385635789338666
0.5476193671736151 0.8212780287781434 715.468436380519 0.09163500767141952
0.541491805838968 0.8210238386511155 715.4504794806629 0.11768450166960162
0.5602846751984709 0.8167744883551751 715.4245703940865 0.14153830084017477
0.5573067053622678 0.8186996409865 715.4363701926356 0.09007378968005682
0.5559602714292098 0.8191930195156385 715.405359190429 0.18149870322112047
0.5559374999686815 0.8192013637421363 715.4558125041128 0.13126334050378627
0.569492534759305 0.797416501246093 715.442850971893 0.12379373162462862
0.5695239302918779 0.7966596938387598 715.4615507162998 0.17360946021840115
0.5610440563865002 0.780531693430716 715.4247623143428 0.11591862589458093
0.5652477955406988 0.7849574331531075 715.4517629084805 0.15550926344303617
0.5603286769254628 0.779778534592558 715.4682008323084 0.1461299227823178
0.5674596576766872 0.7891472315063304 715.4112000072599 0.15759660393793357
0.5685009096346282 0.7919888049876473 715.4339407665495 0.10391411548431359
0.5691313845144464 0.8039048742375113 715.4085789372551 0.1606658610109471
0.5667025165072905 0.8093669593248896 715.4171374971132 0.190445604826967
0.5686359118783699 0.805019102630633 715.4307802360155 0.10630874845821559
0.5666498446143724 0.8094854088906892 715.4615029579915 0.12262978511313102
0.5661178283043344 0.8106818174006366 715.4410205398034 0.0950534205258299
0.5541797646895661 0.7767560501682732 715.4358765559824 0.08917346158057785
0.5544663614672842 0.7768834932645635 715.4580196127803 0.15319212472792787
0.5354486853629058 0.7782147111473783 715.4452666791896 0.1404492497052716
0.5256812265433966 0.7892003921627925 715.4201857371938 0.14294590623310793
0.5249456651421742 0.7908545378778519 715.4536943758333 0.11933913703097371
0.5307763372075566 0.7820025389453764 715.4062090077388 0.1464556039870044
0.5317889259034149 0.781040740053542 715.4275964704639 0.10290589539908988
0.5314945629818337 0.7813203382091722 715.4578976225932 0.12302366065508706
0.52553094503288 0.8070651314453167 715.4221886952872 0.1340543573436381
0.5254116889701708 0.8067396810763066 715.4087095182326 0.1645928575645847
0.5236154372360091 0.8018377014499736 715.4466816702815 0.09047154028840607
0.5395297277632966 0.8202304278875109 715.4192540985648 0.12838330784613583
0.5296915016619863 0.8136399983511113 715.4352123248086 0.0914510135338971
0.5302419317723468 0.8142194969051798 715.4566198207108 0.11726245785906661
0.5238463011012721 0.7957399201562451 715.4321575378177 0.08477136627112095
0.5445966494500369 0.7760702204553552 715.4176914402219 0.21155464359566375
0.544152490443281 0.7756813695327283 715.4538324079316 0.13144821234364434
0.519659570001004 0.7708372922995694 715.0799309081067 0.18761710060658165
0.5195475212502656 0.7863370664769385 715.0799309081067 0.13324034102878238
0.5418233755935061 0.7758397442068868 715.0799309081067 0.11502959596192257
0.5397304809717488 0.8215832808376957 715.0799309081067 0.11449657269072122
0.5519019814143468 0.8000976392798782 715.0799309081067 0.039918975188247094
0.5678958803048644 0.7954296270169742 715.0799309081067 0.09536856046471931
0.5757605600439244 0.7675300520252937 715.0799309081067 0.1705860076113704
0.5544583279443032 0.8262640478086299 715.0799309081067 0.12424344906061816
