x y z curv
0.2768087629544769 -0.06173375715590007 0.060009012557126915 0.23288521646258295
0.306800410910314 -0.07298469367138047 0.06000902092767207 0.11440779430858648
0.2760224596753511 -0.07686807471733562 0.0600090337307488 0.1565760006901671
0.2653478200667116 -0.07260433754439363 0.0600090304765514 0.12150109489049958
0.2917855909648618 -0.07618333839633597 0.06000902772390422 0.2068653247194775
0.26740401187939766 -0.08232223435892537 0.06000900180508459 0.10735487916852245
0.2910960696922098 -0.07916269431754175 0.06000902516493386 0.1853418023460897
0.28902979061124434 -0.09016937308680513 0.06000895295608076 0.10555197839771845
0.29958013958438295 -0.08914871313440385 0.06000893795531252 0.10063472059295964
0.2767260616173818 -0.08836019151885019 0.06000892350952183 0.11323434358994613
0.2859574576881558 -0.051019182008442555 0.06000901864517824 0.22417023880324402
0.28270616519562697 -0.05006750109844354 0.0600090181783338 0.194201716377108
0.2717747974747387 -0.0518623008197792 0.06000901492450668 0.12619206750889306
0.2999398472056771 -0.04794528991275793 0.060009015514484086 0.1281225882990381
0.30097335383364665 -0.04516066934259438 0.060008977480457706 0.10862791166374515
0.28577819438550633 -0.03721816173689103 0.05968685448561787 0.0966148495113115
0.27990085990191316 -0.03834479797327602 0.05062465414207765 0.10053396770119545
0.272457539300069 -0.04201003339588692 0.05358344150594562 0.11470010110450762
0.2649596004308908 -0.0497196879606781 0.04919315326929147 0.12201516433137836
0.2619856336037841 -0.056095059154010064 0.05973073674812304 0.10556977158562031
0.2607517391577909 -0.06185783332271223 0.04988077971015857 0.11221774602823052
0.2610831915165395 -0.06932351011979626 0.04236536294472947 0.13270719383512464
0.26435146573339385 -0.07833134007725477 0.04291674664570671 0.1317379826510611
0.2618850755081534 -0.07276417391502575 0.05243187665816796 0.11572935210171437
0.2711936711901205 -0.08627796032141109 0.04396419272563953 0.13321001547264863
0.2847397119773336 -0.09181942033369893 0.0488945138150334 0.12645353280626587
0.2835065038263804 -0.04772647797991067 0.02959853246612873 0.2154010329907201
0.3147963181493116 -0.05817430721642011 0.014888380333149053 0.1503599462750512
0.3151359655433812 -0.06020971607843196 0.003878696151840771 0.1624429470939176
0.2894051666075762 -0.03820924698152042 0.0018332344225598328 0.14654419730930787
0.31012816243889235 -0.07927684762714102 0.000220286183994223 0.1653290863317845
0.2776437405961738 -0.0392297912785244 0.01659996255809374 0.14098253992753593
0.27849464812052666 -0.03885654961171766 0.0018957896161033664 0.12559310989987216
0.2653928162785596 -0.04910736240374546 0.004004207165444905 0.13683498556517917
0.260742397454529 -0.061897399707900036 0.010509151750415717 0.1399606019905119
0.26387377108568644 -0.07743169622681086 0.017832025276384108 0.165279774538909
0.2630636337925112 -0.07593469565399323 0.0013360638122937752 0.1562406700859346
0.26916254249889987 -0.08441446561438493 0.0015723098772912106 0.15643654968313994
0.27907997020148584 -0.09055765029059425 0.0006191815013514407 0.15395257208689228
0.26194150251982484 -0.05715751341595621 1.3204151784450295e-05 0.13672614025938862
0.2895062374396625 -0.09181278051214274 1.1578473060399935e-05 0.1458097077663589
0.3008278648918438 -0.08891368931588034 0.00087557914585736 0.14762951669481605
0.29422173027444487 -0.09129458834221578 0.01289294553931744 0.14330302301237585
0.31461465903905395 -0.0716903200207904 0.0074554997078476746 0.1630958062982482
0.3153674160026837 -0.06756066555426327 0.017421592200863367 0.15455190867694235
0.3118848625780413 -0.07817333339084842 0.01564743073106081 0.16660504789010033
0.31004366977610864 -0.04817781681027249 0.010262505494380365 0.14670170893148823
0.3020126564739961 -0.04094468092780581 0.014003834380976405 0.14508342957645987
0.30027901662684886 -0.04000301121924672 0.002425858151951132 0.14771028220257826
0.2753622673515617 -0.08891848771530536 0.018509015249569223 0.16024051792108232
0.29725650068433007 -0.04969459259091607 0.02061197969740519 0.2240304386709246
0.26993212979517733 -0.04469107880500271 0.02151048128403146 0.13431141620258252
0.262347342665211 -0.06819644953507849 0.021509496519686932 0.1694025880064898
0.28493941457961436 -0.0917755866280355 0.021709816508937867 0.12548658348045338
0.3062118065467717 -0.08520212224438756 0.02263542294512524 0.16388402561351964
0.3124979396143696 -0.051851943983981345 0.022987743251258828 0.13445287013220908
0.27014290125187246 -0.08124248694681546 0.023508715315408824 0.15235770578046975
0.2897489118228275 -0.03906459675266008 0.023508614247789855 0.14616052205841223
0.26358939449344254 -0.05297806076256442 0.02350902268209915 0.11526438926711206
0.305549856355833 -0.06423986709030426 0.02577278357998526 0.23833150360687858
0.29785971671746536 -0.03924029610736119 0.026509161553714237 0.12115485021758206
0.27345357600198705 -0.05314406212338037 0.02650884649199909 0.2089487826790639
0.31259279024113323 -0.07344647022946069 0.02650990910533662 0.14993272362311155
0.31496596485988065 -0.05934376013224437 0.027934133533698804 0.13768252662360286
0.3022073449030267 -0.07560020741159748 0.028509065537246168 0.21228563833691957
0.2705028306438874 -0.0634109532205824 0.028508625990638085 0.2142147374592106
0.2932695645208565 -0.08124513498737383 0.028716239284221817 0.21165129354422338
0.27138024562915486 -0.043779826867370676 0.03150859630572298 0.1356784509586257
0.26164629148656143 -0.05707055396624239 0.0330036339524422 0.1093250245201581
0.3031155469018819 -0.08742537062109225 0.03150960896563737 0.13826596231611799
0.27511237437490926 -0.08806808754907494 0.03150883456195651 0.12767296647654497
0.28594163104226084 -0.09137609843436137 0.03350902070221348 0.1307094110237172
0.2646891412456582 -0.06816961478740044 0.033509137559558456 0.16187294942970856
0.30455215731947305 -0.04550167518170597 0.03350814945737234 0.13595398498765893
0.28851303279646545 -0.03766325061558927 0.03650968392838491 0.12466578227827488
0.30669945684446526 -0.05893472143002744 0.0365090160596175 0.21006482786641373
0.2650481721138083 -0.04964932295556993 0.03705770280575379 0.12300553482357898
0.3151423887877229 -0.06719389588462958 0.03650901617176755 0.14124817565847264
0.2972958758986101 -0.08966125260744784 0.03650904216686018 0.1389402508531956
0.2761805519153023 -0.07782331932752629 0.03650844848770125 0.20539644318455502
0.31138272208507456 -0.07912470285855842 0.03702037626921834 0.1306855663823921
0.3052431216625321 -0.06820988712369742 0.04100674210630024 0.21424809604428838
0.2884813749755525 -0.04711846962848202 0.04056463909162901 0.21501358487314387
0.3014119207994522 -0.0505510756196991 0.041509010292588695 0.22674125841169268
0.27873249788264426 -0.03905073128458354 0.041509009911975564 0.13788542981606886
0.2751230540212055 -0.04804852158602247 0.041509114029969395 0.19280282269392937
0.27154545814156666 -0.05759900989759409 0.041509082693312306 0.20357818539570152
0.2909243488933124 -0.08481750462999026 0.041509171101780866 0.20645036961902224
0.2709490218108443 -0.06872967645674412 0.04150893503368841 0.21402594143235765
0.28182538055943823 -0.08316509914867491 0.041509047973325226 0.2108769661352305
0.2946964369187971 -0.09120642671670375 0.05078018421907675 0.11061454532720738
0.31445784087386264 -0.07219814610415892 0.0475981561703127 0.11490904178956299
0.3074422765983097 -0.08401976384752347 0.047603333193472375 0.10059462529663718
0.31551698622413865 -0.06549715070790929 0.05664544339584957 0.10428927995518485
0.3152982111235998 -0.06107735408637191 0.04506446461701767 0.10929041610456913
0.31127977196498197 -0.04982300561316911 0.04508268910419504 0.12413637279209014
0.3142079196454438 -0.05619599450208117 0.057247685753903085 0.09942755139391589
0.3034470037898421 -0.041848562863300694 0.04694309432825853 0.11454926750279601
0.2914438622891472 -0.0373355442890416 0.04986236780778384 0.10564692914585318
0.3106359927797577 -0.0489824884889576 0.0568809477266009 0.11580880570544883
0.2885058606263121 -0.051194573398983645 0.0165090188384056 0.23210343799473948
0.30469948683191705 -0.05427053422147727 0.0165090188384056 0.22078708284193613
0.2692075268098255 -0.06153153792581101 0.0165090188384056 0.2031412310907019
0.29681549894689446 -0.06093664058022802 0.0165090188384056 0.2638709607809923
0.28162924310716575 -0.05972863915455151 0.0165090188384056 0.25753420672348315
0.2745056657364311 -0.07096207379052898 0.016509018838405595 0.25069244894106035
0.28583241991337827 -0.07092782734677089 0.016509018838405595 0.27516102530531755
0.2909675603678259 -0.08177744831788547 0.016509018838405595 0.22594607285046678
0.30117127843321473 -0.07117737239657436 0.016509018838405595 0.24708877743873423
0.29047834866548966 -0.04177745788882971 0.013775028320085054 0.15799891465926255
0.3007812013110138 -0.08366040411648752 0.011065337283480298 0.17813337220710307
0.2835182852466507 -0.08706851748782779 0.011058151097300224 0.1739312959441318
0.26638651900300236 -0.07198059604811041 0.0086302083811711 0.17096674982715337
0.27290954378133647 -0.08176829837753166 0.011558665052133968 0.1826243677519915
0.27224142940757007 -0.04800419617585684 0.00982848025039606 0.17104473384896213
0.2675544083064736 -0.08274683953318586 0.03342336895598183 0.1271572756168609
0.27260400210649743 -0.07276491793059808 0.030528867446631573 0.21117451380679755
0.28158812333067235 -0.0378940406575415 0.02833744916584657 0.11678634506198897
0.2818838534658323 -0.08097669345942833 0.02612466135933176 0.21499700455532406
0.31021157692280904 -0.07913455448794042 0.00011404500139889085 0.16822554192993214
0.29771983933571805 -0.09008538626587956 0.02189487773959369 0.1384646943191829
0.3065966796352493 -0.04435553262399356 0.023158293870873557 0.13396108862274073
0.29387552092483904 -0.04813600551834394 0.030936813721277615 0.20734699156580016
0.31186919615721764 -0.05075895886003852 0.03304142711751289 0.13292071938303276
0.2999680068083864 -0.07738933178436035 0.04115477043099163 0.2072579618235568
0.0727083417265931 -0.058204633549903795 0.0600090126010601 0.1998685464970624
0.04416134388359218 -0.05208235224723284 0.06000901715596567 0.1753820687327618
0.057889547590000055 -0.048648985019655075 0.06000902079589498 0.252345808719284
0.04278187981871141 -0.06190755317441551 0.06000901087783568 0.16922174686055597
0.06916287614022153 -0.047877740647029744 0.06000902549313923 0.23042146457381552
0.046416597661906776 -0.042886145898799514 0.06000902608673198 0.1519440871299759
0.061050927963337366 -0.03754280319429137 0.060008999632120245 0.14204014252119954
0.07546236057165738 -0.035394752316048037 0.06000898575183039 0.10265069531959725
0.05415291093719263 -0.029137880255387164 0.06000894651284512 0.1158914243445198
0.07173092316189492 -0.06875254813973888 0.06000901622163711 0.18376723118103475
0.047265083283772144 -0.07111602383065828 0.06000902294653434 0.14102979238440835
0.05820963138957069 -0.06774326051822012 0.06000901915740239 0.24326922629682945
0.06598930681412205 -0.08028954757316785 0.06000895757984169 0.09859633889736376
0.05573782377740708 -0.08211595718003235 0.06000938075218075 0.09456703149967759
0.06408404860579424 -0.08258308745576216 0.04471743798964941 0.132512059306303
0.07385966249612584 -0.07911352239602443 0.0521932662139333 0.10820985498509961
0.08312544584605358 -0.07011731042541014 0.05633783373886614 0.09231417735869528
0.08386726669916059 -0.0688201300449622 0.04732041980015871 0.11361187939986941
0.08682301476853141 -0.06120235054800442 0.058610751748903046 0.09216674832706663
0.08674160563681067 -0.049597860404126164 0.04342417084025094 0.14063707697566274
0.08737036949846907 -0.055840269163488006 0.050254548838122866 0.10982158436741318
0.08585735235887074 -0.04643631617884776 0.059124369221295596 0.0985603479007209
0.07554888646843648 -0.03288441831876441 0.042893188201928494 0.13348519274339615
0.06519866397322782 -0.028476583719380777 0.04357971250866613 0.1343858960560351
0.07110701595702212 -0.030369681986093685 0.05151485744162581 0.11804913149389165
0.08329545598440921 -0.04093062331946905 0.05207349370629235 0.12506064270358525
0.06308196602160811 -0.07345499976469655 0.0415088618348695 0.2109775428816439
0.059604058260772204 -0.08246701398851727 0.0335091205538972 0.13928273807321587
0.04166608406589546 -0.057932649702755 0.02350899073519525 0.21319780977652625
0.04026218939404573 -0.07374288407568935 1.8575634555531903e-05 0.15377114091078256
0.060670019524613844 -0.08285657352353462 0.0018913447252669703 0.15193256867874977
0.06907344816521649 -0.08133034369216899 0.010608495877237743 0.1559418473736974
0.07997901823048433 -0.0742035769714925 0.013572412535701994 0.13410889330762418
0.08543144662705178 -0.06551082570646122 0.0030498485704476574 0.1498330076851582
0.08627777906814878 -0.06304555194282674 0.01426981035581331 0.14168922312547222
0.08691008383089742 -0.05065494069348654 0.007220492924251825 0.1367446622824946
0.0854747020639077 -0.04545261879865392 0.0006914570277161013 0.14527463212471006
0.08342932288342458 -0.04127800518463084 0.012089956188721312 0.15140586632787584
0.07514934733840739 -0.03263185235759397 0.013276601799365602 0.133353729702274
0.06684738511075497 -0.028901814991343026 0.0008083029863513833 0.15370701728037744
0.06393610859736618 -0.028251508798958356 0.011379850938526158 0.15548721409688263
0.033312354265208406 -0.0528655041457903 2.0743784211878054e-05 0.15423639472217385
0.0803994442503891 -0.03717045090935728 9.563098840786058e-06 0.15549447618643458
0.05017598754843161 -0.029766144031106 0.015321756941028563 0.14297599829338925
0.04637998512451752 -0.03152815110888858 0.000763489952169855 0.140145620676195
0.03878231324192096 -0.03795657762722873 0.012860660825777599 0.1524540226779592
0.03488326274058457 -0.06673704197134045 0.010423124616949777 0.1586704663132634
0.03359216161503714 -0.06313277945203037 0.0007041681983936494 0.14660977570649694
0.04955034102229827 -0.08079687003572233 0.010603827638024617 0.14859389817026122
0.0425015515226887 -0.07663440470113436 0.01503330063018968 0.14040847925813668
0.04147118016035101 -0.06541770600732283 0.01851041345688338 0.20114245157165211
0.0754209620371384 -0.06572431756242042 0.018509649279986048 0.2245123804239332
0.06761407604694335 -0.07653525066113183 0.01850905970633796 0.18420824731251684
0.05413153542728885 -0.07180933440918119 0.019272852600217598 0.2308627309215074
0.033051906652057796 -0.055729332760643555 0.02150902222018577 0.1332624487976765
0.07560487148324566 -0.07784455622013817 0.02176203465091395 0.1393016497304303
0.03447928745217111 -0.04564474802282456 0.02151105056089076 0.15479633262066347
0.07059890759017343 -0.030865798566737043 0.021508548326078382 0.1473945633678707
0.057029486270099086 -0.08262875235544467 0.022675898171842825 0.1359628080689535
0.04613903764522084 -0.043079737950370005 0.02350896825946705 0.20409766207337598
0.047534115576153474 -0.07912427782297936 0.023506580846550124 0.13644811426796524
0.050703848027333645 -0.030272451778053617 0.026508629876216667 0.12925088692320652
0.0795280442369379 -0.0521960021736936 0.02650893254622816 0.19794735289953627
0.07044753713937357 -0.04100556202659952 0.026509323384066637 0.2266735285745914
0.06076158335387016 -0.030907137255859134 0.028508677827210335 0.15310876016719827
0.07584329329717845 -0.06252583520692395 0.02872610410891784 0.2080834488281379
0.07850692648835161 -0.07296518318587057 0.028509228893990463 0.13809760991855588
0.06786009997394517 -0.07922870903957756 0.0315089643804333 0.15064800175925275
0.08728959828475069 -0.05467245883837305 0.033067173464427176 0.12117241482824687
0.07964979644597137 -0.036930813681057856 0.03150806569967176 0.14677832513678277
0.07330918717141084 -0.03135100502464705 0.032960796205147164 0.14507211633905664
0.032806055764337864 -0.05107706694328076 0.033475159859499434 0.1355814029480739
0.04121263047942407 -0.03709712536414093 0.03350909991235775 0.1375907809779386
0.06686820091199054 -0.039431870068190114 0.03604184371931136 0.20237203919464855
0.08522423710551467 -0.04473928084442891 0.03350825808958618 0.12671564525322043
0.07631699976265205 -0.04958626361286669 0.03432699043980918 0.21905482752046276
0.03342831365358619 -0.062049373041323234 0.03350865335441655 0.11702406286684897
0.049494130586707555 -0.08005405696383901 0.03350679760582791 0.1325251336871342
0.08537007712455977 -0.06552796318950041 0.036736771899972626 0.13252735556884046
0.07486837325624492 -0.06430728318808415 0.03965290657064789 0.21469271702864964
0.04472558618935574 -0.07682140223871671 0.04150901466352717 0.14255344763418779
0.04304550854408789 -0.06233884449155082 0.04150901734828947 0.2244432570377898
0.08007585958541641 -0.05543520575643141 0.041508626001865105 0.2098601916266885
0.0436436307856704 -0.048694131766594186 0.041509017805115726 0.23380554134212997
0.04989766257282044 -0.02996944977675345 0.04150901950767882 0.13791048905735057
0.05886980281311116 -0.03649311172194106 0.04150889443680616 0.20287303800748352
0.08160969855048275 -0.04075494087082031 0.04150901843497719 0.16656958380179765
0.05946322915013142 -0.027941763583026736 0.05216897748961306 0.1119408112987531
0.0427188834686343 -0.033975819661539 0.05993862704845429 0.1024807480465217
0.034297100324594064 -0.045476309934267926 0.05779902282905558 0.09825835546551248
0.03569207188271867 -0.04259337071986804 0.04254647581364866 0.1484270701178989
0.041970964498554336 -0.03467195056493395 0.04899473378531986 0.11071445957914737
0.03283604495351414 -0.051058477265897885 0.0479256079365073 0.1292972025926015
0.032525957735326655 -0.05751678108678421 0.05766183131496918 0.11031840842251486
0.036096454158099193 -0.06918606552296709 0.05872904067888245 0.10946562859156674
0.03402472455395038 -0.06446130892790204 0.0478889662206836 0.12109798686684364
0.045296806534190756 -0.07868662146294682 0.055752653952349324 0.11857795049364944
0.05513852817452085 -0.0824754638098835 0.04903871763697529 0.12767814250079002
0.038815114804660156 -0.07299656581717721 0.050773007064978455 0.12468676887148437
0.0666336596150422 -0.06272566074801325 0.0165090188384056 0.2626835710143073
0.058262234520936165 -0.05953535311867682 0.0165090188384056 0.2791175565741036
0.0616584798564007 -0.050137493930079574 0.0165090188384056 0.26481153105208616
0.071144399683408 -0.04217027296679296 0.016509018838405606 0.2244274937067917
0.07642295978822645 -0.05307163300549213 0.0165090188384056 0.23117448969551124
0.04765669223236039 -0.05068869160065586 0.0165090188384056 0.27098450407712427
0.06095600178250276 -0.03708227161800839 0.016509018838405602 0.21285744160322204
0.03727112644850919 -0.05188596935627496 0.010844772927653462 0.17664427574735853
0.06020609868235274 -0.07839501736988762 0.013603830931074149 0.18179472047276776
0.07251792082469351 -0.043285689352825105 0.04140311059554397 0.22137659236459378
0.07682201741811168 -0.07709455673345929 0.038469625973326656 0.12331650285046226
0.0682531908547131 -0.0706334626992726 0.031460503958716406 0.20838775400147247
0.0870456113540785 -0.059421338747771286 0.023070467384612443 0.11760262637735437
0.07909798941596582 -0.035664186882412546 0.021898706737405932 0.13514020169657237
0.04308187729928991 -0.03377611776312557 0.02329425845453128 0.13417289439650723
0.036614526576058515 -0.06995072015437108 0.027395664338576577 0.10827137356177452
0.04303369736549482 -0.050898297502100856 0.03086699241163889 0.21981130156362186
0.047702195170214186 -0.06785316454909503 0.02933931530429215 0.22069738429070723
0.049559795832938854 -0.041460870837070125 0.03649153796417881 0.21124556650680187
0.05556393849218865 -0.0723775881431206 0.03416644434781914 0.2107039363591184
0.05124719042673119 -0.07686995978821314 8.097466382718293e-06 0.13974241525373438
0.06076963778214612 -0.06371726250055124 9.015202522266128e-06 0.1598733190483598
0.06781370005968779 -0.07238186496886584 9.015202522264535e-06 0.15054891973665854
0.07134722347710049 -0.044592591480518036 9.114638374805636e-06 0.15748173590980158
0.043137513248164616 -0.05741518943145698 8.877236943926835e-06 0.1662347395834024
0.057096434824281284 -0.03194586850030039 0.0015789404126045922 0.15342269915034154
0.062269221317368784 -0.042214023432008474 0.002009249203684881 0.17873545028124355
0.053025399704107634 -0.0430940745087397 0.0020092779236236475 0.16672462259821283
0.043514257026959643 -0.048981450350092236 0.002009109882214742 0.17699624777996453
0.06428338203537003 -0.05274537075587785 0.0020091877763973548 0.1979678806031827
0.0729848262567311 -0.05284881093844789 0.002009111167135954 0.178368121491456
0.05281975378073771 -0.055030102416669203 0.002009245670157297 0.18639162768155845
0.0765020944998353 -0.06399577562274739 0.0020090192556381113 0.1714383134948435
0.050703849676875926 -0.06776946635824846 0.00200901925563811 0.17150847030448077
0.29036828967725836 -0.06144640427136469 9.015202522266544e-06 0.16385302928890352
0.28510943895452023 -0.07290602434935477 9.056033047690621e-06 0.16794644590666316
0.28177142098413566 -0.0636940617982583 9.043489359238735e-06 0.1712270082836004
0.27420100015121657 -0.07426361297137701 8.9276199447852e-06 0.1686180636221647
0.29253562366339625 -0.07920012607898307 0.0020094626497457065 0.1794868240652421
0.2996862360397027 -0.07030871724799392 0.0020091325649460273 0.19673822914482156
0.2728062208101749 -0.06523757793331583 0.00200909338792607 0.1678770245984257
0.3008583834421533 -0.057084838210590697 0.002009019255638112 0.16708454838853712
0.27539330993351374 -0.05675279107925504 0.002009019255638112 0.16762201463026577
0.28159980569626364 -0.050019321998741026 0.002009119167224903 0.17417195064915134
0.29320474288245396 -0.049310280829077145 0.002009070567055937 0.17216736744176753
0.0 -1.1891267859235582e-05 0.10979002705745544 0.11169403651091951
0.0 -0.00010180386454710874 0.13338560486894613 0.13980294545151228
0.0 -0.044313225260518826 0.10897512819221956 0.08860233779721553
0.0 -0.03021397316291252 0.10511960128616119 0.08862415600547127
0.0 -0.007807993022863759 0.11516213236177278 0.12340891654884932
0.0 -0.0887825470113988 0.11215773550611295 0.08729824693724142
0.0 -0.006204964501102502 0.1249559170741756 0.1547522707450191
0.0 -0.07709526900220039 0.11747345107711339 0.07543396473153513
0.0 -0.09939880038987702 0.10599227103474608 0.10232545463069058
0.0 -0.06410581042553325 0.12009676342853542 0.07811518851850738
0.0 -0.027201377121407022 0.13028759965983927 0.08474956465694226
0.0 -0.0183768917681025 0.12087579090741232 0.1091668191082566
0.0 -0.06739462417019498 0.10701083646055333 0.07926084148299599
0.0 -0.11592892807095334 0.10648614481294562 0.1053020306508743
0.0 -0.11831001130997088 0.1171754971954758 0.12986200444290386
0.0 -0.11100408896627366 0.13933182727479204 0.12208722117369433
0.0 -0.039524390851945354 0.1389995721735753 0.016814221456533662
0.0 -0.061137061972678604 0.13917185536262972 0.01576648843259879
0.0 -0.07784725535663337 0.1389924612324517 0.028187082072214608
0.0 -0.006317241138114105 0.13988543407091802 0.1248400304078807
0.0 -0.09774066412828589 0.11992321082672981 0.12661745196254692
0.0 -0.05625390318979854 0.12989884092428577 0.049279303220336794
0.0 -0.10442392818490823 0.11305670982630624 0.11918445898960775
0.011484423761999702 -0.11999999731779101 0.12136650344176911 0.12421244964951926
0.1910802599640318 -0.11999999731779103 0.11357510976554056 0.0705802374117472
0.03113814698354155 -0.11999999731779101 0.11847892711571612 0.07568497580432806
0.06375200151911645 -0.11999999731779101 0.13358327264202893 0.0597432135345608
0.03871235154390779 -0.11999999731779101 0.1333584853047385 0.05214253015052796
0.120026217926688 -0.119999997317791 0.11141026991418841 0.07097091314734678
0.01843140799611414 -0.11999999731779101 0.1336454063506722 0.11636673832348138
0.020249627323969236 -0.11999999731779103 0.12280413434478882 0.1181448906651212
0.06269459447444463 -0.11999999731779101 0.1189133381298321 0.09256042404127557
0.0723013416285904 -0.119999997317791 0.11250224565321508 0.08590169606765735
0.22352476496057672 -0.119999997317791 0.10751432372976204 0.07805551988277146
0.06309169586705592 -0.11999999731779101 0.11937234906289015 0.08665660728626351
0.05039924740234123 -0.11999999731779101 0.13231497674710266 0.05441996352852462
0.0295350138003206 -0.11999999731779101 0.12869627687749882 0.07775827510032243
0.052333584513517446 -0.11999999731779101 0.11476209347448507 0.08374519027209511
0.007271031559233171 -0.119999997317791 0.13805846743550498 0.1327630446265776
0.18207091242545387 -0.11999999731779101 0.10597625840902163 0.07076337625941906
0.07392736810720062 -0.11999999731779101 0.12564449636412575 0.06632272273129292
0.16847272389966253 -0.119999997317791 0.10654311075109103 0.08125490685851125
0.047348575802539414 -0.11999999731779101 0.12329260793909685 0.07452878072437735
0.03294953886870218 -0.119999997317791 0.10679365109200957 0.06997062508792803
0.1406962690280772 -0.119999997317791 0.10868296033728495 0.08069112470652885
0.28563245746819665 -0.119999997317791 0.10616218300526746 0.07334104567376411
0.13460261305436308 -0.11999999731779101 0.11698886478030149 0.07534381481440663
0.08182426548347872 -0.119999997317791 0.10524156417381614 0.0787040602644026
0.20331671260120213 -0.119999997317791 0.10511037053355893 0.07831234977091699
0.01089897054265034 -0.119999997317791 0.10950025886629816 0.10375103194591
0.2722253775042395 -0.119999997317791 0.10587826805545811 0.07649655482153607
0.1967672621995302 -0.11999999731779101 0.12223660142045834 0.07124008557160588
0.1278757176148867 -0.11999999731779103 0.13955702013719232 0.0253678714467534
0.09365524275393879 -0.11999999731779101 0.1370358962695624 0.026923440537299292
0.155385037151231 -0.11999999731779103 0.13739258250059116 0.029742990772523927
0.2527240020240047 -0.11999999731779103 0.11983021456615195 0.07789560994929909
0.3066763591600449 -0.119999997317791 0.13707493951113495 0.04940183210407463
0.2760345492104952 -0.11999999731779101 0.12696772418193145 0.04624345674637965
0.14041978248454884 -0.11999999731779101 0.12760143762292211 0.04327564449608197
0.29486871272780785 -0.11999999731779101 0.1381404326402854 0.043792076325984176
0.054370463715341315 -0.11999999731779101 0.13929970969464864 0.02547712216202884
0.23733876199285295 -0.11999999731779101 0.11755650669832289 0.07780093444766889
0.33215710420245653 -0.11999999731779101 0.13725808977227635 0.109459973589133
0.30214638535119026 -0.119999997317791 0.11330056934934213 0.06806989714174905
0.1394829244229895 -0.119999997317791 0.13923294542878337 0.027009488690668635
0.18627573402084888 -0.11999999731779101 0.12290505700816785 0.06723914762298085
0.2504937861979589 -0.119999997317791 0.13272040412821176 0.05160914828787981
0.0719012795829423 -0.11999999731779101 0.13867070272837784 0.016760061581600542
0.2811873468203605 -0.11999999731779101 0.11427859333327592 0.0767725098622732
0.17838016971551326 -0.11999999731779101 0.13034378162228846 0.054860855568668244
0.18821674586135942 -0.119999997317791 0.13944126101096144 0.02452850139048981
0.28636135877335234 -0.11999999731779101 0.1263142546227313 0.06109816639147046
0.19842057257060278 -0.11999999731779101 0.1351527180217449 0.04848995287806878
0.24021255232843192 -0.11999999731779101 0.13988714996072307 0.016455713525813657
0.31695447114809505 -0.11999999731779103 0.13610790550392546 0.07195728663022594
0.15817881173938167 -0.11999999731779103 0.13951096154999296 0.03186774119374015
0.31345394318718145 -0.119999997317791 0.11129763333136229 0.08136460160658875
0.2655056119075288 -0.11999999731779103 0.13914072323543591 0.03118790411373194
0.2640995430831674 -0.11999999731779101 0.12632811955150358 0.07243569065467972
0.3479999899864197 -0.07155999069203371 0.106755688438076 0.08417916442358456
0.34799998998641973 -0.10762741536965338 0.11373074121685348 0.12655803455489306
0.3479999899864197 -0.010946622066003737 0.1051659901884543 0.10515423093146313
0.3479999899864197 -0.09410471553541536 0.1257568886243677 0.089956738047515
0.3479999899864197 -0.11824752867983393 0.12094563612234757 0.1425025235923149
0.3479999899864197 -0.03754159614757795 0.10807150056347362 0.08275874996262671
0.3479999899864197 -0.08046226569948944 0.11562521564039904 0.08006186230774637
0.3479999899864196 -0.04897488479252009 0.10571435567986884 0.08309371639850685
0.3479999899864197 -0.11395660674417116 0.1314065646114105 0.1331553666057911
0.34799998998641973 -0.05924523342252024 0.10960503208382161 0.09106922281426195
0.34799998998641973 -0.11665254932726206 0.10523331736653814 0.12092015598346104
0.3479999899864197 -0.007323312484493984 0.11730893170148787 0.12802704091002715
0.3479999899864197 -0.012550792842854213 0.1296775695648834 0.14304862172179697
0.3479999899864197 -0.06372239959452307 0.13955873311975936 0.036336670333621965
0.3479999899864197 -0.021455180370804832 0.12878704885132958 0.1265273881521778
0.3479999899864196 -0.06739936556438395 0.1251328596994904 0.06169596265792202
0.3479999899864197 -0.05557233737230952 0.12385701311758558 0.07987889677128344
0.138404754144283 -1.9411725537265856e-17 0.10567251200254123 0.07953705334232383
0.3042832536535863 -2.2852522295413235e-17 0.1244033371435424 0.06943527920179546
0.3211705291812197 -2.0779895231457077e-17 0.11312048091974955 0.07624438961005557
0.3454547459135979 -2.1035932943370916e-17 0.11451428530531935 0.11192022929409855
0.284234367702574 -2.1618727669083946e-17 0.11768687202511913 0.06853520645560841
0.33056939812330993 -1.9669961211254756e-17 0.10707828153635672 0.10173630059416569
0.1590681756341704 -2.0165896473763005e-17 0.10977802736159405 0.07195977190504028
0.347116774113778 -2.4623456757561984e-17 0.13404385533693358 0.11103251177703899
0.14515342523071412 -2.1189973908624148e-17 0.11535284526323528 0.0871440982439126
0.12491652187162594 -1.9358581923369778e-17 0.10538321164299769 0.08176702604272422
0.2717040883215159 -2.0250909888232972e-17 0.11024081883490786 0.08334342939075551
0.3335135123994818 -2.4080597692394604e-17 0.13108866822750012 0.11486454400136983
0.3168829392480777 -2.3274984591448798e-17 0.12670311476829482 0.08449143236005237
0.29713993974596054 -2.0214458071480725e-17 0.11004238438682794 0.07579548594065717
0.17758707606593233 -2.1312249298196798e-17 0.11601848148127399 0.05664951235112656
0.2168596347058981 -1.9637573118995622e-17 0.10690196897406429 0.07690694751634151
0.34353756732903384 -2.290631638857513e-17 0.12469617854728074 0.12769183434691134
0.18785534950365257 -2.0436464823936835e-17 0.11125093285762339 0.08057498654370852
0.30702567344916065 -2.069122724862414e-17 0.11263779490287963 0.07142122298644428
0.2643063728553192 -2.178777152040368e-17 0.1186071038908153 0.0808055718982446
0.1541355863004188 -2.1942076318065662e-17 0.11944710008547005 0.06643993404737357
0.2611363765310029 -1.936601774606902e-17 0.10542369037642742 0.07790169245895806
0.24900613964016918 -2.2025380335083486e-17 0.11990058603247028 0.07827866947473264
0.2262827778727511 -1.9417257675490676e-17 0.1057026275603694 0.08082610973778999
0.20386855056793102 -2.1741674495770907e-17 0.11835616337656599 0.07137752537701599
0.12769712878166084 -2.3240305230081964e-17 0.12651432911792893 0.05807315477900269
0.14466084621219602 -2.5021679123089402e-17 0.13621167692600822 0.056564278036847965
0.023612190930921154 -2.0505243089199646e-17 0.11162534429505822 0.09069759546313322
0.09077385103888039 -2.326627982248213e-17 0.12665572821312518 0.057626209918702175
0.06414329425151355 -2.1185891302142445e-17 0.1153306205886894 0.07425034567208691
0.03403276460759218 -2.5195972566537776e-17 0.13716048624022423 0.0444828235818459
0.07291821450083595 -2.4141503420289822e-17 0.13142022356757926 0.056618944063934314
0.2692699874410488 -2.5368027788798015e-17 0.13809711124579063 0.029231382622216747
0.05388263167267756 -2.0888159152595404e-17 0.11370984225622471 0.06686046593380064
0.17446201583669116 -2.4869566068473228e-17 0.13538361202478075 0.045793849708422575
0.11579679922664719 -2.2107160758326306e-17 0.120345777921265 0.0601084188379257
0.1870730850771593 -2.4216105295770064e-17 0.13182633726246762 0.06608744155047946
0.08542312728244168 -2.530768927432185e-17 0.13776864367174846 0.039567218362872206
0.1959923831619733 -2.5148282804106225e-17 0.13690087526523534 0.04073376754759556
0.019242744939052654 -2.2376392638790073e-17 0.12181140801505322 0.12059980429827759
0.22428187811325448 -2.4562014519820835e-17 0.1337093793732847 0.05488842743846284
0.02262647955841573 -2.5636600600221812e-17 0.1395591535348315 0.08806932027444044
0.11617676521078832 -2.3971979479966845e-17 0.13049737821907548 0.049401855449658194
0.1961043605108637 -2.30607912756664e-17 0.12553710066566254 0.08160886296419523
0.014084076939968352 -2.385861809453037e-17 0.12988026757941784 0.13879212436434618
0.062394250621357034 -2.5537921743272117e-17 0.13902197085751644 0.0225848292192725
0.16322827822658514 -2.5589724199196317e-17 0.13930397029311026 0.03737911011090592
0.14347185562085055 -2.3158964185973774e-17 0.12607152909773903 0.07640863348958006
0.2849916915015299 -2.46907161064078e-17 0.13440999817851396 0.05161052162625301
0.026752593685282416 -2.366925608668681e-17 0.1288494288212529 0.09364341077325052
0.1601917953788773 -0.09175203546785683 0.1050090007483959 0.024319081198323315
0.29434008465258454 -0.08877340264281187 0.1050090007483959 0.059160675390730035
0.13584743949220343 -0.07699078114819533 0.1050090007483959 0.0006623860778224171
0.31289606391137614 -0.08742936865133698 0.1050090007483959 0.02448674713775906
0.2523155732540722 -0.04264730408632558 0.1050090007483959 0.009287850623169046
0.1994639900260119 -0.085591231697015 0.1050090007483959 0.015028449863848306
0.19603711143319527 -0.09963103449847091 0.1050090007483959 0.04840333056289276
0.20779244999921373 -0.0531361443956738 0.1050090007483959 0.0006197927170380254
0.1275574555463541 -0.11977126599690319 0.10500900074839589 0.07960471716486177
0.24306342618412277 -0.07276496622636484 0.1050090007483959 0.0006661252680735595
0.3376167108045296 -0.06506230106455577 0.10500900074839592 0.08623670452923048
0.2267720256279437 -0.08598595922744517 0.1050090007483959 0.016844814462224335
0.09247046573387707 -0.11980463987997471 0.10500900074839589 0.09116573327955534
0.3399196882005671 -0.07721046044800188 0.1050090007483959 0.08418045917886541
0.14627021295862033 -0.09376436835930008 0.1050090007483959 0.03775542513576014
0.3458479387576333 -0.025103029030319555 0.10500900074839592 0.09278375430079451
0.225196509850327 -0.05490486916841997 0.1050090007483959 0.0005981731226482255
0.07166018739017616 -0.10955873085610683 0.10500900074839589 0.09389547984102192
0.3072324411391558 -0.04089953497853976 0.10500900074839589 0.04890384396651275
0.14110447945196566 -0.10255149338335741 0.1050090007483959 0.06789334689563463
0.29584382779841967 -0.10093531009096181 0.10500900074839589 0.0702160649978828
0.2500063460080593 -0.08104074259651434 0.1050090007483959 0.0006214601755153873
0.2816022472692611 -0.08553411207941507 0.1050090007483959 0.06248212977910877
0.059029511956517317 -0.1092779646808238 0.10500900074839592 0.08306829174136322
0.2977103700227945 -0.04428404382102707 0.1050090007483959 0.0855683301105807
0.21557848356036263 -0.08751571183451196 0.1050090007483959 0.02197900210330189
0.14737253309898032 -0.07246340504707835 0.1050090007483959 0.0006830418717299302
0.06725417916405863 -0.11934866974299187 0.10500900074839589 0.09161949745347658
0.3240727261832698 -0.10610191949679151 0.1050090007483959 0.09553728474137506
0.16643687020385428 -0.08283216155392621 0.10500900074839592 0.009416462913061968
0.34088735503576195 -0.003263829311387647 0.1050090007483959 0.11323942879493645
0.32018877532412715 -0.031400996552341534 0.10500900074839592 0.03586121872603284
0.10875119791489377 -0.10102869083105996 0.1050090007483959 0.06742023081101967
0.21522604114734717 -0.06139538683794525 0.1050090007483959 0.0006681219015244896
0.19220822794293543 -0.06087509294006169 0.1050090007483959 0.0005560213926913092
0.21840971035981 -0.07472586278068741 0.1050090007483959 0.0006198022229498133
0.2390433212364553 -0.10659090118010224 0.1050090007483959 0.07801146976201272
0.26554152757762683 -0.05745350225991432 0.1050090007483959 0.0833660188275775
0.3101945542194541 -0.018897190527937643 0.10500900074839592 0.059947758342084635
0.25794057354501865 -0.1055692028764055 0.1050090007483959 0.06176686765654627
0.2554481108718215 -0.11970891250430875 0.10500900074839589 0.08575605458766303
0.04914473937865688 -0.11016959999642552 0.1050090007483959 0.07697816828375656
0.22086115628692887 -0.07392794198240986 0.1050090007483959 0.0006101489492757468
0.05498052957240527 -0.11952894244585255 0.10500900074839588 0.07757110260282497
0.32620226178966 -0.018053531333392995 0.10500900074839592 0.09663898631856643
0.307770016572787 -0.11518497621053808 0.10500900074839589 0.08422509088943597
0.04445532918862902 -0.11979929754003556 0.10500900074839588 0.07169077751082181
0.09950309802415189 -0.10490098380501846 0.1050090007483959 0.08877001233308301
0.15525954281471338 -0.1123471172793143 0.1050090007483959 0.07747561670142127
0.21576225839271343 -0.048106843553848484 0.10500900074839589 0.0005890348429861924
0.24266179085535736 -0.11803588645755315 0.10500900074839589 0.07990828504991729
0.13639503628194943 -0.11268152406664105 0.10500900074839592 0.08099857842177074
0.3333247715660459 -0.030706455441581668 0.10500900074839592 0.0736623260633931
0.21021255378543674 -0.09939621787993867 0.1050090007483959 0.06136185761674928
0.1404040600624743 -0.08584408820914367 0.1050090007483959 0.010531000964830473
0.33053893230778664 -0.0740447237711227 0.1050090007483959 0.06271398457693028
0.26251370459251405 -0.03648617298336782 0.10500900074839592 0.030643485681670676
0.24923556068348232 -0.10971254944767454 0.1050090007483959 0.07935836423761004
0.3095627655721643 -0.06322595940257918 0.1050090007483959 0.07997546344334623
0.26373194184884274 -0.07247365398686788 0.1050090007483959 0.04139780612642522
0.27460760906156756 -0.05086855014024307 0.1050090007483959 0.07733408324657554
0.2788985212981179 -0.07787464265736059 0.1050090007483959 0.0791649755230871
0.11276607995740323 -0.11153607267515872 0.10500900074839592 0.0853808285474843
0.19867603065211126 -0.05297363150046574 0.10500900074839589 0.0005944213956140227
0.09878888640183707 -0.09150066350886736 0.1050090007483959 0.0362763008190914
0.30376482134068294 -0.10731803766622891 0.1050090007483959 0.0853813889980695
0.11084029595646105 -0.09163858931794484 0.1050090007483959 0.03424127129909229
0.2666599718239729 -0.08423605097535278 0.1050090007483959 0.030305748632457247
0.2540057220496968 -0.05472693313802294 0.1050090007483959 0.0151027097829575
0.19067876701611558 -0.11303714685990678 0.1050090007483959 0.08244456892819715
0.2719222449855283 -0.06582277687824147 0.1050090007483959 0.1081390835931283
0.34545404863723106 -0.08394717417055189 0.1050090007483959 0.07616241315261439
0.2968719962656381 -0.06934760584078291 0.1050090007483959 0.11326235254815892
0.3438279138628807 -0.10728597120130087 0.1050090007483959 0.11816804049744359
0.33260151542764393 -0.11957363260136522 0.10500900074839589 0.10274439215291245
0.34501461525382493 -0.027336580394484188 0.10500900074839592 0.08492389680839647
0.20028043841658627 -0.07151641851340917 0.1050090007483959 0.0005761680535178354
0.11962315611208382 -0.09826874859817573 0.1050090007483959 0.05716734643463326
0.2400294349084957 -0.06070497470478747 0.1050090007483959 0.0006616576643151967
0.17699880737546803 -0.11059184952619797 0.1050090007483959 0.0772145192711117
0.06288376737702296 -0.04199709557500047 0.1050090007483959 0.1094278193778722
0.17510156606401034 -0.04629130686415833 0.10500900074839589 0.0006661640723246382
0.11667576517717405 -0.07829092550283556 0.10500900074839589 0.0006250737382644099
0.21443027390384586 -0.025354397965674378 0.10500900074839592 0.04541632077322379
0.04628737788127944 -0.09674667531341236 0.1050090007483959 0.046333743423708634
0.1806661538256272 -0.0010470101213900728 0.10500900074839592 0.06996043697642548
0.09424073988688299 -0.041647215265284414 0.1050090007483959 0.016088903788104483
0.11245265274763754 -0.002015154813342689 0.10500900074839592 0.07723701185746036
0.04674641499010764 -0.08318111806412187 0.1050090007483959 0.04076998600380832
0.011804292000169263 -0.08231597382847161 0.1050090007483959 0.08328217157522784
0.13419085055717278 -0.043269528359416255 0.1050090007483959 0.000650395563305101
0.12024461941698117 -0.05335251897854885 0.1050090007483959 0.0006640269418962594
0.08483747495352613 -0.00909001234560674 0.10500900074839592 0.08787742221904571
0.0572109967453751 -0.011303667194127249 0.10500900074839592 0.08173138017436184
0.055901385557017215 -0.10061731858057042 0.1050090007483959 0.06738503550239364
0.20438100696272463 -0.021669738631131908 0.10500900074839592 0.05749705257862821
0.008267483851370718 -0.09380377320557752 0.10500900074839589 0.08891060006761894
0.1861684647423749 -0.05011889352140166 0.1050090007483959 0.0005729484375812567
0.11331830662056368 -0.0372451406160033 0.10500900074839592 0.0033378493860339088
0.018551620555891733 -0.0927220667501315 0.1050090007483959 0.0687128243492994
0.02017274010555335 -0.11087064630199119 0.10500900074839592 0.08665538861944022
0.08199750299986258 -0.0007355255420258562 0.10500900074839592 0.08176809257643554
0.06752558542257703 -0.014722788332702267 0.10500900074839592 0.06219918026524997
0.05545327798935126 -0.09062118928529164 0.1050090007483959 0.043936079012208376
0.020153489705257016 -0.0749618545790721 0.10500900074839592 0.06482751985765718
0.10712846415773758 -0.025324760463227906 0.10500900074839592 0.051141419868756074
0.049214286134384284 -0.043436804785070345 0.1050090007483959 0.09492082594437713
0.15053262169177553 -0.0561786808557044 0.1050090007483959 0.0006693973754914915
0.06325045409718143 -0.003102303820115554 0.10500900074839592 0.0801365223180694
0.035343301744319364 -0.0005200059225432666 0.10500900074839592 0.07879290068474029
0.2412015347022391 -0.0011164055573861863 0.1050090007483959 0.08284052031258872
0.1325082758213822 -0.015683444906239526 0.10500900074839592 0.07543821094689679
0.14360169162493125 -0.03362259084549237 0.10500900074839592 0.018840977333213448
0.1519398256734796 -0.022476176480930275 0.10500900074839593 0.050599032483569686
0.007790398064455029 -0.0032589034136517986 0.10500900074839592 0.11024586832644614
0.18767177406042507 -0.024297424879079065 0.10500900074839592 0.036489862551077626
0.3067705815754185 -0.004802039549543901 0.10500900074839592 0.09299433404039772
0.2558263877719104 -0.015794512788152897 0.10500900074839592 0.08785946992383417
0.15613720633553377 -0.047106651501808275 0.10500900074839592 0.0006674968919176144
0.09928781057267486 -0.0679637087462956 0.1050090007483959 0.003310801792092248
0.12009424834459503 -0.01059828461969801 0.10500900074839592 0.07827467684899438
0.02198128683258716 -0.034617764131529685 0.10500900074839592 0.04723362173785614
0.10561065635066662 -0.05776397447589257 0.1050090007483959 0.0005987415436809005
0.19826115071010236 -0.014937759373537654 0.10500900074839592 0.06972802914058439
0.03282732068051623 -0.09670900341221564 0.1050090007483959 0.06483023597632451
0.07845932637406501 -0.01835461520294893 0.10500900074839592 0.06264666548427851
0.1622488184254834 -0.05695290528665269 0.1050090007483959 0.0007137548036001822
0.26663727511693186 -0.00925750873211937 0.10500900074839592 0.08947924065338925
0.18670926938939328 -0.026189207599542096 0.10500900074839592 0.0349706569207807
0.2554452858185749 -0.016131249987939574 0.10500900074839592 0.08791630566480975
0.009281030512159968 -0.04671603139195075 0.1050090007483959 0.09163556091004327
0.0012264085494210313 -0.05494587344590917 0.10500900074839589 0.08252203292428148
0.08942510028765556 -0.03376134653211603 0.10500900074839592 0.0185629058419286
0.3162523681853945 -0.0009851840447138917 0.10500900074839592 0.07410879232257332
0.24391366448462132 -0.030542259726650554 0.1050090007483959 0.036931617406240826
0.05948121673737155 -0.02740685683377276 0.10500900074839592 0.05095958014034038
0.28626066640462683 -0.014526204759454774 0.1050090007483959 0.07408717641046998
0.22387360171109147 -0.011496486319785787 0.10500900074839592 0.07514908414807804
0.07219045703615501 -0.036882862006236604 0.10500900074839592 0.0439058174214795
0.2077348184836603 -0.002886607705313528 0.10500900074839592 0.0766069710092006
0.2859189809287523 -0.0040126872087740215 0.10500900074839592 0.08867399864380035
0.21632414538959555 -0.035630936490658016 0.10500900074839592 0.010384934998728923
0.15726959294105491 -0.03313376078400187 0.10500900074839592 0.010170523194454403
0.2437657338375205 -0.030434400252343057 0.10500900074839592 0.03692867342084492
0.10009134351403433 -0.03510930762973553 0.10500900074839592 0.01701453311451419
0.04102160823119723 -0.07343393232841093 0.10500900074839592 0.06547073438647144
0.22768505585835344 -0.03752458529931904 0.10500900074839592 0.007153120104294521
0.2066856843233129 -0.03236612657807424 0.10500900074839592 0.026845199925648773
0.031076094844446667 -0.10825445932247692 0.10500900074839589 0.07060161930418608
0.19679992141407207 -0.03384510781424833 0.10500900074839592 0.018014015839530308
0.17440726855158376 -0.03199812123585351 0.10500900074839592 0.02063081853895686
0.010588915421324776 -0.06911294136474713 0.1050090007483959 0.08271498040282117
0.09537260120412473 -0.011483034101157431 0.10500900074839592 0.08599229029222541
0.0505735003925378 -0.06903571066907342 0.1050090007483959 0.10793055898464995
0.07478270398825403 -0.08451430879558672 0.10500900074839589 0.04206929668287666
0.003192121956782218 -0.014537725803919124 0.10500900074839592 0.1059204009064604
0.03125417495286466 -0.042412431054619434 0.1050090007483959 0.03201917956671231
0.12523705605825255 -0.03684928472761559 0.10500900074839593 0.007488180280649905
0.14067348867658008 -0.06403694049396622 0.1050090007483959 0.0006973112408456868
0.24457366040345677 -3.00561233109069e-05 0.14000900089740753 0.026447567885317436
0.014118672287373823 -0.001437682408964109 0.14000900089740753 0.11746589629875208
0.05012767806883062 -0.0009598110507299061 0.14000900089740753 0.03534032502235543
0.3245612585748997 -0.001359441556418809 0.14000900089740753 0.10542104410345082
0.2086895843553451 -0.0011738342262535698 0.14000900089740753 0.023213238044775056
0.25805004527751607 -0.0008391415367516744 0.14000900089740753 0.029086386406580123
0.0011336637239832957 -0.10650559514943761 0.1400090008974075 0.10583337195587915
0.00028013641689073044 -0.023479169285576158 0.14000900089740753 0.08840090472232427
0.3477606557435683 -0.01733051110556553 0.14000900089740753 0.09705331822132272
0.34749960641733413 -0.009003784758946157 0.14000900089740753 0.12972148208853063
0.3473092666457066 -0.09781817963184375 0.1400090008974075 0.10707105239137382
0.0829650808222519 -0.11946867218135046 0.1400090008974075 0.026482163861124924
0.025182472851603927 -0.11962202903600559 0.14000900089740753 0.07330053950699475
0.3428805570293083 -0.11903861929642179 0.1400090008974075 0.08826614319767298
0.10571705230330392 -0.11958875167990253 0.1400090008974075 0.025152566424224445
0.121534240101294 -0.0014999993145466109 0.13998845363404297 0.026325034249921168
0.043155193948427706 -0.0014999993145466085 0.1277706522520125 0.07691522100538616
0.16635683884483973 -0.0014999993145466085 0.12799089160700627 0.06617953887208962
0.2977289590697802 -0.00149999931454661 0.13545144191233682 0.04189300568253682
0.1095012182798439 -0.0014999993145466098 0.13612046629339025 0.05536924816241983
0.09735746733538611 -0.0014999993145466107 0.13910395081456506 0.042907102068619835
0.25724977233510865 -0.0014999993145466107 0.13881074563026974 0.033965036541199936
