x y z curv
0.35390280437469485 0.396818555076096 576.0343878355341 0.029211602245164087
0.43175114631554934 0.44980270385742216 576.0353135562565 0.09310725652840528
0.4461040147078875 0.28579098393887303 576.0362853646982 0.03024023117010573
0.517697424454055 0.43544168213968015 576.0362853646983 0.04330479602099495
0.46943609167486333 0.3089833942364021 576.0362853646982 0.02962324286113796
0.43368626422287043 0.3278229072933905 576.0362853646982 0.029698924600022422
0.4965036351462421 0.4369409177768513 576.0362853646982 0.048385552273243024
0.4808223819697617 0.3416875480255416 576.0362853646982 0.029413145263959103
0.45951518913244194 0.3617323213748003 576.0362853646982 0.030793939949917207
0.5166622322594612 0.4013918522682338 576.0362853646982 0.029598214243534923
0.5039506589982139 0.39462278433584214 576.0362853646982 0.03141473681549547
0.37192939520465734 0.20624719060027105 576.0362853646982 0.027947396745611735
0.5479313613799885 0.43379995868271853 576.0362853646983 0.0508074713562557
0.3961907683392941 0.2872538537305035 576.0362853646982 0.029869590207878344
0.5052328651296933 0.4306692262396067 576.0362853646982 0.03752857195218983
0.5352476870426127 0.41656520748743625 576.0362853646981 0.03184039841154828
0.3938375996655199 0.3078668742066762 576.0362853646982 0.030260281983986188
0.37051658221879674 0.3781943393352118 576.0362853646982 0.02977741812781058
0.3860769596060011 0.2780142599178268 576.0362853646982 0.029110740478709065
0.37678121411501697 0.3871899542899804 576.0362853646982 0.029816135385620616
0.45357612314143503 0.29766368030746604 576.0362853646982 0.03134633039153561
0.49514919246817235 0.4129309119522814 576.0362853646982 0.031840406150541685
0.4160549358610337 0.35309344086757605 576.0362853646982 0.032506925849845304
0.4553153715914465 0.40340617261789885 576.0362853646982 0.03212878466333105
0.3855350926651838 0.23840713226099508 576.0362853646982 0.028768502493710615
0.3611903532587224 0.25828122036949974 576.0362853646982 0.028296636983756094
0.42329256735319093 0.4343826543351249 576.0362853646982 0.04412946008064051
0.5549351853822033 0.12780624394284754 576.0362853646982 0.044140350985222884
0.4675645015693648 0.15948552466958876 576.0362853646982 0.03310489279988199
0.4372484891885167 0.18008514972652578 576.0362853646982 0.030327311755778047
0.545439458939261 0.3283982456599105 576.0362853646982 0.03507870165370441
0.5440924399988925 0.16925855789863636 576.0362853646982 0.033265591425412626
0.48782837122012107 0.14538246823374468 576.0362853646982 0.03292124693446027
0.5523617793940918 0.3685845766309373 576.0362853646982 0.04090872363307075
0.5130133832972279 0.23859363808097672 576.0362853646982 0.029096632303367013
0.459170466482529 0.2319701926981041 576.0362853646982 0.029052689101426867
0.4483621615521246 0.15245732976631113 576.0362853646982 0.03135880679501275
0.5044521687074282 0.26486271313564924 576.0362853646982 0.029504112031643992
0.5599188470376526 0.22541181858443496 576.0362853646982 0.04086598807313179
0.4922753453266598 0.23527978087951718 576.0362853646982 0.02734549457366834
0.5542383528937114 0.24558073936272945 576.0362853646982 0.045272856551143444
0.5074669998011995 0.2247616277420709 576.0362853646982 0.0268738090600684
0.469605184204022 0.11671377398894843 576.0362853646982 0.04343443360734983
0.4105383002228997 0.1902620894637396 576.0362853646982 0.02787708964781931
0.525871160811707 0.19701771267549045 576.0362853646982 0.029008573551603963
0.5001929097722574 0.2845220793321101 576.0362853646982 0.030968754322252927
0.5112198093149616 0.28759414484697216 576.0362853646982 0.03157221204133002
0.5324144314611737 0.24239992326917825 576.0362853646982 0.029338650248750545
0.41202773509597485 0.11926612289959476 576.0362853646982 0.043721808693420836
0.5306983967115976 0.14925681526384404 576.0362853646982 0.02840096491849103
0.4462384761287253 0.22809316665412266 576.0362853646982 0.028579074659397043
0.38764655661179864 0.1569804645917781 576.0362853646982 0.02891471198968616
0.4846364694902662 0.21689054683436373 576.0362853646982 0.02679179273959649
0.5589157195304142 0.27982946368137585 576.0362853646982 0.04387780938263382
0.3852498143797152 0.3141037372528939 576.0342853656518 0.028876501738028793
0.47927696252209223 0.3916705502252552 576.0342853656518 0.029485193922480023
0.4669819846404291 0.4045319395995862 576.0342853656518 0.030359441338132242
0.41051586674084106 0.3642482129969745 576.0342853656518 0.03427562449405362
0.3592181588831514 0.4421084449437797 576.0342853656518 0.07729797855182426
0.45747872072652573 0.38421239217867265 576.0342853656518 0.03092787803276613
0.43402252734545665 0.3095630356723292 576.0342853656518 0.032937971673663524
0.4695493665007732 0.3837727792404681 576.0342853656518 0.03174409464999114
0.5005134298992515 0.36328678201813314 576.0342853656518 0.03269008779251448
0.3672474272948274 0.32706304060696256 576.0342853656518 0.030214603871136864
0.40470827181946917 0.3115314391162958 576.0342853656518 0.029801368785444902
0.4205199591537636 0.38147911231097525 576.0342853656518 0.03167062683717935
0.4106671544456715 0.43666894188880234 576.0342853656518 0.05552036225293589
0.38821639514284767 0.21864904078481115 576.0342853656518 0.02771560683389163
0.4058655818810351 0.40759117993216637 576.0342853656518 0.031141647460642935
0.5047441461480165 0.38470766624252406 576.0342853656518 0.03265745694830878
0.46585288052095397 0.3358639368237821 576.0342853656518 0.028812362804953976
0.44862209651295804 0.44953396352387254 576.0342853656518 0.08042806947405191
0.4107454531786757 0.23897962191752944 576.0342853656518 0.02758834245552419
0.39441486870848463 0.43526317056968433 576.0342853656518 0.04409646242649885
0.4037526850028767 0.3556783558055303 576.0342853656518 0.03235342697689333
0.3713727692607296 0.43618637065767984 576.0342853656518 0.044136196962092575
0.39695769574552775 0.3194068796235401 576.0342853656518 0.030081449701207113
0.4483203132445265 0.3323767652302862 576.0342853656518 0.02740244068903585
0.5062685515747873 0.3730669463613437 576.0342853656518 0.03064519489573003
0.4162166212515368 0.4208127503756858 576.0342853656518 0.03424738874074789
0.4596049499017597 0.44976131835951727 576.0342853656518 0.09957716547508731
0.3832571572487455 0.43692716111735447 576.0342853656518 0.045248898691447076
0.5400373856498354 0.44489820501560995 576.0342853656518 0.06708010617809088
0.4333336647006414 0.2858193161941745 576.0342853656518 0.029069616553455812
0.48668722796522706 0.3286211971395659 576.0342853656518 0.0271782248304141
0.45059123324217065 0.42191272010425696 576.0342853656518 0.037020941553922125
0.3544285779746523 0.16888127223133587 576.0342853656518 0.03053143467558318
0.42456290758212367 0.2717066791324647 576.0342853656518 0.027800624510420483
0.3933869961278039 0.44516061291059345 576.0342853656518 0.0637083990189056
0.37651957359089355 0.3679247930016895 576.0342853656518 0.030244796325982596
0.3738831176802826 0.2379822040733291 576.0342853656518 0.026489946304844317
0.5070876709641464 0.4083477539741357 576.0342853656518 0.0306801069561232
0.3698316618725944 0.3398738137471321 576.0342853656518 0.028309014368485277
0.5019603266380783 0.4212676878739379 576.0342853656518 0.035434920819835077
0.4242325902556009 0.3695840162618722 576.0342853656518 0.03317595828273196
0.44166080461712715 0.44244002947312167 576.0342853656518 0.0721044288602164
0.4419641574353858 0.39449187547430886 576.0342853656518 0.031310874041969326
0.43598444171687856 0.3718175195361547 576.0342853656518 0.03212258105120249
0.36525010707510386 0.2756547706468021 576.0342853656518 0.028101258489339257
0.43812486913349613 0.3422612735779098 576.0342853656518 0.029283470849268353
0.48773702181171097 0.42254805703340637 576.0342853656518 0.03490012367361814
0.4745243622172173 0.4252066261285766 576.0342853656518 0.037827865202928426
0.4099616303742511 0.3441766155027499 576.0342853656518 0.031844622911595205
0.4214575021916893 0.31589006976847606 576.0342853656518 0.028622142177523565
0.5629499766234656 0.4430978376764937 576.0342853656518 0.06933367358967261
0.37000731848743906 0.3000121465518997 576.0342853656518 0.027483815113870144
0.3757935215075692 0.27488349704966153 576.0342853656518 0.028641996006956726
0.3852362561699948 0.2542575496019436 576.0342853656518 0.026820465231333895
0.3959128647196428 0.23761365920034977 576.0342853656518 0.027735163358533585
0.3809149713994481 0.4084679115448752 576.0342853656518 0.03022138359137163
0.36543451589658194 0.41730950578870896 576.0342853656518 0.03292349169824757
0.3782826331322603 0.3345542588637302 576.0342853656518 0.0302069120596105
0.5154691375978686 0.4475533909892584 576.0342853656518 0.09068388630935731
0.37471114056319127 0.2589256539398138 576.0342853656518 0.028274004597857654
0.3751800481589611 0.42464302374383317 576.0342853656518 0.038061951980456754
0.38431002104484036 0.19753880012465924 576.034285365652 0.029213897430417284
0.4758420506717998 0.3720262189439678 576.0342853656518 0.02894848100240573
0.4878243320641597 0.44686034694956267 576.0342853656518 0.07438022905073717
0.43098837451717 0.26227538434778525 576.0342853656518 0.0276082757767291
0.40917773985963496 0.2910233031270808 576.0342853656518 0.029646804433360343
0.3874006278597356 0.20762703244177733 576.0342853656518 0.02843308008176678
0.3941184171868167 0.3862834171049796 576.0342853656518 0.030970130277085905
0.5189710267812321 0.4143759213291295 576.0342853656518 0.03132267362883962
0.3965610455189502 0.36425659012757905 576.0342853656518 0.0312775416791836
0.4759008915473398 0.3520864707199525 576.0342853656518 0.0294548669299361
0.47923883111988763 0.31200141682868415 576.034285365652 0.031000769597548883
0.5281673403686762 0.4037790748988845 576.0342853656518 0.029489651413463904
0.527270573011581 0.44052333225124224 576.0342853656518 0.05770312114853203
0.36830675814494257 0.14995772194266296 576.034285365652 0.03049046562037015
0.39860719836040337 0.19340060066489134 576.0342853656518 0.02765404511066421
0.42182542733593004 0.3031990899040383 576.0342853656518 0.02896411377008705
0.3772428980160307 0.28808832255661365 576.0342853656518 0.029165855425115367
0.40025278897916516 0.20893179927736455 576.0342853656518 0.02858559738655692
0.45178201662451384 0.3710082780573023 576.0342853656518 0.03165781629177886
0.44277493948074276 0.2994888556620193 576.0342853656518 0.030603592482722992
0.3642007130169394 0.4073153901925212 576.0342853656518 0.030339616864748235
0.4721943341502064 0.44500452007025504 576.0342853656518 0.08353399452783884
0.4207713776339376 0.3436233404404532 576.0342853656518 0.03318638718723707
0.41495677491060357 0.39099633274991236 576.0342853656518 0.029259411576644124
0.493472827675523 0.33995547631742223 576.0342853656517 0.02944130649665519
0.4650769527526291 0.39491240575096875 576.0342853656518 0.030359250561959802
0.38576221395746224 0.42065093574359597 576.0342853656518 0.03317859121278372
0.389007445663341 0.3497735173285126 576.0342853656518 0.03087415809356392
0.39625286807761345 0.3348215255059509 576.0342853656518 0.029403318821196314
0.45636370923532216 0.27563147052027914 576.0342853656518 0.0288908063528888
0.46199066729570304 0.4279500391271427 576.0342853656518 0.04040118161716583
0.37560023204976944 0.3173639307498165 576.0342853656518 0.029682989230910842
0.407944572672887 0.3817658523424905 576.0342853656518 0.02826081015042092
0.4386591993808798 0.4225783104037058 576.0342853656518 0.037440412806359256
0.45304540150818484 0.39368876057849855 576.0342853656518 0.0323745141723112
0.5056736593596738 0.4411438480387966 576.0342853656518 0.05318140919286332
0.3940259253645426 0.40722407111950853 576.0342853656518 0.031157815421962335
0.37113456781754905 0.16455847433353293 576.0342853656518 0.030095303756642
0.4458732274888345 0.3854491198929402 576.0342853656518 0.03057922747758252
0.40940406492836373 0.25222217782169826 576.0342853656518 0.027336273859889973
0.38885019377177255 0.3712115682332897 576.0342853656518 0.029841502104455776
0.5368024424413805 0.43430407779661123 576.0342853656518 0.046834597657111364
0.517637369485803 0.38858385399130846 576.0342853656518 0.030178896331950495
0.3819989493345377 0.16748062102990666 576.0342853656518 0.027584854499286066
0.41190253028289625 0.3186082754484818 576.0342853656518 0.027598209372926934
0.5150523521439729 0.3783918056416439 576.0342853656518 0.030175049333231275
0.40381446026164913 0.4285150046805184 576.0342853656518 0.03760808800265706
0.3584041694117582 0.18746887293440118 576.0342853656518 0.029476370170748438
0.44718049906190716 0.4107197575414049 576.0342853656518 0.032215816920087584
0.3573965923972313 0.3576603211519217 576.0342853656518 0.029384239111561173
0.39995884622861777 0.39580862156198887 576.0342853656518 0.0328535842821853
0.43821794575676976 0.3193582727855075 576.0342853656518 0.029703673090162704
0.35685911627030564 0.34589774130322504 576.0342853656518 0.02974847338079261
0.43265426483840286 0.3866258823349187 576.0342853656518 0.029427998043390108
0.37688482434392256 0.35010218051450515 576.0342853656518 0.029814808276658066
0.47068301342011504 0.36133904753926593 576.0342853656518 0.030785258822808026
0.3799528663166545 0.18909256049621348 576.034285365652 0.03025949888263686
0.4323350526581868 0.29805456624693094 576.034285365652 0.028118323642766792
0.3780381532351598 0.21508189609783396 576.0342853656518 0.028252944841739503
0.39291786395689143 0.18307127283259936 576.0342853656518 0.0292665121130524
0.5270804711556777 0.4272031916098795 576.0342853656518 0.04099758638071038
0.42394765684093394 0.23993033780564524 576.0342853656518 0.02873558501050114
0.39499901819508965 0.2974737305201336 576.0342853656518 0.03001019226720215
0.4217499779972848 0.2889160766447971 576.0342853656517 0.028954527287696926
0.4822008322837374 0.43569051129856184 576.0342853656518 0.044767837097190434
0.36110933661618794 0.31771751635068746 576.0342853656518 0.02745101095390097
0.510288847214598 0.36370861638162877 576.0342853656518 0.03037136217248754
0.3544298915268109 0.29555302866656646 576.0342853656518 0.028899514026091123
0.3943105344705717 0.2586366547364433 576.0342853656518 0.028356928500488446
0.45256000429824933 0.35221312580809666 576.0342853656518 0.02981253050645861
0.48368612104393494 0.3651213551247445 576.0342853656518 0.030427553403391917
0.47273993554185045 0.4131899076220559 576.0342853656518 0.031472184561675824
0.3684545948697172 0.22018363107749878 576.0342853656518 0.026274570089878088
0.4274282980071857 0.40005538589976786 576.0342853656518 0.03134186460882667
0.4704589065474336 0.43477001736342014 576.0342853656518 0.04214193703520197
0.36545121793564217 0.24657264514922717 576.0342853656518 0.028162416428521957
0.5144385217096761 0.4254536555812873 576.0342853656518 0.03807625236521556
0.546847235083388 0.4193424496249792 576.0342853656518 0.04908102450492766
0.41401296667419873 0.22787724819463634 576.0342853656518 0.026872138968484064
0.4852562862685809 0.3813979792624621 576.0342853656518 0.030612029996990472
0.395394856308486 0.2708596526932806 576.0342853656518 0.029372284959467754
0.4160924117730745 0.40508948658207433 576.0342853656518 0.030443252805661604
0.35932560375124667 0.332886537176948 576.0342853656518 0.02936437155410541
0.37426426834748705 0.3992534589126937 576.0342853656518 0.030771230429028247
0.484277579188636 0.4126502995814475 576.0342853656518 0.030602820526517742
0.45724635927851104 0.3115756826334255 576.0342853656518 0.030692705409142335
0.4496403578856403 0.32264340758684157 576.0342853656518 0.028070591105840485
0.37132110793068307 0.18010464770235968 576.0342853656518 0.03073087418058999
0.3588038785621502 0.13450132556894803 576.034285365652 0.03441021334669649
0.3824738906235491 0.30349884536613464 576.0342853656518 0.0284546970062365
0.4658432945346757 0.3215692840132912 576.0342853656518 0.029795948473788626
0.4196334582543658 0.44655506595037564 576.0342853656518 0.06992734121497543
0.3668225539257791 0.3895594165906795 576.0342853656518 0.028229784418577864
0.36365922294744374 0.17233994241736875 576.0342853656518 0.030385270109776544
0.4627033432094709 0.41621319090332975 576.0342853656518 0.03155227527436616
0.466437155742873 0.29381385429732376 576.0342853656518 0.028618291545934108
0.4356838766395246 0.27339056455082283 576.0342853656518 0.028489252911352844
0.3663233441280036 0.36738173929529566 576.0342853656518 0.030464693506002945
0.44179209087984883 0.3539288349190102 576.0342853656518 0.03103068983304384
0.40852080879700625 0.3318842300466798 576.0342853656518 0.029275023382609674
0.5239073875036333 0.16049506884331793 576.0342853656518 0.027397102535702756
0.5663530497237738 0.4143625861505275 576.0342853656518 0.043661945970046044
0.49363972943619594 0.2581643907114071 576.0342853656518 0.030679349470639588
0.5435291464203178 0.23401259841126906 576.0342853656518 0.037754217316058845
0.5609354446519695 0.18411548513113973 576.0342853656518 0.04429514672700159
0.5647586021133794 0.21619842334373068 576.0342853656518 0.0390054716740698
0.5540453130519053 0.23535020241087656 576.0342853656518 0.041643986437835075
0.43058354945442157 0.14125729223413866 576.0342853656518 0.03240787247938707
0.47451419376382276 0.27083115207388886 576.0342853656518 0.028650002430683982
0.499817641086757 0.14092816339777334 576.0342853656518 0.031205122294119467
0.5163947246947345 0.20246601625228733 576.0342853656518 0.02860622134232419
0.42578399975061626 0.17835529507760095 576.0342853656518 0.02802246005493164
0.5637275580260037 0.3807899336773231 576.0342853656518 0.04356339715401307
0.5444459833477479 0.34939682644067666 576.0342853656518 0.03675946182929458
0.5161237624440642 0.19230564894240504 576.0342853656518 0.02738416139439409
0.5235231328819815 0.1728910664740673 576.0342853656518 0.028348099737433116
0.5376140372706245 0.22439111369446207 576.0342853656518 0.028035278837024558
0.48742271838849754 0.12448787274350503 576.0342853656518 0.04106855118132287
0.437597112045022 0.21995150119947435 576.034285365652 0.028577382429426552
0.46984793387199436 0.18601274135376689 576.0342853656518 0.028352181921442513
0.5444664359385303 0.25629519001910683 576.0342853656518 0.035094660468282385
0.5131551683863659 0.3286916972172161 576.0342853656517 0.02968718549728772
0.42700049414065366 0.21703588139149035 576.0342853656518 0.027871342947720795
0.5532809389902108 0.17379689784332192 576.0342853656518 0.04186733468501355
0.5340718774930334 0.3550459551960437 576.0342853656518 0.030006700593673455
0.4803103111705329 0.18944726255823138 576.0342853656518 0.0300319432733786
0.5296319506657478 0.20592638923872986 576.0342853656518 0.027456231013029703
0.5001644518854816 0.29490483709431414 576.0342853656518 0.03060642092273822
0.5606441066467737 0.25791541442885174 576.0342853656518 0.04271239355302378
0.4728954400951386 0.20792445672896206 576.0342853656518 0.0272691063266065
0.557304475345446 0.30641195721312353 576.0342853656517 0.04381080515853298
0.4864946075136991 0.24378133665633686 576.0342853656518 0.029242380366057388
0.45212932114757737 0.25386590241347207 576.0342853656518 0.029295850884150952
0.5022384487204554 0.27434247488576163 576.0342853656518 0.02895875306093557
0.40066819447843666 0.11551517251097745 576.0342853656518 0.043359996338507366
0.40258929081347955 0.18107869815992444 576.0342853656517 0.027803190788613617
0.5682071169063316 0.14535002090831048 576.0342853656518 0.0372954985878618
0.38773829923005704 0.1300529575285125 576.0342853656518 0.03577502730613032
0.4966514971345916 0.181791501482076 576.0342853656518 0.02901454757842162
0.5232448471356795 0.2592478528140853 576.0342853656518 0.028240825146775766
0.5241302668368636 0.21418871776343104 576.0342853656518 0.02718844600690016
0.5008226158561143 0.30497328873532226 576.0342853656518 0.030274953623138506
0.4500135359224291 0.21938289667669308 576.0342853656517 0.02783124094156216
0.3594539714171312 0.12059759013592462 576.0342853656518 0.04372320830154632
0.5476847250414837 0.38786041797835175 576.0342853656518 0.03776553378635633
0.41270634416599206 0.17882994151914378 576.0342853656518 0.02863905027631781
0.45906618762611817 0.19192892748032975 576.0342853656518 0.02916127406522001
0.5497701023849136 0.3183036663162104 576.0342853656518 0.03806871949094868
0.4995860380285821 0.2422975703274009 576.0342853656518 0.02979052024023254
0.42507444496377084 0.1894697945077212 576.0342853656518 0.028251970451229253
0.4951019022658939 0.1656066231347332 576.0342853656518 0.030566224751635753
0.5232434546929656 0.18404749119525593 576.0342853656518 0.030099087108734712
0.5539347608734456 0.4115063353958713 576.0342853656518 0.04410507910188798
0.507219366221809 0.12174465725077843 576.0342853656518 0.041744465574215794
0.4748741377868758 0.2470049906764362 576.0342853656518 0.02823871419734779
0.5354850735406683 0.19294641058829606 576.0342853656518 0.03157080897172873
0.4711809824312164 0.28171950505083443 576.0342853656518 0.028943632868299127
0.5231393533695192 0.23605893846231923 576.0342853656518 0.027704202365104874
0.5645790995873268 0.3578274931454367 576.0342853656518 0.04325618868015777
0.5655743958206687 0.23559226426919105 576.0342853656518 0.03982372373540903
0.4353122825588426 0.18944163324872873 576.0342853656518 0.0291297211335633
0.4105363842989174 0.16155113293681458 576.0342853656518 0.02961811464135123
0.5447488383082457 0.14676153061133684 576.0342853656518 0.031141809923301643
0.47338257893995495 0.1690122699668043 576.0342853656518 0.03060640470813045
0.5338760756272591 0.12633963440767187 576.0342853656518 0.034160798205387505
0.44007171185720195 0.16008220123428485 576.0342853656518 0.031303327267408636
0.5036801917802494 0.1737914782132977 576.0342853656518 0.028387736233774895
0.5241026368885724 0.12077988164327542 576.0342853656518 0.03950668925950244
0.5262622755508933 0.3638587420147863 576.0342853656518 0.028794398467834718
0.4430904880126853 0.24688636417773074 576.034285365652 0.02989339361097759
0.4914238859336634 0.1940132577715835 576.0342853656518 0.02856595188662126
0.5475775341107361 0.11702093912971355 576.0342853656518 0.046293938162124355
0.5671017276912365 0.34560714621690397 576.0342853656518 0.04169121552087536
0.5553645984615465 0.14995547269340792 576.0342853656518 0.03966180212074735
0.4503556053871053 0.17928976919395617 576.0342853656518 0.03128383458842971
0.5548154960878443 0.35520135186783025 576.0342853656518 0.04045939369172156
0.5194669150349056 0.2467749676117964 576.0342853656518 0.029532640037850787
0.48240994890256894 0.22776763867635424 576.0342853656518 0.02742530148289628
0.5025623298757032 0.2122951512815429 576.0342853656518 0.02797010543163581
0.4519412131048698 0.20843026175675675 576.0342853656518 0.02851850549226021
0.46072386615080896 0.13462431731095192 576.0342853656518 0.038311371392468256
0.443329306406105 0.2030216566982621 576.0342853656518 0.028393154937270827
0.5323437371652162 0.39280350963370453 576.0342853656518 0.029940643790207645
0.46241544992825123 0.25337646565428573 576.0342853656518 0.029315540683686407
0.4713285201728793 0.19682517633947594 576.0342853656518 0.02908172054480252
0.38432328661671566 0.11905585272546851 576.0342853656518 0.041490042698788566
0.4769343397191549 0.2975846486699732 576.034285365652 0.029586437399334167
0.4832450626349808 0.28845435838142613 576.034285365652 0.02872010506295023
0.5538049408092905 0.19210204660779223 576.0342853656518 0.04382920275881914
0.5350688365893668 0.3319882755219016 576.0342853656518 0.02901372682355813
0.5589764615800553 0.3895646901240872 576.0342853656518 0.040924952901019475
0.5585877371337095 0.2950175090930448 576.0342853656518 0.04167609099509045
0.565560956657954 0.19339736310832997 576.0342853656518 0.04267725141050922
0.43690818131169995 0.1302776133547431 576.0342853656518 0.03772361748996287
0.4946784907299312 0.2236381629088407 576.0342853656518 0.026749894251631233
0.5214400144140972 0.2252247971541563 576.0342853656518 0.027786701632447387
0.545524017819928 0.21326349511181342 576.0342853656518 0.035523647434813684
0.47061848207776674 0.21916023239793775 576.0342853656518 0.02862443239546937
0.5570886149117379 0.4230651991093458 576.0342853656518 0.05352232845775314
0.5119160817374097 0.3386334561221639 576.0342853656518 0.02915302916902817
0.5371339513817663 0.16061194754093033 576.0342853656518 0.030068997957153218
0.5281202585569384 0.31564022270586006 576.034285365652 0.028710488436140068
0.5621148160022668 0.16147537496860162 576.0342853656518 0.046166720954317224
0.46206950103601374 0.2423581081758089 576.0342853656518 0.02946505666562972
0.4201874298828006 0.16781751584216947 576.0342853656518 0.030454218571942963
0.5279239774351303 0.37363741723928917 576.034285365652 0.027696320478520033
0.5140575269186402 0.1544608824755488 576.0342853656518 0.027874183444215352
0.5346000804609112 0.18132351921368947 576.0342853656518 0.02946246571545941
0.4129713977777554 0.13209913486339506 576.0342853656518 0.03523205045620443
0.41925842885697784 0.1538343481524332 576.0342853656518 0.0291137395330263
0.4221073477487709 0.20310077768577264 576.034285365652 0.0279507683339111
0.5543977012319427 0.3436930788904457 576.0342853656518 0.04071069526853886
0.5357576821532836 0.30461896419429757 576.0342853656518 0.031213711770480337
0.3884052812308931 0.1408291646095198 576.0342853656518 0.032779965977847526
0.523371062946324 0.3023700943803487 576.0342853656518 0.02806176352956485
0.5637453065353644 0.26815539557863566 576.0342853656518 0.04325136764628682
0.48326495555730914 0.13543362526001204 576.0342853656518 0.032562041072174926
0.45086481033538395 0.23856477699513848 576.0342853656518 0.030010505844007423
0.4863735823400517 0.15630027359608303 576.0342853656518 0.029715462775182066
0.543526244854876 0.3389588192926158 576.0342853656518 0.03476114660761478
0.4886667033426297 0.30045564750120035 576.0342853656518 0.03022229037833894
0.43004883852776854 0.1681154764480683 576.034285365652 0.02985152055039527
0.506787930759234 0.1316123489685094 576.0342853656518 0.035382533804892535
0.5225976451618516 0.28569338165662417 576.0342853656518 0.02886069860421302
0.460739357943325 0.2176108833354995 576.0342853656518 0.028099816957860572
0.5108225171819476 0.2972866963636409 576.0342853656518 0.029301810348060356
0.5189958213917669 0.3509535293653029 576.0342853656518 0.02876142340724791
0.514895422326813 0.2653711436970839 576.0342853656518 0.029383833846953613
0.3787492824414983 0.1516005946566621 576.0342853656518 0.029314280510707686
0.5345066324550048 0.3448942329758279 576.0342853656518 0.03149010373183562
0.50777131044789 0.16418756462069634 576.0342853656518 0.0291695073977378
0.5434382434374959 0.13402212401042676 576.0342853656518 0.03413919299329601
0.5636110661370874 0.20496917030130946 576.0342853656518 0.03994115926722798
0.5182967277394899 0.13169564197288977 576.0342853656518 0.03456217440835547
0.4843979480145181 0.265884310808272 576.0342853656518 0.029164672822138197
0.3744776133501887 0.14096837543987703 576.0342853656518 0.030862528855382706
0.5344892800297418 0.2619124709754903 576.0342853656518 0.029386272840451262
0.4825582103724621 0.25438447716322604 576.0342853656518 0.028083785924458194
0.37101083091251563 0.12195163743440979 576.0342853656518 0.040806177844647296
0.4958877272383352 0.323501099233144 576.0342853656518 0.027554769664598657
0.401688881870084 0.13888110710459228 576.0342853656518 0.032870717192131076
0.45134094409756953 0.166904128292211 576.0342853656518 0.030744374311387643
0.49084023439861285 0.3100692258699966 576.034285365652 0.029312530671651453
0.5499641357902607 0.27380265100852785 576.0342853656518 0.03861216328729983
0.5326620070200047 0.29290772331317194 576.0342853656518 0.027035784222276905
0.5466365296946867 0.20062807784289088 576.0342853656518 0.037365091296779604
0.5494517189616404 0.22538888116336214 576.0342853656518 0.040153554839012714
0.5607186771225577 0.11863617100443571 576.0342853656518 0.049147517372696285
0.5631772266086527 0.13659583799117606 576.0342853656518 0.037471401280235184
0.4320421633911009 0.12021242985958483 576.0342853656518 0.0427611809698994
0.39770388176914756 0.1293086552845807 576.0342853656518 0.03495980954320678
0.5469889874818439 0.30936853656727975 576.0342853656518 0.03876621136305331
0.462256982442825 0.16946111494387797 576.0342853656518 0.02992802066693431
0.4715116768468245 0.2329339596574792 576.0342853656518 0.028779968559452623
0.5648318247554585 0.33431657772951906 576.0342853656518 0.04027385439236244
0.5682988481402349 0.2478505877243184 576.0342853656518 0.0432290212583316
0.5648834847324875 0.3684259175857373 576.0342853656518 0.04345729877161136
0.5435717699020048 0.24401224180051603 576.0342853656518 0.035592880984804245
0.48519381868976486 0.16822874978151364 576.0342853656518 0.03022023408558423
0.4850054762886564 0.1790797939179675 576.0342853656518 0.02981964825408988
0.4218741329243676 0.12322432579180462 576.0342853656518 0.039700247107641
0.349029052734375 0.18932171776883 576.0353549598924 0.02922499145607963
0.4215930579050332 0.45480270385742116 576.0424789038641 0.13622894651699857
0.5173427938407356 0.45480270385742116 576.041061770506 0.14377015136615667
0.4940286198835389 0.45480270385742116 576.0398377023391 0.1287940584594605
0.5638624193560489 0.45480270385742116 576.037009558062 0.13417921183511336
0.5746625823974609 0.2835600701166212 576.0398852520093 0.03724026868023938
0.5746625823974609 0.30751896580821675 576.03819705132 0.04061122945757344
0.5746625823974609 0.32713052644560103 576.0372369427575 0.03963967089064503
0.5746625823974609 0.16848027513230662 576.0393635240267 0.03630339831196901
0.5746625823974609 0.20507091356500579 576.036444810261 0.033632040871776334
0.5746625823974609 0.3557230483646721 576.0359883663293 0.038732215288150185
0.5400484435278547 0.10980600738525581 576.0379961824071 0.0465328669224796
0.4527163216135944 0.10980600738525581 576.0419589933235 0.05152316820690918
0.3604953932228686 0.10980600738525581 576.0378534156313 0.04951158409037162
0.5447041863136994 0.138608267749343 576.0437853627908 0.030086835418138846
0.4691075059833531 0.2500281468559769 576.0437853627908 0.028108375001094966
0.4790722260723646 0.18002929499095227 576.0437853627908 0.031460331886130385
0.3622326377330586 0.22535403106417978 576.0437853627907 0.026989812401465012
0.357051214809881 0.25152329462759837 576.0437853627908 0.028708996490226745
0.3767536907141354 0.26276922727766394 576.0437853627908 0.02875653218449787
0.4833564211417221 0.20848858389817235 576.0437853627908 0.031031589584148554
0.4141389622784051 0.30971158236932694 576.0437853627908 0.0289510286795547
0.358971705379866 0.2723581224703949 576.0437853627908 0.030883497835628076
0.3958215711875105 0.17802163854709216 576.0437853627908 0.028598491246190978
0.3514332281300478 0.33949549176634175 576.0437853627908 0.029419064743259112
0.3732897543168876 0.1319420000769323 576.0437853627908 0.03438124644493509
0.4699864515218788 0.12661460394474197 576.0437853627908 0.03869499397250388
0.363559589255755 0.3142403762700806 576.0437853627908 0.028199424290439375
0.43713348517352923 0.2930982349161477 576.0437853627908 0.028156591369171913
0.3685893182596448 0.20117082260192198 576.0437853627908 0.02835227960009638
0.39364173905745276 0.2991517115210294 576.0437853627908 0.029065526885450266
0.41920826583376014 0.17530328473621626 576.0437853627908 0.02839962151926188
0.39297048995882866 0.20762504168528995 576.0437853627908 0.027845928707753695
0.5352557103785444 0.15662664527672537 576.0437853627908 0.02818479211030814
0.380974990295049 0.32395988136412274 576.0437853627908 0.030698488325823694
0.36556312620012665 0.3333078299620084 576.0437853627908 0.029299107619140827
0.3886922306328647 0.382307211281022 576.0437853627908 0.02993367687618384
0.511522699948839 0.1496078425767011 576.0437853627908 0.028877715723391272
0.365489963175847 0.3639530685863348 576.0437853627908 0.029349915850793714
0.3829684055704885 0.35727654863886615 576.0437853627908 0.029759746688967883
0.3757189518609605 0.15868791936158583 576.0437853627908 0.03122329122664125
0.5182912035084124 0.11867786991855887 576.0437853627907 0.039369076614102855
0.406078263241358 0.11270219480168579 576.0437853627908 0.04512580382014045
0.40004641167718025 0.13396191994003542 576.0437853627908 0.03318721949157516
0.43268756197316144 0.12804864363300258 576.0437853627908 0.03896604098393965
0.4334629492081099 0.3030694221091759 576.0437853627908 0.030419640374696872
0.41022810461082065 0.2611455906268072 576.0437853627908 0.02772527764008345
0.3986187040222916 0.31300725053367207 576.0437853627908 0.02922312176792527
0.35852561208730843 0.21511654549317755 576.0437853627908 0.02867666640905574
0.5044932784533458 0.14256379739855535 576.0437853627908 0.030381919693626025
0.37137734305032505 0.18830579783995638 576.0437853627908 0.028334484325769956
0.3524147085049171 0.2882343646027053 576.0437853627908 0.027141392395448587
0.4455909943834483 0.3037245459914229 576.0437853627908 0.030098241096621545
0.45389067724381194 0.13249195843216183 576.0437853627908 0.037682145738133645
0.44415290678395514 0.27105177963608307 576.0437853627908 0.029015155906152237
0.43202715924874646 0.115986328265825 576.0437853627908 0.04572570236503778
0.4527704443935174 0.12276545811316841 576.0437853627908 0.04499942712677487
0.473237558840288 0.20110949315509163 576.0437853627908 0.030436336742296122
0.42606440680244373 0.20712981359742835 576.0437853627908 0.02722813700620839
0.49980821012395127 0.16338883964731177 576.0437853627908 0.029579368730815746
0.5004746467311587 0.2226423976227396 576.0437853627908 0.028818335962985744
0.35317776064029077 0.4004098350233368 576.0437853627908 0.02912941740075968
0.4977020980385984 0.1885612031961154 576.0437853627908 0.026824179423156014
0.42818193735778054 0.3156909893090423 576.0437853627908 0.030404555285689784
0.3754294800415518 0.3655356765900011 576.0437853627909 0.03049390824325112
0.44436370735860903 0.17211390305466606 576.0437853627908 0.031561933929257484
0.36769585166135366 0.28164779504256254 576.0437853627908 0.03029040867107147
0.3584526013495928 0.18116395049470835 576.0437853627907 0.02945919500052827
0.41652328595336774 0.15648190855416397 576.0437853627908 0.0291068361398866
0.4601056346842959 0.1467356921108966 576.0437853627908 0.032713242810943635
0.4223721717931328 0.1967618015128531 576.0437853627908 0.028179652568605107
0.3758933719719608 0.312853141598911 576.0437853627908 0.028967678630118357
0.44275060193656834 0.13488285919796475 576.0437853627908 0.0377667822566579
0.3625005499457614 0.14204934998773344 576.0437853627908 0.03023723215845543
0.4551077594318441 0.24631210819396718 576.0437853627908 0.03006483243692967
0.383488070189703 0.14027566398341704 576.0437853627908 0.028219990661678667
0.41514597499082545 0.2964055899852841 576.0437853627908 0.02787945896550933
0.4000546688606069 0.1994253695171064 576.0437853627908 0.027515925329652264
0.3959721370362016 0.27807400941281496 576.0437853627908 0.028610563854244864
0.3567021036999034 0.32613577578159025 576.0437853627908 0.029054698595543434
0.4898857265736933 0.20062033359200954 576.0437853627908 0.028934672096200778
0.43326307137345776 0.14741605666092533 576.0437853627908 0.0321086826365009
0.47267973509074135 0.16302768986067848 576.0437853627908 0.0323964107165948
0.4792821018420399 0.2434050519499332 576.0437853627907 0.029504506386527445
0.3774112019854723 0.12203321718138815 576.0437853627908 0.039095552661083915
0.3730963803312863 0.2216093504473328 576.0437853627908 0.02840930147387231
0.5209549921844705 0.14077082874970445 576.0437853627908 0.028291037353182537
0.5095162661600311 0.16008053459529517 576.0437853627908 0.02891693582269072
0.43176318162309824 0.21541685690894316 576.0437853627908 0.027513869318537807
0.40228540600022944 0.23902951851364668 576.0437853627908 0.026290403397109773
0.46045087504722526 0.22513024315768507 576.0437853627908 0.028378767118451203
0.38960967515404094 0.1251248815065985 576.0437853627908 0.03938788315404759
0.36985589974564814 0.3947117912121552 576.0437853627908 0.030190245439501887
0.3917857722100764 0.4275755755419343 576.0437853627907 0.035903833235096556
0.5353196858984387 0.20029313575132518 576.0437853627909 0.029227483821906996
0.5723654858710313 0.36200747605221495 576.0437853627908 0.03933759783982671
0.5387535394382922 0.23778117442419555 576.0437853627908 0.031166053129363564
0.5201460821093408 0.31800074352304364 576.0437853627908 0.02880211450114506
0.4251398350668074 0.3490412950315723 576.0437853627908 0.031162976278998934
0.5114581084633536 0.3842963160635746 576.0437853627908 0.03018183232146428
0.42866579002220906 0.36347650730999365 576.0437853627909 0.03088517978850075
0.5416534185650796 0.42902785918648156 576.0437853627908 0.04256047110172663
0.44115240300010033 0.4146026162418785 576.0437853627908 0.0315241707212666
0.5674058889969099 0.12528448205113457 576.0437853627907 0.04052986391230872
0.446546041046735 0.4391650579063219 576.0437853627908 0.06269287954532722
0.45557568360274137 0.42056400738284316 576.0437853627908 0.032334321273768264
0.47367125649548314 0.3280090815075354 576.0437853627908 0.029238859462969523
0.5639976085579453 0.15098835346384226 576.0437853627908 0.040168057400938505
0.5595317598183689 0.299830911230329 576.0437853627908 0.04236615608596241
0.5708487601490793 0.38841472654445075 576.0437853627908 0.03837728727841905
0.5512489740211137 0.17401169363210175 576.0437853627908 0.04125497770702341
0.5024605537339875 0.40093691173865176 576.0437853627908 0.029593624309136524
0.4746157941144253 0.2907592437220188 576.0437853627907 0.02786470677728935
0.5278301402273858 0.3024167240051219 576.0437853627908 0.027924536952171296
0.5723773782185413 0.1588744712075114 576.0437853627908 0.03900763155490227
0.3972173584897365 0.41236282910338057 576.0437853627908 0.03134269419469772
0.5068610105616603 0.24527270042843383 576.0437853627907 0.02879800751738473
0.5061796359363779 0.3226748427788251 576.0437853627909 0.02940812375866295
0.5591329043925353 0.34799252957392296 576.0437853627908 0.038959899751330344
0.49478662304202115 0.31604447855793555 576.0437853627908 0.029054033118408602
0.4856049025359427 0.3091750211026051 576.0437853627908 0.029887220574547915
0.45377943497441764 0.36717628291475635 576.0437853627908 0.03020541278120472
0.43826007776572606 0.3787694713148405 576.0437853627908 0.02973541623609166
0.5520513872338448 0.2609077640576539 576.0437853627908 0.03845658370082554
0.5515956261535819 0.37781521521797035 576.0437853627908 0.039258384708906725
0.5728256847997115 0.4388116470139265 576.0437853627908 0.09266295893329074
0.46969335698637105 0.31566672249016936 576.0437853627908 0.027830310265390807
0.3870956734940519 0.4088138348478396 576.0437853627908 0.032961306179567246
0.5153350248395765 0.34283599130412756 576.0437853627908 0.031001281368114447
0.4624981133868551 0.33676779560305115 576.0437853627908 0.028157137523987012
0.5634587131577476 0.24310083758020365 576.0437853627907 0.045033936813049354
0.430539930263038 0.3402842035657491 576.0437853627908 0.02880336621330725
0.5188050643854216 0.2986628086866224 576.0437853627908 0.030086972448177606
0.5549474094461145 0.33713118058601066 576.0437853627909 0.039315118747528646
0.500741730591537 0.23474586174745274 576.0437853627908 0.029040105407231405
0.5644211686054684 0.17729740098906488 576.0437853627908 0.04557248457005022
0.5634601859991631 0.4308996896121709 576.0437853627908 0.06278485865753
0.543453662186307 0.34529642981728426 576.0437853627908 0.032468441619888544
0.45141458814435176 0.3444873041920518 576.0437853627908 0.02766972730089867
0.5044051747869929 0.29921730009613745 576.0437853627908 0.02951731580940056
0.5730737491779024 0.31739891127942826 576.0437853627909 0.038873356387360225
0.552058973987943 0.20294102180670864 576.0437853627908 0.040284224754276336
0.5319277383248784 0.3245664551993415 576.0437853627908 0.028354184535843593
0.5499463258757636 0.23623163335969471 576.0437853627909 0.03830100872834876
0.5358947549928981 0.4000164459412495 576.0437853627907 0.031182221681270102
0.4956969688478725 0.38784691726806725 576.0437853627909 0.029337845194395428
0.49663758043126544 0.29267720885876347 576.0437853627909 0.029333110949915798
0.4972802462867072 0.25065161605269975 576.0437853627909 0.029915510314857115
0.4524288493165805 0.41014239688340204 576.0437853627908 0.033540901379097855
0.5626281385794208 0.30960183528571905 576.0437853627909 0.04263720935264832
0.4658313170887268 0.368250107227706 576.0437853627908 0.032555282536406945
0.5498851757074633 0.14828096567365526 576.0437853627908 0.03334551218369351
0.45391193882235736 0.43096815084050855 576.0437853627908 0.04340825730562036
0.5609966025777352 0.3975797344795151 576.0437853627909 0.04126640104689792
0.4537561810840946 0.31257450501731343 576.0437853627908 0.029342621396862525
0.36304394979626337 0.43614346361948386 576.0437853627909 0.06410173616189757
0.4734592724502523 0.40759373090172873 576.0437853627908 0.03165123503046723
0.5272720046512416 0.34819954907452716 576.0437853627908 0.030267283382671047
0.41666967550425654 0.3729292309905247 576.0437853627908 0.032201572927815045
0.5721731461787234 0.27122841626892724 576.0437853627907 0.039639786713968284
0.5077358088687602 0.33479689634783694 576.0437853627908 0.028269471960971973
0.529378736845089 0.18881801392557837 576.0437853627908 0.02883192288067212
0.3525542307906528 0.4219471854739697 576.0342853656518 0.036319185960838725
0.35383398380426123 0.2686145929368042 576.0342853656518 0.029549629775743585
0.3697931954499626 0.4507765482939534 576.0342853656518 0.10517084431911072
0.5508059290950046 0.4523536727678188 576.0342853656518 0.11205358946082856
0.49836349546301534 0.11360919301486753 576.0342853656518 0.04703868855546546
0.3523747550730387 0.19995741932984157 576.0342853656518 0.02915607323197519
0.3524558261053887 0.24747516943389122 576.034285365652 0.02767901450145982
0.5687106469499336 0.2965236046201354 576.034285365652 0.04214713263994935
0.5721151434310785 0.22479842019713395 576.0342853656518 0.04151164286064677
0.5179828282816356 0.11237781786773562 576.0342853656518 0.0466425957774561
0.34956626911130473 0.15572620261545184 576.0347481490257 0.029371117951606185
0.3833104612553815 0.4539337826698275 576.0436542839784 0.1456647759097236
0.4687886625555023 0.4544956773403413 576.0349783384738 0.1058383626416153
0.5743369591068201 0.4520175659399578 576.0431109860815 0.1503312768171728
0.574636634461181 0.3834116331972366 576.0352594167867 0.035581941499266044
0.5744694830319522 0.11838741498983558 576.0350922655169 0.03475600272412822
0.508201347143613 0.11002425299183918 576.0350671192998 0.05344551553710417
0.3540290532112122 0.386392597721233 576.0346925767863 0.030322893475317806
0.3540290532112122 0.2097770354093082 576.0350150256592 0.028999741990367686
0.5684460906982423 0.40195271069804756 576.0344005097592 0.037743865346154024
0.5684460906982423 0.17352571448240434 576.0344489260805 0.04113357568876824
0.46211514896217387 0.20368054699392676 576.0362853646982 0.029725877610114405
0.41282699833465664 0.1448886443158068 576.0362853646982 0.029937603709994976
0.5440178053566515 0.29347599817518355 576.0362853646981 0.03225797674493449
0.5025671256101765 0.31539012777434433 576.0362853646982 0.028480538505280168
0.49265045944483243 0.2721958516285812 576.0362853646982 0.02906297909405489
0.5424882264658737 0.361184095340305 576.0362853646981 0.03367114552889037
0.5259578644281427 0.3275987717100485 576.0362853646982 0.028047592157215962
0.5055961103397316 0.18839926637097226 576.0362853646982 0.029460080041199065
0.5135948786197588 0.21522017059566678 576.0362853646982 0.026922914262557607
0.5131133928316454 0.2765223448335505 576.0362853646982 0.030666969112389385
0.566288257347716 0.32257224024365083 576.0362853646981 0.04237294120266039
0.5046908613754023 0.25258729973511546 576.0362853646982 0.029207576589557194
0.5403743880808365 0.2787676223404186 576.0362853646982 0.030392017183849866
0.5041750898675791 0.20244222951824542 576.0362853646982 0.02860890443787566
0.5146979990781492 0.30812122481610793 576.0362853646982 0.02810162630111073
0.401042256817782 0.157263074927265 576.0362853646982 0.03038627901582425
0.5241135451764105 0.33915765101130624 576.0362853646982 0.030270923873392763
0.46682757611587966 0.26189894881735315 576.0362853646982 0.028195748636714212
0.3967300397177191 0.1685405751276759 576.0362853646982 0.028930248475512576
0.5142634812802636 0.14173795218869448 576.0362853646981 0.030894680578641375
0.5417589231297875 0.3736026863444132 576.0362853646982 0.031588562540712364
0.4334203076981894 0.2018624761774461 576.0362853646982 0.027547104271816687
0.552420299326699 0.40010082038601685 576.0362853646982 0.042701916023563415
0.44725514918175613 0.19133813586319517 576.0362853646982 0.029870794089751723
0.5474107460666072 0.18316741215840668 576.0362853646982 0.039486118913067324
0.4373176888102468 0.23367345839230766 576.0362853646982 0.02982476889594978
0.5445887095244156 0.4081777770123303 576.0362853646982 0.03732184089632797
0.46235565215300056 0.1793980404741521 576.0362853646982 0.03128292895920145
0.4813562601119884 0.19941100991829105 576.0362853646982 0.028698632710263024
0.4976799297824635 0.12504167802552374 576.0362853646982 0.0385904163564581
0.41003731513695846 0.2700742065933509 576.0362853646982 0.029856414930658295
0.39913467311214545 0.21951289837181603 576.0362853646982 0.028275159355215955
0.35570892911216995 0.28202234156222034 576.0362853646982 0.030978510330832928
0.36622085161833706 0.3524547839026352 576.0362853646982 0.029902937489987885
0.3857394602128135 0.3983445069506327 576.0362853646982 0.03188173828289326
0.39460740878950196 0.24905627126219537 576.0362853646982 0.02702478272070217
0.45604861924242285 0.4384792266380797 576.0362853646982 0.0629714881140849
0.3637966816830178 0.2894548666461867 576.0362853646982 0.02732306931191822
0.4132022882231671 0.21526130484734607 576.0362853646982 0.027575906207160182
0.4003699909222251 0.34455669402913014 576.0362853646982 0.02998191869158379
0.4291177884887577 0.3540659018288979 576.0362853646982 0.03049165489446775
0.43248252978151736 0.24535356969603697 576.0362853646982 0.030459122650215262
0.4084832934725478 0.20177729999648458 576.0362853646982 0.029348718691813894
0.4921292736908826 0.4024281427788244 576.0362853646982 0.030273688441431478
0.5066980648920323 0.3535578212235253 576.0362853646982 0.03000521825848155
0.3783815052832115 0.22754804036422893 576.0362853646982 0.025549641027493384
0.4599221496522047 0.2849282788219539 576.0362853646982 0.028632589904915014
0.3872967596018945 0.32868856533184426 576.0362853646982 0.030761041406063706
0.43554958232340124 0.434839733687699 576.0362853646982 0.05042913800529323
0.42166104659980924 0.2513354414733776 576.0362853646982 0.027884233017496356
0.35579933043092393 0.14398104349896756 576.0362853646982 0.03176109000152676
0.364647992207993 0.4280170385011073 576.0362853646981 0.03809158219249127
0.42766259718282795 0.4248998359914745 576.0362853646982 0.03718259219069838
0.4453733620306003 0.31143459202268275 576.0362853646982 0.03157828226071787
0.42542588902632805 0.2272762625227199 576.0362853646982 0.026380204781928065
0.3585210844694242 0.2325699743103788 576.0362853646982 0.0275925643344979
0.47794981652255114 0.3231678223061509 576.0362853646982 0.028510263739941276
0.4200155212625525 0.32953310959053494 576.0362853646982 0.03000111494230321
0.39576373339819604 0.41953681004403787 576.0362853646982 0.031088219527625086
0.4927272948323941 0.3719367738263309 576.0362853646982 0.03134586190457664
0.3651608372473452 0.19463589340121012 576.0362853646982 0.02984542158667325
0.4953002056104716 0.3527546704423171 576.0362853646982 0.03010858539479646
0.35716326431274437 0.37670257877930785 576.0362853646982 0.029075455646355573
