x y z curv
0.3957309487529048 0.45080760192871594 429.1680212075139 6.71171358692394e-14
0.5582748417770695 0.45080760192871594 429.24368416211854 0.07562940440181626
0.47739881703074427 0.4508076019287159 429.12524117456655 0.13912012484583378
0.5440267232663489 0.4508076019287159 429.1466799607415 0.05958480076049666
0.37476260464697564 0.45080760192871594 429.13753145769414 0.12987719773456627
0.5317877975740517 0.45080760192871594 429.31875010019945 0.006201138510033485
0.5059381502414796 0.45080760192871594 429.2041504040026 7.42784012528199e-14
0.5392069375433167 0.45080760192871594 429.1814264289683 0.0241740190570847
0.490760507310097 0.45080760192871594 429.214180680935 1.0308976779757189e-13
0.39616802157418246 0.45080760192871594 429.2138041654602 3.412988282322865e-14
0.531819116628451 0.4508076019287159 429.2295777719339 0.004008683213359057
0.42374624222736007 0.45080760192871594 429.18356580798053 7.533197681487436e-14
0.5573773750675706 0.45080760192871594 429.21968634487786 0.07249277265786405
0.5296464454025919 0.45080760192871594 429.2008015927262 0.0011736151490516103
0.5535843553030766 0.4508076019287159 429.3358934647257 0.06291783721107946
0.5326806899233318 0.45080760192871594 429.247722137487 0.008151603146283293
0.5276987581954924 0.4508076019287159 429.4047289088627 1.687312678739178e-13
0.5316641709711425 0.45080760192871594 429.3747488458323 0.006735766092470934
0.48017840649266885 0.45080760192871594 429.31803054498977 1.6806694391346022e-13
0.566229579341236 0.45080760192871594 429.2512569762247 0.0742609241236293
0.4508371686451633 0.45080760192871594 429.27719953295275 1.0347278953787637e-13
0.4392839796858934 0.45080760192871594 429.2174257839722 6.203919595235756e-14
0.48782663536439413 0.45080760192871594 429.2259301643943 6.536075816343906e-14
0.5463939797905559 0.45080760192871594 429.35221316503043 0.05468987270223809
0.37563570740034263 0.45080760192871594 429.1238307167963 0.15991580121322332
0.41934579281384143 0.45080760192871594 429.16191879455664 1.2657563794662947e-13
0.5310601471027566 0.45080760192871605 429.14266904854696 0.07367109278813498
0.39227201919872795 0.4508076019287159 429.1472110702068 0.04392795086289147
0.510531637742781 0.450807601928716 429.1732320831003 1.3987193672828618e-13
0.4003797989986856 0.45080760192871594 429.1780030295518 9.385221374076794e-14
0.508747047023369 0.45080760192871594 429.1476692007664 0.05337819788632735
0.5109587292280071 0.45080760192871594 429.30534669597745 6.399110412327414e-14
0.46552457323011615 0.45080760192871594 429.2355290717172 6.771751482263368e-14
0.52767021730123 0.45080760192871594 429.18194698035705 9.677669927365512e-14
0.46308327023011797 0.45080760192871594 429.2163964478025 9.596294868379036e-14
0.439982231307472 0.45080760192871594 429.14631465806127 0.04122048599790579
0.4340804993197186 0.45080760192871594 429.17495802453647 7.118858305584382e-14
0.47797932022201045 0.45080760192871594 429.2161284623781 6.516050851616479e-14
0.510149056132696 0.4508076019287159 429.3169322762783 7.315353342109858e-14
0.5560234593479969 0.450807601928716 429.42380044635223 0.0751174881061073
0.45993194561016537 0.45080760192871594 429.1361440816366 0.09262876963572352
0.46300672301398954 0.45080760192871594 429.19250691680764 7.399812748473188e-14
0.4895898965181403 0.45080760192871594 429.30230047502965 7.119518324832083e-14
0.4874435803809696 0.45080760192871594 429.19580756240896 1.0420146727644481e-13
0.46788187499185085 0.45080760192871594 429.1595395018559 0.004801219258678438
0.4867710893324353 0.45080760192871605 429.13591359429284 0.11347265094363929
0.5136163720883742 0.45080760192871594 429.19796148403503 1.2712247265464002e-13
0.45752178160180107 0.45080760192871594 429.2665744548085 9.742102373851546e-14
0.39313725542110256 0.45080760192871594 429.18706844740916 1.0307088602019171e-13
0.5148339169165473 0.45080760192871594 429.2478842950836 6.953309552230817e-14
0.555221946816102 0.4508076019287159 429.2325477416847 0.0783752174854574
0.41217867683560305 0.45080760192871594 429.22265462250675 6.630844774246476e-14
0.554057214131282 0.450807601928716 429.36434567560826 0.06214461302442759
0.4304159849300995 0.45080760192871594 429.21004216914224 9.573382392096069e-14
0.5012886297292679 0.45080760192871594 429.22141428456257 1.027466653913308e-13
0.47760869757021357 0.45080760192871594 429.1899643974589 1.0164769396909874e-13
0.5499813926150652 0.45080760192871594 429.43459053565584 0.06468594922426862
0.5572802974753029 0.4508076019287159 429.34800221583583 0.06353630797091667
0.42172299671433755 0.45080760192871594 429.12667446837867 0.09140641081230651
0.545894132120127 0.45080760192871594 429.1689403222997 0.03687479421929696
0.4208157535249627 0.450807601928716 429.20359468660223 9.769093839625194e-14
0.4926960486605858 0.45080760192871594 429.2907850556977 3.5355693319002273e-14
0.5323855862174444 0.45080760192871594 429.1319032165125 0.0927303729929143
0.5002378681659626 0.45080760192871594 429.35478037042105 9.981486347066438e-14
0.48745697688950945 0.45080760192871594 429.26535066877597 9.606220187527523e-14
0.4176589866526142 0.45080760192871594 429.24185645832335 1.0106461098545083e-13
0.5392759604579955 0.45080760192871594 429.28797362542457 0.030205143097867836
0.4342733471022518 0.45080760192871594 429.1903301875067 1.0379441015108339e-13
0.49863777203430115 0.45080760192871594 429.31229382285824 7.370032451786152e-14
0.4399239121738323 0.45080760192871594 429.2543976923125 6.87946709776919e-14
0.5495707644875679 0.45080760192871594 429.18442228678236 0.05150049963351991
0.5229303605886844 0.45080760192871594 429.22543517992665 6.781245093087946e-14
0.5573301035913485 0.45080760192871594 429.3821243048905 0.0797858492799742
0.4705893977300021 0.45080760192871594 429.1820771928201 1.0017971564865767e-13
0.5173383629481292 0.45080760192871594 429.3509102700941 1.3379531910268983e-13
0.5475840567553922 0.45080760192871594 429.1328944730092 0.14525578782530676
0.4776390040696308 0.4508076019287159 429.3074882662298 1.716349381876172e-13
0.5643847652372759 0.450807601928716 429.2805894751586 0.07676951585198885
0.5142806949563701 0.45080760192871594 429.2343700554275 1.0346494421708078e-13
0.5045674011686034 0.4508076019287159 429.29712036617525 1.3063588255634125e-13
0.5518031289090307 0.45080760192871594 429.30451496420034 0.08389108073411657
0.46041898879926013 0.45080760192871594 429.2936014009829 1.3529812029026855e-13
0.3701633971370042 0.450807601928716 429.1614478171732 0.00024004004557421176
0.5224950335141068 0.450807601928716 429.3340154661315 1.0369896882316415e-13
0.54848365252024 0.4508076019287159 429.2067403378654 0.057653252310413475
0.5544977225065729 0.4508076019287159 429.4018846933474 0.06274250132091636
0.5114751950796077 0.4508076019287159 429.3753425414788 1.1528796368947415e-13
0.5346412260465505 0.45080760192871594 429.2171771787097 0.005393320922983042
0.521707357342138 0.450807601928716 429.1507491347918 0.03579848728192705
0.3524222337345876 0.4508076019287159 429.12781098691346 0.15252775598860308
0.3633805376008129 0.45080760192871594 429.1536394676334 0.036363721202636194
0.5547639278842135 0.450807601928716 429.4434734893539 0.10101107063708013
0.4492896488903442 0.45080760192871594 429.2465444106647 3.770730900776633e-14
0.47131363571669227 0.45080760192871594 429.25402567872857 6.64447128442639e-14
0.3825086233350231 0.45080760192871594 429.1869099111491 3.437900717997776e-14
0.5323937708898128 0.45080760192871594 429.170534960961 0.0014860477220805285
0.5342044492422718 0.450807601928716 429.35207945421274 0.010359628906716085
0.490169163516948 0.45080760192871594 429.15912070920183 0.0035095777040318097
0.41032252648944634 0.45080760192871594 429.1961823022222 1.0546169681542711e-13
0.3621759993492536 0.45080760192871594 429.38696206566357 0.0328704061249893
0.47268234900138517 0.45080760192871594 429.4078218506951 1.5612354372869245e-13
0.5297194561486487 0.45080760192871594 429.4247236109643 0.00022078679395088385
0.4371214733284617 0.45080760192871594 429.34821285084934 9.561997486225885e-14
0.3932170996059095 0.45080760192871594 429.46075283069035 0.07180425351468024
0.49099302540910256 0.45080760192871594 429.4262886332792 1.4535337904124163e-13
0.38856314602786723 0.45080760192871594 429.3115820760808 6.843706337131534e-14
0.36125844085003994 0.45080760192871594 429.2953863257644 0.02031050886276428
0.36963912680258487 0.45080760192871594 429.184669261133 0.0015046103306333408
0.4264646011738404 0.45080760192871594 429.39917514228955 1.432204993918817e-13
0.3403977966701779 0.45080760192871594 429.4213054463548 0.06923412348312137
0.40425878101762835 0.45080760192871594 429.4373354002134 0.03686530941238326
0.35702042408190987 0.45080760192871594 429.25399436797727 0.034679819608407325
0.42223025070423686 0.45080760192871594 429.34113661097865 3.565952792027911e-14
0.5016427683035585 0.45080760192871594 429.45152070019265 0.06824508666790238
0.36897215056803645 0.45080760192871594 429.46100899116703 0.07614124331639208
0.39107569444536755 0.45080760192871594 429.3678061030024 7.00015152736001e-14
0.355025715742028 0.45080760192871594 429.18343775290555 0.045565700221225115
0.43552017586938097 0.45080760192871594 429.40949060252024 1.6491986019026527e-13
0.37258565303420194 0.45080760192871594 429.2949372349988 1.0474476308579068e-13
0.487358452468719 0.4508076019287159 429.4090585331534 1.0460469646553912e-13
0.385026148742177 0.450807601928716 429.21100175470406 2.950536073229229e-18
0.4245368145633909 0.45080760192871594 429.41382352376064 1.2748919324769597e-13
0.33858257398876546 0.45080760192871594 429.23515070216234 0.07416676549796011
0.36955696179553565 0.45080760192871594 429.41175119374145 0.0010333493361801016
0.3468383646709946 0.450807601928716 429.33444184020556 0.08258075124641912
0.3352361623786059 0.450807601928716 429.13963682341426 0.13139133937534
0.3622908779643599 0.45080760192871594 429.31719671388635 0.025056141408581502
0.35860798556449436 0.45080760192871594 429.196251828156 0.04440658186619864
0.41883000419424926 0.45080760192871594 429.3017866205099 9.750173651302786e-14
0.4593608076942447 0.45080760192871594 429.4551749450212 0.08629791163933483
0.4711825311140291 0.45080760192871594 429.3679746244256 1.2454815419510764e-13
0.5034543875500677 0.45080760192871594 429.38496535135096 1.2976545469791707e-13
0.3389456307157556 0.450807601928716 429.1978188823601 0.06060609389354912
0.34479602565219164 0.4508076019287159 429.3729268859032 0.07628846484840036
0.4525997202084707 0.45080760192871594 429.3601643548852 1.0232024105276957e-13
0.33998601813192975 0.45080760192871594 429.275412260178 0.07743575140640624
0.4940474993454964 0.45080760192871594 429.4415255319956 0.041085260666106245
0.5076194398936302 0.45080760192871594 429.4185761327729 1.6174084727672358e-13
0.4107425467225638 0.45080760192871594 429.29018717747084 6.904130463197306e-14
0.3936358024708916 0.45080760192871594 429.2387312592226 1.0158387722142544e-13
0.3761054535747617 0.45080760192871594 429.2059524478359 1.0048952860184022e-13
0.4426150410444507 0.45080760192871594 429.4297058221789 0.00017416466597940466
0.3618299555807126 0.450807601928716 429.42994333568413 0.0365706497879263
0.38290437616643624 0.45080760192871594 429.2215686424904 1.0130436550559636e-13
0.4971906018873178 0.45080760192871594 429.46306567071997 0.06437823009638168
0.33843837830244816 0.45080760192871594 429.3247547664416 0.09045818516135182
0.3486063880484609 0.45080760192871594 429.4315118295535 0.044604811341199875
0.46810772928795463 0.45080760192871594 429.3398507415908 1.0468837712088683e-13
0.5135429030734169 0.45080760192871594 429.4406498451474 0.04108243231489359
0.39588367103039496 0.450807601928716 429.27720299247636 6.699894354026506e-14
0.3544401086680554 0.450807601928716 429.2735396354353 0.058014630721279645
0.5213478487443101 0.45080760192871594 429.4334841536686 0.014779365482344198
0.3691298594780409 0.4508076019287159 429.22196682596945 0.0044060109784059085
0.3690631153077606 0.45080760192871594 429.1958462770491 0.006297489310138989
0.36199744505440334 0.450807601928716 429.33713493367173 0.024382713886025545
0.4835110800627575 0.45080760192871594 429.39213221430424 1.6447012390510082e-13
0.34436771136072936 0.450807601928716 429.24545055675003 0.07957270273061326
0.3898539635818697 0.45080760192871594 429.2891626753157 1.0001509838223828e-13
0.3548949366856424 0.45080760192871594 429.37311350694563 0.059007966062021314
0.5520854513889664 0.45080760192871594 429.4569102490076 0.12307504325871978
0.4680927895526993 0.45080760192871594 429.42057622665686 1.888206610639557e-13
0.4079463481581974 0.45080760192871594 429.41698855092113 9.784624636636222e-14
0.36838308966163297 0.450807601928716 429.2474903897157 0.0037935520272601034
0.5000187453325793 0.45080760192871594 429.407312802276 1.3091343007895692e-13
0.437212334682786 0.45080760192871594 429.3352817467387 9.328625430610968e-14
0.41686336232601534 0.45080760192871594 429.43896736116085 0.0346598894546294
0.3743687271571565 0.45080760192871594 429.38429910106726 3.3787729554216626e-14
0.34273690917941907 0.450807601928716 429.39586347106797 0.08537356493797581
0.39291578894076107 0.45080760192871594 429.43717446282216 0.030319374658117407
0.42630751408996526 0.45080760192871594 429.44570199784886 0.05382884340399948
0.5241612620935214 0.45080760192871594 429.45653595767516 0.07985650898851213
0.3411151075797308 0.4508076019287159 429.1866360174562 0.07744994831217587
0.4693375763385276 0.45080760192871594 429.39734041502567 1.405511210713623e-13
0.4324403327982068 0.45080760192871594 429.38684144300805 1.331780065413035e-13
0.3373474374729888 0.45080760192871594 429.4398384541592 0.06012550310389276
0.4242666286731553 0.45080760192871594 429.37804546568276 3.23310174296946e-14
0.41184853813352573 0.45080760192871594 429.40737815411205 1.3271393158207128e-13
0.3495119426995489 0.45080760192871594 429.20556947688755 0.05233018512982081
0.3446517288619747 0.45080760192871594 429.3527460300226 0.06517308033694873
0.43754662061704325 0.45080760192871594 429.2785803952727 9.584527728876782e-14
0.3419708579544038 0.45080760192871594 429.1670571433559 0.06954062014605966
0.4776161075149436 0.45080760192871594 429.3450580072026 1.0023510492757781e-13
0.4497180023834812 0.45080760192871594 429.3471488027192 6.902538045946018e-14
0.38152462085454564 0.45080760192871594 429.26615832405525 9.835683669623082e-14
0.4833828249491073 0.45080760192871594 429.4192156443473 1.6769993045838608e-13
0.380151191953198 0.45080760192871594 429.45500483374195 0.07007331804238465
0.4447491747690186 0.45080760192871594 429.38886051792747 1.6707440711828419e-13
0.3811287534330067 0.4508076019287159 429.24947404248906 6.292720558180665e-14
0.40023599744272687 0.45080760192871594 429.29159074155297 7.235029767725243e-14
0.48462193333140074 0.45080760192871594 429.4491068017124 0.06959944702415197
0.3710812618857831 0.45080760192871594 429.3061091972494 1.925661314660006e-05
0.39255669907608354 0.45080760192871594 429.2590112480782 1.3330672397630385e-13
0.4287943962058081 0.45080760192871594 429.45785122777033 0.0675186545209788
0.4626171935896016 0.45080760192871594 429.4117798835959 1.343846501511579e-13
0.40641194826269383 0.45080760192871594 429.2499427119102 7.500746541461905e-14
0.4069869459261811 0.45080760192871594 429.23832541631714 6.47169981573362e-14
0.44341673829744177 0.45080760192871594 429.2910024997126 1.2924668013474448e-13
0.45278858195862465 0.45080760192871594 429.39902174023797 1.7097116930882752e-13
0.45233329430830294 0.450807601928716 429.41012650937034 1.183400465114447e-13
0.3806149791520026 0.45080760192871594 429.4063782132604 -1.406458894146721e-17
0.4549732790359376 0.45080760192871594 429.4315305601914 0.004651342733289378
0.405531501144031 0.45080760192871594 429.31045485090124 9.195089746827761e-14
0.5075412005235727 0.45080760192871594 429.4641516832918 0.08005117640416906
0.45101009770783607 0.45080760192871594 429.37795582103126 1.1273990471645143e-13
0.3860317895076628 0.45080760192871594 429.3586801703962 3.2336581477814654e-14
0.34145980642726276 0.45080760192871594 429.3833224985091 0.08009929873587605
0.4815066974461574 0.45080760192871594 429.37591038151 9.797480931369489e-14
0.3672255607267525 0.45080760192871594 429.4479444225935 0.058323213174048684
0.5142379976012837 0.45080760192871594 429.45129360629915 0.07443401657824038
0.4419581192423784 0.45080760192871594 429.4506708493877 0.05549363691552476
0.4099476361032426 0.45080760192871594 429.3698134535425 1.0383738401625893e-13
0.39796954827762687 0.45080760192871594 429.3596591708135 3.279383970736441e-14
0.44390309909014597 0.45080760192871594 429.41817927206216 1.4043911204943766e-13
0.5300269406103509 0.45080760192871594 429.44158441960343 0.0406456735795003
0.3528957328041451 0.45080760192871594 429.40331628345814 0.062480268111511826
0.43618807040795593 0.45080760192871594 429.37206003462666 7.197229096423953e-14
0.42441091236901907 0.45080760192871594 429.28858458477464 9.620559322028707e-14
0.4753676245375892 0.45080760192871594 429.42932657490223 0.007394276047089059
0.4460477232656186 0.45080760192871594 429.4641114054375 0.08094518841813306
0.44998572596709685 0.45080760192871594 429.30524749618087 1.3818076773435818e-13
0.440374300382913 0.45080760192871594 429.3012489613451 1.0752113315055529e-13
0.3920509710453516 0.45080760192871594 429.40103334264654 1.0562383747157001e-13
0.37871262583474274 0.45080760192871594 429.4297694704911 0.008978984988181763
0.3862226545232169 0.45080760192871594 429.42085920072964 1.0024684936318479e-13
0.46160583649455783 0.45080760192871594 429.36567655556246 1.075187078377874e-13
0.412388657929645 0.45080760192871594 429.395485432603 7.052647791914038e-14
0.33427577417500287 0.450807601928716 429.15009859231117 0.09734066169901574
0.42006166407380174 0.45080760192871594 429.36736595744014 -2.0654884237157562e-18
0.40136930610619825 0.45080760192871594 429.32457573318993 3.298579338049348e-14
0.3527641203991496 0.45080760192871594 429.3193305041913 0.054179523419780704
0.35252270330957575 0.45080760192871594 429.41438430776856 0.062272738314301634
0.36001148361386703 0.45080760192871594 429.36318969144713 0.03250889735639692
0.4310410748071971 0.45080760192871594 429.4321614367533 0.01573624135743358
0.40025082363446385 0.45080760192871594 429.4256053154225 9.699582383935444e-14
0.4337770252287567 0.45080760192871594 429.35838953609544 3.254119439585051e-14
0.5176418835118738 0.45080760192871594 429.41705451031703 1.6267347825781784e-13
0.4012534460518683 0.4508076019287159 429.37581747958956 7.70501559088753e-14
0.4408576487412308 0.45080760192871594 429.3178164481526 1.3600223479794587e-13
0.44666368690748715 0.45080760192871594 429.32816359562656 1.040167510872357e-13
0.3508799139811987 0.45080760192871594 429.17360605396567 0.05955819978249921
0.44796435777281207 0.45080760192871594 429.4403483347984 0.038704450823853
0.3874915058808371 0.45080760192871594 429.3849130842249 3.4310669860229246e-14
0.37416854923960835 0.45080760192871594 429.33463057483266 6.307689487960244e-14
0.541750707587386 0.45080760192871594 429.4615474590119 0.11151437020292528
0.37707086069710194 0.4508076019287159 429.3703055961781 3.0868613689498613e-14
0.3568936358546879 0.45080760192871594 429.24125186122507 0.03233547599146018
0.41783667697322757 0.45080760192871594 429.31614516217405 6.729261931524772e-14
0.33382272728885737 0.45080760192871594 429.33894871538917 0.07968953994890847
0.34250919568244953 0.45080760192871594 429.2953403498828 0.0614545928760845
0.35364940647782594 0.45080760192871594 429.22355604410575 0.03742435256703041
0.39477123102102457 0.450807601928716 429.3357124779893 3.292687390477526e-14
0.35201157657070736 0.45080760192871594 429.34489036632147 0.07523492141793597
0.459056455651112 0.45080760192871594 429.388089337544 1.6908490287913563e-13
0.39623501808066164 0.4508076019287159 429.39127582979717 1.0872128550719966e-13
0.4148044391453555 0.45080760192871594 429.4592671281918 0.0680160504262335
0.49237070581046966 0.45080760192871594 429.3752095367337 1.2903832813043743e-13
0.4189849502654282 0.45080760192871594 429.25534221017824 3.499734037561194e-14
0.34528457985905114 0.45080760192871594 429.1481630571747 0.0868601488307584
0.3567646176255217 0.45080760192871594 429.45536952135257 0.10549657191977999
0.3621507773380611 0.45080760192871594 429.20901734248184 0.01317870424935833
0.33713271006833334 0.45080760192871594 429.4559838530786 0.11448196630686504
0.36440205167222917 0.4508076019287159 429.17299277809803 0.013005598528034751
0.3515443420551514 0.4508076019287159 429.3889388490823 0.06440322603894691
0.46955471178997715 0.45080760192871594 429.38186458675125 1.604778807967628e-13
0.4093015671548257 0.45080760192871594 429.33677929084456 6.712220216060931e-14
0.38124717167327293 0.450807601928716 429.23620979324016 1.739028155311807e-17
0.3800285548935359 0.4508076019287159 429.28040396551296 7.908443916101267e-14
0.4688911313265385 0.45080760192871594 429.45117110880074 0.10168205822735646
0.5395944083737756 0.45080760192871594 429.4342565380886 0.04160015738786545
0.39864973765550543 0.45080760192871594 429.411405396658 3.57639761394968e-14
0.49497970094912574 0.45080760192871594 429.3944356555558 7.208827802474665e-14
0.429998346597906 0.45080760192871594 429.3183661560852 6.926287841582018e-14
0.37998777095643843 0.45080760192871594 429.3937709941366 6.407300052357749e-14
0.4014746868852533 0.4508076019287159 429.2277454902959 1.0266041691353171e-13
0.3798489471251358 0.45080760192871583 429.44218118314086 0.06448372717464419
0.4203023859835337 0.45080760192871594 429.3309661058902 3.4538474853829496e-14
0.4029693845935648 0.450807601928716 429.4474866172635 0.06668626554922964
0.40182729591049665 0.45080760192871594 429.2615610000505 3.397481770230614e-14
0.3431954933889104 0.45080760192871594 429.25785082541023 0.08113423761863554
0.5430035271214111 0.45080760192871594 429.4472658215705 0.07792391009948847
0.421515385849686 0.45080760192871594 429.27425681526927 6.913692453394372e-14
0.3477804718525556 0.4508076019287159 429.44332200623205 0.09428503966507994
0.34742005884165955 0.45080760192871594 429.28347130747306 0.06366079658239249
0.4097272161305722 0.45080760192871594 429.2726066581969 1.0373562652779549e-13
0.40927005541783257 0.45080760192871594 429.3833904058772 3.4758798988655906e-14
0.367675618968359 0.450807601928716 429.26071915341913 0.003960728560522245
0.3699048785150364 0.45080760192871594 429.32588071369867 2.124809595316212e-05
0.5080322059486654 0.45080760192871594 429.398608610462 1.3427627512767998e-13
0.439083096577925 0.45080760192871594 429.3975944227618 1.6739778847227746e-13
0.3643953367823207 0.45080760192871594 429.2839341026859 0.01730995761086909
0.3655630789208478 0.45080760192871594 429.3466976495813 0.018836847699950948
0.4017509211654685 0.45080760192871583 429.3450669815505 9.375504125496824e-14
0.381992844796614 0.45080760192871594 429.3260350769387 6.499115780878356e-14
0.5038039606334137 0.45080760192871594 429.4296240445014 0.009915578401650402
0.4125658621808051 0.4508076019287159 429.35824944129945 2.535651199927863e-18
0.46981829572884937 0.45080760192871594 429.4405297731033 0.045636154870938764
0.3853026232894421 0.45080760192871594 429.2995846323596 7.059924098789013e-14
0.46151653775776535 0.45080760192871594 429.32354906682303 1.4087185037352566e-13
0.4634852491685661 0.45080760192871594 429.35296921526054 6.870302555490279e-14
0.3441498111217786 0.45080760192871594 429.31280985814294 0.07227894150739249
0.4520791488232405 0.45080760192871594 429.3152710723566 1.5791755526225282e-13
0.3655271310547893 0.4508076019287159 429.23502015829246 0.007729947940025868
0.3521489001265699 0.45080760192871594 429.1608780611813 0.05775260768474255
0.48173631995431926 0.45080760192871594 429.43699392143367 0.010228676767050356
0.5190900635892705 0.45080760192871594 429.396172898596 1.421988416793567e-13
0.3644720219019114 0.45080760192871594 429.27217776218043 0.015592069658007765
0.476330701997611 0.45080760192871594 429.35561231734226 9.880373229501794e-14
0.36585825038722586 0.45080760192871594 429.4018771350379 0.010469990399197694
0.3333605622568896 0.204070925780224 429.3612276810403 0.08852481802477284
0.332962533612719 0.20446895442439358 429.1667610001173 0.08960373603185383
0.3325813427699885 0.20485014526712328 429.3310453698299 0.07735224784587427
0.3329384301915589 0.20449305784555377 429.37908981586673 0.07955867161460935
0.33232621280552765 0.2051052752315835 429.43627914921046 0.0702716181530083
0.5666621688001099 0.20384527426886473 429.283300287373 0.0928366275711484
0.5671055436665329 0.20428864913528663 429.40661913802717 0.0683057727209516
0.5671351444429406 0.20431824991169426 429.3931011432246 0.0775512216581023
0.5684662448455263 0.2056493503142768 429.4595718042194 0.1094328793975883
0.5681896240045552 0.20537272947330648 429.1694023443117 0.07410129882343164
0.5683879984903684 0.20557110395911915 429.18607864660765 0.05513641742361556
0.5678085073896586 0.20499161285841078 429.3007349696462 0.07174284851251944
0.5686091683479322 0.44882262486496094 429.19197253942525 0.0853682827834278
0.5677399487576975 0.4496918444551967 429.3577105563067 0.08694759102738796
0.5672093563888805 0.4502224368240144 429.428357813768 0.09009735529594796
0.5676989291461434 0.4497328640667509 429.45839528187975 0.12815371978926152
0.5682020969413292 0.44922969627156445 429.2329101299189 0.07840161722904426
0.56737785081041 0.45005394240248464 429.3303235817084 0.08713796446659076
0.5666986254872965 0.4507331677255989 429.4415359676228 0.09814963270227384
0.5668953455067209 0.4505364477061743 429.3409939228941 0.07310235464138101
0.5668369651296088 0.4505948280832866 429.297938061884 0.06713943270475113
0.5675597429925736 0.44987205022032073 429.177873120182 0.06980488176709237
0.3329236860589732 0.45010709670350857 429.36635856929274 0.07680922926337276
0.33290795854434296 0.4500913691888784 429.3143360991878 0.07324597112342689
0.3317293056942683 0.4489127163388022 429.22233492562896 0.07681057339245799
0.33180871757643104 0.448992128220965 429.39870338593585 0.08299011350500679
0.3316887792303247 0.4488721898748585 429.2100107011833 0.07339197402846956
0.33210310338909343 0.44928651403362785 429.26344966528416 0.08797067645425447
0.3318178748995989 0.449001285544133 429.3873565297894 0.0709235966431512
0.33298709492890594 0.4501705055734414 429.16177805210293 0.07697055456353019
0.2649019806984476 0.05186840519495325 429.0627778765362 0.00036307285272170215
0.30161237978160976 0.024368159357836806 429.0638086187718 0.056487971653901854
0.30449358828303086 0.03486948708535148 429.0638116816381 0.018145240509587303
0.29492539586092614 0.043612872492029664 429.06381216251873 0.0004750973739128284
0.2869418394076141 0.052913816594842185 429.06381221437834 0.0004157929006826646
0.28027729213536 0.032140230674443576 429.06381216825883 0.025505045232730436
0.2692330463796835 0.02999160121205409 429.06381205813807 0.031096954438833126
0.2726270845543061 0.040470070084482335 429.06381208173053 0.00036578768685609285
0.2750642136144162 0.019909613152222012 429.063809870252 0.08706520358950756
0.2527115414767434 0.054842846960901165 429.0625116182039 0.007525155505488561
0.314424511245324 0.05102701102451088 429.06190969073407 0.00023344856774088345
0.28688383826530417 0.0794820988574091 429.06175275028227 0.036251513407839026
0.2703061860715753 0.07157894294139823 429.0609854340144 0.029553774335685214
0.0 0.0005493272199825276 429.1024715250911 0.09218772804722396
0.8949576711681648 0.0022735137939449146 429.07002347263165 0.09688625282863023
0.4840090249100879 0.0022735137939449146 429.1045631030118 0.08519155329489694
0.8302850306121649 0.0022735137939449146 429.1201241144686 0.08344160405392563
0.7562953446787058 0.0022735137939449146 429.0801367656252 0.0739127615815892
0.6632314611196057 0.0022735137939449146 429.083399619741 0.07202770741519664
0.8798259146009069 0.0022735137939449146 429.0708018446647 0.10297128840240835
0.8582856930370709 0.0022735137939449146 429.094173128352 0.047246028950404105
0.8035589690163338 0.0022735137939449146 429.11019399573223 0.06804896746000674
0.5336374297239714 0.0022735137939449146 429.11189429898326 0.07893451437506688
0.6697182379582393 0.0022735137939449146 429.1197465219124 0.0850308786270926
0.44004093927128507 0.0022735137939449146 429.11706989263604 0.08836368517004897
0.3110055654710091 0.0022735137939449146 429.10783622458274 0.052649229414244644
0.8701670607581773 0.0022735137939449146 429.11062449987605 0.08481191156686207
0.8056814400022868 0.0022735137939449146 429.0766305346334 0.05825586755841916
0.7838910464577256 0.0022735137939449146 429.08375909804704 0.057961621433821
0.35666376660759114 0.0022735137939449146 429.1228359093404 0.07000268582867673
0.4925891749525843 0.0022735137939449146 429.1105121626123 0.07682432707127448
0.8396436548152031 0.0022735137939449146 429.10958715843304 0.07783225909192468
0.8702819459794996 0.0022735137939449146 429.0798491763215 0.07422736605627342
0.6354259215016653 0.0022735137939449146 429.1057339323283 0.06023754172027119
0.8453761462055027 0.0022735137939449146 429.0855608134857 0.04718657116297081
0.5993084037165084 0.0022735137939449146 429.0957506120299 0.048970607129697336
0.2699125573592266 0.0022735137939449146 429.11234408164967 0.06125055896975024
0.8603828041006021 0.0022735137939449146 429.07142048978375 0.08093872717382655
0.747110956027683 0.0022735137939449146 429.0843298946364 0.04808473181711564
0.4650594291027557 0.0022735137939449146 429.0930392456272 0.05098306361118555
0.45916810603637104 0.0022735137939449146 429.1014090210721 0.05423733580937339
0.4385099819881953 0.0022735137939449146 429.10135245294015 0.0476209020382963
0.4061101611496767 0.0022735137939449146 429.1091028020612 0.08665968214132984
0.7415894784736692 0.0022735137939449146 429.0742096542384 0.09359987079145896
0.25647828532120565 0.0022735137939449146 429.1154937561936 0.07490980554451732
0.3677195234257612 0.0022735137939449146 429.10685834988703 0.07148550639572045
0.3253117311915175 0.0022735137939449146 429.1051689646253 0.05257704800208762
0.6298474586754739 0.0022735137939449146 429.0911885070052 0.0612394122966203
0.4017948772156644 0.0022735137939449146 429.0988301449264 0.048518038047421205
0.4614534965721277 0.002273513793944914 429.12128695506334 0.09719717268480231
0.5229998897476352 0.0022735137939449146 429.0936778906603 0.05547103285838617
0.38952405427016873 0.002273513793944915 429.12293294847984 0.10068744871978198
0.7325711877502369 0.0022735137939449146 429.10821259882306 0.07578977863580989
0.29738367074783517 0.0022735137939449146 429.12119269907566 0.07537574604491487
0.7959299093813027 0.0022735137939449146 429.10193275210975 0.045134398103624476
0.6438385290227189 0.0022735137939449146 429.1120874187568 0.07423443979798046
0.07375092113062125 0.0022735137939449146 429.10749223031814 0.07275903959563101
0.2358153608031684 0.0022735137939449146 429.10574116909095 0.0669969753336064
0.09514834665774138 0.0022735137939449146 429.0653764533871 0.07340636101899757
0.25492216420196795 0.0022735137939449146 429.0922343824425 0.06004410285565254
0.19778411753337455 0.0022735137939449146 429.06306096737507 0.08751099840463061
0.14272314648324297 0.0022735137939449146 429.09144775145717 0.044276801067803045
0.56621725079411 0.0022735137939449146 429.0833380763122 0.06676588110344435
0.129920431699265 0.0022735137939449146 429.09475969718716 0.054005995395008714
0.16763150393373702 0.002273513793944914 429.0719883397099 0.10440404338941389
0.4087476690950045 0.0022735137939449146 429.07630652676283 0.06313746752465813
0.2585028565745106 0.0022735137939449146 429.10526343977506 0.0545299756290345
0.1509455067344126 0.0022735137939449146 429.0996251206693 0.03152975146307232
0.16946578728869333 0.0022735137939449146 429.10623600357656 0.05984963409855797
0.08539492971902415 0.0022735137939449146 429.08790533068174 0.06062187760103615
0.029295750421626892 0.0022735137939449146 429.1104120951641 0.08983824105811582
0.3152812416818082 0.0022735137939449146 429.0766585649513 0.09294114818641397
0.4193038098198463 0.0022735137939449146 429.08335593701725 0.04114114684927233
0.6972129344847084 0.0022735137939449146 429.0647094337345 0.09369686495609321
0.19912015296638338 0.0022735137939449146 429.0764023136792 0.06647029869641904
0.10536567562162376 0.0022735137939449146 429.1047242432958 0.05288273896717595
0.06111771435797941 0.0022735137939449146 429.09009328989146 0.07201282530610782
0.07315798806091806 0.0022735137939449146 429.0897923663397 0.06589944482113201
0.4280158051054901 0.0022735137939449146 429.07318520892125 0.06705731034244478
0.5136521149476021 0.0022735137939449146 429.0769646325094 0.08766127246793505
0.3367946951308075 0.0022735137939449146 429.09762264635583 0.062420548266448245
0.04944982345642413 0.0022735137939449146 429.08018990272114 0.08108669401445669
0.5449565284410782 0.0022735137939449146 429.08007205396774 0.06178865984971389
0.7207541375971533 0.002273513793944915 429.0681656133805 0.0835058011026109
0.38650314580276035 0.0022735137939449146 429.0776703716282 0.07836924088854423
0.0949853928715832 0.0022735137939449146 429.1086304464115 0.05745726950409321
0.05205870212213055 0.0022735137939449146 429.11344002696063 0.0871878484523172
0.06202928899989257 0.0022735137939449146 429.07759965926505 0.08770176452777396
0.49864563666706846 0.002273513793944914 429.063592930347 0.08674355651927146
0.5774095203716969 0.0022735137939449146 429.0805854076647 0.06458823706011982
0.21270360778114183 0.0022735137939449146 429.10390886317975 0.06229858906960299
0.23331933062110788 0.0022735137939449146 429.0821292536225 0.06336122307508965
0.5539877361002716 0.0022735137939449146 429.0839340660773 0.06504049921924003
0.24607439962809302 0.0022735137939449146 429.08344294503786 0.06154138061380497
0.24315222224670507 0.0022735137939449146 429.09430582019263 0.06805571367532078
0.028091633873591336 0.0022735137939449146 429.0715687087413 0.08755561271163179
0.638967758063098 0.0022735137939449146 429.07605902933875 0.0831093679609313
0.009892509766637258 0.0022735137939449146 429.10252946257833 0.10739767847495545
0.3606611885354723 0.0022735137939449146 429.0827928566234 0.0433673843730021
0.00028305219079772636 0.0022735137939449146 429.09010631249953 0.08097996722915649
0.10316379728130964 0.0022735137939449146 429.11575866859926 0.06396341634405958
0.28299282447584995 0.0022735137939449146 429.0722269689996 0.09082123045050018
0.31462032371706744 0.0022735137939449146 429.0630994648429 0.08593042398342783
0.29186017737022873 0.0022735137939449146 429.08052606202153 0.08116065561258935
0.18577282610811377 0.0022735137939449146 429.08152870005597 0.07393183147138117
0.055237136805168244 0.0004743041992227859 429.10305812623204 0.06404933191331894
0.6487502756841613 0.0004743041992227859 429.122096487899 0.07516014637604017
0.37715237780477084 0.00047430419922278594 429.1113830537783 0.09111753997200091
0.3889862372748273 0.0004743041992227859 429.1050163458274 0.06113250636398962
0.3589047849237341 0.0004743041992227859 429.0965480068551 0.054377091159568784
0.26442356959808283 0.0004743041992227859 429.09711464343957 0.0438506674479259
0.6026601506750727 0.0004743041992227859 429.1186795523781 0.07678066550340398
0.03786182826319429 0.0004743041992227859 429.0784461272027 0.045075976964370885
0.44895671577732993 0.0004743041992227859 429.09629963218083 0.04504551841437169
0.37739605976887175 0.0004743041992227859 429.1213410653626 0.08010847140893794
0.46974795349201304 0.00047430419922278594 429.1056040981992 0.044449673176615606
0.15793516321515552 0.0004743041992227859 429.0774162312324 0.072184880345933
0.14587499025301165 0.0004743041992227859 429.11175595485594 0.0694295463105797
0.017135147101701803 0.0004743041992227859 429.08008942850245 0.08342765378040698
0.5026619382202916 0.0004743041992227859 429.1107784665252 0.0865028431235866
0.4304658654781143 0.0004743041992227859 429.122959444238 0.07518379865079788
0.22501793842919382 0.0004743041992227859 429.1015385835126 0.04915202130538627
0.00015700041458347873 0.0004743041992227859 429.11318632249737 0.11308452726293804
0.31706504352633524 0.00047430419922278594 429.11599223694196 0.05694256957025552
0.34655193003688234 0.00047430419922278594 429.0963517923551 0.053826116745633944
0.36885740673121886 0.0004743041992227859 429.0889489918835 0.04407867165773955
0.4995995652493003 0.00047430419922278594 429.099929600251 0.048170687346220015
0.23519895871351568 0.0004743041992227859 429.1209671010752 0.07216909540797924
0.7827279568704878 0.0004743041992227859 429.1167341422519 0.07858477468043895
0.5891221375688159 0.0004743041992227859 429.1028224595849 0.06000505249565378
0.17749147619529818 0.0004743041992227859 429.0989430896849 0.0527332799965542
0.40079904834022656 0.0004743041992227859 429.12210311646 0.08087420845732492
0.019360609369782 0.0004743041992227859 429.0906981285177 0.07393235885267573
0.3039446719197304 0.0004743041992227859 429.10025267048417 0.050537815217540034
0.5839307161549787 0.0004743041992227859 429.119523025488 0.07475621570482227
0.7705795857951359 0.0004743041992227859 429.1170467772174 0.0782192962704434
0.12722851451004738 0.0004743041992227859 429.1188783595063 0.09020200786453401
0.5633315095312683 0.0004743041992227859 429.10506719131945 0.056903382274583414
0.49874290755242834 0.0004743041992227859 429.12069741777697 0.09951143773544317
0.563175997609338 0.0004743041992227859 429.1163615075236 0.0785998273529156
0.4286126301859835 0.0004743041992227859 429.10682311435806 0.06340907942258463
0.5099823352386599 0.0004743041992227859 429.0984878305495 0.04818360822266724
0.11016082111196403 0.0004743041992227859 429.09439924919025 0.0462518290360491
0.2858354092360775 0.00047430419922278594 429.09214250716116 0.043627630347260124
0.0007813318718821544 0.0004743041992227859 429.0631959311915 0.0674820545372729
0.15339688911931856 0.0004743041992227859 429.0860927482287 0.03451020366056498
0.3575242663792486 0.0004743041992227859 429.11167210748135 0.08572014453179369
0.44900242352198816 0.0004743041992227859 429.1223042032145 0.08304803377686995
0.12815008126855254 0.00047430419922278594 429.1061509794373 0.062261281838044
0.31738840021757325 0.0004743041992227859 429.09673849009033 0.05914434720129742
0.11610266772421111 0.0004743041992227859 429.1134328389278 0.06994713814792163
0.8190052714580782 0.00047430419922278583 429.11908822058143 0.07740374207283085
0.6011814721260746 0.0004743041992227859 429.1063517576116 0.06638002532060036
0.6348138222859274 0.0004743041992227859 429.1182922626571 0.07009389880430635
0.06725040366679033 0.0004743041992227859 429.09889237349506 0.04356974221511441
0.17932114272576535 0.0004743041992227859 429.1116765830657 0.07940961483644915
0.5142036646331908 0.0004743041992227859 429.11184022797914 0.09693751046866503
0.7405271699244323 0.0004743041992227859 429.1149035635061 0.07587991889723618
0.09941211172103447 0.0004743041992227859 429.09558947039375 0.031690999281048356
0.20216350331304253 0.0004743041992227859 429.111413494409 0.08313563486231323
0.1461649659800361 0.0004743041992227859 429.077061124445 0.058629871431224
0.6255906463017902 0.00047430419922278583 429.1110133320236 0.07696426828895579
0.6134017036599441 0.0004743041992227859 429.1226293284921 0.07557481970760889
0.21911674670618786 0.0004743041992227859 429.0805042104089 0.0562602432952602
0.0747462378115226 0.0004743041992227859 429.0754101665474 0.07150439664715408
0.047961191721934186 0.0004743041992227859 429.0913097791803 0.0467940093126375
0.5490650052107638 0.00047430419922278594 429.113925302007 0.08627209609916722
0.3955132423443775 0.0004743041992227859 429.1130233636656 0.077935092688864
0.04342414482609581 0.0004743041992227859 429.1026253495668 0.05063778814623051
0.2999011253005877 0.0004743041992227859 429.11107164156283 0.05530404517281718
0.04152396225464383 0.0004743041992227859 429.1143154486777 0.09276633062674286
0.4198790113042704 0.0004743041992227859 429.11472358021035 0.07839709399716623
0.028223537147008985 0.0004743041992227859 429.098114048869 0.06062842838809521
0.2814583951783289 0.00047430419922278583 429.1097470829933 0.05397532582685238
0.134229845430219 0.0004743041992227859 429.08463020735167 0.05857640479510182
0.6605815249040019 0.0004743041992227859 429.11164986888355 0.0716789457310982
0.10955003821444577 0.0004743041992227859 429.08304694899675 0.060971602474912664
0.11176835994132299 0.0004743041992227859 429.0732677328298 0.07434000001732677
0.573691869379088 0.0004743041992227859 429.09119566714895 0.05654856524456047
0.5826418427674318 0.0004743041992227859 429.07137376342484 0.07486613204196033
0.21044668870431515 0.00047430419922278583 429.0729592086817 0.0752995847196387
0.5022999156739565 0.0004743041992227859 429.0893929676208 0.05007010797122624
0.8348221860377083 0.00047430419922278594 429.0632278920111 0.08663484568579448
0.7208732982286534 0.0004743041992227859 429.08351745576414 0.044056365259655804
0.3517652430166076 0.0004743041992227859 429.06439703697265 0.048295459448092964
0.6899777203166779 0.0004743041992227859 429.0832036835052 0.06085039475556258
0.8148297581389233 0.0004743041992227859 429.1101807264822 0.07109412078626108
0.44230902344475315 0.00047430419922278594 429.0643832724994 0.06988505041694547
0.22980716737814377 0.0004743041992227859 429.0645549666909 0.07091841158271918
0.7104842986815368 0.0004743041992227859 429.0996786800846 0.04270936164694209
0.7796832956221541 0.0004743041992227859 429.10581142278295 0.06649275321958176
0.8039268305506951 0.00047430419922278583 429.0641800564402 0.0679498812788309
0.7691605602812053 0.00047430419922278583 429.0763861249389 0.06515468741529849
0.3255521470814934 0.0004743041992227859 429.07654079273584 0.06667078842989384
0.6979241625516173 0.0004743041992227859 429.075366897511 0.0852777414245035
0.3514844035278497 0.0004743041992227859 429.0783276367856 0.04749435348309718
0.3618924590256183 0.0004743041992227859 429.0720438319181 0.06157239723519381
0.8755761690805521 0.0004743041992227859 429.10068426702804 0.07454065872921402
0.4798667220355476 0.0004743041992227859 429.07561218397234 0.0653575303754594
0.46599324375035345 0.00047430419922278594 429.0728242373884 0.07525414297673229
0.6030958998986824 0.00047430419922278583 429.07500233864613 0.07452826856190764
0.5662381409486914 0.0004743041992227859 429.06989522926136 0.07693505766609682
0.5851084735586254 0.0004743041992227859 429.0874028036716 0.059370306527584536
0.7805010280574255 0.0004743041992227859 429.0711846388026 0.06941344441629058
0.4553437554555873 0.0004743041992227859 429.0866950547682 0.052419870842609365
0.7933310348182003 0.0004743041992227859 429.0756658413156 0.0639381895575536
0.5456177637916614 0.00047430419922278583 429.0946643495115 0.029591078725272314
0.660428537269968 0.0004743041992227859 429.0945809431995 0.04014437531051904
0.827883173146118 0.0004743041992227859 429.0711250517088 0.08235930502792368
0.6207255057336961 0.0004743041992227859 429.06581045790006 0.08490984464816621
0.8882239459769088 0.0004743041992227859 429.07937727700306 0.09673679569384305
0.48253605548513084 0.0004743041992227859 429.06383229004626 0.08192245545636505
0.3348322943769631 0.0004743041992227859 429.08470497085443 0.04105027958642333
0.4710309987782918 0.0004743041992227859 429.08272150817425 0.05140083167108432
0.8685262112918616 0.0004743041992227859 429.06520851165146 0.07734648823254181
0.8939711968465823 0.00047430419922278594 429.1222388628389 0.11069566918563645
0.707945115170542 0.0004743041992227858 429.0713824668175 0.08447692421172638
0.8808003465186347 0.0004743041992227859 429.08860112104685 0.070233249029105
0.8072671364787033 0.00047430419922278583 429.09381021630753 0.03040554724008314
0.30535297231187575 0.0004743041992227859 429.0783950209425 0.06357798770862529
0.6796043720451139 0.0004743041992227859 429.0997429401266 0.056491792407784895
0.8341215426303261 0.0004743041992227859 429.0867421094554 0.05758833116664808
0.6491116455684358 0.0004743041992227859 429.0791516690074 0.04983910297813185
0.6901254064070441 0.00047430419922278583 429.09787349284534 0.0494658182654574
0.6134062001928271 0.0004743041992227859 429.0818451148566 0.06128069720610496
0.8505519934014361 0.0004743041992227859 429.063499106503 0.07319030140327415
0.11570482689946038 0.0004743041992227859 429.06326145251904 0.08496141882942655
0.23988874513258074 0.0004743041992227859 429.07437064040914 0.07988676744678248
0.8599900051389582 0.00047430419922278583 429.0824769221023 0.06924330868922873
0.5470688972303813 0.0004743041992227859 429.06864789078384 0.0830977179163049
0.06846115023963523 0.0004743041992227859 429.064470330433 0.0969703502284201
0.6682470399114561 0.0004743041992227859 429.0714310085133 0.08627164889665272
0.7702045041344764 0.0004743041992227859 429.08830941766774 0.03331551859359781
0.160149822861729 0.0004743041992227859 429.06352885743274 0.10469382098245192
0.45382396058737096 0.0004743041992227859 429.07432562320724 0.054338961889776015
0.4913237042497629 0.00047430419922278594 429.07084605463433 0.0711179890719068
0.7315996825038398 0.00047430419922278583 429.06344122697203 0.08530057773208995
0.3869557442237095 0.0004743041992227859 429.0634782385132 0.06954174563102074
0.8999212336474434 0.00047430419922278594 429.09245879231366 0.062392535266259735
0.7410552530472254 0.0004743041992227859 429.1020996818319 0.04727585233316255
0.2737334880388768 0.0004743041992227859 429.07628697604895 0.07667854520432232
0.7596811578064391 0.0004743041992227859 429.06840106403195 0.08256727392149468
0.7530363765031399 0.0004743041992227859 429.0940480903637 0.05243208722187821
0.6394792873352588 0.0004743041992227859 429.08694807435444 0.06174002009153078
0.8817112042120656 0.0004743041992227859 429.1095360301768 0.10514598551511385
0.5101670524503213 0.0012210781635707529 429.12306026961926 0.09713587452635208
0.41118433442558333 0.0009731362287158742 429.12306026961926 0.07149104102797055
0.7942717535268398 0.0008921819597355551 429.12306026961926 0.06821422309613982
0.5232968327554879 0.0006891427139935618 429.12306026961926 0.093379180402912
0.4855617978827593 0.0006592456446667951 429.12306026961926 0.09017638681997826
0.8540614821345065 0.001510941590241831 429.12306026961926 0.07861880710220431
0.09355205174749551 0.0007799314637156451 429.12306026961926 0.07041747681743095
0.13938131021378414 0.002095880413369095 429.12306026961926 0.0902316448873209
0.07209147405353541 0.0010195085615221213 429.12306026961926 0.07850493200119343
0.15137873229609272 0.0011104026359585717 429.12306026961926 0.08147102725566194
0.05991115687387109 0.0010286449933008777 429.12306026961926 0.09045092316809622
0.5422272712538364 0.0016033104007128409 429.12306026961926 0.09433962533156331
0.05402871092540085 0.0004746344153642754 429.06306023743275 0.08864253320894068
0.28651928417949135 0.0005822509758340611 429.0630602374328 0.09032802753033324
0.18526562392184287 0.0004993434439845376 429.06306023743275 0.09688152854479981
0.17403175979467495 0.001018179234753258 429.0630602374327 0.0907246450627143
0.1255329223865918 0.0019423487723715994 429.06306023743275 0.07760901072914617
0.26576783678272464 0.0010183631967053298 429.0630602374328 0.07428463722998349
0.2992642173509141 0.0015929270995101758 429.06306023743275 0.08742604786571173
0.03721078212745289 0.0006792433773107529 429.06306023743275 0.07714005370032744
0.06912469482421874 0.25794583096875856 429.06882389821067 0.07679341844967992
0.0894740896428669 0.09279940795898511 429.0677312172771 0.0835989270011577
0.1532564394006453 0.10015600585937534 429.0710114076827 0.0804679093210437
0.24839765786609969 0.10015600585937534 429.06834104865754 0.08173401221082313
