x y z curv
0.21770814691946452 0.03248550415040086 1520.1523923289933 0.22822499539277943
0.17417466386350416 0.03248550415040086 1520.060179283622 0.23144874022161102
0.360742818314625 0.03248550415040086 1519.819696487544 0.19540664380054812
0.34809318610981094 0.03248550415040086 1519.9423593227875 0.21506047816312254
0.20659815268342796 0.03248550415040086 1520.1321920376176 0.22025338425604443
0.19670941147456875 0.03248550415040086 1520.1728333809651 0.23279628773395603
0.0934562857724418 0.03248550415040086 1520.0340618063187 0.22938376597699217
0.25576420974696756 0.03248550415040086 1520.040499619769 0.19855474847275442
0.18206936099224982 0.03248550415040086 1520.0712378414096 0.18190663729016854
0.03694712785436471 0.03248550415040086 1520.1024037737889 0.2043101826798625
0.1707275340261959 0.03248550415040085 1519.8008642047214 0.21427408242960838
0.06704767185266433 0.03248550415040086 1519.9575045988208 0.19083007713847336
0.14299282030208893 0.03248550415040086 1520.1563194082096 0.2130150122727386
0.07175932394727964 0.03248550415040086 1520.354875527243 0.24601541112000985
0.24238160667300174 0.03248550415040086 1519.8643459919087 0.19967774369309876
0.21547918627510623 0.03248550415040086 1520.1119265256955 0.24148676858621357
0.14121146256543604 0.03248550415040086 1520.0785150244253 0.2260501037418538
0.018498929703500113 0.03248550415040086 1520.0420782934289 0.23268620787395522
0.2288266062452586 0.03248550415040086 1520.091821864551 0.24505393288500557
0.355818787920571 0.03248550415040086 1519.831562272571 0.24885451701830968
0.13303135228785223 0.03248550415040086 1520.192809579373 0.21825917343074472
0.0724410165535732 0.03248550415040086 1520.1225334315345 0.21546843423165654
0.08227023839110888 0.03248550415040086 1520.2694474832542 0.2294152126282609
0.13636155101206643 0.03248550415040086 1519.8970687095236 0.20026840697224307
0.13213458185664984 0.03248550415040086 1520.086653277502 0.21519824297605566
0.15806701339056764 0.03248550415040086 1519.798661188318 0.22614275032588688
0.2424316983494261 0.03248550415040086 1520.039335720512 0.2114386168630996
0.4516784749679661 0.03248550415040086 1519.8233905942636 0.23753384543732226
0.3623774045593589 0.03248550415040086 1519.9592401053264 0.22739289314522343
0.16641472414204847 0.03248550415040086 1520.0390765234774 0.20531031926746504
0.1872135799860336 0.03248550415040086 1519.9590047031331 0.24645044572560976
0.07145251595927672 0.03248550415040086 1520.002501269437 0.21313746261910654
0.39501623946881914 0.03248550415040086 1519.8029268349721 0.25902433354140564
0.032734131741805055 0.03248550415040086 1519.995515305334 0.20468491786611878
0.09521013497894043 0.03248550415040086 1519.8576650989314 0.25506521650827974
0.07640011084305315 0.03248550415040086 1519.8424062759605 0.23667137242738134
0.11991810539092328 0.032485504150400864 1519.7962171771414 0.14750016222752627
0.29302104757209463 0.03248550415040086 1519.87149625274 0.2220038846174218
0.41193699408431544 0.03248550415040086 1519.9170661382477 0.22791502654931398
0.11311850859019765 0.03248550415040086 1520.1862371636785 0.23761854047806977
0.36440284130657413 0.03248550415040086 1519.9788345844745 0.27249856447586757
0.06039621093012671 0.03248550415040086 1519.8378344091261 0.22442411145137528
0.20851915897645898 0.03248550415040086 1520.0992020511535 0.22774325088638897
0.09659624488353573 0.03248550415040086 1520.2797942818283 0.22488201251106216
0.05367137894965758 0.03248550415040086 1520.015086887763 0.21363333034685092
0.10000605269724355 0.03248550415040086 1519.8200211337344 0.21537178346736513
0.13481796204981444 0.03248550415040086 1520.005200300601 0.23107843254592036
0.14640132435905473 0.03248550415040086 1520.2510728206012 0.2164057074723855
0.37351685906182724 0.03248550415040086 1519.9655539767782 0.21710155782025234
0.3126322442078854 0.03248550415040086 1519.8801242292755 0.22425495142522847
0.2755836491914331 0.03248550415040086 1519.9004847787626 0.21322378712087955
0.4195411376076578 0.03248550415040086 1519.8506232155398 0.2036542144752982
0.19184599466230887 0.03248550415040086 1519.9149369378542 0.2317532479159613
0.11375318149647368 0.03248550415040086 1520.0463407826178 0.20746388267263455
0.15007231532423532 0.03248550415040086 1520.122558880666 0.2219850907381368
0.33701189606709264 0.03248550415040086 1519.7944637819098 0.18511762903354403
0.0424057626367155 0.03248550415040086 1520.0850946764394 0.2559024006540501
0.04253458510575138 0.03248550415040086 1520.2958700606619 0.20699935690264407
0.4491943214680565 0.03248550415040086 1519.8584809888896 0.17669989504916137
0.08275716244777163 0.03248550415040086 1519.9475677712703 0.24028776353694462
0.48629925607358476 0.03248550415040086 1519.8483807717234 0.22996849991887203
0.06000543001059976 0.03248550415040086 1519.851996804691 0.24727062542811146
0.025515801474588033 0.03248550415040086 1520.4300469919694 0.23283697857851915
0.09733438184071261 0.03248550415040086 1520.0472597750543 0.17837383617551053
0.2773562182771917 0.03248550415040086 1519.971775491716 0.19018008052849478
0.24938373837000033 0.03248550415040086 1519.9663046104959 0.2308155375431549
0.13067134019106091 0.03248550415040086 1520.1619235032772 0.24005525035688685
0.015224172530891065 0.03248550415040086 1520.062235633416 0.2463196232862319
0.3172373904294113 0.03248550415040085 1519.8146132229585 0.2771157389753531
0.441337303244884 0.03248550415040086 1519.9067661864196 0.2241086035866788
0.015935879818058753 0.03248550415040086 1520.0798737814157 0.22481882915992213
0.07337540896116494 0.03248550415040086 1520.1552424494105 0.18217630364824014
0.003956885167500188 0.03248550415040086 1520.331639697964 0.14438673336489385
0.14925749229284824 0.03248550415040086 1520.175373327827 0.18825350789963974
0.25251577326138575 0.03248550415040086 1519.980854932503 0.20623828580163706
0.20020806413410114 0.03248550415040086 1519.9773740663936 0.20298885758510787
0.3411490085712429 0.03248550415040086 1519.9539388955045 0.23996212336973965
0.14746070123643307 0.03248550415040086 1519.8096213440542 0.26174556441713087
0.29269045831981116 0.03248550415040086 1519.992666005829 0.2333781312891267
0.2935772269038079 0.032485504150400864 1519.8015758447118 0.21256028061331367
0.2965055944830892 0.03248550415040086 1519.938136130233 0.22819836119497267
0.19769391370144226 0.03248550415040086 1520.1051761764516 0.2218141084607132
0.10868964038830728 0.03248550415040086 1519.8000134864012 0.21541774782359435
0.11110324991745742 0.03248550415040086 1520.1611304221901 0.2151203121677088
0.05834012575843042 0.03248550415040086 1519.9306140846456 0.21089529709334098
0.1771641459964759 0.03248550415040086 1520.0118526447252 0.2254981009563948
0.2435551079850851 0.03248550415040086 1520.0631576900512 0.21036016217722794
0.10842798265546091 0.03248550415040086 1519.8620472371035 0.22139667493120674
0.17614542671105002 0.03248550415040086 1519.839776107041 0.19556654629415515
0.08077224798351718 0.03248550415040086 1520.2416187296003 0.22223392111380322
0.11196609934169209 0.03248550415040086 1519.9605653464314 0.23846292952741163
0.021861082457852482 0.03248550415040086 1520.1736421551277 0.2706197461895795
0.3661914256763473 0.03248550415040086 1519.8803516744258 0.246093677073276
0.08254172715032616 0.03248550415040086 1519.877664762893 0.22205544787461573
0.34965040319252194 0.03248550415040086 1519.963208042992 0.239730576053972
0.19408226367591314 0.03248550415040086 1519.8839332126727 0.1834559187059086
0.11954110156525888 0.03248550415040086 1520.1532137180884 0.2596627888959641
0.2259651946648762 0.03248550415040086 1520.0814741779968 0.21887966918935034
0.1500326766289358 0.03248550415040086 1520.0680780505745 0.19814662564960353
0.42197698855668897 0.03248550415040086 1519.8637832112877 0.2001917992425469
0.29383044784383106 0.03248550415040086 1519.95168456796 0.18159970966596015
0.06389203349525457 0.03248550415040086 1520.0122717855324 0.210796334999329
0.036953883062234565 0.03248550415040086 1519.9808188760935 0.20570993556809442
0.1904086466354862 0.03248550415040086 1520.0631540210259 0.21919021923101714
0.3947261618135921 0.03248550415040086 1519.8503814886674 0.21836277157563702
0.05066785035098397 0.03248550415040086 1520.0771954677246 0.2192083485440295
0.2744856827727973 0.03248550415040086 1519.9131411830292 0.21754846825300478
0.15403761693983545 0.03248550415040086 1519.8796987656235 0.20921219147277567
0.18373816147838343 0.03248550415040086 1519.9044853020466 0.21978158028171454
0.0403949241830153 0.03248550415040085 1519.8645974400085 0.21251327207403525
0.3283824786728075 0.03248550415040086 1519.9128997944517 0.24312808059140595
0.19939622214879946 0.03248550415040086 1519.8252983029324 0.20257510255918526
0.1223278473638576 0.03248550415040086 1520.1696319782072 0.22720947078057735
0.071004339685431 0.03248550415040086 1520.1341253104224 0.2079821851431747
0.3016946656766987 0.03248550415040086 1519.891583520694 0.25033623153395385
0.16556859144854127 0.03248550415040086 1519.990032635009 0.19520761000852882
0.2526614361278923 0.03248550415040086 1520.1242756024262 0.24187978683723985
0.1079934818339017 0.03248550415040086 1519.9337738060526 0.2096229304683568
0.061506759895970146 0.03248550415040086 1519.8624334223782 0.24766090622758033
0.10339336496445772 0.03248550415040086 1520.22485379986 0.21459151960509434
0.13822098021917317 0.03248550415040086 1519.9110345248264 0.1481617790300374
0.17850483832524644 0.03248550415040086 1520.178744815803 0.2071596597200909
0.17157648515986132 0.03248550415040086 1519.937805911839 0.218871932834729
0.10968559918123569 0.03248550415040086 1520.3294286587375 0.23627293560947865
0.30699508362571526 0.03248550415040086 1519.9135690094574 0.255670457544655
0.13481168120974482 0.03248550415040086 1519.9568586141986 0.23006185074493554
0.05905541350850227 0.03248550415040086 1520.3650806818919 0.19714819857130494
0.29331692846989343 0.03248550415040086 1520.142597183869 0.23050396480975507
0.2877577349054434 0.03248550415040086 1520.3128128370658 0.23273272866243988
0.41784254123282416 0.03248550415040086 1520.3530141144738 0.20443659114829915
0.3768674163573257 0.03248550415040086 1520.4465434285123 0.18984371431311722
0.2543921870903381 0.03248550415040086 1520.2592859095453 0.2144205052185894
0.5248137133929679 0.03248550415040086 1520.3553234247345 0.2294890315907748
0.4377913251137734 0.03248550415040086 1520.2212811408094 0.21473622084132304
0.16959822363686367 0.03248550415040086 1520.3739105198376 0.23724316216260427
0.52822280430812 0.03248550415040086 1520.1121706245067 0.16710586481362533
0.27232724914195805 0.03248550415040086 1520.2136001646131 0.21328385685190657
0.14915698329133506 0.03248550415040086 1520.3144319951014 0.24394904335971604
0.52535776527964 0.03248550415040086 1519.9274275554517 0.18250888546131336
0.43286662062602754 0.03248550415040086 1520.0792994287 0.1743372657779661
0.37219840115120284 0.03248550415040086 1520.314499043931 0.2148896540215288
0.3434189056272342 0.03248550415040086 1520.4339413785046 0.17525417801105586
0.36919725882376386 0.03248550415040086 1520.3367083989604 0.20092876815034008
0.17769590013084757 0.03248550415040085 1520.3819806938172 0.2243029349038751
0.10300722271427418 0.03248550415040086 1520.3569763901987 0.24794729075563857
0.5018896777426952 0.03248550415040086 1519.8876072868015 0.23942165503010826
0.5279063857167878 0.03248550415040086 1520.2872338524705 0.18586815107507565
0.3428542145126471 0.03248550415040086 1520.4001372935707 0.21595439571128125
0.42479501331801905 0.03248550415040086 1520.1648653290006 0.19798568340986522
0.499425632029887 0.03248550415040086 1520.2612669153727 0.1922737886617499
0.19390677500805842 0.03248550415040086 1520.455810540065 0.1836392648905626
0.3567738876147629 0.03248550415040086 1520.1149532409136 0.1861554363788482
0.2430659709068434 0.03248550415040086 1520.3234178583086 0.21492060542512686
0.23035106225769814 0.03248550415040086 1520.2714429226003 0.22802578503878337
0.39380444166943973 0.03248550415040086 1520.3606736726044 0.25251145087451415
0.25925147416702715 0.03248550415040086 1520.2707725582331 0.20392679986977227
0.5026705536548004 0.03248550415040086 1520.1060330368555 0.1848641104617874
0.4952105784555182 0.03248550415040086 1520.31069795002 0.23535673362448717
0.4697712846752793 0.03248550415040086 1520.0897281525768 0.22160685021741927
0.44757955263358135 0.03248550415040086 1520.2881444786037 0.2045698646569345
0.519571778360561 0.032485504150400864 1520.3332840108396 0.24186474832900565
0.4561788763143757 0.03248550415040086 1520.1074220824394 0.21347249037755797
0.3975083280701074 0.03248550415040086 1520.0983314496025 0.2547634278691286
0.39769435602737857 0.03248550415040086 1520.0725717058326 0.20155785713214155
0.465706167570247 0.03248550415040086 1520.4471133971224 0.19755065489006257
0.31236809340148913 0.03248550415040086 1520.2438073893684 0.15740239595525995
0.3343503733489021 0.03248550415040086 1520.1062427607808 0.207315131725261
0.23627444540673814 0.03248550415040086 1520.447817879327 0.22983263436659412
0.19541436451627991 0.03248550415040086 1520.318749858259 0.20780287217350862
0.29003550714394416 0.03248550415040086 1520.3241140101495 0.23304435375374866
0.31355102206827556 0.03248550415040086 1520.4113002477031 0.22394322649244316
0.24994970052906496 0.03248550415040086 1520.4532069334164 0.19870212929287523
0.32250168238371263 0.03248550415040086 1520.3411608257093 0.2545448119097147
0.2002237913586288 0.03248550415040086 1520.2478214517544 0.2132543479307405
0.4089587900271132 0.03248550415040086 1520.2210901427195 0.19995700610975872
0.45143053825225193 0.03248550415040086 1520.4296999635988 0.20046966587687745
0.4003482247580825 0.03248550415040086 1520.1246580251195 0.20640612020824944
0.5279946961267922 0.03248550415040086 1520.44347835494 0.203394037698257
0.19627166048296507 0.03248550415040086 1520.2219190584062 0.19210505050737223
0.18845733047890612 0.03248550415040086 1520.2360006282331 0.22963990213679222
0.4793795612041175 0.03248550415040086 1520.1946863734154 0.21710646326044597
0.3573288732124159 0.03248550415040086 1520.2884656803956 0.17543292798644153
0.5062445075605507 0.03248550415040086 1520.4526659388966 0.17412545393289644
0.45026378983141524 0.03248550415040086 1519.9413603272956 0.2215328038742935
0.11253654640788206 0.03248550415040086 1520.3715677493446 0.2407094751086754
0.4171037492839065 0.03248550415040086 1520.2506731348121 0.2229719677266354
0.5300373324279463 0.03248550415040086 1520.1572105247583 0.2398597517968689
0.5024411812044279 0.03248550415040086 1520.1326662347387 0.17263550865008748
0.21850023427152365 0.03248550415040086 1520.2150787408664 0.21320515054364764
0.29495757582814264 0.03248550415040086 1520.246618516756 0.21024967036763564
0.5136016240813552 0.03248550415040086 1519.9745996957686 0.25038602089465023
0.4927380282963621 0.03248550415040085 1520.2920840702295 0.22343277077420143
0.38492502743950985 0.03248550415040086 1520.1671910836653 0.2252920862834273
0.3397817063042362 0.03248550415040086 1520.1951276769944 0.2371610750801753
0.4747075652376054 0.03248550415040086 1520.223535764775 0.19486427030900255
0.11845342827739858 0.03248550415040086 1520.4485377723397 0.16874447929256245
0.27281124308064825 0.03248550415040086 1520.2455699587908 0.19213060488176084
0.36195673219073066 0.03248550415040086 1520.0557441041055 0.2657058631683474
0.48763532577663676 0.03248550415040086 1519.884020789757 0.24877887494583675
0.04618441946695501 0.03248550415040086 1520.430449561465 0.22555490822732138
0.3571446665708895 0.03248550415040086 1520.0962050186095 0.20463516019576886
0.525312658610135 0.03248550415040086 1519.8967095374453 0.23697012452779156
0.4095337500705831 0.03248550415040086 1520.0963297092367 0.19315123813128712
0.34408363494930677 0.03248550415040086 1520.097794760325 0.21007380837661063
0.34838308146613256 0.03248550415040086 1520.3615093403982 0.2313912237306074
0.2720365880027723 0.03248550415040086 1520.1526992643917 0.2112363089253177
0.15227074583068487 0.03248550415040086 1520.4000282337413 0.22785330675570886
0.17189289927070864 0.03248550415040086 1520.3513623280398 0.20906343661091362
0.5059871427217956 0.03248550415040086 1520.0567994887997 0.20259863310671844
0.3546328877295881 0.03248550415040086 1520.067883077772 0.24899543475711816
0.5271333259755766 0.03248550415040086 1519.9470672027953 0.18274281577053358
0.1553270950748712 0.03248550415040086 1520.2929526713685 0.24264388745053656
0.4834582035795143 0.03248550415040086 1519.9897134951832 0.23954585188809852
0.4008245330976219 0.03248550415040086 1520.1091947975103 0.19999534347586037
0.506934982770283 0.03248550415040086 1520.251625483936 0.2236289948218252
0.24035071298445396 0.03248550415040086 1520.1947773536988 0.21527963523808344
0.2897451928904719 0.03248550415040086 1520.4288788859114 0.20069802128342257
0.4761789404880117 0.03248550415040086 1520.182143852752 0.19393382517203697
0.09574117987338039 0.03248550415040086 1520.3885762814566 0.24212745675859088
0.3987594665310189 0.032485504150400864 1520.3220933553835 0.19432704045648416
0.5156379703470709 0.03248550415040086 1520.0759312869868 0.24342179119528198
0.44638742056392744 0.03248550415040086 1520.1164217457342 0.17821833833612344
0.5212897245131126 0.03248550415040085 1520.4147648578455 0.25711429380425654
0.4814036645520997 0.03248550415040086 1520.054985062551 0.20360935293816979
0.2203999052802286 0.03248550415040086 1520.2634011454948 0.23050391838869735
0.27498241756626807 0.03248550415040086 1520.3730508596047 0.20982526838544652
0.34252754291808074 0.03248550415040086 1520.2204685688048 0.2362271902147603
0.2196359129917344 0.03248550415040086 1520.3372532279745 0.2254716277656981
0.23131215719076412 0.03248550415040086 1520.2425338805028 0.21298942745217367
0.31950830704021793 0.03248550415040086 1520.2820032037469 0.2056896999556206
0.5328267234678046 0.03248550415040086 1519.9836526065856 0.142970002731574
0.3910858842716003 0.03248550415040086 1520.4022902552683 0.23071783856502143
0.22254718953798877 0.03248550415040086 1520.4076725569132 0.2521174678337631
0.3542491395524929 0.03248550415040086 1520.4505665451209 0.2169686584266185
0.4948803366318823 0.03248550415040086 1520.1437180790522 0.23155329434129793
0.16948441225360297 0.03248550415040085 1520.3903633540654 0.24278651058885678
0.35651018525675204 0.03248550415040086 1520.1276310356056 0.19946934439685388
0.4646361664073595 0.03248550415040086 1520.0565525224033 0.24024693357388346
0.4547915552561623 0.03248550415040086 1519.904096932266 0.20220019350339224
0.3350472606591772 0.03248550415040086 1520.3418549699052 0.22325480043829263
0.3834471829776447 0.03248550415040086 1520.3865493934868 0.22834435629607658
0.3363063271094893 0.03248550415040086 1520.4211960506016 0.1962258585793165
0.4051593321145046 0.03248550415040086 1520.1819855455824 0.1994683932514644
0.18022503453889707 0.03248550415040086 1520.2711337858073 0.21589953972968828
0.04666745149889789 0.032485504150400864 1520.4629120694024 0.1544211628023418
0.5268290848480041 0.03248550415040086 1520.0528312465685 0.22283343795917163
0.29068370844051555 0.03248550415040086 1520.4165452831476 0.2281383126929811
0.29793757763227097 0.03248550415040086 1520.361755716639 0.2042777325661159
0.40951956168608744 0.03248550415040086 1520.0815165214453 0.20967794369000645
0.36627960142265137 0.03248550415040086 1520.0343813114669 0.2271940261760796
0.17954198405333102 0.03248550415040086 1520.2426700790488 0.20653921714664697
0.3416379710531562 0.03248550415040086 1520.1433691657994 0.1994799361602004
0.4709284074532874 0.03248550415040086 1519.9684569050319 0.2138548905395193
0.3983061541597284 0.03248550415040086 1520.0873671333684 0.21455732224902455
0.09766301194902705 0.03248550415040086 1520.3705996648769 0.241842251486904
0.3560717777682728 0.03248550415040086 1520.0783815070918 0.21210509039114506
0.26175272061349736 0.03248550415040086 1520.1802127814703 0.21902436199090478
0.4893618490532937 0.03248550415040086 1519.8962787734026 0.22989216536234358
0.4306861294723307 0.03248550415040086 1520.0477814325982 0.16802136614675348
0.20855893250993912 0.03248550415040086 1520.2643763781216 0.23790649917476744
0.021143584779185744 0.03248550415040086 1520.4597834772449 0.2510730721910037
0.08186133360645137 0.03248550415040086 1520.4046214822329 0.20761872485952607
0.45489454420189485 0.03248550415040086 1520.3955924553634 0.2289062601530253
0.4135421479390699 0.03248550415040086 1519.957490339777 0.1935967628575326
0.4096996510355181 0.03248550415040086 1520.28812036818 0.2120923428071549
0.3975386675341482 0.03248550415040086 1520.293461868578 0.23347244189116195
0.1626275261558383 0.03248550415040086 1520.4578539582685 0.1735919201261767
0.526661442964199 0.03248550415040086 1519.874187171654 0.1687298526468379
0.3848955003620379 0.03248550415040086 1520.2500963406821 0.2364749586543423
0.4172421864821543 0.03248550415040086 1520.1795559230986 0.18865463302760435
0.5198050923162423 0.03248550415040086 1520.3848855171389 0.24451735023337953
0.39836273389784166 0.03248550415040086 1520.008527070237 0.19689060073106357
0.30620076920793526 0.03248550415040086 1520.3534287601933 0.23630072373475752
0.3085693512764708 0.03248550415040086 1520.3277958830295 0.2281383290495438
0.501887948314488 0.03248550415040086 1520.0317414901474 0.20584018787468378
0.27887311839253204 0.03248550415040086 1520.2234954801597 0.18330224714019122
0.47194843755606 0.03248550415040086 1520.3322232710248 0.2383054390606829
0.32422714096182664 0.03248550415040086 1520.1102153805773 0.19588311901538238
0.2419549511044961 0.03248550415040086 1520.3005410856867 0.2005281384653966
0.39558830320351396 0.03248550415040085 1520.4633357210598 0.17996597196766487
0.028387210057840524 0.03248550415040086 1520.4442791868678 0.2505646478487306
0.5247655400470782 0.03248550415040086 1520.0340639056212 0.21675062314559837
0.4000323853138151 0.03248550415040086 1520.3368473619275 0.246358183753752
0.4609915002228668 0.03248550415040086 1520.4355770949257 0.2054203458368184
0.41138668703792003 0.03248550415040086 1520.4077323260908 0.2245641803500655
0.38750335281577536 0.03248550415040086 1520.3718235931296 0.24630476773695775
0.3097912981959347 0.03248550415040086 1520.4002470515559 0.22586670644651557
0.49619580956140796 0.03248550415040086 1519.9187075869359 0.2128673490761076
0.27085890110694383 0.03248550415040086 1520.2322219339032 0.2301684141333488
0.42900982682821776 0.03248550415040086 1520.199917642581 0.22098297267266587
0.47172497234934285 0.03248550415040086 1520.0661890372867 0.2190080321672847
0.38433618294873306 0.03248550415040086 1520.0802183521455 0.24000499519478963
0.41946200551258234 0.03248550415040086 1520.2058722543538 0.2219365283368919
0.2284176139545588 0.03248550415040086 1520.1975965027254 0.20705702121427647
0.48816805432167276 0.03248550415040086 1520.2241670840915 0.233006400824262
0.4855398118982003 0.03248550415040086 1519.869889728679 0.21950939192678526
0.485097031091533 0.03248550415040086 1520.1509440681916 0.23456745454669495
0.2242663048054001 0.03248550415040086 1520.3260220919742 0.22037436276863645
0.3758183869497521 0.03248550415040086 1520.2417008877449 0.19815064239928637
0.4517941776425879 0.03248550415040086 1520.0252992291107 0.252011553025866
0.05838626603810757 0.03248550415040086 1520.3963554489765 0.23073386031023155
0.3413629695240243 0.03248550415040086 1520.2324836733696 0.22904134274678425
0.37314222511706063 0.03248550415040086 1520.1985350217642 0.22961148709934368
0.5193065033325069 0.03248550415040086 1520.3143874899624 0.24176306210720597
0.48479148844319364 0.03248550415040086 1520.306575453696 0.22291113410708852
0.5049846516928169 0.03248550415040086 1520.3518067362145 0.22117636800871077
0.29907695610798346 0.03248550415040086 1520.4057769768744 0.24637315935993884
0.13823389138864162 0.03248550415040086 1520.456719029774 0.15394479176108947
0.37860677418993843 0.03248550415040086 1520.3602663724246 0.22426377388113247
0.2797168522735985 0.03248550415040086 1520.4111176500144 0.22908558417146957
0.5313209829468618 0.03248550415040086 1519.8294472490848 0.1568769277675158
0.43451250488794 0.03248550415040086 1520.1586257460854 0.19865086094644344
0.31865389983871617 0.03248550415040086 1520.1840345462365 0.22760104510447862
0.4103108415013193 0.03248550415040086 1520.1198035501302 0.20443811809581688
0.252311775474824 0.03248550415040086 1520.3400019459395 0.25518177305832124
0.4848812504316149 0.03248550415040086 1520.0030515213111 0.21590227178923926
0.5000405997599026 0.03248550415040086 1520.341176137763 0.20210844310398182
0.03601069851660601 0.03248550415040086 1520.4273256498655 0.20239240504643086
0.4590619953829945 0.03248550415040086 1520.3267179058412 0.21467055287864148
0.3439454525233414 0.03248550415040086 1520.071726039197 0.24883036059767352
0.43206126205975137 0.03248550415040086 1520.4250989531465 0.22632119808689102
0.5082679604267148 0.03248550415040086 1520.1197609184592 0.2099990489314654
0.25751710518109855 0.03248550415040086 1520.2075795026933 0.18928383848115043
0.24145944015869947 0.03248550415040085 1520.4229026859716 0.2083438361706913
0.4346443492214111 0.03248550415040085 1520.4117724450073 0.23498016891946288
0.5124889691172133 0.03248550415040086 1519.8583975950094 0.24625356583881047
0.4573263053313422 0.03248550415040086 1520.1821462002272 0.20784018805039708
0.39708723050099914 0.03248550415040086 1520.2744666552744 0.23547221508888458
0.3259890302752432 0.03248550415040086 1520.157697123129 0.21379583492224696
0.48882994024695026 0.03248550415040086 1520.3922614471437 0.24296391153835492
0.518614312279438 0.03248550415040086 1520.2380179864185 0.20017126962025567
0.29201599368037806 0.03248550415040086 1520.2094909007697 0.22111590932597716
0.32140957065570963 0.03248550415040086 1520.2105871256163 0.24906789637569723
0.2177707433632659 0.032485504150400864 1520.3080220627487 0.25581809982084464
0.270128793480384 0.03248550415040085 1520.2859800664924 0.23827195664602333
0.18722762509170834 0.03248550415040086 1520.4043058780765 0.18577249665387552
0.3303410239545991 0.03248550415040086 1520.2778275077046 0.2141428795469463
0.32687334760894443 0.03248550415040086 1520.2567570654633 0.18821595450415463
0.5071128083226122 0.03248550415040086 1520.4388813927965 0.1942632565813853
0.4637187485104265 0.03248550415040086 1519.9330352617908 0.19756964827087758
0.4923655069425852 0.03248550415040086 1520.037017931952 0.2214986195514654
0.4392818647904752 0.03248550415040086 1520.4014285535345 0.20956463567164318
0.4176343144703886 0.03248550415040086 1520.0204698921802 0.20891608230904488
0.3140521774303153 0.03248550415040086 1520.4246181325946 0.18731522822843033
0.4385472361751673 0.03248550415040086 1520.0216340391469 0.22451432670702023
0.3521696061192839 0.03248550415040086 1520.1968021234966 0.21234476265198426
0.5087888667799527 0.03248550415040086 1520.1573939552177 0.17032113576221536
0.2494561837524382 0.03248550415040086 1520.1695070774767 0.21274657957112192
0.4459628976273407 0.03248550415040086 1520.1280363577353 0.19817894452661114
0.4408203304285919 0.03248550415040086 1520.004096810395 0.2043135629892648
0.29455184249190003 0.03248550415040086 1520.1779828430635 0.2167675634279901
0.31923559685829656 0.03248550415040086 1520.087441516035 0.21121338453420097
0.48262548054558946 0.03248550415040086 1520.4552315882258 0.19373482913824208
0.4648832205034774 0.03248550415040086 1519.9211917344392 0.22880155029973717
0.3442928437205559 0.03248550415040086 1520.2075722559548 0.2242073985979051
0.3384975263204595 0.03248550415040086 1520.3215565933842 0.2372914920594568
0.44842664271587607 0.03248550415040086 1520.3511484143057 0.2068869483555094
0.5087878570896873 0.03248550415040086 1520.3310600958548 0.21667514746043312
0.44206479649287467 0.03248550415040086 1520.376860424998 0.21393343783132523
0.47649750520976913 0.03248550415040086 1520.3941214190754 0.2116745481292276
0.463969619291582 0.03248550415040086 1520.114160626826 0.20931729292761478
0.4817429392988969 0.03248550415040086 1520.0315556315763 0.17533008681842843
0.1988817481060478 0.032485504150400864 1520.4094772931542 0.2117472430999682
0.4233113500426119 0.03248550415040086 1520.0355784456874 0.19103596030469533
0.4380744941091823 0.03248550415040086 1520.2089321561164 0.23461865630796663
0.10798644983032851 0.03248550415040086 1520.4534723641077 0.18618534190656644
0.399942967512035 0.03248550415040086 1520.3803014938355 0.21737790741686122
0.5069599802390254 0.03248550415040086 1520.2076265751114 0.20757760246922197
0.5008034043064173 0.03248550415040086 1520.3939011847153 0.20085622546499646
0.49641191981948474 0.03248550415040086 1520.213421484498 0.19845975947442396
0.24835969263054447 0.03248550415040086 1520.2162407247893 0.19684545311966417
0.45334051950306614 0.03248550415040086 1520.2359565540432 0.2172627439163741
0.4216699293647449 0.03248550415040086 1520.138693781163 0.19379509923056937
0.517178404758391 0.03248550415040086 1519.9402538415354 0.25294014059095066
0.29662778786447935 0.03248550415040086 1520.3024161940739 0.23348295829813487
0.41032903583521374 0.03248550415040086 1520.0116567186205 0.18622274289927312
0.3539010414476801 0.03248550415040086 1520.409025937018 0.23182160664167586
0.2912766080288912 0.03248550415040086 1520.278459690746 0.20830991575096375
0.28399849662985854 0.03248550415040086 1520.2476649960117 0.20997059820217379
0.3483572359476682 0.03248550415040086 1520.4202595427066 0.19383805884309913
0.5283258243089674 0.03248550415040086 1520.1688561036374 0.21569185575925942
0.09360938300263008 0.03248550415040086 1520.4369526947994 0.19879422626177254
0.32850360366311465 0.03248550415040086 1520.311545902296 0.23824748417504735
0.5227160407986615 0.03248550415040086 1520.2987285558968 0.2221499711793735
0.37514776858484916 0.03248550415040086 1520.1717805600665 0.2187263185255265
0.5274284290507951 0.03248550415040086 1519.8550803205792 0.17117035296552158
0.1790911992961978 0.03248550415040086 1520.2929930076268 0.20953945987856729
0.33730366430633857 0.03248550415040086 1520.0803173022716 0.22383796019902036
0.4169181068218951 0.03248550415040086 1520.3012638817104 0.2094999171378837
0.4786727283132619 0.03248550415040086 1520.3747630835483 0.18979396041753585
0.14350217975553703 0.03248550415040086 1520.4100421528829 0.21411297446687752
0.06765445901638144 0.03248550415040086 1520.4309757331312 0.2174009521807069
0.19412681535256662 0.03248550415040086 1520.2808488072608 0.24964936001652316
0.4932130714265829 0.03248550415040086 1520.3292845574242 0.22390609318968302
0.28573411980622365 0.03248550415040086 1520.3410900717474 0.21033290405728497
0.4582126737150153 0.03248550415040086 1520.2812377480655 0.19204458373556607
0.3133346492897106 0.03248550415040086 1520.3886034843736 0.22839225858274942
0.2792380054436519 0.03248550415040086 1520.4234245444986 0.22497677771733443
0.47445127302672657 0.03248550415040085 1520.2378678744788 0.21690275268946738
0.2764198089208401 0.03248550415040086 1520.189948171476 0.2282058008634618
0.3077318914465747 0.03248550415040086 1520.3394109102892 0.22962029964542305
0.30489303545279467 0.03248550415040086 1520.2251779577946 0.2221881095338533
0.11475993674197973 0.03248550415040086 1520.3435507352744 0.22551032816391597
0.5110119162138959 0.03248550415040086 1519.832298073501 0.2603679430723913
0.1928101485486276 0.03248550415040086 1520.269699901687 0.25018220561971655
0.261477527315374 0.03248550415040086 1520.149301730531 0.2178843631957039
0.45262741839968046 0.03248550415040086 1520.0453361105872 0.22184998637635905
0.10528680716242267 0.03248550415040086 1520.4247569202282 0.21167304604258985
0.15169759315546263 0.03248550415040086 1520.3362044648647 0.1855592346266019
0.25411489160133127 0.03248550415040086 1520.3549346202055 0.22418730749686747
0.3689391892345897 0.03248550415040086 1520.0642785804243 0.2136993932896088
0.2638896307459316 0.03248550415040086 1520.3009979756266 0.23810894669386398
0.4929855495863133 0.03248550415040086 1519.9588962020377 0.2582606698123708
0.2279511829253632 0.03248550415040085 1520.2241968639541 0.19611025536612414
0.2889640267482882 0.03248550415040086 1520.1183507915441 0.22270203084001697
0.12947447114455415 0.03248550415040086 1520.4102259678946 0.2309331244774492
0.5175083125395199 0.03248550415040086 1520.2561563573329 0.25844159270784467
0.481717798527892 0.03248550415040086 1520.2641387627204 0.20624867747024941
0.2708473332511773 0.03248550415040086 1520.38435412898 0.19882447835234937
0.11144474564033528 0.03248550415040086 1520.4144091910473 0.2291035182359661
0.29480211189758715 0.03248550415040086 1520.2905281614107 0.2194115698014399
0.15450888013354255 0.03248550415040086 1520.4337330049805 0.193646690533496
0.1164315575188745 0.03248550415040086 1520.4614570106228 0.17504462278363078
0.47409669652400616 0.03248550415040086 1520.1516612796472 0.21224663815906739
0.17528301662247317 0.03248550415040086 1520.3069743121837 0.23431278702655337
0.404157825041703 0.03248550415040086 1520.4424723779791 0.19880247536876672
0.37984079390064424 0.03248550415040086 1520.188478643283 0.18141224792808772
0.30579042590119865 0.03248550415040086 1520.2112477061833 0.1933320757077614
0.41823793864005937 0.03248550415040086 1519.9910966666353 0.20799989762128987
0.37239433386116527 0.03248550415040086 1520.2783890340916 0.2280750024207419
0.21558705401607872 0.03248550415040086 1520.4250607905915 0.2471743561157867
0.16070021374997934 0.03248550415040086 1520.3176827146317 0.20807629961624358
0.4750699609340287 0.03248550415040086 1519.9375743446562 0.22657362248340715
0.20611471953415925 0.03248550415040086 1520.2778518185041 0.2838420831690554
0.4236248611317526 0.032485504150400864 1520.4041572505596 0.2127971920270193
0.4592840625759198 0.03248550415040086 1520.0667855373263 0.222427219893661
0.4080054561664938 0.03248550415040086 1520.3437300147625 0.21794128920136557
0.5171407489223987 0.03248550415040086 1520.447021408178 0.23390987196212645
0.4350880299639737 0.03248550415040086 1519.9336073956797 0.24382823069623527
0.49128659224521243 0.03248550415040086 1520.2687885390817 0.19539958319332748
0.42464394500174274 0.03248550415040086 1520.344930166293 0.2308229421064773
0.36400110411081615 0.03248550415040086 1520.424383548832 0.2217044009089648
0.09276662204449974 0.03248550415040086 1520.4484228472909 0.20663684615370512
0.18393469988260203 0.03248550415040086 1520.3717545860707 0.20610509645637468
0.49731392791898527 0.03248550415040086 1520.458882241386 0.1705551055478112
0.18913665660973827 0.03248550415040086 1520.2504275966835 0.20727922015735714
0.4584900981719896 0.03248550415040086 1520.2225909213603 0.21092483523444944
0.49218619692951643 0.03248550415040086 1520.4368889207256 0.16859687361315445
0.2681511382523772 0.03248550415040086 1520.165222866935 0.19059473476057257
0.4745384617579683 0.03248550415040086 1520.0460998470417 0.2058272419410193
0.15815619875833153 0.03248550415040086 1520.347038294025 0.24259434150570358
0.5252327011977261 0.03248550415040086 1520.1341064625651 0.20822782962722294
0.2544016698044148 0.03248550415040086 1520.4351364431636 0.1971322741073301
0.5131146950192343 0.03248550415040086 1520.036578982724 0.24164377891679034
0.056599569083848965 0.03248550415040086 1520.4264432066977 0.20422847812333017
0.332518310751012 0.03248550415040085 1520.2660221768015 0.2474541867175998
0.14234926044195428 0.03248550415040086 1520.289263830137 0.2232533691137212
0.4574107344706394 0.03248550415040086 1520.1672444085757 0.21892442460045508
0.18809880592073364 0.03248550415040086 1520.3276015863453 0.23622789670828892
0.3324680790679902 0.03248550415040086 1520.3629352544713 0.27308693626140884
0.2416970821205299 0.03248550415040086 1520.2381352717748 0.2158040597988575
0.174315321685831 0.03248550415040085 1520.3630505286699 0.21852724407319704
0.4811817720977742 0.03248550415040086 1520.1279090715907 0.1865958254657014
0.49768826664893073 0.03248550415040086 1519.9967425304549 0.21100762792382302
0.07274048635599226 0.03248550415040086 1520.4402457177775 0.1814286707017748
0.3087368045519177 0.03248550415040086 1520.3001906951922 0.24262890956796657
0.521562764677059 0.03248550415040086 1519.9968144330658 0.24462861540647768
0.4521114761147304 0.03248550415040086 1520.077204477288 0.20321445661375642
0.2637993199330184 0.03248550415040086 1520.3642858911753 0.19680540694181226
0.36253006465209137 0.03248550415040086 1520.1891861915515 0.19548157323528703
0.12298222020074324 0.03248550415040086 1520.3508121044142 0.21242987883186576
0.4029067439656752 0.03248550415040086 1520.0237394089704 0.20269029357800344
0.4626983154895164 0.03248550415040086 1520.2706571517183 0.19285006067964103
0.5261796531706275 0.03248550415040086 1520.0074670464692 0.1927319527376307
0.30143081724856935 0.03248550415040086 1520.2604450138665 0.2297699109387961
0.3136133075677008 0.03248550415040086 1520.2643340055242 0.20112501276650063
0.4409792151325133 0.03248550415040086 1520.191857265123 0.21744351850796745
0.5131099665847216 0.03248550415040086 1520.2731691275671 0.22764467015245712
0.32330269129508693 0.03248550415040086 1520.2399651356438 0.1815702518104018
0.4307563925432357 0.03248550415040086 1520.174871486906 0.21788743428140153
0.45004232804135164 0.03248550415040086 1519.9835867989273 0.2026174126051826
0.40957946755762076 0.03248550415040086 1520.3737213468573 0.24462843569634887
0.23732568548085886 0.03248550415040086 1520.2130218014001 0.18202216672803007
0.2898132354758229 0.03248550415040086 1520.1658880345078 0.20714669830523438
0.17838047737849866 0.03248550415040086 1520.4267313300963 0.23122534688765228
0.4055048994750243 0.03248550415040086 1519.9782344203395 0.2095290565257032
0.48089894438643066 0.03248550415040086 1519.9602986429695 0.2357393064740624
0.48915291728354293 0.03248550415040086 1520.1874343183256 0.19200724225218355
0.4635649476152321 0.03248550415040086 1520.0304105890846 0.21767882273406294
0.32996042566789396 0.03248550415040086 1520.4519484472748 0.1689238786182943
0.09315326414437573 0.03248550415040086 1520.4616188379835 0.1803029636257096
0.48914094699529675 0.03248550415040086 1520.2026508240922 0.19656799703230438
0.4547245882873104 0.03248550415040086 1520.4482393125843 0.21740930000433012
0.4815455122688155 0.03248550415040086 1520.0898270114783 0.23130438233279335
0.5147809001317969 0.03248550415040086 1520.426427954232 0.2608360146052897
0.39538862848290435 0.03248550415040086 1520.2219738454075 0.21765026175351387
0.4404382593277856 0.03248550415040086 1519.9546766795188 0.2456123705868811
0.22138290680560072 0.03248550415040086 1520.3927812939414 0.1856890788129877
0.48219545798673075 0.03248550415040086 1519.9060556611676 0.22234492440422512
0.26682337314977056 0.03248550415040086 1520.259309010584 0.1710967951369112
0.4158398842991947 0.03248550415040086 1520.0443229484522 0.17337338359565316
0.41300869191654527 0.03248550415040086 1520.3134620802189 0.23429150632880838
0.4464658623628204 0.03248550415040086 1520.060484137906 0.23289416357246517
0.5032241389939559 0.03248550415040086 1519.9853041534973 0.2232477846393576
0.49655296390973475 0.03248550415040086 1520.280299916311 0.21386068586277418
0.49736001805643903 0.03248550415040086 1520.1552189202664 0.19030024751425295
0.4106405479460296 0.03248550415040086 1520.2395277768285 0.2102176381413711
0.4724905682479541 0.03248550415040086 1520.2525523045183 0.2200595860948997
0.23110602929419438 0.03248550415040086 1520.4190089671804 0.19540596824267673
0.09088821916044869 0.03248550415040086 1520.355511076243 0.20994207714813526
0.319546261046428 0.03248550415040086 1520.3523195735033 0.25525951514563916
0.49560998180806454 0.03248550415040086 1520.4039004409888 0.22483091451216525
0.20448852860305802 0.03248550415040086 1520.364214645046 0.19719851895180213
0.5289763236697063 0.03248550415040086 1520.2636975981854 0.21471515108254574
0.22720733324845277 0.03248550415040085 1520.2950075939525 0.2332673906844226
0.263959966879487 0.03248550415040086 1520.2213729721025 0.1846485481511112
0.5026283614356563 0.03248550415040086 1519.8751428510986 0.2347516261883339
0.47353281463026936 0.03248550415040086 1520.363561925715 0.202273235811286
0.2706692646782796 0.03248550415040086 1520.2738415771137 0.18779239649508378
0.0871391280217307 0.03248550415040086 1520.3817055202678 0.24246753802063387
0.22664112236602327 0.03248550415040086 1520.4404450394625 0.20133849595923903
0.11530951678802867 0.03248550415040086 1520.429937855602 0.18930114761208586
0.23298313614721752 0.03248550415040086 1520.3551477265223 0.20783884277750855
0.318083818743618 0.03248550415040086 1520.1488648202899 0.17971567943539846
0.28196552000755787 0.03248550415040086 1520.157471736402 0.19758388857912187
0.53425076393871 0.03248550415040086 1520.417926586718 0.1249842588729382
0.5062768700166991 0.03248550415040086 1520.404276327812 0.1962374833945641
0.3628826097468394 0.03248550415040086 1520.400016648349 0.2018463550887899
0.3316158333382917 0.03248550415040086 1520.1779233741486 0.2345637671548364
0.29979075734521216 0.03248550415040086 1520.3935140696399 0.24152312861115274
0.47399100260095933 0.03248550415040086 1520.311615579256 0.18548759525656136
0.508627194716229 0.03248550415040086 1520.0054632000101 0.23254519121755093
0.22229984199416153 0.03248550415040086 1520.283379278771 0.24315927877381863
0.3631891431603017 0.03248550415040086 1520.1659704196363 0.21768790952899206
0.12854753619557707 0.03248550415040086 1520.4243297246535 0.19439412806204884
0.4379579901742814 0.03248550415040086 1519.9850557905315 0.19684654977304342
0.5156303460672795 0.03248550415040086 1520.0246710091697 0.24872253240724002
0.34638792694288606 0.03248550415040086 1520.0872954708084 0.22774770886594534
0.5346097539825507 0.03248550415040086 1520.0849322547538 0.15236988738042118
0.38507690248984416 0.03248550415040086 1520.291323149478 0.2142449757487078
0.36743876405311326 0.03248550415040086 1520.4375710750026 0.19677410697813788
0.13004221459437976 0.03248550415040086 1520.4437563577676 0.17452026624533226
0.27966481523640935 0.03248550415040086 1520.4507533362603 0.19036442110739746
0.4355809255456722 0.03248550415040086 1519.9652700368958 0.24182749300072973
0.29284835415795124 0.03248550415040086 1520.154561800788 0.20069076459771568
0.3687639024231196 0.03248550415040086 1520.0092849426032 0.20160459008992893
0.42683960602883975 0.03248550415040086 1520.2359200685337 0.19101617249288338
0.19491147788870766 0.03248550415040086 1520.431226360081 0.2250083886622254
0.4302408471058642 0.03248550415040086 1520.272525482338 0.21725607534468555
0.23094102541477488 0.03248550415040086 1520.336171152957 0.20309047783056214
0.14850648086986012 0.03248550415040085 1520.3248019637867 0.19716870783683638
0.48321158333626973 0.03248550415040086 1520.33730066538 0.2045922400917624
0.3686025533825869 0.03248550415040086 1520.4590895196654 0.16506806735765006
0.3208231920547533 0.03248550415040086 1520.1694660693222 0.2251848507930057
0.45628388598168496 0.03248550415040086 1520.3393964502352 0.23772612391943043
0.2764963988800284 0.03248550415040086 1520.1208105876703 0.21914210672116397
0.5025512649875487 0.03248550415040086 1520.3648530018254 0.17328135591142332
0.5123081635830111 0.03248550415040086 1520.140370959577 0.20631040976247686
0.4434246895325275 0.03248550415040086 1520.4207915335257 0.22965101535761565
0.4467546322998536 0.03248550415040086 1519.9689475496782 0.21998101346399332
0.5007206825310532 0.03248550415040086 1520.3787818694163 0.2021139592867497
0.39871979058557905 0.03248550415040086 1520.1710487419482 0.21042691650061507
0.5158198264018135 0.03248550415040086 1519.98593935862 0.26293786783935447
0.3393574880279886 0.03248550415040086 1520.3038711655377 0.21907002424777403
0.31200826992317376 0.03248550415040086 1520.3641176952362 0.21165541225200754
0.5281917681098692 0.03248550415040085 1520.1892406288166 0.20520453432143498
0.42335138059950267 0.03248550415040086 1520.447800405501 0.1999828719396065
0.37806186399340147 0.03248550415040086 1520.4213478817212 0.2189679188977197
0.36702530679194867 0.03248550415040086 1520.2645848598045 0.21341133836157997
0.2606485157830213 0.03248550415040086 1520.2458429672035 0.19632301266072835
0.4390491236011802 0.03248550415040086 1520.2401595302015 0.18438596739670476
0.32625601332291376 0.03248550415040086 1520.4172509034283 0.2013908863794713
0.3442436361601916 0.03248550415040086 1520.1148394110369 0.2025630111187426
0.07561685971803757 0.03248550415040086 1520.378871221672 0.22347614195399995
0.15019618498262224 0.03248550415040086 1520.4226249670871 0.20539611593656318
0.40624439769944193 0.03248550415040086 1520.1414863249279 0.21907494151994827
0.21404958938811114 0.03248550415040086 1520.252441313438 0.18844459124726842
0.5295189062597274 0.03248550415040086 1519.907485279657 0.1520550636434137
0.36590277039551866 0.03248550415040086 1520.3660305111466 0.22677097764262924
0.5120442016417549 0.03248550415040085 1520.1955543211616 0.19611624918367548
0.4755092995427128 0.03248550415040086 1519.8919544816706 0.22545983234107633
0.2596710563063665 0.03248550415040086 1520.3763203980777 0.260997639559282
0.09042730159232493 0.03248550415040086 1520.4236144629656 0.23147739766248654
0.5196701149363135 0.032485504150400864 1520.397295197181 0.2754159818589153
0.4395386981586793 0.03248550415040086 1520.3043374053518 0.2050910634646327
0.5265146447538742 0.03248550415040086 1520.2468625007432 0.16200904804145816
0.47109209379970896 0.03248550415040086 1519.901615389838 0.21037568685674565
0.5141148371778659 0.03248550415040086 1520.1057411816028 0.2672822764263261
0.10496256457610198 0.03248550415040086 1520.3800363970577 0.2026731078263033
0.0030275268554688095 0.022679270038748357 1520.020665118791 0.15747394413651356
0.0030275268554688095 0.022367447809993682 1520.3426848699405 0.13029583574294507
0.0030275268554688095 0.024248005409091965 1520.153603346604 0.11562133524003769
0.0030275268554688095 0.012010456581084728 1520.288476712968 0.15562207661110497
0.0030275268554688095 0.020935729440052415 1520.4499020092894 0.12607515455988022
0.0030275268554688095 0.020698094169932582 1520.128504920484 0.1147794790831696
0.0030275268554688095 0.02486728836830234 1520.2833562939754 0.12456764246859599
0.0030275268554688095 0.010233353138183042 1520.3981053587984 0.16586203268046226
0.0030275268554688095 0.023202378926009057 1520.2081925261123 0.14475218987841953
0.0030275268554688095 0.019793755529888178 1520.1783808531964 0.10662685534718
0.0030275268554688095 0.014770981650425393 1520.2293271856302 0.1607029412344771
0.0030275268554688095 0.022274800921089393 1520.413344782551 0.13984995590416077
0.0030275268554688095 0.02396914814577403 1520.2487775009847 0.13858170278609433
0.003027526855468809 0.015905582151467187 1520.370914862357 0.16820505072096092
0.0030275268554688095 0.02208541322631521 1520.1413460809647 0.1191928021211317
0.0030275268554688095 0.021450753240900088 1520.1669945140966 0.14138719731544355
0.0030275268554688095 0.00959132878234644 1520.319916633329 0.1457877582800997
0.003027526855468809 0.010450328375741644 1520.3381033509552 0.14334504683302296
0.0030275268554688095 0.013245121091932929 1520.3496378938441 0.1497938987427632
0.0030275268554688095 0.021388312476385757 1520.3886780597318 0.14790095461986713
0.0030275268554688095 0.01833955745429791 1520.2176586011237 0.17242665980674632
0.0030275268554688095 0.02162225351807944 1520.3267360015107 0.1336348894299226
0.003027526855468809 0.008855045847241587 1520.45233573499 0.15215293162242782
0.0030275268554688095 0.0315540979064617 1520.4441120084275 0.14500572684720192
0.0030275268554688095 0.013133169138833677 1520.431377887011 0.12755668767437425
