x y z curv
0.16377064113878673 0.45707025336262136 1.2996999708151966 0.10468837470854502
0.15881691273916326 0.45953649436290034 1.0056625459614663 0.07673752675725126
0.1685620605287947 0.4543460278869335 1.14916055139366 0.09876975442955066
0.1678481349954571 0.4512630461584159 0.9972528948155286 0.054188052631358244
0.16568741391638347 0.45753835662490366 0.9776149325502191 0.0801639380835102
0.16362105219464024 0.4511695421457593 1.2793180763365852 0.08713993469685377
0.15969541209116522 0.4576574773882006 0.8312677543878432 0.06371523667492654
0.1670013879533689 0.44880112132889344 1.1877179696456568 0.10851948915539827
0.16458411868956987 0.46625459668199576 1.2246272604419872 0.1109369596169698
0.16079203955446505 0.4589629384317826 1.2691400048255121 0.12068393318065658
0.16184887794896155 0.4609568813914568 1.1808146088036826 0.09747679862868788
0.1571605253346238 0.4716761131505616 1.247800949379131 0.15672910912920282
0.1568543501718921 0.46550050237908136 1.1306881057615201 0.10603799652580158
0.15707594161958116 0.46843326429623444 0.8785410725818923 0.08356462311064543
0.15794008748306523 0.4629391367840351 0.7732279292566446 0.06551377537875669
0.15107480049006625 0.4520949225075024 0.6571331022054788 0.04266035953622568
0.15593818633083323 0.46655644757480313 0.648818623700468 0.05010330764963704
0.15313858771458158 0.4693251735728078 0.7294132180912488 0.06809879261040983
0.14623079036139752 0.463865470123232 0.6266162522272652 0.05169954510896208
0.14949422369184948 0.46600613403990715 0.785308591492279 0.060786967921216815
0.15962303410824252 0.4683472150229778 0.7328819252395535 0.07262196053485746
0.15694565982232178 0.47350884417760963 1.1132421073696577 0.12025878823016779
0.16093945759544978 0.46936301642005657 0.6703267533328083 0.0703555456419736
0.15160886977427668 0.4643234510304452 0.7538410161715762 0.07417088570822354
0.15982249532639325 0.4656289103304867 0.46915991709531135 0.02634882595128378
0.15510570956170044 0.4705869189405521 0.877100598023585 0.0754378923502503
0.16047459951165918 0.46367684182170976 0.8182022065877995 0.05557409803061678
0.16657366598693685 0.462573715508374 0.8408428295764119 0.06801784602089608
0.16261684728490064 0.4651908128349649 0.7048758341629415 0.1001144587754442
0.15691490338852843 0.46130544894678177 0.5979486124485186 0.07342999331475651
0.1555535592060318 0.47346257138742553 0.34778867370758965 0.10854591117618437
0.15883438317051254 0.47000744124594934 0.618801025079426 0.05040373022218211
0.16152475165287664 0.4727856413784644 0.3059125845826139 0.08109478578637494
0.16046156280374144 0.47071427568594054 0.3558936971563821 0.12659889205478644
0.15153923273559766 0.46428397483657396 1.016929486851949 0.09964624178438147
0.15816838044715673 0.47340787689113917 0.40545337466443837 0.11209558632759374
0.16080091446377706 0.4687899999140661 1.1893343672670245 0.10095399534847466
0.146869477209508 0.46937187210918796 1.2080692401758306 0.09129907784848847
0.15694162159746483 0.467417352874233 1.0005464697299555 0.07902988783534741
0.1572355481071147 0.4583704047294357 0.7866087152188507 0.06765211434377598
0.1511657683382217 0.472912908532893 0.19342150048379483 0.08111841452174483
0.14334263497934457 0.4638391792753654 0.8089215255688157 0.04656948951691419
0.15361374634379252 0.47481072442905514 0.7631574034438805 0.07728281705816008
0.15931325490635329 0.47444297890025583 0.3919155187546901 0.08122888395791714
0.14464891309734668 0.46738465656698863 0.1790472448324371 0.1127924127459772
0.17171281803275304 0.4609157794238688 0.19423891599795062 0.11578918821787473
0.15422675141672423 0.4667820608252739 0.1498081566645414 0.16875790269570692
0.17114724855947605 0.4634432406353264 0.2234852507663354 0.12602334217179018
0.1618631349697967 0.45893711055498604 0.36626470423965946 0.0900136894565724
0.16030556012602262 0.4676383955176825 0.40448848241546786 0.13244214131977727
0.1670377647068464 0.4626578954996507 0.44164875461964015 0.09542025240408399
0.16235465832615714 0.4680295539985434 0.2390876252922855 0.13457534267659496
0.15731763377452446 0.4513031065186696 0.15801629231307354 0.1750656375356037
0.16115784031481867 0.46553946800837476 0.2791006901726297 0.11228960803620215
0.164437977933892 0.45982356184223194 0.560168950119425 0.10258606604909479
0.16318972190437694 0.46108943176770156 0.43268620002254604 0.10440387243155373
0.16238581453844259 0.4646439580398584 0.47699705784243673 0.026884031019417977
0.1633615918132631 0.4549065007750506 0.1868783337914817 0.1069009478656138
0.1620267462504667 0.4618899705405603 0.4659699062236744 0.04417054475291182
0.1691418166159072 0.4628301965436836 0.2699343119119069 0.14316857816348502
0.15491371153394679 0.45382049912723305 0.1682539111351906 0.1404861714138807
0.1633743490594528 0.4526383663976965 0.29169234678298905 0.12216073865039842
0.15587682225204924 0.44687001783004193 1.1354313900713808 0.11858818181145475
0.16146897347743122 0.45826678047355013 1.1190036578510965 0.11319196050064345
0.1511641455104494 0.4465533023207327 1.1590202763111976 0.10719636186021109
0.15407487141135914 0.4551439746110659 0.6201675945348452 0.04597579511090837
0.1554958815646981 0.4540625560384039 0.8999325277818309 0.06468057175449174
0.15703769480260743 0.45152412487633714 0.8537166513912281 0.060273292035353594
0.15497179496436927 0.4548931433234833 0.7794381893551373 0.07350188883618106
0.15675943335770753 0.44599294944815965 1.2126718401357137 0.07156444741589224
0.14824502808518752 0.4466808775644968 1.1145888828069639 0.15653511167885978
0.16394011516220117 0.465293621570037 0.6735213632930445 0.06537755755503546
0.15604766708870685 0.44856046492009727 0.8441373085565477 0.05165525431908064
0.1523216234275906 0.4489762200540521 1.108366002170859 0.2093196265344608
0.15717146761126885 0.45576400242035947 0.5652312304315412 0.07203261388113291
0.15751916725407036 0.4613225530498791 0.6062671722665146 0.051879136656320025
0.15407239105997741 0.46321761761299485 0.5837075550433363 0.08370670823348685
0.16875834986890245 0.45592666260988485 0.4514839765897565 0.055560424289992236
0.15805817777003497 0.4502196608666308 0.7524627127853228 0.05860026198022423
0.15708030495070877 0.45537671594187284 0.8863733641157642 0.09484982699244948
0.16305487708848376 0.46245201519396184 0.35512445241004703 0.11498972108602376
0.15384800319565156 0.4583098090541732 0.6354987506606364 0.04667700893401667
0.1551528195636441 0.45093027423210097 0.38915407007626374 0.11690582194644786
0.15355315541393588 0.4563683763658043 0.694178642535842 0.09356167513028939
0.15703456715370004 0.4541605119527369 0.2198791704086502 0.14153314669470402
0.15847527689235977 0.4566406939705971 0.8176583907813789 0.05512792110084866
0.15022821036449002 0.45941553824071973 1.0201243442553956 0.10428624462536104
0.15565145263942232 0.44906319953382723 0.7139492111020868 0.09851949048422232
0.15254395630670023 0.4573851721119962 0.8808065781106559 0.11476928547276546
0.1567232173678204 0.45289351714584564 0.7054998937760614 0.09789034349594525
0.15449526745604952 0.45705283680748227 0.8000132988801347 0.055604624534736545
0.15401927159088488 0.45322285287656966 0.2817414722101305 0.09897029599789173
0.154772647994197 0.45045511578029546 0.32876792880428973 0.07904932257665882
0.16087868961587834 0.44177607635077404 0.2527414735836444 0.07570867637497704
0.15510988277782922 0.45813394520058964 0.1466175200086552 0.06328631878919676
0.145983992642121 0.4503688952988144 0.648509533304937 0.043766240850001595
0.14053802015809433 0.44744822257219635 0.6156658783850836 0.05542680101306784
0.14738546840554975 0.4412719371744045 0.7435949052124118 0.08455252229548962
0.16614605024280893 0.4488976579600127 0.42456807231219557 0.13979057072513912
0.15328561743029268 0.4438021025932207 0.7276836546383261 0.07272757761545962
0.14756274162655095 0.453874850628149 0.7615150922811393 0.06429186414656476
0.15009782243502218 0.44891508532612256 0.19907016380438614 0.09422030508807701
0.15346705096748986 0.45000414266164757 1.1966990938201552 0.1095352430839277
0.1469853017247842 0.4490097135267976 0.8226057211697442 0.04895727057966392
0.15271130184111148 0.4569848220113341 0.5890623656731905 0.08125587064490145
0.15263829801667117 0.4511486883476853 0.36696389121507395 0.10588351746392
0.14221347907835935 0.09714099506115773 1.3392011206993195 0.23704590344568585
0.1386279690015348 0.43534134993981466 1.3325045723922606 0.11823212666731178
0.13869047860139705 0.43099720901195615 1.3434562377370471 0.12439703499010786
0.1339037454833275 0.4137863244240292 1.3437817231239975 0.13235131458793975
0.1483088915232333 0.4167321334924526 1.335117842405804 0.1232427225491075
0.13300340439531003 0.45518641237910484 1.3065006425458114 0.10291221172300705
0.14050288688168036 0.4645148706159353 1.3172797460957482 0.10526052798360061
0.14371502640305225 0.447037807179187 1.3249598725006262 0.09018645505211041
0.1418177182312549 0.33720572632317775 1.347254955926312 0.0751186199388974
0.1407132823212624 0.3517623773491293 1.3360410914200447 0.06997272868070342
0.15199073738640978 0.3767398121888589 1.3411778366093936 0.11119526482913113
0.1375397822889563 0.39467736682238125 1.3492460456220516 0.1284707063318239
0.14716019476537295 0.332290615711934 1.3526597740387865 0.07979166766203794
0.13528306879782293 0.3028788549992043 1.3441488447235057 0.07145610367080492
0.13626673377353288 0.3567092470514376 1.3475982234323083 0.05067910555210241
0.1438353776887618 0.28928833303193935 1.352161741366232 0.08439880997691435
0.1484340305256902 0.3757889269343879 1.362082036434111 0.09489871383587635
0.14502491381801788 0.3864359566129211 1.354679198961889 0.08927766181411323
0.13623747494239502 0.3727222116373261 1.3467972896572606 0.11359324019624571
0.1402914673319592 0.1660112995792264 1.3548686627640143 0.0798811031933186
0.14787985530886094 0.25561693705268373 1.3487304297220508 0.08813110727967324
0.14461047052673962 0.288325722748445 1.3535176049241835 0.08270844471925026
0.15788576921517147 0.38598027591727574 1.3635781515436 0.10169992722566432
0.15090492940652928 0.3522469496982559 1.3583279575992366 0.06963837603399749
0.15392603308038147 0.41086728975636566 1.360200428326092 0.10208652886136928
0.1425134875086295 0.29676259761658164 1.3550565713244154 0.08510532644584126
0.15389856220232498 0.27496271056309807 1.3572889248075737 0.08421298040560025
0.14537006971907485 0.19567070605546466 1.3550963769081497 0.10844946694519397
0.14434044017714276 0.16527352247267807 1.3566098782608846 0.07971364285245688
0.14884558454325797 0.09717973642322181 1.352641617106387 0.25676004567303184
0.1404325275346614 0.22680240083093572 1.3523909930635516 0.07727620667969572
0.13582500302709352 0.12792756485357354 1.3495542997585113 0.12216951185539282
0.13570874959710086 0.11774528975948187 1.3431991965412697 0.19878407465973535
0.138546939836877 0.1911580056518993 1.3539444237226297 0.11092008726958975
0.13926937925756416 0.12039741755776322 1.3506836410532452 0.15394150156530922
0.1325152012851682 0.15648183564798163 1.3503553980377947 0.07952911287491463
0.15161095010667475 0.3246605389612854 1.3410481993309185 0.057003033809864524
0.13551527142004416 0.2261213043395794 1.340638162581086 0.07120170404115213
0.1408138451262004 0.18515668654124523 1.3482210027985815 0.1066941053860461
0.14092064997202325 0.2410389704890868 1.3471479053704416 0.08757368715415795
0.1441234786521952 0.2614519836387208 1.3447999066116052 0.08505432647374978
0.14841370001043533 0.27493507083637647 1.3375942333468802 0.08546607974182631
0.14333563331541335 0.1916259009655416 1.3385898672529422 0.1138672218165784
0.14621556665561847 0.2800093964687884 1.350229473240353 0.08310288910410661
0.13905679754706257 0.14267905004417222 1.3441871974499828 0.11920695886137389
0.14050181244841917 0.20442978093374436 1.346122281740157 0.1025252243283763
0.1301432813131757 0.09519223643073813 1.3470038692347073 0.13789451707116948
0.14686091186583494 0.16487472790137914 1.326719584681008 0.07487771377303735
0.14747358501965013 0.3336320906188429 1.3372843476762604 0.06038442006016097
0.14477690354346467 0.13364381258740723 1.3362822217382277 0.13026025008008396
0.14160881925365829 0.14913112919610538 1.336698667228228 0.06481809422108072
0.14581473083945098 0.29368537212866913 1.3381235037617714 0.07802698582344883
0.14370003271532594 0.39013057631395787 1.3328444100927803 0.1254611279876609
0.13551506647365166 0.49480552565481545 1.0676302062046217 0.25432150458816005
0.1419091820009665 0.5024031296998535 1.0933801700727748 0.10752170458896042
0.1611076444567122 0.4965800066572644 1.0510900601986257 0.0994424090166192
0.12729361519926471 0.5077016736129102 1.0717443023469648 0.21236091740487462
0.13393095912277328 0.5075114229201384 1.0538455482284914 0.18976086926733798
0.15764284239048076 0.5046126177298571 1.09165260912283 0.11868346489935996
0.16624896816740986 0.5080679216188679 1.0706603679560642 0.20534480200304817
0.17272642016313883 0.5036452821392183 1.0616617696286346 0.1846375097148773
0.14792489523162183 0.5297299788118811 1.064418472121204 0.18339783685490604
0.1359095303940173 0.5265825015202847 1.0812663701764826 0.1343166658256759
0.16861212882856125 0.5265360590468237 1.069663643464075 0.09284801934263699
0.16811904817029033 0.5182815555886645 1.0822285933184297 0.10272549729808234
0.14951075244001916 0.5200189365011224 1.0878270285367677 0.1707399483948575
0.16051194050398326 0.5219587486063403 1.0475587426189437 0.09276525050666251
0.16711975924877498 0.5158834900079781 1.0601284533448707 0.23935721334765278
0.16739180639919155 0.5221038432802106 1.0618587770070047 0.20532395942678924
0.12955738712124637 0.5210713579758026 1.0750520964576837 0.1986649955990091
0.126823934991223 0.5210584718049273 1.05613785264423 0.1383530183613607
0.15071868300003383 0.5265904389159458 1.0521103186133631 0.14889824626408907
0.14258912544936755 0.49366549711046737 1.0497582750052883 0.1473993371865449
0.15133739020811 0.5085845111542634 1.0930399833743696 0.13911337078909525
0.14569235261237548 0.5138886531660657 1.0890773603562445 0.1582611153203576
0.13303946173082465 0.48701960893866847 1.0879638140412817 0.06540353570391123
0.12623048679998813 0.5128349413622401 1.0636718541759167 0.1627436846806077
0.13337672774535894 0.525566254233125 1.0789209894906002 0.14322828323968548
0.1582716820477053 0.47770512122543274 1.0868428378700676 0.1660155168291488
0.1557667342817116 0.44698076602806525 1.0502319698843028 0.12002140916767562
0.12913267046597107 0.44620659078037594 1.0622269463573215 0.06894653591590494
0.15173614306873365 0.43598050407191863 1.0789715816079317 0.028164311258739895
0.1748003280674601 0.44676986151185266 1.0874928656491376 0.06585679880649684
0.17182003155122297 0.4737938923317747 1.0780444568874679 0.0704321359346127
0.1742933012195549 0.4461608933693469 1.0642632039361302 0.02641932178300811
0.17227094300961024 0.47540511573294036 1.0673973966968642 0.07091832531114967
0.16937771921614425 0.4734715718274714 1.0571604488342554 0.07275855472738085
0.12714543615907192 0.4561044430669593 1.0576926965550622 0.06510266772407691
0.12900523629782032 0.47082650640662305 1.0542310396225163 0.06907294478342732
0.1241292857844445 0.45059029916013194 1.062794921066147 0.051811645539859535
0.12443696746332852 0.46442958273907337 1.0734828053573489 0.10155225238024666
0.12665758530014148 0.44511533276998666 1.0856087196863355 0.020624286162600817
0.136563165932758 0.4749805761788359 1.0940355795366048 0.12031651316740993
0.17719086876929782 0.44433053430181624 0.9392385987950919 0.13170268107245917
0.17835872364664165 0.4409853791237277 0.9309838391661296 0.15824383700828848
0.18549131282262943 0.4734359856600981 0.9158202248310728 0.14953426979772289
0.18335222944474702 0.48044520924805156 0.9217368927963181 0.1366095442278998
0.19123975467065304 0.47238279790350596 0.9395523934180476 0.16591519520354772
0.1853339128166336 0.4619184872413883 0.9520639944008021 0.16854258770637293
0.18640765364407272 0.4617636186004565 0.9515627983212993 0.1670695294526999
0.16601002118588035 0.4437047816843223 0.9473179634294846 0.14452665277832386
0.18776316034611282 0.4586390181018419 0.9491159378469555 0.1527802145637175
0.19859558972574304 0.47564525488130566 0.9355093892283217 0.10140032472423255
0.18625988321066958 0.45908477688813515 0.9335066153892713 0.2563667050597543
0.19294447807022505 0.44427792365424124 0.9094395518610687 0.025670623299068353
0.18564091258942042 0.442556924116563 0.9394414088541333 0.143332855400619
0.19090300767911164 0.4470888687709554 0.9492514579173547 0.04213313091685574
0.10070323492049783 0.4470078421451219 0.9181860729132268 0.12681220997496628
0.10111743804188383 0.46023155329890947 0.9229648532671542 0.18840167044861872
0.11939862110562384 0.44916556973129307 0.9224957323691759 0.11482350081118813
0.10899273443508285 0.47754261089628114 0.9275906952631607 0.20993762990465825
0.10054577327078935 0.4615314579508914 0.9109377806329609 0.06638967289986195
0.09577358758119019 0.4641091207833247 0.9536804336078674 0.0637861513881643
0.10456266882867134 0.44237494932020077 0.9289746166386403 0.12322421643692623
0.17733393867709435 0.4503833753632765 0.9149191528660809 0.10195089268716728
0.16495045328735483 0.4863145062861264 0.9366326519051563 0.04765828521244067
0.1309512377689281 0.44685907367043726 0.9240131328493811 0.1830557708492173
0.14956105722057653 0.4473410729396615 0.9367074402485706 0.1444392691252469
0.1337957179689974 0.4806838756704063 0.9361322233156886 0.09181387637427899
0.10215052827049757 0.35221146694768857 1.0296885007427365 0.15273583137017027
0.06015952664551507 0.30134074402175137 1.0839522608321286 0.1378354188564595
0.08571306673640125 0.2511120243711366 1.105508590630526 0.06784130757027082
0.0645409375605314 0.2652807448785906 1.0980935257603375 0.07234880466897112
0.1102050978483532 0.2548936688385 1.1078017321261784 0.11161841036301282
0.10048989727990594 0.26234837666491245 1.0880987150927364 0.0486661444151341
0.07199905580843612 0.2911889854862504 1.0710517151661285 0.055577266609496634
0.08929267107728663 0.2779521648834615 1.0774179514187103 0.10605489741672354
0.11714607593066577 0.2950971840719281 1.0583775073776247 0.017717051207781755
0.10739688427411208 0.2985834792978562 1.0591268345709064 0.006531976218525438
0.10789626077758531 0.26635852422690814 1.0839024048903851 0.14315085580006753
0.15256571021566948 0.29484521511824996 1.0753170380771988 0.10696621732281217
0.12941524589714481 0.27499362228079244 1.0748987380176558 0.1020667936686204
0.13687288407686646 0.2629925599668463 1.0850674219582157 0.08479360536839252
0.14486116174616442 0.26399224655296183 1.108983342088024 0.14911243631853388
0.1399982287930497 0.29355193915496575 1.065690180408811 0.060628846078542784
0.11868282912961613 0.3150225915077064 1.0412932708826987 0.009134002810246707
0.1402706372847846 0.3334048300442522 1.0384563515394152 0.03686982540820069
0.15614432475278042 0.315184683640721 1.0580249837054974 0.0460361526817133
0.08580249926310034 0.310834671801054 1.0567350784847511 0.045675264901172956
0.09144993412232742 0.32740299160702446 1.0433169097423023 0.09751926999195079
0.07493518052478577 0.30339024007675536 1.0628143841372941 0.056101317788667227
0.15053064837021954 0.3322578699469521 1.0784361994548042 0.09014339030322428
0.15660013980380683 0.2791635653751038 1.1040001557519474 0.08094806721535636
0.13820577581957183 0.3026626268078439 1.106325838973326 0.08894970482148608
0.11768625197862276 0.3358165793965945 1.0921770622177083 0.007239783946013642
0.12354132908515403 0.2900246805430606 1.1113450841464512 0.22850802365137493
0.11261052580569783 0.3526571348485606 1.0772157498833925 0.015888276753106036
0.1612251365988086 0.31277738152583984 1.0863223064411973 0.07726229472136459
0.1504144690999919 0.30277389871675836 1.1002868657439753 0.11611911265338445
0.14926263400926104 0.3365839776650448 1.0843907525603824 0.07846227937028816
0.1536133185743543 0.3135539886751261 1.0982952383107294 0.06525490024187193
0.13825808413810386 0.2824424643705815 1.1126150202620597 0.13480747487661257
0.08525168534597276 0.27653249674514485 1.1147222417340883 0.19608394624770337
0.061803077010719604 0.28883810835115287 1.1005512087920337 0.14679569248863955
0.08764870098900711 0.3237106765630859 1.0981661028494025 0.01489038840601546
0.0817603025589065 0.34737133894470495 1.0766457583294906 0.0441570284957557
0.06090994347786974 0.332836096298939 1.076182642794511 0.15302798718516794
0.06698142550283927 0.30815953717476186 1.0893130907739617 0.20032437625165425
0.09117303020445167 0.340384425983618 1.085281525066273 0.016748378885116627
0.08963663596211906 0.3550720961736814 1.0719931279513022 0.09969841803539418
0.09156207276722401 0.293479609112003 1.1141680979132353 0.1319100890110209
0.1567736712749944 0.29431939788149564 1.0809989255210206 0.0896039654356741
0.08792926733916678 0.4417836860798335 0.9460313377863221 0.03614680165570321
0.11509172235132417 0.4399678186115959 0.931945708920841 0.12412609005448416
0.07100899009891304 0.27408708942371135 1.1011814630375718 0.17701185840909073
0.15488123271523316 0.2973208714918477 1.0922688052964806 0.12111084188195138
0.1318527829480545 0.25394245611287136 1.096993024645713 0.1227133392285774
0.14872442622877716 0.2718900681532077 1.1040881172050623 0.13747338774908402
0.15438242068537353 0.3215517905342705 1.0558721037523267 0.07141267540404103
0.1519327558701986 0.32585102741662075 1.07071203873376 0.053678138616626736
0.16703686486024177 0.30979598560745053 1.0791509542891564 0.049856391535091776
0.13585714062145712 0.26603296744309607 1.1236794482106465 0.10726557826306955
0.14935065689337987 0.35114656288354446 1.052494897154048 0.010750774881881923
0.1530055881680211 0.30634528569469915 1.0638364660492121 0.10811840129723697
0.15576457792744025 0.2893881841220403 1.0826499291977971 0.08867366848297271
0.16179802180198757 0.28508253671433115 1.0960366017861765 0.09601011687013007
0.13211482005093675 0.3441415869388241 1.0303531067220588 0.11018134749360367
0.11459970271620161 0.36766891892361575 1.009837556216668 0.13351203184900154
0.10993288944602592 0.399745587464465 0.9814880604308508 0.171441064391738
0.11119164762320934 0.42338385461353706 0.9541832946636151 0.08871959437496364
0.09463442481558712 0.44535353358695845 0.9729646386049937 0.07694787597175747
0.1026744246795711 0.3454025677328036 1.0319850924182656 0.11566983147560912
0.08196825255122164 0.34661555587394843 1.0441893151901323 0.09716142743513027
0.09717521211829445 0.4362824681707878 0.9548820547631806 0.07299042692467306
0.09829474971115924 0.3780543552955967 1.0213949627090197 0.16309916629441468
0.10065868563057496 0.40884109367422106 0.9807315040000029 0.16156463484610728
0.10046965735390992 0.4143298576124457 0.9778572942858927 0.19771889986462773
0.1019328940274174 0.41948678183011806 0.9693051883406573 0.11960343986686721
0.1250851052379366 0.4137446936061255 0.9691972687436248 0.15192834870687263
0.12279868210169814 0.3921104298405324 1.007580332126712 0.17279822582717125
0.12529894736332794 0.41005187937981685 0.9948981261763804 0.14162947376623214
0.12167571470538759 0.38878907821661385 1.004996804557021 0.18951587835166395
0.12205834595586491 0.26849958081561137 1.121435064034216 0.0910580675235953
0.12686321866579597 0.3715756520899199 1.0334905257450657 0.18712099113936786
0.12135625692014299 0.3971995424438939 1.0066250277933273 0.1778784251975427
0.12288646274406134 0.38354717467214683 1.016147056129229 0.16176012478393104
0.118604598078474 0.3764133445847552 1.0488945714670552 0.19430951442661756
0.11272295913975064 0.37245605032508206 1.06351131311093 0.044131569043246825
0.13113193999459505 0.4281678321635278 0.9960734306414288 0.1024415999736125
0.11805439857045844 0.4038110922990123 1.0263002406488855 0.13618931063549392
0.11877766357605946 0.4147169365650835 1.0006029685831048 0.16055714284002992
0.10951867519926693 0.39425481916753347 1.0299767537883375 0.1356961934585913
0.13268119892299243 0.36780412677778734 1.0318141963270218 0.18974072762739258
0.09062677520908985 0.4152730935043616 0.9972510956035304 0.14114921133124916
0.08851421627720596 0.3927575419112251 1.0024804361699389 0.16947215278320396
0.10803896200332316 0.43846538092596854 0.9864946517098191 0.16841216504143136
0.10553142467240964 0.42084890374868944 1.0046991479867322 0.14710756638200254
0.09957308605053729 0.43682786562085796 0.9810626524498014 0.15028646562000678
0.10440614620518524 0.4161433014580804 1.0164353670672936 0.1486799061002638
0.10644313937470527 0.3738737172913963 1.0465532564225253 0.16749245709382382
0.09598216823003908 0.38845237935353577 1.0165582823320696 0.14773523645089373
0.1026941398722537 0.3978848713305789 1.0231870803925156 0.14198556173400492
0.09639979036200746 0.3674900202642753 1.0484939165029492 0.125787546141388
0.09134966507830182 0.3742749844026745 1.0359277380246572 0.17380222181892857
0.09621395399811586 0.42314507874022367 0.9768172706333502 0.11700969092818148
0.08274349669314167 0.3571907558989026 1.048459610305814 0.09007666667663729
0.07522257538257444 0.3430703281398518 1.0625318644260562 0.14809685128832753
0.06035680790448676 0.3319764669149124 1.057607637738737 0.10489852037620649
0.05529067224213447 0.29431255906707443 1.087509090516096 0.07253196625454471
0.05601622181253968 0.32634713296182755 1.0823105289003843 0.080267294236325
0.08496381009666039 0.2614758620913178 1.1160150622544336 0.18224029545650422
0.055925490706131196 0.2762979730661953 1.0854495557471815 0.07694151270337697
0.06876508936502203 0.2584618373093024 1.1195312512509392 0.014915006479749846
0.06378818606689403 0.32244717758551217 1.0537800087975202 0.05905825489125968
0.20956814407747218 0.38134348778801896 0.5360954111421952 0.007964732470825816
0.10330448965331762 0.40076544496752614 0.5461426106177963 0.055950541206450495
0.10335268663388898 0.4191937597490993 0.5305568265399045 0.035443761646470846
0.10013782429592134 0.3801683936511561 0.5479756114505671 0.04575640942285469
0.10515213138957295 0.35211514441335834 0.5230274209535919 0.017544371532937898
0.12980622549908158 0.3285320851146824 0.5484377732525597 0.02110610917271189
0.18755545337069046 0.35005678593705924 0.5575784084051384 0.057242130533182806
0.18133028558828865 0.3511241780959911 0.5480673147942786 0.05219968699726193
0.20051219630881018 0.3825199931027056 0.5494300669961917 0.03704631038613832
0.10975178459491208 0.4171331250710069 0.5507158742050641 0.03946895234327089
0.11590020365153218 0.4254710719071769 0.5397606289435314 0.024406407449416384
0.13070436800949886 0.4381075412162693 0.549535679739284 0.027553121901729934
0.20573973479870808 0.3953312075893174 0.548612300488241 0.013921576462821082
0.13696651547113886 0.3433315778265117 0.5491672600892512 0.0635424930591534
0.1897562044275333 0.4296181567192555 0.5534108285720363 0.01091343092242887
0.10354969497950142 0.35505694015543593 0.5497628090020782 0.03549512119410559
0.1672235450657991 0.4517212622621897 0.5202173304718081 0.08148496697716848
0.1624875093170516 0.4664339041411094 0.5089145361031868 0.046354655014452455
0.1606632761203204 0.470157520711991 0.535718838129891 0.06577322006321944
0.1533311244259627 0.4739892319558818 0.5202962509868806 0.09703032733544587
0.1547217378627195 0.4763660034841407 0.5408198667951049 0.05015106216708576
0.1454529606291899 0.4743119631413303 0.5468461330041364 0.07056226284052053
0.14613569534790682 0.47134595324804873 0.5328680859131318 0.06952112714629793
0.14123892520113007 0.4677355711371586 0.5217218163779583 0.10869919053200229
0.131191685374297 0.46100676137709196 0.5403490576445464 0.05741278948633481
0.08875998154661369 0.4033550830690159 0.549228604751766 0.012718837292515611
0.11216099131487794 0.33774892625228375 0.5376852755905798 0.042661565866842235
0.18626646606572692 0.4338622689116769 0.5376345856607869 0.018192269710698507
0.20478992141210922 0.409316543380272 0.5361730808098071 0.018449389298062713
0.20646880208306878 0.3757427305360004 0.5288263765007194 0.024694187949180605
0.1962804716023182 0.4186338625988152 0.5469812231874145 0.027238224804515595
0.2035643494106669 0.4085495964348736 0.5219100239128375 0.02728912044265719
0.20158128064938333 0.4150383786776971 0.5362197600377833 0.019980282869613626
0.19969845335735717 0.41760464643959566 0.5156473002016483 0.036097272707207306
0.20140332740918948 0.40247491674355973 0.5269180729930758 0.03461235896423559
0.1750805152322821 0.34439265156041193 0.5236063611596501 0.013583087837029977
0.2008489444131034 0.35812970307276976 0.5385769304997868 0.02354102198133459
0.18776774873089142 0.34620578018518583 0.5364126328320861 0.0173158079459494
0.1873898382153969 0.34806733200977796 0.5330428171357322 0.019783813805719804
0.12617977228725302 0.32640392540204494 0.515588297686378 0.05745582219104414
0.14903172463210174 0.32970211685224365 0.5414475380560059 0.03315188559375956
0.1502746504318333 0.3295741044001247 0.5291512279604483 0.05360134856165945
0.09582539973082513 0.36833162111053475 0.5333286171537611 0.024080645472363858
0.08952905629542611 0.3842957287706239 0.5212890275801677 0.03651841392985469
0.09280792285826683 0.40425424157424084 0.5181138123057815 0.06588913555528561
0.10125598438775502 0.36371911300419935 0.5449280046652377 0.028902039059513877
0.11201417890048561 0.4397084020202244 0.5249976189319026 0.013084259064167263
0.09863897184945664 0.41035992065153143 0.5267517966186654 0.04130952921743528
0.11747718406417902 0.4398499109216987 0.5277119108540145 0.015393715013942594
0.16482641426758377 0.3358043765288691 0.5305180512065185 0.03199576097733179
0.20022365365068806 0.368229523970472 0.5119439027212276 0.0427361344562406
0.18615844679512597 0.35067794891179843 0.5085614296709403 0.027151503802023486
0.14654462760573836 0.3323492079860723 0.5239601849014509 0.05946524159166802
0.20416556721956652 0.41675259038444024 0.5198846574643743 0.013576706688915832
0.1554858824895198 0.08518982261408348 1.3086514031233454 0.032256352975907135
0.11061708290894695 0.03212445396029694 1.2839944788171302 0.08283453748159636
0.09347378418808507 0.006711805313109203 1.2781223027512205 0.05736470728697081
0.07712800709774258 0.014583651612476635 1.2797845309590359 0.05123224320816252
0.1407383502108964 0.010131955488694664 1.2737355089976976 0.10528002065898147
0.12192383527147133 0.02201095117875374 1.2824788708027295 0.08124502241123313
0.06921409264832008 0.012974070134697304 1.2764813099093946 0.08304779502058093
0.08893259893914354 0.04120417466908381 1.2824925693305558 0.049672064718232996
0.06606036335331907 0.017465214861160736 1.2844289136648952 0.045790562627199695
0.0915594526074089 0.07416672610102468 1.2894025378521983 
0.05197239539124461 0.04529707540468276 1.276331614924308 0.053651925293947904
0.04211362171947969 0.08243514065495225 1.2765474343581062 0.016629290199768474
0.04574382406410325 0.03492175000824857 1.2711111624010778 0.0455853170865782
0.04891030446588097 0.03940733980836885 1.2695086308704084 0.049680761687793056
0.04122635934642403 0.05963728605567604 1.2751428947051424 0.024259116508121382
0.047115284362852894 0.10247623115537839 1.2739930321972992 0.024591583689154976
0.04989413822860708 0.09576738552907808 1.2774312385037725 0.017286382242262803
0.08378449008933965 0.0024465720627027216 1.2735660622439335 0.017881837300842644
0.11275775977353404 0.005703082043907615 1.2736436129255586 0.046021027086954075
0.11823788340769822 0.00018452059335617287 1.2780421503365265 0.044237822861248936
0.13987815350139465 -0.008923465212765854 1.2660879561887322 0.055662694329117426
0.19603397430867453 0.013423270001978353 1.2659888725031136 0.04347378485925124
0.08793451266725086 0.0032514318430349005 1.2656849274808677 0.02043428390163871
0.21886951900685905 0.007318716478350052 1.264352700972829 0.04626335419660954
0.17498168534193498 0.0032431080864992554 1.2790242483730183 0.07275266099239654
0.05382485754388067 0.01103352343567426 1.2699193256055208 0.06908938186368663
0.1603146009426966 0.007087087198210922 1.2795677060385067 0.04475618670909129
0.1981732004946411 -0.002662854001402774 1.2764100535219929 0.03836966553774438
0.22619568273144708 0.0017872525208390633 1.2705461494403811 0.03546307397936122
0.2428592784769568 0.018254593371198193 1.2797430697584657 0.03145412471261717
0.25065626335395924 0.05612205087608223 1.2865992625823586 0.043219466016157886
0.2474108639662722 0.04218924222105986 1.2722647371885876 0.049121703551491605
0.19755175131014788 0.009057601805458393 1.2807084715828614 0.0579772265746594
0.1747357083146785 0.014220161250102774 1.2827737861214072 0.03118951344899783
0.2351597228787708 0.018964248544169414 1.279823466562625 0.05877998269057299
0.25505293138207236 0.062183458302566996 1.2776784739864817 0.05039889453126649
0.24371993800800743 0.11267217717897227 1.27873640664244 0.07509817531939937
0.2335808338641894 0.10557367552711412 1.2826284067657128 0.06125293206502492
0.233774273803154 0.14273471976361768 1.282403643709057 0.016297058760029313
0.24029079343997617 0.1666284094508269 1.2742555525779857 0.03748157980156597
0.2364313475607859 0.17758388677250783 1.2819664087035951 0.05161324655400155
0.2502924120651127 0.17495353829143234 1.2691259057803246 0.04718172901345321
0.23100305228335952 0.1631380904652128 1.2831069585627735 0.018991559259362346
0.23753222156386528 0.21039545447492927 1.2632813675442292 0.0719865926600124
0.25856239128362524 0.12779106690895783 1.277347599202232 0.05310032611603911
0.24832505839015656 0.17512931074110877 1.2716047582288603 0.04685870644903268
0.24445898496240726 0.1994725908380075 1.2819449177026676 0.03701760076602493
0.11084168825216514 0.21941512082421213 1.282728803129859 
0.06379143951754976 0.20738438243106244 1.2735771602409618 0.0208312785353138
0.04475755308100857 0.12020088015213533 1.2795470601409231 0.03710388278521021
0.04069065739652064 0.1347931349897786 1.2732575776742012 0.03743291884342618
0.04575193512978717 0.17794337197828314 1.274977115232402 0.03325343709840397
0.041535146544212274 0.19559248144992125 1.2673305263798866 0.04020481066400667
0.03665593191028777 0.14810522080986901 1.2839198717530043 0.020412535946171362
0.06467709444924662 0.20249431046621094 1.2776038281952573 0.021318114263630873
0.0789021650387716 0.16826744029605278 1.2836929945501907 0.00213875595978861
0.08428388235089447 0.21008228637129603 1.2796630741603905 0.021154497033956346
0.07213866368913742 0.19855747191391313 1.2803689819173578 0.023648785937694983
0.07957106898774273 0.18747379429766467 1.2826780533426405 0.031508318602719944
0.04403866672538437 0.12200190809988803 1.2772247916255235 0.03710933547588898
0.053523846533766045 0.1443793103105034 1.2871733650544799 0.09047561761913311
0.042627231224673774 0.07059769867722729 1.2750089151053585 0.017684499902200834
0.045267524817307885 0.08679988173415029 1.2715236421557252 0.020524887244608447
0.05354635795856981 0.010124977790939151 1.2684634742511964 0.07018268563080356
0.03726897282389018 0.17405803072644563 1.2657244906004246 0.017647085322471
0.042862658833907906 0.12596288226634877 1.2634659061337377 0.04574603488471415
0.04255722997933855 0.1830555158329642 1.2622011762295586 0.026177560356400075
0.09253550154087169 0.20741685973367416 1.2832418564577872 0.02347058761414833
0.22163726202561987 0.22384432118334852 1.278661011967946 0.015920033342839257
0.2667565759846325 0.090631086646028 1.2790060161863537 0.06904946555086333
0.2597770682702225 0.14639416599829413 1.2710153998736202 0.012814519933103386
0.2500225840697647 0.1891211697016194 1.2725038818113978 0.05907471763736486
0.2545667034861827 0.15177770821752845 1.2626941114210455 0.014796568863992695
0.23858495417147416 0.2027003605372106 1.2587262240165347 0.046507173196541844
0.24969036844674986 0.19429662102208325 1.2732578799687932 0.07094678348462513
0.25511421437678766 0.1347196471308041 1.2667001092519459 0.02005868256600731
0.07276157249532408 0.21625896552534907 1.2638707001015255 0.016002399371506954
0.25063254181864425 0.028650788304552467 1.2572511135208317 0.06959670442007163
0.050993576232179594 0.2021204779223656 1.2616980392418322 0.035637107841872157
0.2617550167538639 0.060994367994295945 1.267169566760005 0.03978949467580184
0.2513573975251683 0.08140017979073391 1.2674034816883466 0.08428830094482444
0.25417010252560834 0.031467023895052335 1.261296850464503 0.0465568516517294
0.24642927352842742 0.015531844810100942 1.261343926924132 0.08687483975852385
0.0446191038961046 0.2011280392191253 1.2631460312286076 0.04851408683361729
0.2464640812443388 0.09513936825200459 1.2635505630323258 0.06831513500459277
0.0514995275055965 0.061482270110502425 1.2665688844824048 0.020852607034286198
0.1883413127613378 0.018839157677053117 1.261419609856883 0.045105391008933966
0.05745367512385353 0.09468171452399127 1.256043082011357 0.024317835134685217
0.18827205274566117 0.00403949672693428 1.27160208429411 0.039961575715003285
0.057808202350136416 0.07749120227793017 1.2598052749758133 0.023747830173805287
0.05139183992254068 0.01606444634897064 1.257274203687169 0.08213377371384148
0.1330962858374879 0.11238990923846869 1.318673518537486 0.06657740655146221
0.16231769567692858 0.12298913575428279 1.3160940736791369 0.1508986152625578
0.15979109300865307 0.1107146361982051 1.3168461240162543 0.21360082630863828
0.15129775219115293 0.00609439775887638 1.2647488063259682 0.06541525735281785
0.16079666303170584 0.0060701789681650445 1.2686362735081707 0.04988931981964306
0.2560070067815164 0.07059521725409848 1.266590265244177 0.05667493386727217
0.241275156616264 0.05173814641153923 1.2528837800052994 0.039013030191223284
0.24372222566288854 0.0904322170611321 1.2620504773209156 0.07391454555637912
0.04284931153285478 0.08452137815491235 1.2697291208517363 0.0180184339738704
0.07382325961217094 0.014008173801062541 1.2666396577187873 0.08632850708111099
0.15233996754297552 0.0047279928656255785 1.271697177624891 0.07928723808125183
0.11866043039730645 0.006076575748018138 1.2674538927538148 0.09628234953800738
0.10088983262675555 0.011166102542463283 1.2604576949137787 0.05369254337258535
0.04759042574981778 0.035779494151406285 1.259385552678504 0.05271333110244078
0.05158370825934639 0.04471958771591215 1.263796070695544 0.07497807732669914
0.14201591640495598 0.03042145124377143 1.2531865598289817 0.030763771787288646
0.04566398157311069 0.11916873437022238 1.260507329016565 0.04043885880028907
0.04502161293560904 0.16814087321002427 1.2614422312422606 0.03404166651973923
0.04759870574275585 0.1477132234410125 1.2688506840907505 0.026520070682141718
0.2634384785735465 0.18070864174302292 1.2539676052731203 0.05802849031079898
0.2653025380713084 0.12022639299490345 1.2679671856785348 0.08503007232861388
0.2445856283023469 0.20128934871146165 1.2684988504195756 0.06154418295781435
0.1759887904169044 0.007207317615660348 1.274659929845249 0.05332780862360732
0.21833436331461908 0.09656671588692659 1.2557103511807992 0.06121828980203183
0.13100735572112698 0.01217350349806275 1.2609066365935917 0.1240450903581951
0.1599494678064176 0.10720566924713393 1.3304025348889355 0.21212203926423084
0.13768905031279374 0.10605189781519969 1.331522205099211 0.21929054786412797
0.14852244107883453 0.10168500900686123 1.3287499738928068 0.24451595578480975
0.1574159112682966 0.12514107995605106 1.3266597234452924 0.20225730061239344
0.13324585979743506 0.10494926244880629 1.3239581702836656 0.18520233672512043
0.2420078590939285 0.4296587049129693 0.10084596071667581 0.03156297080567433
0.19790437844982953 0.4212898826577363 0.08295035803712242 0.012017864000000874
0.2289637950956249 0.4261011050382971 0.07974289752003934 0.013925112598306191
0.23052524899224205 0.4287756350138086 0.07217666166300826 0.010183538566890683
0.23546556211005265 0.45267904740406534 0.11865998736913305 0.04176971408245354
0.24334361625361123 0.4391522107495588 0.11612425332120833 0.04421446912841529
0.19235894969248177 0.43610303765378405 0.11258697419854126 0.023138466430015124
0.167301322728979 0.44122542206102555 0.11660609978784345 0.010952571150332189
0.23280672476892464 0.43168242141338864 0.10542231509341844 0.09776801103390573
0.22836984041608457 0.4261503201475775 0.0934682466086893 0.03212054253631229
0.20683035385998594 0.4315169558194712 0.10956234298994594 0.01998872856731074
0.19524250380960892 0.424695798664228 0.09972088581013669 0.01580523534675109
0.1739186847069807 0.4269582359274096 0.08538770984541291 0.007439660571849218
0.15373118545566658 0.42717697873501537 0.09163750097527683 0.007098003637248115
0.15238611861506118 0.43339431882074747 0.10451112056727943 0.005645250505460469
0.1797971151220684 0.4279905648395488 0.09551118262621536 0.007216172385198672
0.15631047279015037 0.4332102655253388 0.10501403087425351 0.005477284035618714
0.1410680577725799 0.4358693340757916 0.11100246523968023 0.0061344601726372365
0.19251310557472034 0.48772825953640203 0.11371162518750608 -9.007656056297937e-15
0.24248003516156616 0.4890116726995966 0.1166768823525862 0.037682577076344044
0.23014675562796394 0.4688082706233132 0.11427905221716533 0.0119294056949892
0.20140862717695818 0.45204540822668743 0.12202578952427419 0.024744495534130214
0.1510475383370435 0.43547343861189225 0.11589092990152923 0.0034778449369659253
0.13314541780650085 0.4363373340733736 0.11638808218913652 0.0055900699478496785
0.11455565443450272 0.43159447869066603 0.11022404501035457 0.004420081214391185
0.08574801659336417 0.4437867845353743 0.11720176270567627 0.0172917481044709
0.058103059072237215 0.4427730716562449 0.1167301589148725 0.03419653971656488
0.127194971810647 0.4287741377818264 0.09381205747804416 0.004449688310359518
0.10640361731582085 0.42978946855314343 0.09549929961077705 0.01572844876293545
0.09312085799739438 0.4285951532948784 0.09903399080596167 0.026577175212101525
0.07227214410164193 0.4236878658867218 0.0884971681986099 0.025238621396008586
0.058711336754720504 0.43365964190610423 0.1080779142025231 0.026517635410197846
0.0639117309173325 0.4341666734425959 0.10336876890697297 0.04189144366007772
0.10081305629525407 0.43573717308306775 0.10809601744142429 0.008733049042782437
0.0693001770300221 0.44791034999032936 0.11545244198705298 0.02068538779594562
0.05299351632144003 0.4624902696941454 0.12235961730200985 0.02047266052970529
0.07690353540755837 0.43096047351143013 0.06967413352946228 0.00673609792001102
0.056749617426847025 0.4254182728159398 0.09263668028666114 0.02551841685443708
0.056037149471812805 0.4158767475702426 0.08178785502969176 0.013429297361053824
0.13853613533414597 0.4246242331521537 0.09682999575309172 0.002513609038687252
0.10630661437734776 0.42364218219630223 0.08603432150952207 0.014104350204724468
0.13984105740283387 0.42229509815557653 0.07882527379458443 0.005088894067908868
0.2925392094890031 0.44121724885244074 0.06877746699049464 0.0747650190043212
0.2860539877558348 0.46047044050660907 0.11469054105333054 0.06722634616131518
0.3029764880486333 0.45292932747029657 0.11329884061885692 0.059389243168126264
0.28186593727477594 0.4441000891488421 0.12447922418540466 0.10179931382520084
0.2504507805354353 0.42217796082293774 0.0680365184736583 0.009004394123918387
0.26742006512545685 0.41978300694361037 0.08201784316864254 0.047691829690638635
0.28574010886239815 0.4335353776404821 0.12104018022022421 0.1375280107819411
0.2554425959260769 0.4269318012238617 0.09492841022954793 0.023941643822748472
0.2830113015902487 0.42051567949954277 0.09646513132536075 0.10508212340796168
0.27709206302322903 0.42781314883346766 0.10807259244450355 0.06720491931246725
0.2938196274347807 0.42688889229780785 0.09569363060375147 0.11433778310802696
0.30113068948861055 0.43534297880929446 0.10781872738826107 0.06634696733983889
0.29604759344464493 0.425319231137567 0.1088736200093941 0.09685189217728778
0.3027487167314938 0.4739954345835868 0.10800866831638037 0.061862235119199555
0.2410646304658432 0.43527212602905874 0.10822695271732227 0.09380906474640079
0.2992135654534165 0.45031885163704355 0.09804293760982243 0.06938460437889402
0.3069441350124998 0.4738789142467096 0.09596034498022625 0.08875572975639551
0.3063933615524743 0.45387136310155046 0.07641540105610944 0.0058680825826551335
0.29534580670875393 0.4507394399944764 0.06482055105655739 0.028164626501470273
0.29480007051662294 0.4388483559761341 0.11787660691233064 0.10503961525867667
0.29339635589005525 0.4333072515398451 0.0852188407300295 0.09444360042007409
0.25079817289782363 0.4254409710121448 0.09181075973829962 0.009721708259069789
0.2876550965189644 0.41325512435325346 0.08088054097263386 0.05834237672380784
0.2750224358883402 0.4223595654012349 0.08957916980046489 0.0893087993111221
0.02145501315222186 0.42608687297210446 0.09029818663824339 0.082245604960796
0.02193768069224062 0.4299372254736963 0.10083863766515297 0.10098654537772708
-0.000143864644090619 0.45492248187068285 0.08305432052518716 0.06823020036737988
-0.0026669867240578645 0.46709252848641736 0.08481076885148758 0.049434006810510855
-0.0036461774291841635 0.4698348823631094 0.08947624650051353 0.04980857483650454
-0.00044323726903139956 0.4430105494520902 0.08861588630974819 0.08621654510591671
0.006154588501868889 0.4233922417091999 0.09914947318495819 0.10534567098745519
0.0022154403597065813 0.43887028145845036 0.12010979722252907 0.12408865534132019
0.0062234935223330744 0.4533268361187654 0.06243522263351894 0.051577561385064585
0.008448496518923767 0.4741461364703183 0.07321602649961997 0.057675717427012496
0.012548598804936799 0.48293203750265923 0.09354279025727255 0.0964176935100391
0.016560885502509937 0.45896160661909086 0.11821133709516657 0.0698317430640677
0.001994036285021209 0.4347497291568848 0.06096440933592659 0.06871794536738036
0.04050764951562028 0.42204858621171076 0.07775096606943273 0.01624291955545593
0.013559644306243197 0.4225339075574037 0.08461350507757169 0.12675592744507208
0.01944991370262137 0.42011673716535247 0.07035541316227911 0.09233956052888226
0.025825311993681706 0.42188541263520424 0.06817685277568043 0.09605492267123063
0.03824509604574488 0.4380902146866511 0.11499983627287783 0.043053090485079236
0.005444732506239074 0.44601248292114803 0.11263273583789968 0.10883160766802089
0.028708437728225164 0.43811353741866593 0.1237945086468833 0.05321258786609613
0.02857070738219728 0.4326231572997865 0.11071764872113912 0.05711962689088092
0.03894508285865761 0.4272223279958708 0.09039874009873353 0.011115804276055852
0.006608531761292509 0.4247354772296046 0.08638160014403005 0.10962043738794436
0.009186349923816756 0.42083604017862875 0.07343941150686792 0.12417802075104437
0.00020161557857004651 0.4739464524090479 0.08862145452579807 0.06155730123046949
0.0015024951126023137 0.4422296183238077 0.07480057595389805 0.07229003674598936
-0.002104624902545313 0.43010259136825424 0.09413581094507084 0.08417217227681603
0.005083273050243507 0.42367295587923837 0.1147701946598276 0.08071821709679292
0.14207375803677813 0.29454573085097047 0.03273809398077635 0.11542184096502696
0.13512326064803734 0.302082871735498 0.011448205664587185 0.13162653804083357
0.13053906985056823 0.3415713999911506 0.036134430250535865 0.23225449694797015
0.16946044471915514 0.3335982398747394 0.03176428158604792 0.20501768313344587
0.16658578267004995 0.32382996121078483 0.014789499279094887 0.14210235481294275
0.13044201312074485 0.3189172904342383 0.029943509877220442 0.1878134684110042
0.15569716772492298 0.2943372685964603 0.02160342328632472 0.15156906444553217
0.16937240149045557 0.3378372240027193 0.034349259576000095 0.231588905585926
0.15547846805196433 0.31472812943968387 0.04650751747361026 0.17563229200033584
0.12919254806388186 0.320936534558833 0.042880884727057665 0.08323030256195374
0.15423245531600963 0.3245777905797935 0.05412690213237222 0.05243147458717879
0.16046108261553402 0.309520302131173 0.0410002195288122 0.15586247886117865
