x y z curv
0.4165920884083231 0.5478258219221943 0.2666696102788003 0.01769479134263957
0.5888217630983542 0.5597538439130869 0.2585287636091192 0.008724867298140457
0.6108377954957417 0.5554617220305962 0.2567881991887752 0.01739593093885968
0.6733349916612936 0.5628908024835043 0.29584191069480115 0.0419780370356079
0.5551065334160772 0.5560295149756932 0.29755030405315214 0.04633373389735228
0.4734648872978486 0.6413432549115671 0.2295775328369709 0.0100276804469514
0.4973796610122074 0.640391029686063 0.22786004304409552 0.008909468195827682
0.4980633460523594 0.6393630814569693 0.2235159789647168 0.006953213638505488
0.4440941614200857 0.6391279144444835 1.1597572710420387 0.10139804884248892
0.4570575628191858 0.6452796635363846 1.1820989578673606 0.12205727885256513
0.46256425131566153 0.6327911800186404 1.1811841896125692 0.10486018472094857
0.43679296195623474 0.641504046746303 1.1382295843276058 0.07796188959006577
0.46439204884495366 0.640348780550967 1.1526638571957446 0.09476487054822422
0.455233464401404 0.643042755954106 1.1600480180520614 0.08911495490112928
0.45952571030399764 0.637602054581069 1.1369188093410234 0.1307418685366997
0.4462276139987381 0.6414683542792241 1.176495789354794 0.1114981924858567
0.46858115358573926 0.5974177024926671 1.1467726821198132 0.07052794910176871
0.43624941137073997 0.6089085792644205 1.1347287346633441 0.0996149371972843
0.43679669469422755 0.6032251556527611 1.191507928758189 0.008896810268151353
0.43693099249939743 0.589453845455018 1.1475479858098658 0.07942570519980512
0.437324965714121 0.6140091256837232 1.1363445743376492 0.10174557387490317
0.4422871056779061 0.6136969723052231 1.1280615117184054 0.12616286425598863
0.4297774303232074 0.6065373030382394 1.1656873953356903 0.004259434744620468
0.4391970994647016 0.6238393256309152 1.1495666283331123 0.1623801370912207
0.43768131459724513 0.6201696007870461 1.167943842312011 0.08397937257676234
0.43675841921508624 0.637769346361923 1.1783895058224871 0.06753294915424585
0.43836252219997257 0.6363355888281316 1.1490017935787917 0.07758991548898131
0.44110188276958884 0.640889446373865 1.1529442845485858 0.0924162646095135
0.43982137967956786 0.5818413956872732 1.1529544803998755 0.12069796459029035
0.43744914784574596 0.6338075291012901 1.1293780640931184 0.090129958921391
0.4583950428160744 0.6259402074367566 1.12218606440993 0.11540108269294443
0.525428659834568 0.5669775238411338 0.7129815192953463 0.0951752838207959
0.49087246886548525 0.5589430385501851 0.7122856509809559 0.14850479555439308
0.029546714722883737 0.6305032966758705 0.26304059984638695 0.05596862330549817
0.05861854333917682 0.641187018764487 0.28931086427469177 0.0980714018384378
0.051145935355593204 0.633976088111173 0.2725996936261383 0.09639765357265985
0.05701254010230665 0.6273790757068772 0.2642305319127204 0.05329036954995952
0.04515600639209858 0.6355657170884503 0.2550642407720934 0.0005250710442014202
0.03681869539057419 0.6415915212323159 0.283671574948269 0.102893103660433
0.43442044225847715 0.16980137386599992 1.3123364649602207 0.012961823354294032
0.45554513991457257 0.16839150676343734 1.3108544981486414 0.011700835417070274
0.44753170017937866 0.18288841229097305 1.3152042634114096 0.009613739998456643
0.4486576672365717 0.17240997322088264 1.3130678658221115 0.009771478549008223
0.43719538421666604 0.18349402748987573 1.3136359161603464 0.006939238880343916
0.4549511448214101 0.20112480549242945 1.3210886266225461 0.006181034423375246
0.518893466616786 0.5637236305154311 0.2036515419643472 0.004471182979051096
0.5271439672651885 0.5586553104238617 0.22622052621597574 7.930647138209207e-13
0.5323576909459834 0.567780527433571 0.20752054886179855 0.0020058554355496176
0.5156637451324867 0.5638132243543116 0.19508618985754858 0.00276911915939309
0.5035445101216698 0.5663334704492661 0.18949721683730056 0.0009999378890537729
0.45138743947224713 0.5314117186553684 0.27324379966692625 0.03675452912116082
0.5066329502546252 0.5453588693870547 0.28864292411097114 0.05406094735327763
0.5360966167819635 0.5352739239483214 0.2754528005157318 0.03685515711277951
0.5349364054953095 0.5401420625236425 0.2649600376535598 0.04394066050246156
0.527128163609546 0.5412479061498097 0.2902014385995068 0.05267397378259541
0.5260606588025932 0.5415535189743903 0.293398728119514 0.0510701146156745
0.505187566447775 0.5362803181270991 0.26760364163816974 0.04522976696383955
0.4674801269845696 0.565279576681442 0.7019811141777883 0.21916154366589544
0.4757179191708477 0.5646084234086916 0.69058253726405 0.18508667332011117
0.46497482514707716 0.5959006551969217 0.705706505838054 0.2148602654132498
0.46249268346321926 0.59142120844312 0.7131688068825706 0.22576389752011974
0.45761326028775157 0.5908292439857065 0.6875916786202068 0.26285363125656586
0.448405439243086 0.5935983909722838 0.6688052063137752 0.19606021057124745
0.44100236203092114 0.6017545357314631 0.7042726006419322 0.040436321351823755
0.4500178740343019 0.5907848440744847 0.6725417277028409 0.17759970489423318
0.43783866757387313 0.5868187708667972 0.6808972346515304 0.18201827903085907
0.42765349914568235 0.5841991647769698 0.6837154132448415 0.12663128032764379
0.43774848583130826 0.5757969662914098 0.6737641590895316 0.17466227103911536
0.434935540757483 0.5798108417998141 0.7013505226478441 0.14540375892308727
0.4367393330351741 0.5729182356890554 0.6969309888458347 0.15696658214607662
0.4337333637143947 0.5611040954612677 0.7035080944764956 0.05184025505349366
0.4555479137400977 0.5592947375742118 0.6953253805854654 0.18901054356970684
0.45412776550517747 0.5575925418175567 0.6668505494805507 0.1632135277037937
0.44218750480957475 0.5575221502153551 0.720635680589569 0.1264561446925178
0.45457893810665934 0.599503148068836 0.7145113035296743 0.13748410402571032
0.45828727709734246 0.5857586196277063 0.671217221882539 0.19287775152654305
0.46600438135982764 0.5665945915267945 0.668249196955254 0.1733031768516178
0.4605721106183393 0.5906051586725316 0.6890516098232834 0.2723086282977107
0.4513386212043644 0.561367817064602 0.7049431070101129 0.21923777031292055
0.5986851226295284 0.09028264315998007 1.2645998932489457 0.0030013832061869888
0.49514189770101996 0.00778083154044293 1.2672940806305992 0.06500181155629355
0.5295424147749649 0.01243403499786728 1.2669330086455548 0.03746450939371759
0.5116619173659883 0.013663477835403842 1.2655200958614172 0.03886893029994413
0.4836104566948278 0.006641065382780945 1.2845859698217077 0.04678030801335268
0.4507786846776712 0.0013682398877443804 1.2746071896772462 0.05665121523292797
0.419611892773671 0.004104468678565733 1.2767683450780514 0.07029134471187246
0.36315401914184453 0.022738414097427575 1.281885777766488 0.04938892980262598
0.3417968042485556 0.034439717470361716 1.2779567377880363 0.028896438215408674
0.2821744566197003 0.1295271857615234 1.271644101724417 0.028375854307045957
0.27741251297181496 0.15111373888226484 1.274606336950186 0.049935285290829946
0.2636154946302465 0.180696325385236 1.269993426264437 0.05363202338940737
0.27335068964207737 0.20792632062618818 1.2680066290695329 0.06357692533822089
0.28919571941433414 0.2577275837669282 1.2704275696672955 0.08235341017355668
0.5201065767930418 0.009444149236993878 1.2821858748438897 0.018204889958684873
0.5497669006506198 0.3308006923474574 1.264423288570078 
0.6107700798508996 0.25410645267105486 1.2705181717045597 0.021251216896968617
0.5903251026567194 0.2790514264906274 1.2625497212673416 0.0021959182142928793
0.5717250336612281 0.3001861976670303 1.257861152641607 0.002465845935802015
0.6241594931440927 0.15630015095291436 1.268649335736552 0.0015823945445314022
0.6183864663957973 0.14467395013846318 1.285981168692136 0.01729589721703432
0.614291749040131 0.2442934942549475 1.271894300721724 0.028321400142463562
0.6138315881882546 0.11202745508966758 1.2654492565149773 0.023497072118411177
0.5773472977785004 0.05609783793270035 1.268947484648528 0.051641518923991866
0.5849243942145121 0.05755062376528244 1.2772653138586323 0.01815303425520051
0.5665648858563981 0.04952699036553346 1.2713298786648468 0.036645673276301916
0.4379915430445212 0.009241815433685775 1.2754257641803461 0.06752507303048827
0.4607303734217952 -0.0009217350688880121 1.2722581423745767 0.08015791048526268
0.3688454747891142 0.017420484032480733 1.281468461432442 0.04138686128999397
0.37025732963888214 0.004194076623744228 1.2725977740582715 0.04707676999199846
0.3875033426613501 0.016211252463871145 1.2770740683479278 0.11539603630558791
0.3849056797966387 0.013900196927758507 1.2657986857678072 0.10184243406861952
0.4047353833478052 0.010878542632193636 1.2702663097732676 0.10004273684264114
0.48610198774045055 -0.006634000316313865 1.2753858692007103 0.02289054561574489
0.6068672432076619 0.0909040847169281 1.2708930477062685 0.010399001532067414
0.29953389388034674 0.07807130839516922 1.2691068714800346 0.08395753712094906
0.31467889273329014 0.05871423124754292 1.277334187251716 0.06422242964964903
0.3373590576389023 0.046313784447834724 1.2844634283355283 0.05310104161476281
0.31354183876310454 0.05851598549931569 1.2760851236269055 0.06189873376825423
0.2744412936830558 0.15334911331478154 1.2546013499133772 0.0648715066191321
0.275124879711749 0.16316765163378236 1.2712777717334678 0.058541135258775974
0.2715481681329345 0.17216422339217408 1.2645873261377043 0.07543574354322519
0.26525345477353596 0.19279094693866458 1.2707643392423502 0.06455799568683578
0.28732777363852385 0.09857090712275093 1.2750976080356382 0.017240525696783575
0.2828627240209501 0.1252222992569885 1.2776416325828512 0.021745143549123484
0.2751213016785095 0.12712631393284268 1.259497033630619 0.02804466114622301
0.28901000361533946 0.24546648724016729 1.2603601971129876 0.07346853509665724
0.31155636469700965 0.292377589104913 1.2719957403270379 0.0880648065111383
0.32303202113052853 0.31221500159321125 1.2602727748096838 0.016779950409892858
0.36766992821268674 0.3353954338855384 1.256936611220759 0.08601148397654443
0.4014445168177432 0.3493305044811729 1.2600297928040327 -4.3006631870942887e-13
0.34861685922471025 0.3296524357368627 1.2655411534784733 0.017929917147929936
0.29996611300917514 0.2750055648488979 1.264690965461483 0.06978672303708339
0.3241156550591102 0.05277740212084315 1.268725369369727 0.05378500079648151
0.3353674117111242 0.04524364516376848 1.2602624702364955 0.07163974238365002
0.3197390524127622 0.07279374189498157 1.259030301600473 0.08191054531489013
0.2983182082201752 0.09324541324793376 1.2613279149649161 0.008909995811607082
0.3518664853338995 0.028729664754588557 1.2629146070646131 0.03280271126749052
0.339225074460395 0.03278671599585285 1.266906065205988 0.005597856983430059
0.2827747225418403 0.17334309211206808 1.2601082821444822 0.07235250780355883
0.2818818670694218 0.16418050343677712 1.257614787005474 0.053856772301129126
0.40185396960488495 0.012721682240602838 1.2627943210802428 0.10042602468802639
0.3990434874504031 0.028716747188190308 1.2573126782619495 0.08904643249741481
0.4197641327494489 0.012363139216515853 1.2700174733607872 0.07819175605071205
0.4342901346117086 0.01351234619991262 1.2642250286955588 0.07409522861827078
0.43517522097826955 0.0017275576973453859 1.2681222910128918 0.06561386218667975
0.4147420926098078 0.02141548989299607 1.2606275908328193 0.08134221054999499
0.2769916664239953 0.20931172398743314 1.2609006617135705 0.051924090991386354
0.28387993572763953 0.22503554651534785 1.2596389900999132 0.0624281115982347
0.2979488863674332 0.2166243470297041 1.253448450760175 0.07478912099477955
0.2812349256854268 0.24145310937601955 1.264395385016586 0.049293061334978336
0.2868540459606783 0.22885076566620344 1.2556305761237088 0.08289647919409508
0.30435501107113144 0.2592557451553327 1.2587920276004407 0.07195357618335044
0.3094913639200619 0.2875576779326476 1.2641653264977684 0.10079502625305488
0.3179698341067384 0.27218352707902105 1.256423834686846 0.10486754456799861
0.3399374187507993 0.2706530088467537 1.2465532133574142 0.07293947984499018
0.36450141660654445 0.331285757203108 1.2575036409488982 0.08781931926961097
0.38852384877444424 0.33592111921353085 1.2441362699393346 0.0016872425058615211
0.4720925083224075 0.00713400676182528 1.2642827585003544 0.054275465505137004
0.5654405205984527 0.04577535678179829 1.2616474177213608 0.03031183135883831
0.5455031436680531 0.026547325962269563 1.2661213252719892 0.03957362872260981
0.583947002655239 0.06539158785119649 1.2671777194980056 0.04460615741795063
0.5757109765180939 0.05649453496915942 1.272472084391044 0.04881309946430874
0.6073515532411456 0.10410810211852567 1.2628854445899849 0.021551096432597512
0.6234779494793046 0.21616323004301186 1.2670833194992952 0.07012429183982948
0.625403253567 0.2292043332878452 1.256166228754503 0.0005729323942737113
0.5990897091419228 0.2404839213678149 1.2491856548920033 0.022201063527495044
0.6018255509505636 0.26525130385029244 1.2619802875339654 0.0026149372696547984
0.5921445587560837 0.26903870309818084 1.255805206394352 0.0038590625483442046
0.5779834667717303 0.2875893053458558 1.2557478895932828 0.003936669880508945
0.6238829369559872 0.18846960659273573 1.2760045113195506 -1.5669713044598217e-13
0.44743969208785694 0.01487438543861943 1.2637012828145457 0.0831880137464519
0.4411732440019395 0.5412513050996164 0.2918901850887978 0.030876122015573968
0.4710968033543179 0.5422977235907073 0.2897687433714885 0.04138105870190933
0.46894185862546356 0.5320835258327838 0.27651949809502896 0.027461546902948053
0.4578737025057439 0.5324808229665227 0.29072757247145387 0.03658505886653791
0.4443447091079103 0.5373243794793323 0.2820049306175446 0.03935916911951535
0.4423775443147359 0.5327719564024839 0.26650806539627264 0.02936869034853213
0.45659233556234446 0.5370214690197692 0.25612607909409546 0.03737740456169198
0.6561438306230818 0.5978645475827835 0.012833597874987715 0.05358219534152604
0.6387671092598612 0.5864691117615043 0.010483396516830251 0.08503635379604346
0.6170548133535423 0.5905565008063914 0.022714610732089337 0.055517387506617784
0.6024901964498973 0.5827641294347354 0.019360791578706044 0.09735402746601438
0.5843449840511892 0.5745431160430432 0.026734099912221403 0.10954827122093323
0.64825966562114 0.6030927923694748 0.014814463009837325 0.07660533304309768
0.6790947369774089 0.6126970604961195 0.018848915366952625 0.04836226083167907
0.6509804732371962 0.6070727075385853 0.01126289765589023 0.06346427266988755
0.5833549100872467 0.5925373104707838 0.031203780763695014 0.09952350722079097
0.5866647295191033 0.5720916357481958 0.01873603341890277 0.09445516527245396
0.5807749204414081 0.5979373341175308 0.028518038222725358 0.09126255535062926
0.6034880721700401 0.6008879006611776 0.026078268125744198 0.09542711988358357
0.6191015702197842 0.5994559434308655 0.023344337416634643 0.060801493069524995
0.626557401130513 0.602810497387482 0.0002979415845003226 0.06818044566275563
0.6688521070486881 0.6165472529324841 0.01659097033932351 0.03167552365624316
0.6106162350649413 0.6007425455671694 0.0042132956380911595 0.05004928851049991
0.5455481261411009 0.5899736416830229 0.04727851397390085 0.08990325116568175
0.5410437874523467 0.5895602234517628 0.06438698393243535 0.07780254321585424
0.5195190493546271 0.5758413741570558 0.08336435068640222 0.07359295509462083
0.5243926924021054 0.5902339312372653 0.08455608200317581 0.0858299976629958
0.5781802856257229 0.5924305686093949 0.015612725144204724 0.10317899595325271
0.5123079989436015 0.5805473331606291 0.1162980151360204 0.11626801268471344
0.5140606083724262 0.5742611709250856 0.11125286832707867 0.09759869179570546
0.5089587900928819 0.575365732990622 0.09937809472070361 0.09426368093295312
0.5207230278346949 0.5666197592235377 0.11782930957460436 0.08905617544306979
0.5396506880207345 0.5693560489399719 0.062037288629630094 0.093539134216189
0.5203733238590594 0.5672951493299612 0.12129037909968365 0.10191114309503634
0.5298962629656958 0.5868720395434824 0.12017122832618189 0.09648680930138383
0.5171189495316204 0.5867041005554642 0.14197164936380366 0.07466314289522748
0.507041298048542 0.584668543685771 0.1289677427302672 0.14512632034168613
0.5169868444928144 0.5698677332669356 0.14636603752147184 0.06847751536286378
0.5296685825467824 0.5736078557465251 0.17417520458104438 0.02275689010702706
0.5378627802973631 0.5738685919982535 0.13323657704524952 0.10937223024012066
0.5647424354869643 0.5806369908496091 0.04861825544629127 0.08587563523116223
0.5793454208933606 0.5756916286460306 0.03469692898304706 0.10946931429647526
0.5376539585116148 0.5698190781218748 0.08189839462330015 0.08076580745894438
0.6871906555280247 0.6094753330280103 0.02847444086831913 0.08284831711393495
0.6976651061025168 0.6149948294699662 0.037137009017017726 0.09112922560148083
0.7200128250831775 0.6091581702933775 0.062687688946368 0.0953189107760421
0.7308672981090065 0.6069094929457897 0.07569827326653845 0.08385360066060146
0.7367773487702745 0.6010485735001537 0.1091615040126708 0.0960835282761851
0.7394216142835548 0.6029617330598396 0.0967453736283764 0.08384083735893297
0.7464263488558184 0.6031524727543734 0.07231965895521564 0.05416505755708367
0.7036541598685487 0.5975721806403361 0.035906769018034954 0.07983371952268997
0.5747624052272131 0.584785101877754 0.04372964221824276 0.09351038728281436
0.5605405045047529 0.5912347751469461 0.050697187587031296 0.086996194434958
0.71529307844828 0.6141954128604902 0.0683902595412508 0.08403367266977485
0.7274239046400243 0.6258684243109551 0.10150088070658501 0.1168136964287775
0.7250855791748518 0.6065930824502284 0.05870817365839018 0.1041769326770067
0.7386416115883168 0.6229185761800531 0.08670655013281929 0.0788763783986836
0.7336366824534682 0.6223236338120145 0.21176433789595148 0.030557256947286508
0.7361208747736366 0.6257493538352863 0.10996254257162676 0.1403606429075832
0.7278061007159264 0.6191922798673786 0.25701272111948675 0.007974981633243174
0.7380922048099848 0.6179451184124102 0.32590521878200324 0.04318736522128122
0.7348187315273246 0.6196107632129687 0.3415248648620951 0.06748332099162314
0.7149365686672061 0.6256516328589268 0.4080508655441777 0.0837750829976881
0.7048709166644239 0.6304505208217254 0.41301467617701054 0.09455883618748993
0.6906477221828108 0.6300449092752812 0.4252061347124372 0.08059625633807034
0.6697605157257608 0.6280493810911016 0.4583239096523848 0.06032479547284364
0.6385416350666666 0.6248042238770689 0.4706815385666696 0.07358575235320748
0.6268302015572877 0.6372834237433646 0.48958945792656094 0.07641695208396372
0.5928370482916921 0.6314944810358575 0.5189309642131363 0.05446978960651109
0.5977612504044026 0.6515161214561986 0.5059438137183185 0.054760177873203995
0.6264092600969006 0.6434914141267924 0.4997135305957165 0.05806391010925769
0.5712979323971452 0.644970993357539 0.5293101944961152 0.029788850618505534
0.5551853957522148 0.6452357939014463 0.5544982564604676 0.06667959511421293
0.5592461209827355 0.6388077152589562 0.5394975605772576 0.03671513424035837
0.5181972267773979 0.6433743223114841 0.5895613202264176 0.051793835665653626
0.5093037346866791 0.6369130464847149 0.6161767689114536 0.06038369208837677
0.5130842721690494 0.6225799764311938 0.6366969434440332 0.046012101042366985
0.49509229912852376 0.6045470589499934 0.6540965473636804 0.03958676957898553
0.49911155361904447 0.6013951247605663 0.6686820557048779 0.11314781883172949
0.5290634733937257 0.6258685264864949 0.5754591047408463 0.08540818246919021
0.4940917813235931 0.6017112549949977 0.655813586582641 0.0438728608416506
0.4931180717425003 0.6134191964754118 0.6227114697804023 0.08985667932646488
0.5531393949989887 0.6340089033655039 0.5723896485920257 0.07422423877025759
0.608972482603407 0.6412376661455061 0.510219059523229 0.08143900151227586
0.5207766511913896 0.6199136287869131 0.6279112938236273 0.07263618300218021
0.6805170620226747 0.6297205241450468 0.4429116750853913 0.06586860059679157
0.637587283072058 0.6415283593114081 0.49285478191316223 0.06792550344264821
0.656599318599868 0.6389158370632669 0.47479478202288866 0.05363675840834312
0.5122147370321607 0.6043741657257262 0.6294797655872011 0.029142056896470883
0.7393688264904481 0.6219384192349794 0.3027322142087684 0.01771722661071923
0.7447983672804241 0.6237329763258455 0.1307585867986828 0.12980010242414797
0.7388255767519321 0.6209589515641947 0.15688842295667432 0.07940133575697052
0.74556852787033 0.6179163447544951 0.2328146143402631 0.024695103731294004
0.5098199794860225 0.6031969558119711 0.6800837648523895 0.08067930345126648
0.5435970924268497 0.6388352831055322 0.5625276621922934 0.08407167000471724
0.5287630665194782 0.6226966065192385 0.5674550266164337 0.09649358942278874
0.5443862165902038 0.620868560282611 0.5675031439836717 0.052591652534536154
0.5766475613646271 0.6289296561054492 0.5351484071734127 0.024589120313446025
0.5893475666815587 0.6269175065918203 0.533571653227867 0.021815615898105604
0.6007384031422074 0.6365483229578142 0.5215720210961897 0.04457876113473767
0.5592914693949952 0.6329698140247901 0.5589182614762034 0.06525516525018939
0.5754730104488156 0.6306531184549938 0.5491498950292666 0.029212418477792407
0.5837870036187534 0.6296711106916156 0.5340425668223652 0.02430322243191874
0.6274300430090886 0.6233805397756326 0.4865506276572177 0.06306658121554248
0.6665334953085555 0.61323900529698 0.459708392405411 0.03798276546471836
0.6457051630749946 0.6264721592875421 0.47863440400947066 0.058522924672747334
0.6779016590772601 0.6158605831265781 0.44505592130247273 0.07067913184479334
0.6929282472237446 0.611824750318998 0.4299172634164746 0.08327351409287102
0.7272536568354124 0.603223922518743 0.3956455674208693 0.08676016026476038
0.7371214552075965 0.6006652898286297 0.3555921058759814 0.05524981937626091
0.7401882166671943 0.6003967242831558 0.14261842700072763 0.06835556456368486
0.511228454599748 0.6227560608166517 0.5852135002630209 0.09260627975882219
0.6562239721528831 0.6261623672711288 0.4556350508617535 0.06812651125464378
0.6393615414462858 0.6384948681015521 0.4784605472324606 0.0580587287154674
0.7009018664715754 0.6112808682676673 0.4112219743790994 0.09192685281432826
0.7223081645532694 0.6216678999124418 0.3933757874914163 0.10736401548959792
0.5393785200859605 0.6380160382766054 0.5763746989382149 0.08223636371926189
0.5593041300605595 0.64099125182931 0.5401874300496581 0.03786155680563933
0.7261423982633891 0.6141090761905766 0.3504255454591263 0.1168018636950956
0.7311325210489916 0.6182569383359022 0.3420650092541782 0.08670082641603659
0.7333377589077191 0.6044685719309526 0.167049427206054 0.0508015755510553
0.7351372670283202 0.6052785799941828 0.33166562528746496 0.05223789245260445
0.7289176989506122 0.6261989868728831 0.2938476302983553 0.008938433311487536
0.7319746619188505 0.6207398701043056 0.3607327001706932 0.061135172376320664
0.5267394662791116 0.63159615069994 0.6063971170502948 0.09299291193020563
0.5288827677498688 0.6320114465482024 0.6100624840963345 0.09292138424601847
0.5352395734952161 0.6319403913555144 0.5987870129749063 0.08930261250181266
0.5380410963090626 0.6406412949754118 0.5862000080755334 0.08056537425360921
0.5521723607995155 0.6363765212940089 0.5761135278745672 0.0647913217366002
0.556115643492831 0.6301922759149271 0.5641399727687588 0.0938658504339265
0.6270977802095749 0.6408526791385688 0.517739115095211 0.07160087885117983
0.607376388906176 0.6366804298844261 0.527087717853722 0.04508353265230354
0.6004962913122363 0.6321449323130257 0.5200643085581756 0.04410309728933914
0.6784863957760336 0.6231215816303654 0.4560970275721228 0.05743685058802618
0.6540867721441952 0.6279212494992845 0.48490014267463943 0.05762623842003064
0.6808013552925251 0.6283303197017772 0.4583122291657341 0.0668606082178123
0.7065591695755158 0.627310955405046 0.43320372311056826 0.06859063039661507
0.7155201607688413 0.6137270199933925 0.4167736703895537 0.09740474879219214
0.7127259275247066 0.6163547880531592 0.4370399473260574 0.07157762580614187
0.7305442131985435 0.6307700900244362 0.4018784218968761 0.07415139184169708
0.7327992878273549 0.6205508889130842 0.37344003227295813 0.0693071335285634
0.7448152507491532 0.6073053964162152 0.3917005683067861 0.07906035466571754
0.744603896157476 0.61149309751675 0.3672772776922844 0.08374586579260081
0.573085746210929 0.6321567713083006 0.5476372051838271 0.026116010596747116
0.5478039485251149 0.6267754549923734 0.5735945265120539 0.06349870459634123
0.7287566790943677 0.6100761988203364 0.40521532553599815 0.08973185964203405
0.691475305767518 0.6252740925673854 0.45175924078306817 0.08581188372805554
0.51671624450274 0.6166893326926455 0.646975891268823 0.06809736846276455
0.7406929373164646 0.6188915907969 0.324714457228577 0.027754976474506424
0.7472415856306003 0.6173259989221832 0.25524782424143955 0.02066095569121353
0.7531966516831806 0.6130802816681552 0.19803124282868215 0.054490645537180284
0.7500021932555838 0.6143685682774492 0.28628751800405644 0.01014872489807572
0.7448607556716961 0.6123259443184799 0.3123827555690436 0.019584354386903317
0.7396017056251833 0.615397382700389 0.24251147794716665 0.0038414787326789173
0.7561037160904872 0.6161234054165357 0.1727548322730713 0.07629629385070678
0.7510928706701654 0.61091930328082 0.3456804907255305 0.08879156889792825
0.5437396504113174 0.5835876111386875 0.07242513971556963 0.10772989827730524
0.6928108613148848 0.5966908981852505 0.012434492001628059 0.05144830147089839
0.5328911043749712 0.5823666329028991 0.09660358654049517 0.08419650717565681
0.7299035032260289 0.6135142200457637 0.06104197381276779 0.08848832007553312
0.7320832909708039 0.6139973252111787 0.049714173603705246 0.1069510577657811
0.5637351768457671 0.591783808672031 0.03245092126483406 0.11680882270428777
0.5334045450996386 0.5890264884920458 0.061568136946589094 0.10024019757897813
0.6957404446486759 0.5932543545540683 0.01893814017356624 0.07324236874924063
0.6682874052635085 0.5989133642084986 0.01067635756981323 0.04494136410772054
0.6885475101149404 0.6064046805280062 0.011099237311363154 0.051778663926091824
0.6492696708521577 0.5921271259617937 -0.004565420678833199 0.02313312487015717
0.6472280164310767 0.5877597005042868 0.004611653102190673 0.07825158206623414
0.6176397191516116 0.5826386737906462 -0.0010457116524267025 0.08956135990727884
0.554749042422077 0.5778490304406734 0.023473414528511177 0.13344942637680474
0.7227581717281357 0.5938970025982433 0.030476490540433974 0.07190380447791592
0.7175843404362822 0.6228581710857246 0.03009740436311486 0.08064204495070179
0.7461033030625217 0.6176420164195894 0.08480803445094766 0.07952376437085831
0.5258626785090179 0.5738794502674437 0.1655390423362789 0.03224049783599558
0.5172590828408666 0.5975105734055823 0.6623563771000303 0.1053254513457157
0.5445643254533665 0.6377558177451113 0.5518980250919457 0.08595777766903392
0.6546019232709954 0.6292287555447293 0.49486829255403725 0.051937278855112366
0.630591253563139 0.6321161875921387 0.503672709634969 0.06343151849880721
0.6185865724561442 0.6286337234686327 0.516273155019977 0.08372101791096412
0.5950901924630603 0.6249426349291403 0.532535764088713 0.030820682638289278
0.7134428543468658 0.606577914026557 0.05278315025981923 0.10491059361473946
0.6846391425475034 0.5965810042225126 0.014959875782898667 0.05025234025301917
0.735107288087104 0.620242771549874 0.035318649301082125 0.17495533685891215
0.7574059254565836 0.6058787532718172 0.09554913515270234 0.0971247072857072
0.5129494299231377 0.5674184853787976 0.18286523433659368 0.007009489699556917
0.6112691429534269 0.632461151399432 0.49546014025060403 0.07835438969818431
0.7483498292970423 0.6062677059778206 0.13408764439146853 0.07009945409357614
0.755075092073171 0.6260411039001469 0.12328889648027137 0.08631568016171727
0.7464476148414833 0.6284098932779604 0.1809409695790712 0.0700671222900325
0.7468010188085108 0.6085686859328713 0.1734365455888523 0.06880643899623134
0.746257471077633 0.6151345835252799 0.27840252822745354 0.012665988982233386
0.7379337205914758 0.6050328644655995 0.12655302731467027 0.13373059083066338
0.5269721190909283 0.5664819433709678 0.10598121821767696 0.11459575413641333
0.6505430392060093 0.6330902632508342 0.4675749587300016 0.05686430868693244
0.7179955739413604 0.6090829296621632 0.3659420793392563 0.06826533635632565
0.5266281042019825 0.6242671346480195 0.5975596064089814 0.08649150194015051
0.7315970729423545 0.6099588151536545 0.14677399766296287 0.07564142702141072
0.7454921117577382 0.6181074479161248 0.24669104125835528 0.007501616532891615
0.7277127707578501 0.6158082982572244 0.17638473838839597 0.06579897054343195
0.7225215253870483 0.6143841459836163 0.20490178780704668 0.06033515523992311
0.7312715409926898 0.6137428289204487 0.13182492476993224 0.08238508069952415
0.7440336046245373 0.6242645375724156 0.22192061256547727 0.019679636086718907
0.739079568670864 0.6189902654285092 0.3538069088158875 0.10887632792213019
0.7386488800624241 0.6223480339987323 0.2860043713947053 0.0073175542808305676
0.7450333211659822 0.6167555734048042 0.2571979657319573 0.02147063669476239
0.7409175641670496 0.6260999417608349 0.19940774388680857 0.053151556652438064
0.5313161705745739 0.5735315953307535 0.05835355635912875 0.07983821992829146
0.5227061405181183 0.5887710479109945 0.08516676374221077 0.08456778739311177
0.5572877584581011 0.5838627214345462 0.027240167266710434 0.1787732014621138
0.7071420534271993 0.6096896812023209 0.42897300445144 0.08769236560466655
0.6480969179157238 0.6070396325684579 0.010279535285884654 0.07322678413316698
0.5234986210834821 0.5865306565877728 0.7044626603397016 0.09815980312382923
0.5168402585945285 0.5979654584061607 0.6891940740964103 0.12474792393874468
0.5157022473769257 0.585899961600756 0.7134973741288106 0.1429882106009916
0.5054711450725026 0.602126948411656 0.7002716258232367 0.07375600090853669
0.49898497614555737 0.5854484103331539 0.7289275859308831 0.12544029536319526
0.4906306360939323 0.6015671911991678 0.6838196241385894 0.07725482469975216
0.5125788848188968 0.5620971885112837 0.6860661637051554 0.19712294104894984
0.499294936478555 0.5595634552091422 0.6786488099201474 0.09401848619947654
0.5157096652110561 0.5501127367763308 0.7065143133575489 0.09071247996947152
0.5211248793181288 0.5743142022599103 0.6764764913814317 0.0867377453437872
0.49927598565870906 0.5514976114171967 0.7151126934793379 0.18363030262650815
0.48602562125581455 0.6013744907565232 0.6963179471340054 0.10568971632915525
0.4891215927770983 0.583002563428486 0.7045179990115306 0.2073608377251089
0.49050768016379337 0.5593586214093839 0.6904389171303061 0.0853146587047028
0.7230519197709706 0.5460574863482093 0.27614744888798853 0.07932461694349315
0.7451692545853151 0.5443118024376296 0.2768016384340972 0.04398204603125142
0.7574842814739665 0.5419081995977701 0.2780317860653236 0.04489960464185303
0.7770637727657098 0.5426437674164759 0.2809012883789716 0.0431243636442374
0.43060322774726434 0.3169422057680272 1.297072561319322 0.009496510575202474
0.43514302683474143 0.457315248405346 1.3077475786444388 0.07424814701956348
0.43621051389437543 0.5589745138166613 1.2865489693970853 0.10795108235605229
0.4385883973279842 0.39433517393658013 1.2963994804537389 0.034182838517428316
0.4441589304757641 0.4847473373952466 1.2978639287873646 0.07257070508640603
0.4339965070997976 0.3693653685175527 1.300531525880275 0.011794639132842972
0.4477046472884022 0.5255913596726858 1.304761809438216 0.04700153643106146
0.4377870132835961 0.5386136804643028 1.2936025829071998 0.03250016184283672
0.4341505539626009 0.5103158446236232 1.289827870052852 0.023222370079156427
0.43370441002862886 0.35364388598199603 1.2910204582054217 0.009379411518278969
0.43344167606782497 0.4098310754698814 1.2951615829657566 0.022076022765760157
0.4408155426601658 0.5369493810438883 1.2872071236693376 0.048816389372977234
0.4247986647063265 0.45809128291633033 1.2929075138742854 0.0492394880514165
0.43952315337804765 0.5271275036181646 1.2981583960028367 0.04515738392730893
0.43502078422413737 0.49249434347723337 1.291386981680373 0.055530262710394816
0.4372341106556978 0.44511002211962897 1.2876338346617897 0.0913488418506386
0.43711297869699955 0.38021791945331407 1.2946180184141334 0.011764577221818263
0.4372580508523761 0.472766894848565 1.2904829024777291 0.07781845928684236
0.44237674682218964 0.5481004911122722 1.2848977123533998 0.03184692424394952
0.4407623321320084 0.4787969179077337 1.2852460998426338 0.06297918512521529
0.4473981121814899 0.5009943444015726 1.2820775042035597 0.023737884335858887
0.4500900578447048 0.19652729099169416 1.3189845652123788 0.00954241205999329
0.44331159853245194 0.2763238513366461 1.3182293449424816 0.001017575244871818
0.4420777463695782 0.3419374520053941 1.3002377279470538 0.011605838550522015
0.4367310820773427 0.2962176876901685 1.3042798676686096 0.0009878031062759006
0.4406345298610348 0.2519741045564858 1.3194292508348398 0.004019783983634397
0.4620281079309828 0.1966429460256413 1.3143616679890795 0.010148522656923897
0.45884591255032936 0.5763147441331381 1.2977375815552499 0.1662384296013176
0.4531142885596278 0.4699076607354095 1.3140191982435612 0.07337778136248245
0.46525953329851355 0.5524975900991212 1.3103113604354613 0.026042338822674843
0.44735162756846314 0.4383779377051877 1.2830796496626886 0.09395685705297196
0.4674536777155089 0.5822772685933438 1.2299570885982367 0.10216667037180314
0.46679555128455985 0.5796594868273278 1.2795467131301435 0.17712452121019173
0.4695586073353076 0.5831322038113635 0.9420726111743689 0.1702875990072957
0.4774755417337197 0.5825631260085478 1.184065353188225 3.3083200752046976e-13
0.47188175950191463 0.5898438920869987 1.0718329722983044 0.17286462673219774
0.4625385509612296 0.571498817627431 1.0534055894531786 0.14996986745230934
0.47045315768860013 0.579939769438407 0.9467338549025187 0.19535397717275926
0.4510679332578302 0.5866494434641661 0.5672562740994334 0.1462174919281573
0.44928866358085756 0.5954258782657906 1.0336886938364245 0.1051603449498261
0.46556359815622733 0.5884917671230042 1.0588527956361296 0.17095184276225464
0.4516112492687034 0.5957572583360179 1.020860712622638 0.10156256916401982
0.4507906105723456 0.5899359984262857 0.5403565234047951 0.16183634320245593
0.4588399473689735 0.5995106747123112 0.6451425738709591 0.06714958144927592
0.45064118045977924 0.5881992027246375 0.9492874432739702 0.1791423990759511
0.45916621340092767 0.5968336339662762 0.9817162805178647 0.12827717087057885
0.45060507800749616 0.5953021481939716 0.6106552858767473 0.13399599746227076
0.46382128691049956 0.5947076551824683 1.2587764653906064 0.1023815861386114
0.4543965210835085 0.596390538277265 0.817387479415348 0.11715236931313831
0.4593674663433939 0.5986235392399778 0.8823337668098171 0.08244002609567318
0.45595062036049505 0.5878469385544344 1.270147220424197 0.11686263016304783
0.4623560016118109 0.5853298878766858 1.231636894320184 0.10554149474874754
0.46352015903894656 0.588104067098136 0.8920482496514331 0.18134724278928124
0.4640679648314878 0.5818812989245763 1.2895695607748547 0.1377685853313689
0.4641298527865 0.5878639551661623 0.8769305715051693 0.14191441097362514
0.4680014434767261 0.5741761153483785 0.6105985659793295 0.11151095922503648
0.4610651416422924 0.5830611668701623 0.9614978089556679 0.15863247101497688
0.46902154094474935 0.5793689709623882 0.760004882789061 0.17324090681519072
0.46773004399697254 0.584591290840458 1.2663115045935855 0.10105214567300987
0.46549538433301235 0.5765025294744374 0.6327790965018809 0.17937100114805665
0.4614303625570641 0.5695586679143445 0.5820474279408206 0.1523597362213048
0.45972698161052195 0.575099478768703 1.0045019013404481 0.09570482344385016
0.4653730649634043 0.5724538781507592 0.7703551402441223 0.13653446826491952
0.462127556110006 0.5596284963445077 1.1643185560998455 0.13573043843378044
0.4597368849494497 0.5682126340981317 0.9512411275761878 0.15041519751479063
0.4737360429393262 0.5739926288431824 1.2638601138566639 0.08429432637522372
0.4685160068894501 0.5723283899566972 0.43301610538263186 0.16061800091802717
0.467627034650608 0.5730081990158817 0.9677264549635283 0.14612668815033195
0.471685658571365 0.5679975040841031 0.6780680169170016 0.19636126207493618
0.46141167380325077 0.567665129002027 0.6139773371899959 0.12217834265073726
0.45478820122674407 0.5574509973880468 1.0686162238384114 0.1370890138907008
0.4542034984871394 0.5626722696332249 0.3350794253463596 0.17572753089239979
0.46457937090877777 0.5681152787610344 0.5007492213381707 0.1153341850075874
0.4524957760421997 0.5671924406978373 0.5893391732759442 0.14655953674178032
0.45649692162005634 0.5659229328480416 0.3980402393602557 0.16566825629870371
0.45535980351874217 0.5604663959545324 0.7268304653732746 0.15107453908959384
0.46322774997449984 0.5620020723279597 0.4560399105598744 0.19737537234007957
0.4666676882388139 0.5717865995382313 0.3715739475943243 0.1543243382984984
0.4592160753108284 0.5635035250660813 0.37819486609065484 0.19843498063563403
0.4512923427530967 0.5615607778161431 0.4048706929445976 0.18123818336381478
0.45095494093101207 0.5717141464381645 0.5638709160550709 0.13302391104005448
0.44753770223729433 0.560472551957846 1.0046372506385706 0.1692363362994515
0.43960232753371425 0.5680223385165848 0.913093380367413 0.18785925075128956
0.4363653742795745 0.5675688715888436 0.8327084762204635 0.13708283478172392
0.4358437332479323 0.5683569465139926 1.1781890104078585 0.036709524404171905
0.4437052707787478 0.5645870092454506 1.080066074454261 0.1581491712574342
0.44350549960185937 0.5625723735882716 1.0445137333877341 0.14344686195844264
0.441398673555879 0.5741646182883451 0.9551579912298177 0.1817066904346076
0.4370045326790616 0.5673093935496457 1.1556613064162031 0.036685905669127494
0.44344494796808437 0.572074214239655 0.7815957951845721 0.13391488614197505
0.4384016050559629 0.569694067338475 1.247804451417865 0.11949116168985055
0.4428557773073965 0.57334372126287 1.0021770457107173 0.16382448734046606
0.43240658037000324 0.5689612657157151 1.0283240475833897 0.09318428117985875
0.43827302000621277 0.5699679235833861 1.0695546846899242 0.13390326117428075
0.4432416606923854 0.5593830338813431 0.4963092304015934 0.15577416297791952
0.4390050173643581 0.5668518596448298 0.730409033162236 0.11667479350910043
0.43477802999011955 0.5704489938653903 0.3364837388638313 0.16062869400441135
0.43536947321343483 0.5602267330726663 0.4094476489713904 0.10087965758818697
0.4347083349666853 0.5771303490896368 0.386398468913806 0.15113846017021323
0.443702197297736 0.5562587640323116 0.6329817486829313 0.10440162087418497
0.44147277133191926 0.5660747268954432 0.3297841669423678 0.17801927820508834
0.43690819553668125 0.5603782735947644 0.7438798145629488 0.14113035750025993
0.4444675212209003 0.5662883941860253 0.8146441502722729 0.08503452180272439
0.44496732501319974 0.563439476101695 0.5324878346164448 0.15498202514409054
0.4375905013212672 0.5714784437040288 0.6826200406614803 0.21059644615935655
0.43597807574147635 0.5770947122725049 0.4849226197124697 0.11415528530989082
0.4400194884139092 0.5752914411937047 0.5409163352763315 0.1583117213258084
0.44621059664735574 0.5638647168587207 0.7583322738027537 0.14397809883947688
0.43825621590036884 0.571095113999085 0.6486904640796305 0.1327031369633189
0.43761316750681994 0.5715077361595927 1.0491130081900684 0.12793127270368312
0.4447772612498282 0.580625800949533 0.806052844442129 0.09472014159430728
0.43422885454858895 0.5750717945445788 1.0918328970123197 0.05889253894543837
0.43234483391035644 0.5746357601302908 0.888097532414501 0.16440444908527502
0.43447557991499225 0.5833412339232652 0.8639152055048995 0.11229972027497215
0.43579801526421535 0.5720553884517046 0.765955265174711 0.1331973989889564
0.43799418240044374 0.564125821291333 0.9338633355658605 0.14387021566530028
0.43596304836176936 0.5781964620440909 1.138497245493662 0.11427605080639898
0.4351553047386481 0.5670890714708313 0.6194048352327582 0.11638034110213342
0.4292227113879749 0.5731381767606203 0.9758239480496642 0.10272412477040435
0.44342010043736235 0.5717704907558545 0.9966054168494908 0.1812727328102442
0.4361642619829687 0.5732477271566943 1.2143847090404545 0.1016579333624162
0.43504046053515844 0.5800243431304319 1.121559369767208 0.03442614470805486
0.43111168644064674 0.581968300853684 0.8449658365397437 0.14400815614542523
0.4348506385271455 0.5726285931521456 0.5745576370989859 0.1599928686112168
0.433028472426086 0.572241346054079 1.0349118067884857 0.07768016806005623
0.43582045388717827 0.5804182425795227 1.065034483290326 0.12733123036717703
0.4418693974420646 0.5861029919319058 0.5323054123919991 0.15999797127296547
0.4376314989348557 0.5846813807046491 0.5019426397729834 0.17044666401405983
0.4403086447498899 0.5793897972821273 0.8226662138267502 0.10617856072384567
0.42589295070759553 0.5766780634483321 0.40462221268654397 0.06101536786643141
0.438716529397805 0.5800939160047572 1.0555023684276748 0.13262224700269304
0.44347276079701253 0.5864118280972104 1.0017416751050638 0.18114780885691995
0.44017752889513867 0.5777832726099058 0.7758988324483651 0.14161060617712296
0.43905013514433455 0.5856304137044276 0.46173118286781756 0.17049065409240508
0.4363686868598103 0.5796630251837541 0.5845951053237577 0.11971377177994841
0.43470257494228265 0.5826196802903795 0.4232464116276075 0.1306951707189854
0.43805808465012785 0.5862128732596809 0.3710972472358354 0.15123051534183748
0.4334614370320851 0.587825296145194 0.976294914394944 0.13343972621008277
0.4388206081363172 0.5832777937454088 0.7410568734558147 0.12126860856339229
0.4442956723577562 0.5902964083805259 0.8269994653071135 0.1006615326573967
0.4398910978516465 0.5882060161162033 0.9513317266052886 0.18942827749860622
0.44772178604292423 0.5987545771865537 0.9237771399387334 0.12797615363374928
0.4463979465760035 0.5868276849622749 0.843492676194715 0.12283687002804623
0.4371590760283125 0.5853871971577345 0.6233241914130176 0.1515830412855383
0.4496436768739594 0.5886833894949437 0.5359521289529564 0.1639807157371749
0.45383052789145334 0.5969999586082676 0.6586606128447829 0.16850286905520587
0.4408041341833943 0.5932679802942246 0.40091473359921226 0.11644328822353806
0.4445591627680437 0.5919904434706088 0.6151150524730645 0.15566597689008835
0.44872751734501254 0.5937476222013075 0.7721625815451859 0.14845089593612834
0.4529574775877205 0.5845122905285675 0.8558630323533546 0.10391645469100612
0.44645048602498894 0.5897625591429935 1.0043382604564983 0.16190933874780092
0.4420346390721124 0.5938867003899766 0.3533113595714491 0.1960034337205506
0.4454245576250373 0.5866668259971712 0.4397743727183661 0.17583973508634707
0.44124225142208257 0.5980346325820104 0.7608187436960607 0.13942129676796572
0.4411043719536163 0.5960847212828675 0.47049579578362705 0.031023851774596288
0.4380194629499274 0.5944510291290847 0.3355394869045449 0.16210786762056084
0.44824403586677364 0.5934839191014578 0.5146404261593674 0.17989068760765972
0.43870632100096024 0.5775801537785304 1.0118970747222147 0.14740300944306603
0.43854891957175157 0.5809631427363308 0.4446608169250231 0.2236169493236691
0.43700115687216023 0.5770740174490424 0.5831935776186805 0.14520697370699231
0.4361711983633963 0.5828189581643697 0.7273591515901545 0.11651112840181861
0.43089641286806935 0.5827141370012628 0.36630564299755486 0.1258089248428502
0.4437016050858128 0.5734601010628527 0.9265534431633832 0.1655719359127675
0.438482643241256 0.5776284608953037 0.6134534618797753 0.12343615579129452
0.4425962066855887 0.5779052015964418 0.7914836121403304 0.09991316586107248
0.4369123043821851 0.573491865262902 0.42750055930218345 0.13088596037420983
0.4345902505779455 0.5800404666535531 0.45819788889894686 0.1640181785200067
0.4374149345034371 0.5794325775831406 0.3363413481904445 0.1847552255923178
0.4361366678154422 0.5800242626792055 1.1758785875707594 0.03709706322224349
0.4489265082132012 0.5905306202660233 1.292405095186918 0.16371533414245013
0.44982834504644725 0.5877238025498419 0.5483751767949295 0.14643040066148658
0.44480813596580726 0.5842020774598617 1.2104107022422284 0.0998377451284357
0.44388003597131676 0.5933662305384758 0.33353053406343347 0.13673776699197157
0.45423632640498257 0.5934334692275237 0.7991122382233227 0.11951889408336236
0.444061207827823 0.586254081105214 0.640164534502846 0.1224431363260542
0.4561584281636518 0.5884818331663689 0.8482582947985585 0.1266456555549641
0.44703809789003773 0.5850414026304855 0.4323734539544534 0.16839075807489062
0.4573546620209004 0.5931721326170863 0.5816187146602244 0.11586858685211086
0.4533327177500469 0.5915843445186025 1.0067247122684657 0.16580966453459361
0.4525009812933871 0.5913585960009602 0.8959331465474629 0.21617003264035253
0.4452628542332104 0.5960398247462466 0.7518793632743946 0.1528026662141883
0.4503603055119806 0.5942987526338522 0.36467249607559543 0.14190116741316955
0.4440357738797963 0.5849935503214887 1.2225340983509296 0.11365438879966787
0.4333579554824945 0.5789670264903266 0.627000132823174 0.17207416156881833
0.43672130376249235 0.5865254979376897 0.745812842193946 0.1164733529729665
0.4420647757828064 0.5709308565961406 1.2784534287597749 0.14435567221134643
0.42760749683650584 0.5795683817499793 0.5173030277689915 0.041586953290308565
0.4364750297115516 0.5864910651941656 1.267529522698596 0.12755611952181717
0.4322367086352176 0.5853068495752413 1.1109615546678167 0.029461852833395353
0.4349253547561165 0.5842875490924909 0.9067870865302126 0.20486725521114074
0.44128601122409966 0.5838200618940679 1.2445927968886614 0.09086778712969236
0.4334384440850263 0.5790356992401491 1.2466839435125439 0.08797925138878239
0.44096210563408705 0.5877931064554399 0.7948367361628281 0.09685856625343925
0.43678007155199167 0.5905524229049005 0.5672628431625064 0.14029811134842166
0.4363392241645268 0.5901634792276667 0.40125895116858934 0.11332214592291703
0.4320053911014381 0.5722899539211802 1.1442739499992682 0.045410723097918694
0.43442141677140583 0.5824637119113618 0.9478448785216 0.1816686789830184
0.4358798956165723 0.5827748579453135 1.2914941009119099 0.21227261578603096
0.4338429988944792 0.5835757436969438 1.1866745452643417 0.024016279198852863
0.4405353131646077 0.5816972047776797 0.6547383256971948 0.13623579228839341
0.44412410811158026 0.589486221338756 0.9594590259995706 0.1620497899979114
0.4549010927006789 0.6015253554505448 1.0826885717956298 0.10201844218905942
0.45742303622221214 0.5904399705185895 0.4634057127959969 0.1534414952169248
0.4460663310201586 0.5902035067779008 0.45334095373653926 0.14300264280435537
0.4504629119480293 0.5857879739837162 0.7327208639689236 0.13486134723415216
0.44077878629078804 0.5929928691590075 0.97318685679447 0.14689714744511717
0.4471946288384154 0.588905862068012 1.0788993304607635 0.15551009230086107
0.4424073297551529 0.5852300222569756 1.2071478765211943 0.07265647818062708
0.45406649974263996 0.5896330402142786 1.2554799466128015 0.08702090332613617
0.45342145553501356 0.589891191481383 1.270915957136223 0.12939243389363203
0.453069772952303 0.5884333308210732 1.2395075953159997 0.0978972413974606
0.44814341074187564 0.5884732998169664 0.4173805801115958 0.1755014999844198
0.45054365370164756 0.5974392097748256 0.831485001424882 0.08113710839926318
0.45067200357628207 0.5877867053913645 0.9964639127259561 0.16892222850983465
0.4493145069720413 0.5956557559525087 0.5078644589434272 0.13994813427569053
0.45965823857220084 0.5884644537693942 0.37556457387203546 0.16714896188095976
0.43340976633916706 0.5884075041177463 1.0220065698659342 0.07171025101194424
0.45343443080017787 0.5657923651940001 1.30472616158155 0.10289130562934737
0.4448899935648763 0.4949142518520753 1.3069306596310033 0.038714391864991975
