x y z curv
36.7633746773984 0.520685907804305 1092.3448938083009 0.21781876657565363
36.78556762231826 0.5189433462364108 1092.361105517555 0.2771397658714819
36.79976827299277 0.5270609040138369 1092.3516321158188 0.24147425548635648
36.77018754429075 0.5265766642600038 1092.334508607694 0.20466899141146774
36.785993406406746 0.4962526513827959 1092.3498314380038 0.09980258782190024
36.78723646369328 0.4974337358239247 1092.3283535514386 0.09772766501093609
36.746212924710804 0.4608625236128702 1091.9966306977308 0.16433758278873972
36.740572728514486 0.4495813919231029 1092.0080609600363 0.13544725209265285
36.78174680462722 0.426458329382865 1092.3454562938207 0.07441225821564308
36.79974967386478 0.4577638755147081 1092.3500508510008 0.1171138860048007
36.797923444749685 0.43866092940113094 1092.3589045389513 0.11613105294809609
36.792587403884184 0.4645005895699713 1092.360432628833 0.1604076024211866
36.771709895676146 0.4363318781894634 1092.3571273216987 0.1950073947211447
36.7925938369082 0.4581090680939201 1092.3307383536592 0.08563190577413946
36.79601974572772 0.4443247287150371 1092.33136963862 0.11124921786865102
36.76936432113383 0.44056569323303135 1092.335346527614 0.19404826744655285
36.77281325400359 0.42990281903673866 1092.3346879931382 0.11332788663030086
36.80021463866276 0.46118974037132415 1092.0594752474797 0.07901276912861147
36.785622100660866 0.45997047976634264 1092.2657775265807 0.10547599004572034
36.786500535915835 0.46197619280083246 1092.2148915060127 0.08084198515928946
36.786676896596184 0.4533624723915289 1092.098296912686 0.08082787461117598
36.78952612974448 0.4661501160430178 1092.0380670090601 0.07895771250577906
36.78461097084949 0.46787047937078174 1092.0801724620896 0.08913294015503678
36.78253141642403 0.45931481362480314 1092.0266219416749 0.09163628642948295
36.793239073248635 0.45187585330224234 1092.1159969188654 0.10042383310850286
36.77715170164217 0.4675822175426914 1092.219656885188 0.06364806314734126
36.77672194188014 0.46566503218300276 1092.0169426051868 0.07018835343624205
36.79052772091361 0.45832185823166693 1092.2693983700472 0.08460769452627069
36.785292342936906 0.46655404028591774 1092.2797599459943 0.09811780932595016
36.78577855580863 0.45243897051820775 1092.250985471698 0.07393606389072635
36.783975073398324 0.45860494100639493 1092.1421629759382 0.12578074992191068
36.780122503158964 0.46028840684999284 1092.1948413142823 0.13395154211053872
36.78163595951493 0.46531427621420396 1092.2397228631912 0.06723921327951889
36.7772026224595 0.4628754252751166 1092.0583332117528 0.08961367954754314
36.784349721442425 0.47333865364529454 1092.2823470502397 0.11732389319843252
36.78323015870082 0.45947596722995876 1092.1029465322038 0.08620689352880834
36.779293914929504 0.4604692173946777 1092.2047484683185 0.11453895815266284
36.77044850479924 0.4635121032158763 1092.018015001442 0.08647946436050605
36.78242757232476 0.46630431991410926 1092.171537726409 0.12226720031052161
36.770526339202846 0.4560619598649048 1092.166783945239 0.11254989577065784
36.76967849525803 0.45850419012144117 1091.9928783886917 0.18952163153249404
36.77061680203536 0.45920429692584647 1092.2371705475048 0.06407779720833798
36.778309722548634 0.4585208199814664 1092.0415906688706 0.10222529873199238
36.776795307263335 0.46062002640464733 1092.0547817258112 0.08653105740262007
36.773036800597 0.46201321757401437 1092.2643508526871 0.10513196218873602
36.78088932955103 0.4691670911002576 1092.2483276651046 0.06269278446392222
36.76729551637295 0.4681437793543541 1092.148694558504 0.07697731919949301
36.77833276233412 0.46650764164095354 1092.1107851172949 0.07352209097720651
36.77919842534793 0.4638013552134164 1092.3068053786062 0.1012161304448854
36.77515105742274 0.4583345765386639 1092.2009590998089 0.10529898743213252
36.762554604505986 0.4525622769991103 1092.1298691500278 0.068445421316521
36.76812800969236 0.45646489627469305 1092.2721658169514 0.08749791928148715
36.781705097368366 0.4499076800000703 1092.1140835843055 0.11131961453900587
36.77428605434706 0.4554619544603717 1092.2189194609743 0.052599175198428265
36.774307351169746 0.4595116142569665 1092.095174683321 0.08752853262172432
36.76663240619587 0.45501493665611065 1092.554697803509 0.046702511539328175
36.77252248844775 0.4553753283016004 1092.5561157871512 0.04970009419703238
36.77228078775857 0.4595340404931597 1092.5783807721775 0.0847990958448954
36.7697160569009 0.43225419637235046 1092.5957785136186 0.04741851703744175
36.77822753741 0.40730240780141647 1092.6222030773677 0.07254622860151076
36.78474173208472 0.4521329135586723 1092.5385495367634 0.05859987656696781
36.78285223385288 0.45413041661277426 1092.5872715786822 0.05896374976086725
36.77082474885309 0.09023054758624696 1092.6205925675497 0.006718214454893824
36.773849136984346 0.08567698716505663 1092.6181141560057 0.012503476943669151
36.77263334779162 0.34129132827058245 1092.586657912779 0.025141781119115733
36.78197022114423 0.38172586405013537 1092.5983605143458 0.016324170413455876
36.773449996706056 0.24186501530360396 1092.587031056343 0.013155499117090061
36.79076990478987 0.4649830708497929 1092.482406885983 0.11726976466038408
36.78901614619523 0.4717117313142845 1092.501349746495 0.0928856191275194
36.78545653901912 0.4547503196501709 1092.4106721042751 0.13187474969316368
36.783843601221605 0.45413149560215244 1092.428459339833 0.1146587193440006
36.793695568578684 0.4750135290828729 1092.3787283367049 0.04483926592001206
36.77610324524589 0.45659603361841655 1092.506738932686 0.0832934559456931
36.78221492862202 0.4579306980257691 1092.4511267137416 0.09663795549000667
36.769435984828974 0.46088188810598635 1092.4756380885447 0.06219764097864659
36.76817285572323 0.457680541395047 1092.4036696022802 0.10908487982476424
36.7630883277611 0.45093473390437766 1092.5184342665254 0.10734009563856253
36.77355339958669 0.4504260416225418 1092.4305607785736 0.10683198833442187
36.77721214338849 0.45796031387855735 1092.5373594297978 0.06398884418144925
36.78796494865127 0.22153905365322138 1092.600040790855 0.04924174263211012
36.79191325260467 0.3426209128196825 1092.5970866119749 0.06327231206805341
36.793335629452066 0.3613713358073031 1092.5947880294984 0.047026566333091234
36.78987640579179 0.2604969021032101 1092.5921450863061 0.07091617479850236
36.78617957096829 0.29211941589689083 1092.5930290545725 0.04506255829760577
36.79271758346771 0.3708097648787446 1092.6121016498798 0.023089041145158484
36.78857060053797 0.2090215683659676 1092.5986513736405 0.06149981598542589
36.792664069472785 0.33321558405976726 1092.6033597501769 0.04104499966807523
36.78852940274229 0.18479496639876772 1092.6069514870874 0.005605607505354432
36.78607379180088 0.159903695673217 1092.6113453824391 0.0031109945086673836
36.78359909856725 0.37978225672252525 1092.6150145705967 0.03341178080897615
36.78341326679279 0.3443902734068102 1092.6176762958178 0.0667568531902632
36.78944349335919 0.2637228923372773 1092.6052599508305 0.07577382479613486
36.77370315853062 0.4446415741738697 1092.1798273262125 0.13717385614053368
36.77614675583885 0.4487131506853507 1092.0383015641003 0.09960011917851444
36.77786109949173 0.44245562776249536 1092.0829220691508 0.09815257400965889
36.77807581684443 0.44727689048042857 1092.0607053425442 0.08075595208456995
36.769202367700636 0.4514404123294709 1092.1508493652825 0.14436179040382452
36.766040336136896 0.44815795257994034 1092.0828108057972 0.07290460903907865
36.77008889230796 0.4528031529388668 1092.003859008672 0.13835977189555665
36.766516183321194 0.4463554123940073 1092.310131733911 0.12171778054314264
36.76871909644268 0.4383125266374608 1092.271673133916 0.10890176240875116
36.78390053197781 0.4453084711435759 1092.2854600377939 0.10774223679067926
36.77320986260712 0.45033997368907686 1092.0681374762187 0.08383282291639918
36.782505973028336 0.44337019810834294 1091.9924473943618 0.15961956151919895
36.77894585797317 0.44466526529015765 1092.1229009689303 0.10483180454407068
36.78602935051295 0.4408968146597911 1092.278275044026 0.11577549535161767
36.780719979694375 0.4433242157225036 1092.0956885865296 0.07816615353367894
36.784699416001494 0.4469547721935385 1092.0550755661204 0.10925857517649071
36.78878629758717 0.44662168680834274 1092.2577368861325 0.09209769399576037
36.79397678094956 0.44389871853447194 1092.0699713753213 0.07150858713807764
36.79671394316753 0.4531900456217877 1092.1812435928173 0.18824718008604047
36.78665580378609 0.4401746282918576 1092.306922998287 0.12488248952944049
36.79440332190348 0.4341593279265738 1092.0190861086924 0.06952123983744408
36.78977415276414 0.44640028776402096 1092.3119459335724 0.1175574851541699
36.800115033209906 0.4498485216502796 1092.1588178117916 0.15784015717121389
36.79506654876025 0.45435013020952697 1092.0715107852013 0.07575075047596479
36.786763946672245 0.4558219378343803 1092.188880574932 0.16685779264806946
36.77587613873437 0.4571139536355484 1092.4143190954314 0.09788506227639568
36.7656099006861 0.448204800629755 1092.4206578679575 0.1294527289673262
36.77614348194576 0.4535428854095939 1092.5036150842996 0.08504239782899271
36.77067728137381 0.45681728192738025 1092.525636043847 0.10888492488942224
36.767229976528064 0.4568008624077376 1092.46493300047 0.07174066153734317
36.767958466888 0.43274655531174816 1092.4814838037698 0.09413959239982064
36.775524318713174 0.44198588443731723 1092.512820568138 0.09887381559352303
36.767834044489184 0.4424810072750999 1092.4021833500458 0.09444515729333051
36.78253501112182 0.44793098437924633 1092.3764252905203 0.07354194425184793
36.78298204307964 0.4466754932792857 1092.4977692201842 0.08225742677038596
36.7903466374147 0.4416693733176762 1092.4247685841672 0.09868561913622391
36.78559521192925 0.44945251030720523 1092.4780748736805 0.09019139081624855
36.786465146830096 0.45351276690811887 1092.45901609169 0.09158923885883309
36.79895150039344 0.45084034525353267 1092.3988528894051 0.11159611542514668
36.79474942189035 0.4492271639812873 1092.447722651403 0.07760109368190425
36.7977808375954 0.45083238234626144 1092.3669915802311 0.07858088210163586
36.78728502338405 0.4482281129203116 1092.4174370781504 0.13072025479597893
36.78322452814807 0.4467526037644266 1092.3967284535363 0.11272092323084833
36.794536621192826 0.44870866138284454 1092.5120771247796 0.08268607620021345
36.789219245863386 0.46106009802114484 1092.5660314935972 0.02340304057460927
36.79813084988601 0.44031962324153157 1092.5671108130275 0.05535808102467791
36.780480876344186 0.4436995899122081 1092.594861456101 0.05481689004307992
36.79392796253693 0.4330284274454616 1092.5836366069277 0.046407970390543264
36.788457343831496 0.43837159549254145 1092.5891830610158 0.0460949225194168
36.793641791490415 0.42250434429966893 1092.606479912289 0.040383609536158535
36.78290751093934 0.4105896539878708 1092.5978263357774 0.06300466880530613
36.78715789258025 0.4023338491390696 1092.6017672757248 0.05376978693291749
36.78726642407574 0.45330713103109976 1092.5445839429492 0.053587030673463903
36.78505395791452 0.4015653168400889 1092.6160539796676 0.05826982369023532
36.7847691096244 0.3995576565021323 1092.5970569128876 0.045780966125405186
36.796751577504764 0.4349815781546516 1092.3323669445188 0.108207329390163
36.77537150563367 0.42740532475905096 1092.6050344837352 0.0654009778490869
36.77947322840511 0.25859238372362214 1092.6213764869217 0.12193972431113267
36.77971580655914 0.16585273765582662 1092.6177960074672 0.00047149251601497555
36.77367891103654 0.2874625900014103 1092.6195091439322 0.04022884702485933
36.781983474847436 0.21738836942562711 1092.6173045564908 0.06132510191662086
36.75864366073828 0.10749833524918694 1092.6105682678954 0.0021727056139031115
36.79207073112302 0.18444683178560445 1092.6015579707241 0.004870302685907383
36.79407610106725 0.2688123340866194 1092.6179994947515 0.03133638819740691
36.78754472362393 0.11035025089147753 1092.6085607976474 0.033863815207961424
36.7808077009582 0.4449038640707956 1092.5333565617839 0.047629101045047945
36.78775654895038 0.4703275768061192 1092.3408553450204 0.12326065856160738
36.77861914582549 0.4627784109141429 1092.3163870183148 0.08889763080564847
36.78072362858188 0.4611231672246652 1092.0018097574468 0.12372668789692376
36.775196657580004 0.4565226149744611 1092.2118508724923 0.06735734400140078
36.791613617720934 0.4523754444688518 1092.3006313047076 0.10486694437965131
36.78693392533869 0.45785736914179564 1092.1233774823959 0.10766114105964542
36.789879250644525 0.45208062701812396 1092.1334587255515 0.09707281096855505
36.768384230937876 0.4508522564645816 1092.0307257230975 0.09996843198656608
36.785842398628176 0.32567353705932667 1092.589495068652 0.05599612475521793
36.78463580503423 0.3019391714994355 1092.6014610400628 0.053186802704798156
36.79650700794739 0.2399712853633212 1092.5993549788168 0.058223174414353346
36.79080437373967 0.10164930546230752 1092.6075134702903 0.018400441672641384
36.790808476270435 0.12626855968200343 1092.6112151132409 1.4260708097317612e-05
36.789915173063186 0.3038679341714819 1092.6126167582884 0.060194531940053114
36.796864331882375 0.3672361890854974 1092.6088994001605 0.01641118532678315
36.78204501617531 0.3165639861263235 1092.606474355644 0.05632241919912574
36.787427992096994 0.19785756338632496 1092.6118521693845 0.002807334179158734
36.7796242747373 0.23315649399628885 1092.6172904542143 0.05642810103197582
36.776559787828894 0.44032176631631387 1092.246539259897 0.07593712801310593
36.777381389488866 0.4382035297281345 1092.1994493586235 0.1258677549356951
36.78012320819586 0.44017034114925657 1092.2375509218864 0.06517073012396077
36.770384291193146 0.44520871050325644 1092.1626984423274 0.14273407410047942
36.76774584942529 0.45296930709239663 1092.2935005471818 0.12755659265382105
36.79401425713272 0.44668655177055416 1092.217087095694 0.09249157025304575
36.78738834279194 0.4458315612462184 1092.026792929252 0.08397600938435128
36.774520436035026 0.440976085254327 1092.3690900059996 0.14249162198477175
36.777472560581515 0.43800545284715875 1092.4540091679557 0.10810096237060032
36.755263135813394 0.4696365814727076 1092.350663815359 0.014861125826524152
36.78139357838154 0.28119805790062896 1092.5934711078914 0.04851618247998103
36.78380051393937 0.4683119134911965 1092.4397387604192 0.08638191216693947
36.78155712530265 0.46291158796272447 1092.5262422569954 0.08972605507407867
36.78423593341805 0.46746758861196636 1092.4718900746734 0.08062687479343643
36.778389715440255 0.46374899949837206 1092.3968114214874 0.08810211230213869
36.78179864254701 0.46371500100745217 1092.4183027823744 0.10899055918034628
36.767947233840346 0.4599699602567553 1092.5325382183146 0.08582232035624567
36.797307588878596 0.4410788575222097 1092.5552802234197 0.050958183522026586
36.90564276365134 0.42230924232635714 1091.4192048337773 0.09151487866451351
36.88236231430328 0.09176648069066867 1092.544372472665 0.06431433086642767
36.88208824885812 0.08649047840747662 1092.5479379342546 0.06433628955567997
36.8720726594644 0.07040299108755739 1092.553147028495 0.14306410336610098
36.87116559586183 0.041637586170104365 1092.5408400045935 0.03531003928879938
36.8652987001203 0.05454640539703854 1092.5580421137777 0.1272642320363718
36.85858194619642 0.027404536413609393 1092.5517831476384 0.0488261247696689
36.83119751149396 0.0054531669865303355 1092.5413044219995 0.033599266829806906
36.82090844614037 0.009208582327063095 1092.5589684682552 0.07614592994469319
36.81876471186926 0.006782600966758052 1092.5522195859012 0.07396791089687942
36.80377405823032 -0.004754272220064953 1092.5418282025541 0.031795489553344936
36.76877179049247 -0.004090093552240721 1092.5616459114049 0.011679389339681453
36.75570567855827 0.0019646159719939136 1092.5474840032077 0.07168305123380558
36.736279839172255 0.013567513157899702 1092.5332315981714 0.10660841021449267
36.723569451429675 0.013245577503580505 1092.5573518167066 0.05511267266728508
36.72203349869761 0.015890916025047316 1092.538300356675 0.038384937724020934
36.71435589838563 0.028291929697151552 1092.5516314438041 0.13711040304728306
36.705446588273034 0.039220697209668996 1092.5328780763186 0.16150698545070014
36.69000320463814 0.037728901739235945 1092.544849052316 0.02112053712499877
36.68325761586889 0.08675247059905707 1092.5317879012277 0.0125600792648736
36.679993628122055 0.0953897729240045 1092.5403380003409 0.016238241961308443
36.67363853773597 0.13710269028823588 1092.5529705575464 0.0170523732684919
36.69619415936356 0.15754496950825905 1092.5343101529606 0.07908242269458039
36.694152958692804 0.16441424585121486 1092.5418395003485 0.0736013518514599
36.757414563857964 0.20568922082527477 1092.536090149628 0.004431327112901453
36.78672952116575 0.2045636430311767 1092.5374459286627 0.0299359516397435
36.79486966644058 0.2129872784452735 1092.5551015183921 2.3263060036466745e-05
36.79892503573115 0.20251445073744867 1092.5432792754839 0.004736205146841038
36.83386950223994 0.19666156683622793 1092.54843122013 0.005012034045286248
36.83932847275979 0.1836167569852542 1092.5452706686249 0.019711708390314574
36.8649054663328 0.1712644984202536 1092.560676917505 0.08793313188348865
36.870626328996394 0.15972090607685385 1092.5504467640305 0.08717472670217741
36.87808537238773 0.15506311702382425 1092.5388077525602 0.04500657416257852
36.88279909074912 0.12024826309585145 1092.540770651631 0.06515699127714307
36.88402795556776 0.1143807971680603 1092.5309477652418 0.0633785372719318
36.690179577105944 0.15783442472711845 1092.5641267826502 0.0002595621267894676
36.87390101538205 0.13575867275898681 1092.5557029968536 0.0667291755861647
36.88599215783655 0.11187341497082666 1092.5621557793584 0.07233479974412751
36.72136367857064 0.04683846473079848 1092.568084785527 0.004126210726174167
36.68376926196579 0.04561551178280553 1092.5618113043308 0.0973075272623279
36.82555059719544 0.1981152396850239 1092.5549553676492 0.009335004585486922
36.859426786450044 0.1621916369469243 1092.5595245236905 0.11410614026047744
36.86610720962034 0.1267026775617217 1092.568741179418 0.04235233332305116
36.842542648466846 0.018749543179005637 1092.5543870529634 0.04213833807621946
36.86326146286253 0.05155458687745283 1092.5593305065443 0.1216624502899032
36.854162950285385 0.0714818424316875 1092.5631509689522 0.0540352561649502
36.87543443387767 0.09596875865323047 1092.5562926086614 0.08282572307174454
36.78403211009376 0.00042796124140993775 1092.5522621336688 0.07828712436758568
36.75224366038251 0.01576265656550251 1092.5642502011592 0.0581549210086726
36.69763163193533 0.16976684022148708 1092.5388379674453 0.0213286303577089
36.7985350930059 0.13131103872928265 1092.5297633698924 
36.67640430494268 0.1107220049424727 1092.5437693101376 0.014031677903122087
36.721479085317 0.161060204178644 1092.5299549196466 0.002837685237321334
36.75871244283645 0.20227327763652517 1092.534756878489 0.003949977388654333
36.788407391808285 0.11481299840191965 1092.5300494607236 
36.86550458984457 0.10929218660240753 1092.5304500712189 0.13348444426673017
36.71208744889082 0.11293194985483647 1092.5329114619824 0.02173797805168756
36.68311950258088 0.10669846051622094 1092.5354016750816 0.011594877274303136
36.82394298319957 0.09443111984932817 1092.5285802240303 
36.69292795209617 0.11318735168658522 1092.5339109384179 0.011886039758578206
36.72314501837949 0.0340227705949612 1092.5261502470528 0.06114834263293891
36.76041969505168 0.028392409520265574 1092.533976279648 0.08742668205218967
36.794027056176965 0.03589601735365751 1092.5305736739854 0.002960588716987695
36.74042675600176 0.014730614440140698 1092.532775163986 0.13528854181393168
36.76778733960896 -4.604190873625197e-05 1092.5359396409058 0.06244851701990444
36.74032137116349 0.009151124405748267 1092.5410730133494 0.08436991004953048
36.72986882983997 0.055984194286403 1092.5293796116935 0.05181868992911857
36.76387059466014 0.043712987156643034 1092.531448538857 0.0021582256828618428
36.719657249878026 0.08254593901742527 1092.5307918614483 7.072768255401964e-08
36.86096976606642 0.06282142408525836 1092.5386218674341 0.09764514142148853
36.848232773213155 0.0694669625311947 1092.5284651256818 0.13973404072835305
36.69884860354393 0.07687846251813953 1092.5310489387575 0.004389250937678237
36.789438747509564 0.19839600258391032 1092.5321308678438 0.024614144113681766
36.754680195793625 0.18262014406455607 1092.5299924699627 0.0020750836547878465
36.84436088077513 0.17874051937742 1092.528107481589 0.04007335512277033
36.86642055992356 0.1669737211126596 1092.537378698462 0.05912932414223346
36.85712941298497 0.1493109430038816 1092.5303578379 0.05899856377528129
36.8830430431735 0.12595147963189723 1092.530323280552 0.05550061254181047
36.87115600780193 0.12836190709466486 1092.5303217494795 0.09631261937700683
36.828647050015206 0.11880975876399906 1092.5304518758994 9.867762695617572e-08
36.85048925297559 0.03165011415496119 1092.5370971729594 0.04232476775955781
36.85958707073192 0.07189036694396023 1092.5284755510381 0.1337870643186936
36.826887653591044 0.0462200621982992 1092.5277059799648 0.011947154561807656
36.7634943732558 0.09408272739306531 1092.5298479331407 
36.87559632571459 0.06868587897372291 1092.5432056373281 0.13133369175524415
36.87524521118705 0.08731626175274433 1092.532970131103 0.03952002853086838
36.81895403941484 0.014945389805570242 1092.5277548713736 0.04559975952013378
36.78813919358988 0.016724449685516795 1092.5301402284376 0.043898280453709526
36.79469823133655 0.016114511368491773 1092.5340393377476 0.07368970721791862
36.80727823660716 0.4437654958332554 1091.9964235067482 0.14749055269727737
36.7512384426122 0.4489408954345924 1091.9907318109363 0.1389887527012587
36.73919634344611 0.4521284651772883 1091.9954978854657 0.15835545361518005
36.79027259580444 0.4421047136259149 1091.9914107652999 0.1634969272917967
36.81180657245842 0.4403955730588681 1091.9917952014016 0.15732763921853476
36.826309420856845 0.44358548157266314 1091.9823945104458 0.17574570698828895
36.733809446008806 0.4387094710379975 1091.9758420905732 0.1360546796065131
36.8422841578528 0.4304923764003185 1091.9779249304613 0.11933921569004957
36.762459129861945 0.440914373648716 1091.975884163825 0.20376016281506826
36.83491226482051 0.43454874511222297 1091.9742055985384 0.17052578553287823
36.782395891456005 0.4344086772740971 1091.973039428547 0.1921057961093451
36.809915772749775 0.4436773405865907 1091.9710658388922 0.1718626390196011
36.775194471837644 0.4305047697971102 1091.9751223834655 0.05552698052357582
36.738721849124964 0.4340241603786815 1091.9657524905645 0.08106684526237128
36.76433896465838 0.4353759654632662 1091.9583771171967 0.0889202461876179
36.79586190158787 0.43772454980897013 1091.9711188820395 0.16839070086852484
36.81479368394942 0.4429653329088271 1091.9510968101008 0.1559459908908383
36.781278550082305 0.44808703119017435 1091.9491531895912 0.2292592458388914
36.79226167973964 0.46681848049663377 1091.9486828611082 0.10391411550845991
36.76623559276782 0.4700743685324531 1091.9497809014456 0.1522410792296131
36.81503542820168 0.4603085884721031 1091.9480732993695 0.12762693011784215
36.73567110548815 0.4652460643473299 1091.9562878537463 0.08475930576275703
36.738315037062065 0.47060119218511887 1091.9649259037783 0.21362273284288102
36.81920357335691 0.4672380802426737 1091.9571393377473 0.14812644817048487
36.84713472982447 0.46823613128150565 1091.9702380269273 0.14859535696467144
36.77344776446394 0.4672964525543161 1091.9489139784 0.1430428027680521
36.80419771435288 0.4648462586277201 1091.9655197776883 0.16386333413993476
36.78006193638793 0.47329686434312185 1091.965847537861 0.18267647368748996
36.806992060056686 0.4650012362540105 1091.972952863535 0.15988024319380703
36.85255531490938 0.4671154233648823 1091.9760445397408 0.1356579544477644
36.79404873902994 0.4700048302334704 1091.9772145652103 0.1342811643812441
36.77330114628371 0.47133644530903085 1091.974009931069 0.13647767234204178
36.76691588597191 0.47918558279930756 1091.9666829321638 0.13427491331424973
36.823348667441245 0.4671660184022893 1091.9666468421558 0.17235099802080056
36.7333559026035 0.4860363457119923 1091.9846877567156 0.013505480628497879
36.80933930297413 0.4536096366166789 1091.9844415057205 0.19042164929416425
36.75408806745328 0.4703294259713088 1091.9796463370922 0.1374303895218787
36.80429728224569 0.45573891611439643 1091.9842915647957 0.17501321312717957
36.73328203121183 0.4586851711739598 1091.9788543869893 0.1721143683886
36.728842234391436 0.4566646960583614 1091.9631347203588 0.13767519972261363
36.838581843064794 0.4390086738713376 1091.9626190609386 0.18947698380681938
36.855266138054894 0.44902305326717873 1091.9687130452353 0.11288340944579404
36.74013189343602 0.4531056209169332 1091.953781117178 0.18658967390324493
36.6478938713281 0.44479832499753086 1091.4167291891677 0.09167236277230258
36.65386354215992 0.44723802885318 1091.4384725278094 0.06776150800418874
36.64703135049853 0.44069403893178727 1091.427011754885 0.06451848876619708
36.65068670205883 0.42276886584228573 1091.4186562254802 0.07239703963227033
36.87589416600113 0.5252812530455712 1091.3963218266294 0.0879202963141271
36.87418360889262 0.5330224143144962 1091.3982612629868 0.07607572066854282
36.88956738528467 0.512492420176236 1091.4208786222284 0.03695468432284695
36.879915901931504 0.5229319403442291 1091.42565445742 0.022592380012456063
36.88023187700662 0.514866494018109 1091.4394177003956 0.04418217385178087
36.86236206439057 0.5335367349349085 1091.4471235907497 0.05402808750954872
36.72233239363492 0.5204350406399816 1091.391148622788 0.009982010040167803
36.7317741893245 0.5180403715951032 1091.4018119671678 0.011513638945267376
36.732564928934266 0.522040372143216 1091.4432991096555 0.09383365863535525
36.77461022911063 0.42751332178481555 1091.4101164297492 0.015916044715824376
36.7397427127466 0.4312986414117372 1091.4272696071212 0.05000415886474545
36.820684427433505 0.4397067896522304 1091.4147667108286 0.035442559071784896
36.72959845115446 0.4375216202989894 1091.3981952775362 0.015057654130085758
36.85325844002651 0.5397885260643791 1091.4484925441293 0.05807995715277472
36.65468569554593 0.47578680616640134 1091.4049030942224 0.002195080234504091
36.657673390122646 0.4688217714043484 1091.4367474254182 0.06816216270008404
36.65642987352027 0.4695261296914539 1091.4351405627217 0.06777228119904952
36.687512688271276 0.46490523404701023 1091.440465784848 0.019296782092954937
36.70453956073908 0.5401685377090855 1091.4382985720888 0.11725715154906116
36.64788992769307 0.42309984356847813 1091.409764268339 0.10819439946567955
36.68582542840098 0.41986045731086147 1091.4171440751554 0.05815075158974818
36.67415326011639 0.4173381590799811 1091.4165221372596 0.03928309511854546
36.67006053449668 0.4151765734571182 1091.4166149658843 0.04447832624695757
36.65112781507811 0.4618556307375441 1091.422244701118 0.07148380178320422
36.64967832070548 0.4624727697345324 1091.4052976577034 0.008244753556118638
36.83980579901512 0.5307882110159194 1091.4026999912357 0.06184051285818327
36.83896597608911 0.5287785556374874 1091.388493963296 0.02991012095355563
36.85148382481363 0.5312734777598216 1091.3882042145651 0.04031986161748201
36.875335173816374 0.5291891827037098 1091.4176454078545 0.07171901728432949
36.88439234347005 0.5303651233303945 1091.409172375123 0.05204568956549164
36.83308190568975 0.5291194698451901 1091.4414706871044 0.1507770427725084
36.81847812114638 0.5318644154603264 1091.426061474395 0.06320590643082755
36.82557528230019 0.5175841683687084 1091.393822285908 0.007471406712926604
36.83252809640589 0.5238960014319511 1091.3973357596008 0.007824466627424313
36.74105106240234 0.44921635665280346 1091.4452136719995 0.05658541616050908
36.71462406757162 0.4443883288546534 1091.4441888410379 0.08532649803031653
36.754595823986214 0.44877031432217035 1091.4382897321875 0.08035870248024861
36.709874284323696 0.4331666512462196 1091.4302122527586 0.0945482606192071
36.84503029011834 0.4320270907743236 1091.4290207732568 0.11703237040261666
36.772016436732976 0.4263779757516169 1091.419147430863 0.038366314747290894
36.84427902529344 0.43312866481300355 1091.426042060238 0.09538028482643666
36.802012783461294 0.43115991439651014 1091.4117381124017 0.0281203834880726
36.7506176586846 0.4364125970613062 1091.425630063542 0.08832388762107646
36.77146162767863 0.4367507789205163 1091.4267657375426 0.04796186131650209
36.705717410134035 0.5038382431339853 1091.4438280556074 0.024161954753995452
36.88313207040599 0.5084128634686675 1091.4142253887703 0.031061237001328637
36.67747103154037 0.5345391541783916 1091.4029297004588 0.07648911583451785
36.671384092554426 0.5338367860250952 1091.4313630180784 0.003982538606442735
36.73510136996667 0.5303960796913068 1091.4177205893616 0.01328310970636697
36.716491218177595 0.5274076456994141 1091.40595445424 0.027377856768094375
36.86165923785377 0.4609981056072481 1091.4444021988784 0.050920799387296045
36.862914664863986 0.49479719775392317 1091.4494484910783 0.002775051040112893
36.72339932807857 0.5107623487707071 1091.4559066912266 0.013859977452230603
36.69551089755578 0.5305502905998866 1091.4447490496163 0.05179419818928221
36.68792676057142 0.5257942311119802 1091.442833214782 0.08283221832448477
36.685536022426945 0.5280951415163525 1091.392062605778 0.023487060890200348
36.701983177771474 0.5357321419763988 1091.3988413871823 0.021815283151051204
36.69600382590019 0.5459322444164665 1091.415491251022 0.050292680407414296
36.691543704247195 0.44395869541972 1091.4399111775394 0.025245833176361334
36.670765873805195 0.41970523555849737 1091.4210146479297 0.031764109117215396
36.77974521862132 0.48633894256071275 1091.4092444334467 
36.769397913522674 0.4912721063733074 1091.4331148751162 0.026385779404060904
36.7940138838779 0.4786155516114802 1091.4456015606504 0.0768186151637735
36.678546267860185 0.5094646451530424 1091.4427232271166 0.005719073823436191
36.7103918619818 0.5462849158659383 1091.426847030022 0.0746726158895593
36.84476749180002 0.5145809917837728 1091.445074156497 0.07694908865545194
36.766255996127136 0.4393486538803915 1091.397099363434 0.053110796080393846
36.71027937045677 0.44662210739600505 1091.39631395701 0.004638619620486909
36.67754638275079 0.4499952106766684 1091.4415459953395 0.042748163573677694
36.80691943593185 0.4560498591838404 1091.448499984708 0.13581157429244006
36.852989011555806 0.5464405834634047 1091.426069259629 0.08984721304057378
36.71160561359987 0.5413716318705049 1091.444349053356 0.07225260381475214
36.86675437493017 0.5416339569850267 1091.4121382027472 0.053582749723570605
36.75220363845427 0.4691626027735449 1091.4424527545564 0.12273539543724357
36.83695147302021 0.4455201542611518 1091.4485538592899 0.1493175509577108
36.807526486640725 0.43455601134758 1091.4269680245256 0.022664529328176756
36.733749459753746 0.42809768424733363 1091.4280698621583 0.04880244614457523
36.78560745939743 0.43086277347915675 1091.4285015320568 0.04483300496382828
36.69303660094373 0.42722064384452396 1091.4311419019639 0.062071172887739896
36.832932632655975 0.45456369996697654 1091.4446868760936 0.10729006463771386
36.66404861323719 0.4396278195866457 1091.440267373511 0.032137737135928324
36.74256924108123 0.4307396517090042 1091.4112424445334 0.06166794693485527
36.831070001992096 0.43337295453497365 1091.4057388988617 0.031049001980602633
36.71685511253219 0.4417037496135733 1091.4078062819258 0.06612593339615633
36.749037357764166 0.43744306072995004 1091.403609609653 0.0578249373337216
36.83735831403716 0.5500538947924376 1091.4279665311633 0.037431959162350925
36.773173079467945 0.43690363182978237 1091.3772788495476 0.07299872655751476
36.775886790410716 0.46257687662830943 1091.3734594543218 0.01642721090166856
36.77602451174318 0.44765188438363357 1091.6927381951882 0.08668591161098851
36.774144406574266 0.4479659181448375 1091.5651379775422 0.09009857617988604
36.77911272826455 0.4466318457553577 1091.7282604328896 0.08957797133335246
36.77110690538112 0.44485994949623187 1091.9156048849507 0.03902025673021173
36.77569166745008 0.44042557570141116 1091.7636731306363 0.08406161803255471
36.77931523773529 0.44743803549058486 1091.6617263579533 0.07411761634770518
36.77732984821648 0.433345642921402 1091.7738149490579 0.07220917859086677
36.775822123265755 0.4432073266719534 1091.8419276048069 0.07524302689824795
36.77974865630036 0.4427292023625493 1091.7021880316952 0.08563611538435441
36.771812089902625 0.45486029370018954 1091.647544307256 0.0860004168689011
36.78029873976211 0.435568102100584 1091.811870243251 0.07701156686688944
36.76095651392279 0.45309031406985684 1091.7081959585023 0.049986464334763156
36.77576769844578 0.4438746675807937 1091.5569687295056 0.0696991773359529
36.78527786283648 0.4395458231491759 1091.4650800955926 0.12856486313259213
36.78029870709789 0.4447203334305071 1091.570333234883 0.08653238123299606
36.78870912917443 0.44141074481266096 1091.4484701418876 0.1653893543875708
36.78761515054937 0.4499020470315532 1091.8547483348414 0.06654748240557234
36.797202686827376 0.44913355800749005 1091.5423985475688 0.09198022987581547
36.79220914063802 0.4559785724386768 1091.6614175590487 0.06419212191182039
36.796424715173046 0.4490595918540141 1091.780881021948 0.08267752698013359
36.79826563201767 0.44879310992651467 1091.497497279646 0.0858912367014485
36.78608921040916 0.4527249210543916 1091.6654516074243 0.07665268956801968
36.77856286462297 0.4491526129547161 1091.6484606124711 0.08875143296779137
36.789595556279096 0.4439562114551668 1091.593303743597 0.060606881013841235
36.78806391696025 0.4582564651836481 1091.7568538018538 0.07865616832134424
36.793274726838725 0.44387334349895463 1091.5340268586237 0.06405402326164028
36.783926719619 0.4502637607698537 1091.9375672074734 0.17994979574069714
36.77721152964275 0.44417058577914525 1091.7171600418685 0.10188928219697417
36.787360766062065 0.4429807410860636 1091.8658860237906 0.06064785986554038
36.77872438062243 0.44574347925835184 1091.90837940613 0.051725307557153696
36.784440457876194 0.4495841975433971 1091.8934825911722 0.059143527938044504
36.78488252903738 0.44341112415940687 1091.8214544979226 0.06364587383931664
36.79004063029851 0.45833545818853266 1091.7169574426616 0.07648433775327063
36.79051249226638 0.4470310092732607 1091.566272124969 0.07767243014708348
36.796431447544975 0.4511427754912685 1091.5814564797472 0.07245995895605777
36.79357384617658 0.46076380925983595 1091.4996891336743 0.09915217608530352
36.789287858951866 0.4606127066825636 1091.7648137767837 0.08423610904024947
36.80080277294693 0.4582966033397103 1091.6312135640114 0.05361532126648983
36.78983569177706 0.45163165127161314 1091.7367753086173 0.08456064768738301
36.781619714749354 0.4469378981968597 1091.475651569661 0.12567388107263508
36.791350920869434 0.4641090748626405 1091.5134139016789 0.088320078239134
36.78804643346165 0.44832979886931146 1091.5218423846907 0.08364195470276807
36.78039826230652 0.4540152795625973 1091.7835447554985 0.09081978779885727
36.78120741564572 0.4613718070154523 1091.92981756868 0.06378212038382416
36.777205808059094 0.4607010168585407 1091.6753317712937 0.08882873798575625
36.78863220086098 0.4545140124944436 1091.8141255524463 0.07372428766903596
36.779822667516065 0.4624096700925411 1091.8965114837895 0.056740637969879694
36.78064888149445 0.45914436384943186 1091.7753281716232 0.09948705856884102
36.7860713662092 0.4602512374058398 1091.8241193294107 0.07431689950499541
36.78724351002116 0.4598839319068057 1091.8564149441067 0.05971642698580584
36.791962297967615 0.45312139058313694 1091.9079103374875 0.08027784498206388
36.7903899935025 0.4632423676935393 1091.6037972840747 0.07018774565725118
36.77113753247409 0.45914512231205723 1091.7253433310677 0.08635554530876548
36.78522462596616 0.45654651678502406 1091.8478949401772 0.09882298580575316
36.795070256203026 0.45494472966052224 1091.8676293511944 0.07838082993148285
36.78996224801791 0.46398791496546277 1091.6750158040452 0.09129224735007023
36.79085848132411 0.4573907610873417 1091.6458873811582 0.06798398265460769
36.77880747849182 0.46240095650136237 1091.453420675339 0.22805622713606746
36.77588323135662 0.46037323630865556 1091.8436638020385 0.0808469203239078
36.78295053030481 0.4660239848229334 1091.5178026353933 0.0833792247724567
36.778992914026304 0.4555716290214854 1091.8886789886278 0.06339927023502391
36.776135891260026 0.4540654141904859 1091.767688985048 0.10485639244570497
36.77988981885265 0.46285761484224425 1091.8763098563488 0.061347980715816194
36.77411723258249 0.4614406640984286 1091.8258271274608 0.06760790770040305
36.76926496441787 0.4605560439614344 1091.477068494583 0.07431139927727379
36.77435991566442 0.46016530327445354 1091.6207409687238 0.08790756031587127
36.775392345765916 0.46438822046755296 1091.6972134670925 0.07483175944209398
36.776963640359334 0.46857515495290825 1091.6018954337555 0.057792403195605
36.77663336027126 0.46889183595476264 1091.6532868565707 0.045635372335938916
36.76832807124834 0.47018608780368804 1091.4604537335379 0.18732907008967636
36.77014043741504 0.4617086436289723 1091.5839184178485 0.09506282045772048
36.767605330749916 0.45918483212118566 1091.5526080356622 0.09240995362806695
36.76166780536558 0.4615473568454595 1091.6137578624305 0.07317033184700719
36.78089957166836 0.46517965907368103 1091.4880317521297 0.09572157327781709
36.769172842507466 0.4605244346696767 1091.588008036283 0.08760725481783019
36.767772011675376 0.44932673891028396 1091.667031864874 0.08702584861733559
36.76764219535595 0.4426285913875531 1091.5231621699181 0.08359608377917911
36.77051250727005 0.4581440172788865 1091.6507097240924 0.08607269851112571
36.765364239638785 0.45638579667736273 1091.837021924001 0.08810714484518775
36.77053891531145 0.4540857364414206 1091.894420536726 0.059605231274491396
36.77140606442268 0.4622171339170349 1091.8857893978773 0.08210228708660071
36.76957081891786 0.456456279172882 1091.4715196423683 0.08896986627379083
36.76589153615618 0.4592349641945038 1091.5671357957126 0.13269103880782235
36.771883185120494 0.45517831469987813 1091.69210865679 0.0933656475554324
36.770729522629296 0.4534404548913935 1091.6234541234269 0.0933017477630348
36.76989084107995 0.4503959972707148 1091.7958377961622 0.1094618817347223
36.762591536367566 0.4611914713314859 1091.7522610698504 0.0647176210252831
36.77560456737803 0.45052076371768657 1091.5071256170202 0.08507136263155265
36.769509022907435 0.4530490700085451 1091.8645333935153 0.0645570216605596
36.77271579025326 0.45610829378115475 1091.7885594752267 0.10104383228800784
36.77823522265459 0.4443154697832397 1091.607958318067 0.07653862232854815
36.770365213748484 0.45038673902445414 1091.4576155460327 0.19585717696545626
36.77199169005613 0.4499458113706596 1091.8079516000957 0.09333515145657124
36.775162666775664 0.4491250694965477 1091.6761013432128 0.07316303750938508
36.76545247822869 0.4558505579644033 1091.5765835250966 0.11079892002098989
36.78176699776292 0.45629749670767317 1091.5483989935353 0.09719822466180263
36.77507323047204 0.4486444347608767 1091.4848405079465 0.10219024967352089
36.773280985074464 0.44253472402316885 1091.8559032314672 0.05850010158237182
36.76468578366708 0.44759878409300374 1091.7887000295377 0.10769236684737979
36.7734673754165 0.4392019127545627 1091.511494808678 0.09426678246930864
36.76605656189119 0.44747160655563906 1091.5245135734135 0.10247071661311435
36.77880694551991 0.44733430384667494 1091.4492285853203 0.15836683441571942
36.780386345199645 0.44655247699463 1091.619970815807 0.09578196122704306
36.776701339936196 0.4421923409814055 1091.4692088022505 0.10116529856055967
36.790829227529755 0.4402702591275549 1091.6271374886542 0.06320893949187262
36.787449939169484 0.44672707354660557 1091.7103941539324 0.09132734202156638
36.77674383671029 0.44990134689755845 1091.7324051995945 0.08567433069297554
36.793476949964074 0.4478492480777818 1091.8730785343741 0.057156023634497295
36.7886058779549 0.4539941526525818 1091.622955916003 0.09332598044704442
36.78485571708932 0.44914228590504157 1091.923766486129 0.06880566242723339
36.786053223745235 0.4506103288264977 1091.7492075873004 0.08552523823354176
36.79187312669971 0.4473929582136316 1091.894082656313 0.05373903494216535
36.7823543471145 0.44878073835786425 1091.7946429840558 0.09557885771701123
36.79152810056083 0.468917879855501 1091.5574171879039 0.0631761783169699
36.784275923344204 0.45866465519786476 1091.7563882273873 0.07965644253044477
36.789037953187325 0.45667529684598673 1091.5407547675388 0.09150463692153085
36.78550960144312 0.4637274785127079 1091.6392448370798 0.07334550758761929
36.796455079332915 0.45933812311630917 1091.50163615499 0.09819496948857
36.77604569337539 0.46231247277175 1091.5688473659402 0.10180943549811128
36.7915857175871 0.44764209045973663 1091.8058187717986 0.10334124426639076
36.77138409003412 0.4589657696586205 1091.9276606164988 0.08640597800829809
36.776117011607376 0.4752710602251137 1091.7080286312337 0.09297547816879392
36.773495093894695 0.46371226596328097 1091.9140838470782 0.05931512079078667
36.7741626282477 0.4636132989314865 1091.7837140958798 0.08915617863352501
36.779798041199754 0.46259246901075873 1091.7340698377304 0.0960464499476773
36.88196544901215 0.43646437930770215 1092.1415677558753 0.07345477217462103
36.86127175698916 0.4514618332313683 1092.1448995710675 0.1125864424400729
36.820394023715316 0.44215195001437535 1092.1211716852486 0.1134062303787178
36.807054396067535 0.4236961557381377 1092.2005372007286 0.2228664015902366
36.84940435097043 0.43280784692428437 1092.139904328654 0.12899907642482508
36.847309245741684 0.43795187572764716 1092.1247037042262 0.12344702451731761
36.7976419134027 0.4356288483916514 1092.1308465674967 0.0892758712933062
36.82503735885062 0.4381858733238331 1092.1297631488396 0.11143464029815738
36.85625871321252 0.41866104054166053 1092.211111532651 0.18567047709409806
36.828918526290344 0.4109059532415118 1092.1982214150069 0.15414762173204524
36.8036194559709 0.4351440191622268 1092.1477159578205 0.12477340809989365
36.810352154371316 0.4297657095396342 1092.1477402259204 0.16250826325894752
36.808348086827834 0.4301334095064797 1092.157284577589 0.1689421348948773
36.86626091216894 0.4284453170164842 1092.1556646191648 0.18945654791186972
36.83908315557859 0.4092618440982163 1092.1976968341914 0.15172736933013575
36.826213354912525 0.4137411550949956 1092.1767377613485 0.1373041821170715
36.841415181564514 0.41505504406686344 1092.1752267091294 0.18654357882608122
36.842443991487535 0.43120270681426814 1092.1542464865322 0.16267555894626598
36.82952748737496 0.4372104950036973 1092.1558760403473 0.15178545465612184
36.804697087724115 0.4246205222829554 1092.1671867219854 0.16846088886035582
36.87464874510222 0.41083986706059206 1092.1820463006782 0.14930894789844987
36.866879305758665 0.414853834365554 1092.1796985932292 0.20207547680948346
36.84254446173336 0.4359287037539352 1092.197794520155 0.13527368987922045
36.83727223698986 0.44054958227391255 1092.1916504352948 0.12254397924934977
36.84397410582941 0.4469912234948496 1092.1571978070185 0.13591538501605335
36.81878963466417 0.4395521581074434 1092.1900045234818 0.20199032162500408
36.81158385877418 0.4455927901330764 1092.1483436361266 0.14171653436437057
36.85934171148399 0.4358884938111015 1092.199549088438 0.17514195145146536
36.78886045195662 0.4249405619658385 1092.184458174789 0.14856961342690914
36.8460182308844 0.45548870991792606 1092.0279482846622 0.18829156804469435
36.85169185987971 0.4580175207505983 1092.0561642730163 0.13426339819372415
36.844836618238574 0.45599085613720897 1092.0837206924575 0.0972797248308968
36.83478807476943 0.46056086152573766 1092.0557105922258 0.13599727592802285
36.8337432580828 0.4568416851289443 1092.0470066817554 0.14000170191198358
36.827139664700304 0.47245245129232305 1092.0217288812207 0.17553458703037347
36.84557343733764 0.46316215365288427 1091.9939520329333 0.20082562707529586
36.84302637286257 0.4670788879161216 1092.0053006986047 0.15454914938059733
36.83075182006917 0.4665228090964978 1091.9926562520025 0.1590992493255712
36.8257431122299 0.45771015943198895 1092.009212722389 0.156937418261456
36.81801184217298 0.444057567382288 1092.0547523748307 0.10693099275275918
36.83638423234633 0.43663670170575125 1092.039631765644 0.1505584542494334
36.83266823881083 0.4318625754795856 1092.037184857294 0.1283822438883262
36.853076192908674 0.4546112205947183 1092.0551200549376 0.13419465551159174
36.846897711847376 0.45547038357406366 1092.076842038719 0.0946813750999834
36.81947537787593 0.44879807551345025 1092.087143158598 0.07668833700751429
36.850351018129274 0.43933579486927515 1092.1183972165854 0.13134561508706374
36.808691760399626 0.4260603873402227 1092.2133611181819 0.1285538211958478
36.88228925013121 0.4291422367932357 1092.1730006262687 0.06821827397281131
36.88543166540633 0.43652862085284283 1092.1545324251802 0.11302970330581957
36.87462039046662 0.4332001551169139 1092.1929824507229 0.11325803645638884
36.85654870791572 0.43108418638908663 1092.2132964389255 0.12980699246813965
36.87981866745704 0.4169155717671913 1092.2030579046334 0.045855650953996525
36.79023933086724 0.42268252175096305 1092.2041946938116 0.11792703779787353
36.81627338422723 0.42017495118865716 1092.2052756564176 0.1513653889382864
36.782987710784155 0.4275268106618278 1092.163329793603 0.14749266385836268
36.79072821132642 0.43196478717985654 1092.134622887412 0.09444671415092712
36.86057646558591 0.45775008215039137 1092.160467595554 0.08929734239729516
36.847250708395784 0.455169115083718 1092.1403666908145 0.10952812931863591
36.82968779111621 0.45727953499303736 1092.1536778419604 0.10435636504236978
36.82134672799295 0.457153348415941 1092.1681634225752 0.10821833487996901
36.82287912163657 0.4534994778767892 1092.1410844410018 0.11739536548287215
36.824216361378284 0.46363209091282065 1092.115214566323 0.09986879145590569
36.810464407053736 0.43879071671618797 1092.203287958409 0.20289136074507486
36.81005033466989 0.44026835043368556 1092.1963393117417 0.19521883733901438
36.85688778583335 0.44433328457992777 1092.190612237662 0.13831121356937864
36.845364058491334 0.421038164317384 1092.219048466278 0.09438011820495411
36.85930621611275 0.43167556349015207 1092.2067100119996 0.18950494030734788
36.856059920273786 0.44968113350184635 1092.1752946380705 0.12770216551278196
36.8643656505996 0.4498947129658096 1092.170052457529 0.11064997318664954
36.846781323256934 0.45304246998201586 1092.1712984004603 0.12791270623995638
36.806895139486585 0.4505092593822138 1092.1579639681122 0.13571572130501516
36.84468487978703 0.46462707425083055 1092.0986612370905 0.1526593838405428
36.810361532504125 0.446272181276958 1092.1171525813354 0.09704993812031718
36.838794754128706 0.46366501390057857 1092.1137586231487 0.13290799380839974
36.82367532509834 0.4646008733286589 1092.1022497944448 0.10138347922238958
36.8143424030455 0.45833007096685513 1092.0402668210124 0.12325245459243375
36.81793521077678 0.4663000065087543 1092.0866181994236 0.07920475783286236
36.825932827979074 0.4439291966699876 1092.0815973508243 0.0726003916773923
36.82076271715509 0.4407395537619569 1092.0359242468207 0.14720730051448078
36.83425789927551 0.43733670576413797 1092.1007216343803 0.15020611873987172
36.832840839075644 0.44385733787989057 1092.0763976136852 0.09094918139798676
36.84551463967164 0.44072886967281427 1092.0447178243992 0.10779062468576252
36.84289348030596 0.4500893900905228 1092.1019353270697 0.1376688222725407
36.84637127095368 0.44459875300124907 1092.0315640091023 0.18997446679287236
36.846437906410415 0.43934424904252234 1092.0111501814463 0.15595938082407362
