x y z curv
0.19071858415878282 0.5206836678721553 1.539262475897246 0.17322071348276516
0.21588209305109368 0.5215894854890234 1.1758013061672077 0.15191729002424234
0.15395855433116354 0.5289566923639686 1.5592437696273522 0.06709396470510694
0.20266596952565508 0.5217220862404385 1.0910106792399565 0.16646033420323275
0.17393680595567015 0.5208284864178829 1.394797619730273 0.0593766964527803
0.21148959619868699 0.5152743707102481 0.8306899895845367 0.027476599279786414
0.18315170212169699 0.5170432984893993 1.305393302707309 0.15258037839667488
0.20524048483982132 0.5184423538617905 1.435269524708241 0.10483580376229851
0.18557628963909623 0.515007014538546 1.522691328490645 0.11188867245833532
0.19983016988248678 0.5163003868757946 1.3635386834707908 0.06515990603839768
0.21646534074745594 0.5240697503362706 1.2107166949766457 0.17210172374559404
0.18993310050634518 0.5220237425394119 1.137266609283458 0.13774412568444275
0.15908490388002053 0.5287371744679404 1.4948517888878392 0.09635179628496365
0.16455361793796452 0.5221704274103078 1.1568344594611661 0.2036254311113272
0.15260854278167743 0.5267040409041565 1.183261278159707 0.15525591523771812
0.1776677065447804 0.520361701775998 0.7202947692780707 0.13621577950024036
0.16799810234960874 0.5236782133656731 1.0733462595395036 0.16561973332323301
0.16655494058294676 0.5223565200633231 1.0839867680111466 0.1661208487839299
0.16084105182126104 0.5235371374069572 1.3283837163815937 0.16701870201342509
0.1575368573204007 0.5202875798365708 1.0477584459680678 0.11706919418095599
0.15351792778450193 0.5206337125978721 1.392314940680118 0.12753777033901628
0.18904257795512705 0.5222127970605016 0.9743939232498712 0.12352774082388329
0.1609406690425923 0.5240228956096716 0.9796011757085356 0.13772155879780765
0.16107030652200074 0.5213224929960679 0.928078851934329 0.10495263713597561
0.15456196285983975 0.5295846836337873 1.3478329697631697 0.10083621813605739
0.1578005846732516 0.5228794731991927 1.3629671612651437 0.08890278850998135
0.16744301870473852 0.5196651464696249 1.2521368057617437 0.1660197732866748
0.15237166367774943 0.5218080119115518 1.5157065642333272 0.15839586136119735
0.15916343289911974 0.5284831666065808 1.4560498816907061 0.0933364048397844
0.16126606139912442 0.5198723432802579 1.293841422728366 0.1934179024778565
0.1576014861505103 0.5338869553829344 1.1175981767278318 0.19819672486690368
0.1535149948025468 0.5262089485092643 0.8275234985693688 0.05089228078894361
0.16592699725074117 0.5206524360614561 0.8813405089572199 0.10016728525351412
0.16209583541545444 0.5169212133855158 0.9441393894897105 0.03942938480834886
0.15841710695818578 0.5213895976068141 0.6756452872673272 0.09759862299727705
0.16589124476328115 0.5293911960118934 1.2796046435586101 0.15250784180047558
0.17066588056419188 0.5170901845273127 0.7880625950681289 0.07898986419222494
0.15585232449753272 0.5265549493677146 1.0590326191728816 0.10480748623012814
0.15947213493891757 0.5206727749439295 0.8608191786210534 0.09546495596196655
0.16153206274542237 0.5172827976600524 1.2779483011411623 0.1385948238492449
0.16091461817383448 0.5261691463070478 0.9042864221390737 0.11254164002339075
0.15481444725187052 0.528627732038546 1.0184266777793476 0.11284519681912641
0.16900023012823545 0.5226694621694039 0.7491058601252514 0.16063703985609618
0.15545536093848372 0.5282441082255903 1.1605151477366629 0.2198261552900921
0.16330145109561248 0.5191936081855286 0.8251939744891054 0.12449760374166986
0.16974784542296875 0.5210841961204649 0.714650690592676 0.165138108112816
0.16020651700213354 0.5175425747137692 1.4401658534613646 0.11879903930347363
0.16276289335638391 0.520871897907484 0.8661048816261261 0.10787996054774432
0.15695710840847654 0.5352271745790735 1.076795302205391 0.11454309832096485
0.21435852692489143 0.5307650281087591 0.8442620046567001 0.12078535656823623
0.20967753630912034 0.523183627666881 0.8210923436320376 0.1207364703820265
0.2235593185275089 0.5287605888485196 1.5094436450366857 0.06139290101204282
0.2124361075987393 0.5345499947554126 1.3751141981689685 0.10800208851984408
0.21511043093127913 0.5263067747219442 1.1924383914502747 0.21010457971188873
0.2258756185875007 0.5277973562774575 1.3102288897390153 0.12781137433794837
0.14848125040518423 0.5241062192534933 1.3069725496385185 0.09850062488339133
0.14889501427112964 0.5330996524048088 1.4924007810002207 0.09936940562587789
0.1525169039081257 0.5288509745705362 0.7590600007493932 0.11842185815802314
0.15416783176770485 0.5212876642688153 1.3931727772951927 0.11407868548929494
0.15164916149039578 0.530115467889585 1.0933757223170741 0.10057126217828659
0.14720946525205966 0.5244817683217704 1.052479416956585 0.1263101258298961
0.15246777223127525 0.5251827414921123 0.5986640414274951 0.14349071531883037
0.15602233439051702 0.5327050190591702 0.9466286008929324 0.10945431571090322
0.15039136014076662 0.5243687163368509 0.6636312747664317 0.06435943821688699
0.1674092167057931 0.5267014528259079 1.0986418933420856 0.17378830599413148
0.14755115236399746 0.5405080826377172 1.3174099546123634 0.07618274711192327
0.20752463375516014 0.5414544238644575 1.5449933063868286 0.1455796782175433
0.15028615774665363 0.5284157287492907 1.254805565404571 0.062363404321414004
0.2078159123229651 0.5259388281020823 1.2935540836769757 0.17280105636767457
0.2133991113808759 0.5264723106872646 1.3294253721493743 0.15729938006430516
0.20471106111601511 0.5209240406338839 1.4528477217458518 0.17968320881792932
0.213904764430356 0.539252108520359 1.4702426039914591 0.16385000604550395
0.2184602995972687 0.5380610347258477 0.8676657060486014 0.1300945694612448
0.23609276163623977 0.5106248387364632 0.7526194785472196 0.10651235302800147
0.1580711427162177 0.5536904693288751 1.1540302308121269 0.08912023677456697
0.1833177979333259 0.5527405454430103 0.8651653789773404 0.08056517593005613
0.2028529520364109 0.5545407122449308 0.7594867897021871 0.0071112833421362
0.16712006776832777 0.546399010658781 0.8676918532967638 0.13807445760762888
0.1753221966275124 0.549754522556182 1.0402092164313965 0.07571489564723967
0.17724520153838144 0.5528058324299102 0.7439197111414163 0.06342058226121648
0.1741529103985383 0.547752178474444 0.6643480749530416 0.08393199478299117
0.17541762073462203 0.5563981293997701 0.9069420038198477 0.07885261744586887
0.1816856263428286 0.5565091435509105 0.6191721016385828 0.04886163090377403
0.15687102151793794 0.54946142457329 0.6591152995566354 0.09359946431738997
0.20031199436467872 0.5507309344454242 0.7331062942541384 0.05957920268967079
0.16980231980399843 0.5538404594166559 0.7390230138847046 0.10238632588862646
0.15169301910798874 0.5467654547225642 1.0338353778400655 0.09856707652722356
0.1739140286556885 0.5518005445524469 0.730333501034014 0.10253067535614754
0.17848357493884875 0.5594457923681755 0.9936893644616189 0.0439146110698407
0.1762249441136235 0.5543258101245016 0.8962483439310466 0.08906537384302997
0.1586060558751834 0.5567707260481248 0.6347271914088526 0.07195115412776773
0.14815601183204474 0.5536215863478829 1.3001461925901825 0.07218307193152097
0.1868602989764329 0.5432559129517126 0.6966237058629916 0.062477010282999436
0.15500562410454977 0.5468041491887076 0.9026558160203718 0.12415524101927013
0.20523232504337313 0.5560946416397972 0.7202678115279989 0.013568174010286798
0.17851634865710558 0.5477584193685968 0.873769371066674 0.10053665208520876
0.16107260192837475 0.5572564154563895 1.1744392064417701 0.08753745106772204
0.19384020539667765 0.5515367351682628 0.6763203640506952 0.020340016340083623
0.17714211994496967 0.5514253951838104 0.9128911421775313 0.09522445110569566
0.17194165137625805 0.5477407902634601 0.8861562697938619 0.12162708601184308
0.15342805636951667 0.5504365730791859 0.9591390519622842 0.09967092072919602
0.16926554419376963 0.549825728561871 0.9309014069422968 0.08318835073010238
0.20840381878278424 0.5505417765747095 0.6892688827689943 0.011353061806265273
0.16937706764040492 0.5539024074786194 0.6025911815523912 0.056009189544605015
0.20239196665217227 0.5541319455881408 0.7837906531161585 0.03841502569080543
0.15575316716778315 0.5426116278917171 0.776159989777947 0.15320159777643721
0.16721270212076644 0.5513057461072465 1.0457998981202228 0.08175647733684895
0.17705237429292012 0.5549926679006351 1.129224440468922 0.12128209915942334
0.184003366508795 0.5588059638134694 0.9603121903753729 0.09193101623235281
0.1557120289631129 0.5478226549674367 0.6822730651502596 0.10107979154039133
0.15511338414006906 0.5479149419251268 0.7282477975394154 0.1758920042408415
0.15988127835643864 0.5541198026481686 1.3979984779811676 0.12134227567901082
0.18372257198180067 0.5516348407894588 0.9361771117956222 0.11034237583312417
0.1760296665729791 0.5444857457051663 1.0092520218084513 0.09075844382900171
0.20634943039670225 0.5533555527604095 0.5926407831294247 0.022096734702914598
0.15888920962298062 0.5534792830841365 1.3407295278837992 0.11339297983239381
0.1742696776407975 0.554247629393311 1.0759579622098632 0.07692992175870302
0.19764788270796496 0.5478623814984087 0.7011900142188113 0.06649085868055933
0.17153547760632093 0.5511817453216282 1.0717717749588636 0.08143420217238272
0.1854841726498509 0.5575188671534849 0.9576211822009068 0.12857585564479043
0.19923047579487724 0.5544779713087593 0.617383319180163 0.031933768027352025
0.19283983017751768 0.5516696559114667 0.8443991342723935 0.056515398856097736
0.19879116236014635 0.5532639503507463 0.7484601856671945 0.00781355414301342
0.15514028158224655 0.5518519972580721 0.5803364807408782 0.0680001610732192
0.2061697570064808 0.5615959185321227 0.6069031488803847 0.02126520798684082
0.16300894741666644 0.547155304487314 1.227791042473393 0.1650478000404105
0.1696871097545261 0.550753485500799 1.1141438624569011 0.07953257729402184
0.18588903184820896 0.5509812962128389 0.7819415079771114 0.07035629923883081
0.16948231357729687 0.5489260557748799 1.1841683708858586 0.1340979742849767
0.18034313831753324 0.5531062281198914 1.030677959020819 0.08101846771594673
0.15301099912233615 0.5448156362633992 1.4166052675984884 0.11165193587005183
0.15537428230750258 0.5565757888366923 0.8400561164224875 0.06528044167277448
0.17921599576930294 0.5499416244616729 0.6800119297559577 0.06250613892949146
0.1853846038030255 0.5563991080893523 0.9859503839227908 0.13402788581083447
0.1794255495068855 0.5520307867111556 0.6277228484712345 0.06618077887180557
0.16966629831849214 0.5591616007250897 1.2136079568040068 0.05858777162052928
0.17886111017245263 0.5505113488094219 0.7825579098035876 0.07344616561168972
0.159714937402122 0.5530580889193534 1.2567263955650647 0.0857868877572932
0.15627199956353904 0.5434303349145592 1.4599977773820236 0.10025645134365058
0.17840854599678135 0.548843484113241 1.051893993359741 0.07970285648766147
0.18634391054557453 0.557507787550547 0.8075784171975008 0.013513157887898572
0.18341546026532643 0.5505820803882344 1.065794955870696 0.07268248727800933
0.16772122272622478 0.5555227944873795 0.7094694686249742 0.10482612744753901
0.15642845685086734 0.5635723065350259 1.3826691795579127 0.03667342058977312
0.18871009092674568 0.5478917851034925 0.8198773262437132 0.10394375551676892
0.19054287182056304 0.5499398396939211 0.7155574292334247 0.08518891070374651
0.19150269217578209 0.5557821870001795 0.8404648875924532 0.055784193058919476
0.175185176303469 0.5516175486087663 1.1578841210556228 0.15114081096775142
0.1693004024876054 0.552083153333745 0.622835268195529 0.0861107177749802
0.18309081366265179 0.547552662702763 0.6600848027602139 0.0634851374190888
0.1886854614166689 0.5496723559700039 0.833188108765546 0.08535321263446585
0.1834463109223967 0.5494216509686218 0.6566122984672793 0.027504911650473772
0.1617339194506107 0.5548877190618255 1.1004071862517093 0.09852098991888604
0.19879068465214175 0.5514031647126019 0.7207035215648704 0.06579870617030975
0.16253140741679237 0.5476682672637587 0.7177431913803888 0.11358564590245261
0.1756837036446078 0.5498917548673263 1.2467032052399512 0.10679342066622664
0.1999874438174965 0.5474721396845748 0.6525820887820803 0.01897498604179406
0.16709853497826677 0.5504768327656403 1.1815739031821135 0.12153455445224373
0.15646360349500546 0.5332063115764499 0.8718362317603606 0.13210509637961237
0.14762783577077396 0.54727792151125 0.9922575114934442 0.11604491496779785
0.18605298560497344 0.5545304631963413 0.7672987476902282 0.010081718961594469
0.1919233395208041 0.5503895777573049 0.7880359879631627 0.07787378062617573
0.1955991567423714 0.5491175442813596 0.891475135912959 0.11546858788842752
0.152067162052518 0.5448426384609164 1.1712639422957372 0.07910759738916627
0.15913522520500634 0.5501915566174027 1.0147322178658489 0.09114084925109765
0.15278696750718293 0.5431821170789074 0.6368193220987527 0.10006909659214093
0.16707162727312397 0.5504621999339476 1.2567747079880767 0.10036757848121787
0.15781434724382853 0.5525801147484788 0.734960528692045 0.12525847762129583
0.17487911764476569 0.5510811770500116 0.6034089044029364 0.060902948802265905
0.17672705441004827 0.5541673676098514 0.7598487300678174 0.06256387171664847
0.14913750695441716 0.5468319777352514 1.3182927585713118 0.07653321038809945
0.16584966058816428 0.5601765104456438 1.1316702287367992 0.06645821191198026
0.16473172903215252 0.5575331537742391 1.0301028927187164 0.08328165000727593
0.1661485065748207 0.5510600325347699 0.8195991842180307 0.1078564232517889
0.1819614690689914 0.5504459765336409 0.8808260635422996 0.10771692975525916
0.1689533847123101 0.5582281295743076 1.1996700883714468 0.0631589041033383
0.1790648153447596 0.5503523253101931 0.9677976278405876 0.1766608774741644
0.1905183807813445 0.5663787619115292 0.5842759088222453 0.015327485309430717
0.1594222021184223 0.5527622472227163 0.8037168612209189 0.07410531298560494
0.14847149579218474 0.5463767513869534 0.7678325154840803 0.10700318694047088
0.17089199270480998 0.5504315543190771 0.8017088586577353 0.10420408925803193
0.17383935842118714 0.5595876764619746 0.9517533912746801 0.04491477368411416
0.15929308665012776 0.5416361230421584 1.5056003504756108 0.08705470366813971
0.18497824440454702 0.5502891123645719 0.7250475166161511 0.11353613431050098
0.156455753403954 0.551414523826656 0.8376368975130091 0.10531315535579555
0.16714321396337975 0.5531932992314018 0.645781788101752 0.11325859614714817
0.1854013219323086 0.549438045015006 0.912865322291337 0.10595485192479769
0.19028718113238252 0.5555636252126783 0.6342055793776065 0.018719096531483456
0.159150290665773 0.5442160906623353 0.9288468762261877 0.1074343043735461
0.16484842179207843 0.5588454395602275 1.4607514825137746 0.0924969956384655
0.2126528799440519 0.5530261371586446 0.8303572176241802 0.12606107520552887
0.17321733352101312 0.5494184445023542 1.4892933881011363 0.0844888334458826
0.19466386318889425 0.5533717240165205 1.4128671419046084 0.047709124318752294
0.20589743687699835 0.552531347573776 0.7970116491650355 0.0969449229100994
0.17004255855393477 0.5610416917117005 1.4361916729820563 0.04494563677840813
0.1950674870770109 0.5485611506798638 1.4400927086599549 0.11013675560867887
0.19769794173528016 0.5574256117229618 0.9749325114406527 0.13108394660888614
0.18798507493221206 0.5474912503663679 1.2362730569253286 0.16209795613434796
0.18546711399338903 0.5548234488383784 1.1680965784609236 0.10558141844499039
0.20078521438718674 0.5542814548263625 1.397470682089477 0.07503857714792615
0.21097577073445 0.5519931947542412 1.0744117654505718 0.08054725664356537
0.1940101687668422 0.5426401444877819 1.0118187199210944 0.1295925872324504
0.2055608706624424 0.5597038784069853 1.5298711234302809 0.07747044861998353
0.18290484317980865 0.5530711025266775 1.397629038679036 0.09261666428399233
0.17271736379400934 0.5537370276063823 1.2779176574892415 0.11421620796491058
0.18190271501119398 0.5535655394002914 1.483431878027797 0.12086725464908522
0.19184938193215423 0.5502963179296336 1.0470953496561886 0.06057281025447911
0.184602732391709 0.5502291749352887 1.0681410542679661 0.07532596348168957
0.20496375661470878 0.5482775663984651 1.3113857380364198 0.16061710189226988
0.2137884449063893 0.546658101111195 1.0734271635617063 0.08431059398831615
0.1723769818311667 0.5461536314695816 1.3333027721849586 0.06685088546788347
0.18284060584520734 0.5542967340575671 1.402017078373857 0.09289952753632864
0.1918538706082708 0.5539587228395543 1.3830597281038441 0.08433260650278428
0.199587019947204 0.5555421527307157 1.2941927695905389 0.11423891001255825
0.21626196283197563 0.5515153101331417 1.013318786153318 0.12268884266824365
0.19396092807696652 0.5513860946610192 1.3474386758142034 0.08468849916068158
0.1969500626735719 0.5543581499693561 1.162640580815479 0.07556852476458092
0.21162129469966673 0.5478939319631446 0.8073243967407112 0.11354957436827441
0.19661055672598932 0.5568352475108828 1.399648324001694 0.0702840483945924
0.21127731488779075 0.5543983057271032 1.2497684624862213 0.15625077615384228
0.16392703925307758 0.5535030132236467 1.366419071136137 0.10816968321916391
0.19623406498340093 0.5494478433360583 1.308485220846635 0.14488025996532228
0.19165396980940103 0.5507328070171156 1.4498664876412017 0.14671686998187583
0.16900806930911305 0.5564743291236489 1.3601041484090362 0.09079738650002507
0.19694343042882595 0.5553183060401946 0.9412213874222871 0.08351641309956863
0.1903120076023359 0.5569408987363831 0.9278897597406702 0.05117405452329623
0.20047815213139908 0.555455606632671 1.4281325014836843 0.08800398661223233
0.18120742738403775 0.5549396646910583 1.1619792362306718 0.11917116831679832
0.16150090480405283 0.5557574515359675 1.4825377060593783 0.11132367080124386
0.19423731943047623 0.5494008965667244 1.485225709424691 0.12953037063798611
0.162196813341116 0.5485832516990377 1.2846094561273358 0.11236758519455435
0.2103870837479015 0.558301507370537 0.9220149209345132 0.05329807289934669
0.20912345439711275 0.5473295689237637 1.1506256886244737 0.13218886504077024
0.21766843023928586 0.5475518195620515 0.7394695600536512 0.04354063208577916
0.19570892725168704 0.5563064361896274 1.5156103900073865 0.06583926658601125
0.1802053467537033 0.5547281825926809 1.2420576107921324 0.11776363307793605
0.1724797709055977 0.548550431943232 1.4243388155077592 0.08472317769286183
0.21254027166502107 0.5523040970341888 1.3348089836163195 0.0998780375370528
0.17389865141430452 0.549574876792275 1.2295994998162338 0.12905919667312615
0.2083723561943548 0.553954281292772 0.7727959923172929 0.03731239228049276
0.19883802114941423 0.554889875670905 1.2628261142993238 0.09209842421307358
0.1889247456116745 0.5459935646197716 1.1955237737365774 0.10814536045579891
0.1704488091649895 0.5503821633133686 1.3154942448608018 0.12858490653550872
0.1810540290279036 0.5551310181281073 1.284816212360608 0.046762335179472696
0.1793183169882935 0.5532460766441408 1.1205812298967117 0.13333909384276446
0.1754940422187912 0.5555958227645874 1.2934817040148263 0.07139365711548354
0.19612442839587446 0.5590980528834927 0.9887223370868858 0.11376706935470998
0.19750748136545343 0.5547902539999146 1.1587021580119101 0.0979482214224484
0.198455130514933 0.5476988672382719 1.1070288199703078 0.12122663501981429
0.19291378907855034 0.5463560583637969 0.855480070181825 0.08390163961302814
0.19286015229051934 0.5593081798467601 1.0952946472866742 0.077047239803009
0.17736924502442591 0.5458869686272645 1.5175155963142029 0.13362966878273178
0.1745882089105125 0.5566320484401743 1.346919330599673 0.05038328957640831
0.18873972877944056 0.5550666959951546 1.4637280314720316 0.11458886233819365
0.2071839614555995 0.5465508406573455 1.0210323200069484 0.12522913293354046
0.20787641453991382 0.5605487626101496 0.6470169572333935 0.007454214965042041
0.1764390081726444 0.5478313089756164 1.5033188079826654 0.100249319505433
0.19885245522532663 0.5488358909351894 1.360710190304021 0.09668032356312087
0.18022836612203202 0.5492441989129814 1.4408385634595708 0.15745291729048455
0.17853483692125108 0.5477727548054837 1.3868986908423004 0.12027898158744427
0.2076096137348652 0.5523482191831711 0.8251089872850228 0.1317190132466673
0.21789103159834103 0.5461664152435867 1.4442593839192956 0.10616782882695823
0.21378743133453157 0.5508423145568345 0.8712468106001173 0.11565488298713764
0.22095962720796283 0.550364961910484 1.001227607355297 0.07602357286797992
0.1825067433182762 0.5476441316462923 1.3695823555587132 0.12735238605140956
0.19688324132117127 0.556877515101326 1.2672345773511784 0.07136143456960224
0.22219070650881323 0.5523856575435486 0.6950774860698008 0.01868811859871029
0.19158179546397314 0.5450553026818342 1.3370170646378239 0.15024218125412464
0.18623078909973062 0.5512264997620799 1.4299065779295246 0.10646030854005975
0.214900541387202 0.5486913627897939 0.6224818787133359 0.030697802947132646
0.20257786569635094 0.5488799815340059 1.2759214368664502 0.10579427377894414
0.20626406758976884 0.5549104630418251 1.2273279468717866 0.07625125966037136
0.16918518188478712 0.5511689011805024 1.2961654717101387 0.14715750153195375
0.21850011175996664 0.5472430339838348 0.8124957531493043 0.11604678607656052
0.20848350376830882 0.5530456918924492 0.8640269348264699 0.08542795569027896
0.16341003359415976 0.5493472585538248 1.4188895462550581 0.12475038168971501
0.20203279710473224 0.5553490169891154 1.1779295807603605 0.05742979995303835
0.18844439354132747 0.5574549497035929 1.2122788672609048 0.05779620466110977
0.21314226065735736 0.5452098892578916 0.6581690674400391 0.03057600201257623
0.19187282204049066 0.5525734150374204 1.1767255406461856 0.0990309276407729
0.18773411375064794 0.5489802484682351 1.1044048800119262 0.12430415273039602
0.20000502934658787 0.549166420526221 1.3736166527691775 0.07838339828557796
0.16747066328473595 0.5529772616545324 1.5283986362450228 0.06088649796783077
0.1842392484917507 0.5535216612422145 1.468514027733355 0.12045982527493267
0.19274964416126353 0.5495153685445112 1.5073855774321854 0.12449238350834432
0.19000846577583333 0.5527619312252543 1.5338061303727277 0.1865389155148267
0.21548710400218402 0.5500658770678626 1.0626662905360462 0.07148836539034759
0.1965721539353886 0.5524189415674129 1.0871503748585545 0.07349866335470655
0.20257983676245916 0.5528630008547579 1.096550596825315 0.07747261972086822
0.19396308403050821 0.5593715350941749 1.1444628884487285 0.057190155526181695
0.1502220445688742 0.5537452383744527 0.9240499085880448 0.09824302829856914
0.16003500122834874 0.5432351676049765 1.236141898095572 0.14389514722440322
0.15150093759841496 0.5536115514479856 1.4950605625370852 0.05210499291257733
0.1519814602789783 0.5444783816979235 1.526850691915494 0.06961985305365444
0.14798527452132534 0.5395389436889962 1.058936449338428 0.1049024660659124
0.15459571839582648 0.5441892448942327 1.047118995493606 0.0769657711875489
0.15922412344599812 0.5546976295195626 1.1206208038557497 0.09633305270079275
0.14971698723804652 0.559530351918375 0.894486215474082 0.07648632977172258
0.17047613505780063 0.5596657954251117 0.7693227049405097 0.045361202052140094
0.15291558957782336 0.5430350320667691 1.1081883123067946 0.10664624149699
0.14950350886969335 0.5440846272490184 0.975021311085442 0.07716920612385764
0.15130300280227357 0.5447807214816397 0.6060320054817706 0.08766031478237349
0.15572394746952128 0.5362654749377266 0.9420185756307036 0.08657200015987906
0.1544461308596866 0.5457810055887962 0.9564722882755122 0.10400167674658893
0.15236132967934343 0.5441640438623729 0.6970914307444248 0.09182258453422398
0.15236186962943496 0.540639661944362 1.009832444281811 0.0930407942976663
0.15166795521444842 0.5441526044477873 0.5945558633200416 0.06289627810859827
0.15664676801345132 0.5495230482068783 0.8304758733922194 0.09037634994622802
0.15321402687790878 0.5488330630579137 0.67084032967456 0.10158473968064877
0.15960044522166955 0.5572428643817774 1.2144003565642236 0.07760309361648149
0.14826723371200493 0.5469317182235492 0.864187333264723 0.13794263587007508
0.15072180073948624 0.5479000307845531 1.004563044139866 0.11466270972680324
0.15073191019668722 0.5491803933974917 1.3347292691616999 0.07407371544317655
0.1625553457964237 0.5485410417030958 0.8858064613650934 0.13438313114242378
0.14548881594993157 0.546597692869429 1.3547494547680015 0.09776220604602147
0.15678629813265318 0.546228366271005 1.090179454465116 0.10935840239685328
0.1475801210677856 0.5473354512091829 1.1976071948551088 0.0345097586525553
0.15461849871949976 0.5457040865400603 1.205471455249958 0.08792649130107895
0.1519747383975143 0.5481111403275071 1.1617684615252164 0.08468163656665868
0.15363513299591997 0.5484142286558485 0.9763759882878542 0.06310690701037953
0.1575411662873746 0.546160331400316 1.3984348165304967 0.13650487203747103
0.15281132204420222 0.5510169874441906 0.7537887389048217 0.08057380807787598
0.1532728943325546 0.5460950838463493 0.7933462209581377 0.09966632318674844
0.14573745790833104 0.5472653506704287 0.6466079686578048 0.11739667379730287
0.15427112805894014 0.5384374490147943 0.6890174898186547 0.11658979387192402
0.16524979711176113 0.5512272915485059 1.4330450458801955 0.0836735741367277
0.14797255709588458 0.5403459599190727 1.406912218328921 0.13468014429369182
0.15572492078252215 0.5516259301497184 1.2473774763621737 0.09621598520074293
0.15224607542383936 0.5491888918586619 1.0947297214489615 0.1363974242655948
0.1586424454613296 0.5441916799029204 1.3175207496534886 0.15016358801536814
0.1538483055061911 0.549567879326848 0.8537321696002149 0.10667313388619176
0.15645640137252045 0.5480786338236672 1.2733466831752658 0.10780902034155927
0.16735134836573018 0.549006048836503 1.5237126014558091 0.1325054148528219
0.16542724435561135 0.5464378623412556 0.6633848227020261 0.0884764581115985
0.16871658667433617 0.5473750781350476 0.9844144783647183 0.12797150340952432
0.153716006766449 0.5454448430797942 0.9147206576233969 0.09325692953948599
0.17481688736681378 0.5474816326672375 0.9760764320712928 0.1856268119508501
0.1663358891137307 0.5468037979265477 1.0655136095017645 0.09981838076996369
0.15873195621022812 0.5406455043555013 1.452264590469435 0.12286488180904345
0.174345891812864 0.5533469337480128 0.9616645149666158 0.09989431099280113
0.16971584981361623 0.5222425438163527 1.0126998162635212 0.14675082101758927
0.165513937377055 0.5446862917287107 1.07662590495713 0.08483365462728398
0.16120847144984368 0.5243922921332898 1.2679131161793251 0.07329144021196568
0.1585622323028024 0.5224214423728446 1.379479104743911 0.1424464610094207
0.15673544143242377 0.5299206837125006 1.109821507619866 0.11553245045264837
0.15561516076393941 0.527890639073845 0.6289491428268756 0.08093628988776293
0.15275672354960654 0.5375989879061698 1.5174442895121205 0.08809548350902506
0.152528809615941 0.534903442161208 1.2222360744047047 0.11713331892448205
0.15127465131468612 0.5325830871297916 1.4789662791312754 0.1224285626611414
0.16062734749301819 0.5363391538047511 1.2903893247343827 0.14685347609017108
0.15267786659837182 0.5329844365476348 1.355109643195599 0.06995450545669045
0.14660013193419483 0.5446043817092449 1.0789963857912304 0.11187795388943922
0.1547402708922646 0.5429342542845722 1.2731891580158405 0.10087622760206238
0.1545235786882291 0.5283622979194208 0.7791273436316574 0.14604119303780805
0.1547403212431055 0.5358421057825327 1.3963281827000669 0.13863401294734784
0.1557126541547187 0.5353526252971664 0.9758215473726105 0.14182098505335275
0.15477034807657333 0.532575925109278 0.7300102815885445 0.21494015512422956
0.15748127844747917 0.5375587544801129 0.7968752190046839 0.11043420959151011
0.1519984754279863 0.5323808441740431 1.0465878869358913 0.10001222989775639
0.14992312786795925 0.5383930683821863 1.0910308166767293 0.09552465583980087
0.1534954357980068 0.5383181060750917 1.2979784012050792 0.13404204414418072
0.15362878971375798 0.5369028323452415 0.8822110421350787 0.13915673342139423
0.15126577886242387 0.5398045663282568 0.8598773138061427 0.12970403334285863
0.14128798758732788 0.5426032950280314 0.7492353868912095 0.08831010968623808
0.1565016542705396 0.5263561270601118 1.4214145435016305 0.10303827467451496
0.14540491808938047 0.5338209934337381 1.1865555694770742 0.12325229082420108
0.1550733721581055 0.5407984969564941 1.478381695425195 0.12280875765907953
0.15065536656983253 0.5396307844254875 1.2535149577725808 0.07897554228775161
0.15646061594646649 0.5293606167340886 0.9063218500850494 0.11112537039190779
0.15236204274105117 0.5369041681309521 1.331031614944879 0.08720038858450224
0.15293434611381268 0.5338039199736732 1.1402681355569815 0.20731020506020292
0.15020505863242392 0.5358390433530087 0.9602803358290695 0.09291497504217941
0.14898194641272972 0.5342053778160061 1.365105836988033 0.08477244128184085
0.15115502560391053 0.5411721942091834 1.0013515732521843 0.12598549888563804
0.14926775431629596 0.5340640916787541 1.0304348448064495 0.10290949543879263
0.1516095607069596 0.5340272233502138 0.9926429632095287 0.12116437640208003
0.15535029109849358 0.528686075163575 0.681399587169989 0.1277932178085821
0.1530015715756246 0.5277179015939657 0.8107420505978534 0.07114739477381586
0.1547951781800527 0.5279781329766582 1.2285941015233728 0.16778627052122427
0.15186319282582675 0.5363267665403711 0.6413611817366593 0.12363683847277863
0.15022025215446558 0.5340990514813714 0.7201754075260933 0.1621386197020987
0.14988477773875208 0.5303381730713469 0.698253614947918 0.16666423051655038
0.15173226468600365 0.5331964349712175 1.349361543155095 0.10120161463095698
0.1456201845071036 0.5320218396566867 0.8367251796117776 0.037930017819514716
0.15153176215996958 0.5284185655162694 0.8140809961966959 0.06668075357156826
0.15173409977695085 0.5263272397847918 0.7748711335328692 0.13789222080752572
0.19886951004270542 0.5219280156177171 1.472011966741505 0.16959716493276852
0.15872747190084288 0.5329603204379294 0.8910312679754113 0.12532229811746345
0.1571966494786629 0.5203183966793309 1.4331398077726722 0.09139004906448324
0.15610424356357525 0.5280805955326827 0.946211735615127 0.09811696942158216
0.17833436948688725 0.5248118621634225 1.4682687522705578 0.16756297888478894
0.2133200797114017 0.5323521251134041 1.5312072008548683 0.17073033423846262
0.21143153760146513 0.5285094641889704 0.9644330150232423 0.17538248578415147
0.2177856088673454 0.5356503765484372 1.3347615629765464 0.1275491133425934
0.2246015444186869 0.5275068807798683 1.2152740080061593 0.07165086731795231
0.21215954605089307 0.5289235402954345 0.8986106082620609 0.08013315657164424
0.21232537828989073 0.5303553015351682 0.9148971904769422 0.09006877602121573
0.21626559983917004 0.5308953769059994 1.4795918891020918 0.11660987689590424
0.2216120081355451 0.5295639480349834 1.392697974047158 0.07108768090480858
0.21201656071936686 0.5445954030405024 1.4888864222794131 0.12561058983205095
0.2112998687000494 0.5219734994241094 0.8641527015934453 0.06158832321797953
0.2094312806888637 0.5332473674421371 1.0948583939627974 0.07952678582441682
0.21890315716602474 0.5361303567592308 1.114046654202062 0.09269577576340637
0.2185304433439623 0.5301826115483164 1.0521155835557026 0.09275158439449575
0.21987056641634992 0.5350508181131011 0.9988216576874515 0.09820494872893587
0.22159812596866174 0.5287488322401857 1.2919148851947688 0.1151071591335039
0.21971737940637218 0.5398570805993608 0.9856717504647641 0.14378542448154444
0.21216950904779736 0.5372141456164813 1.1397509642130539 0.1470001623513802
0.2203230230135086 0.5397946401439295 0.8758493423605683 0.06432016569757412
0.22778648376981514 0.5403266973097831 0.9353768028422601 0.050958047456788336
0.21381888551560344 0.5359421160329706 1.4309097416940895 0.10692264936496695
0.21486250456645692 0.5320753196816547 1.3794942848735723 0.10789527597886955
0.2119822847719249 0.5316851456109648 1.4547933600583796 0.1530737722143731
0.21529782316959975 0.5353224600324712 1.4198170326812583 0.08325234431341423
0.22668297278910562 0.5380512662270334 1.0247967796175657 0.10059500191974263
0.21581458658726027 0.5383216495117624 1.0655259121797072 0.09417012261311858
0.22372723246217885 0.530156428184722 1.1913598867594373 0.11285121378567028
0.21602385786107553 0.5325540542938734 1.124619995628898 0.11272831040578705
0.21969129190259973 0.5413251339698737 0.9681239591035509 0.17882876057491104
0.20982416463381584 0.5231930116146567 0.8296984943248606 0.13554371072066587
0.22347477496912266 0.5345586921809249 1.275162189884992 0.08358627791106799
0.20994158994635104 0.5285941793527335 1.4136003011258147 0.08218747941391026
0.20913889282021225 0.5470416282329154 1.354674471809115 0.1099685742858592
0.20407566959069276 0.5453806954463909 1.208813913697883 0.15453991735429617
0.21149467509122583 0.5496582474042024 1.40699653209063 0.06028913829233588
0.20765976671682923 0.52744661528903 0.9681321921870324 0.1888650402786494
0.19510091249745729 0.5500348489778618 1.2020762925419755 0.11721160441660479
0.20268632844403892 0.5529359521935338 0.6987730248796226 0.0145955345366918
0.20633428657850536 0.5503107401685146 1.012611459754764 0.10259273242920688
0.20163286305823103 0.5472631011810636 1.1890270807629024 0.11013882814263444
0.2024035490093282 0.5470062065635063 1.040970638019152 0.0964606039384735
0.2010066358594087 0.5500836502789181 0.7373009614656706 0.009543058646138618
0.20515603008993571 0.5510221669385843 0.8817864769933105 0.11685922469685771
0.20149275384180976 0.550141589731537 1.3415140651307615 0.07301617057485801
0.20374223923152177 0.5546016949777164 1.1305667825706809 0.07582795087006518
0.20558607228646722 0.547514665461457 1.4834367370268502 0.15440223272315012
0.2058028834338323 0.546235989572097 0.6662542545014142 0.028916365350039806
0.2161436068523906 0.5413349188788734 1.2375137133314358 0.11282724648718429
0.20288087409641184 0.5538299277315905 1.2485744255492117 0.13502577707201302
0.20026345050038988 0.5574545701664899 1.3188621235406561 0.11198080711870888
0.2065365675136121 0.5411497867284573 0.8895478504520095 0.12930182916186336
0.20709387247175512 0.5462965007381148 1.0327788843476475 0.11756483530813558
0.21305459089582512 0.538249898233591 0.8552252511046893 0.10991798387294843
0.20696482180798703 0.5494037966344566 0.9069716177791057 0.13497480981900195
0.20480123520117505 0.5455376925980521 1.1108709509004115 0.11350766106282227
0.211179907261425 0.5431558626252737 0.9789812297385053 0.1494042715660166
0.21759257834053441 0.5565351806670007 0.8826470567906818 0.11951034006582928
0.208484366564052 0.5514343288414143 0.9650243371257532 0.1357369950423723
0.21837009458646445 0.5476569111924054 1.2041130846033556 0.06299527373466038
0.20841341096738558 0.5407057187833224 1.5232318157549574 0.19119397390835186
0.21082266679707024 0.5522002912463688 1.4602456155276888 0.09971614967225878
0.21584010719636204 0.5462476669431066 1.1924075883584382 0.05952715544087009
0.21595845822889986 0.544511637252404 0.839509573628394 0.12383506973881847
0.22212625630406455 0.5492604397657143 1.3196331353437951 0.08067451638245408
0.21118288164618365 0.5467128276515312 1.0917599762102148 0.09204399402190047
0.20651429850741174 0.5486527634716802 0.7284737895599717 0.014331613786399272
0.21300114256425912 0.5438151172330034 1.1504076948247486 0.1573528564317372
0.21653302605386843 0.5528672120141899 1.4729883145016667 0.11643372679194067
0.221459945170771 0.5518746957896726 0.8093856728939127 0.12132445289632145
0.21634854334400735 0.5527019750670752 0.7582354107572418 0.05305640776100284
0.21568525628809135 0.557015672488557 0.7846490544156659 0.06867203831267002
0.20681261775633403 0.557274538834685 0.9017895067611467 0.11431555647218701
0.21708595018080995 0.5546611889428151 1.0380933641247791 0.0863621651342494
0.21132897496615533 0.5484615676371966 1.4034548925925359 0.06835039430058346
0.21800885608232046 0.5528666927670963 0.8340249970389548 0.11023593564655071
0.2137283119623393 0.5461932958578968 0.6513975592425796 0.030767811827525273
0.2154363161066399 0.5511322292755886 0.6034249186485409 0.013681839999819428
0.21466700633128805 0.5519064111231382 0.7943792119445611 0.09610353996190359
0.21247102992490935 0.5422545267688641 1.3688665883027535 0.09879586325958553
0.2176307363833011 0.5482171434202963 1.2908470859238435 0.1419905207137004
0.21206402005304367 0.5538961797436068 1.48845599983404 0.1266781427221092
0.214483390171481 0.5500279810310096 1.3248122723417897 0.1125850028105242
0.20890733441181566 0.542952989106004 0.9095115791312165 0.13710279701996397
0.21589363809961304 0.5423265586044564 1.1047098614701694 0.07022475112617829
0.2216184990531525 0.5502873489658531 1.419514879020766 0.07345848149395642
0.21893073785445635 0.5386682661563746 1.130983861058242 0.10624596298468754
0.21667796881997284 0.5440973542896762 1.357749462805875 0.1086654950376822
0.21860585619619605 0.552921774357918 1.5103199438262365 0.05508388197044351
0.2165829118639798 0.5467569903806064 1.3883786513248486 0.07538993499052031
0.21760893627203304 0.5496619783766695 1.1696530462556203 0.050432846955805244
0.20931062314403698 0.5515167514992042 0.9419750702703921 0.0956567177569312
0.2132114990164531 0.5431165377968351 0.6732535263338125 0.029813448847492176
0.2022376498614198 0.5560117134419783 1.062527874964884 0.035070417811546344
0.21770860088872304 0.5448496800349723 1.5043633075787968 0.05723926469971357
0.2153918269137718 0.5477102904841163 1.2183781038566897 0.07882244899379123
0.22579524542216828 0.5569908566768925 1.269800339629002 0.05103158981036755
0.21332120604231417 0.5493845038259603 1.2356252182065943 0.11842370520742426
0.20831337460820604 0.544734921733563 1.4359962971677764 0.1346478342365673
0.22960660754153317 0.5509786243151824 0.7402710916429024 0.03739715891292
0.21711064961114493 0.5465703052549878 0.7214433914958684 0.03547638321788221
0.23604534422081908 0.549057818381714 0.7631542930267026 0.08014434192592729
0.2382624816340955 0.5555857430659157 0.7847457812543981 0.05263554665430432
0.23376052985610865 0.5498671043720916 0.7576198475295882 0.07829174385341
0.23918887976594647 0.5216392091284358 0.7516931658203543 0.07369851176778468
0.2334418253562465 0.49996840569301176 0.7650583851770534 0.07023649755763778
0.23583677496204813 0.5120395019861257 0.7895901267256555 0.06875731622839608
0.23584809253314462 0.508863404106546 0.7989120740393864 0.11174086110841834
0.22908053534598358 0.5022684510987665 0.7910572622940611 0.07917478913303409
0.24421998258363461 0.5279608523807937 0.7311360400075816 0.08463041482441866
0.2348254805615275 0.5396115006032525 0.7240234837650783 0.05731032338476981
0.233940282220207 0.5435501212262398 0.7401818628464908 0.07943386789583681
0.24034559719508325 0.5325301066576804 0.7500949946990915 0.06385896162809838
0.2308035987056841 0.5498646183868873 0.7782878802430446 0.0633820022888983
0.2428226440836599 0.537705408055199 0.7660864961357515 0.07513048138150538
0.23971530538331137 0.5207578505224311 0.7822136883317204 0.0502553603152533
0.23565072781082735 0.5236881820495025 0.7849201094224629 0.06522012846742635
0.23783384745438957 0.5307137073428048 0.7568634840396159 0.058724898709771024
0.2273296812644559 0.5352006916996227 0.78608065059082 0.08679973933196225
0.2323370422447311 0.5290283291747666 0.7857242052104652 0.10135653901348085
0.21733414515975685 0.5022602856340992 0.7250543917004283 0.06431159341314499
0.22757959834380387 0.4906610690763885 0.8020048286547921 0.1061291702595294
0.20977736419249057 0.4982729502982814 0.7752343506394838 0.06103333994276519
0.23057992300853 0.4145512578547879 0.7635952287198198 0.13679988527034265
0.23601515679464913 0.42580292488162613 0.796186593332376 0.14975532741666245
0.21581254632862382 0.48275484958003123 0.7554203432170737 0.17284674105921208
0.22660965757265422 0.4755716598296758 0.7689697512810001 0.18739799952145214
0.21795498344962735 0.4670144503431703 0.7708083952856992 0.1703014647353502
0.21011650677507043 0.4918543147641786 0.7492675478230296 0.14440340395534998
0.23780780439522922 0.4881213754101284 0.7596523649100936 0.1167002234977452
0.3733464777458015 0.4435767251961545 0.5926279258807164 0.016045044943667715
0.37594539284636197 0.44272094861162253 0.566308030974666 0.023193680040457142
0.3717841283910577 0.4449342455273579 0.5137252226560327 0.052623539791067354
0.25931080593656575 0.43669332135743516 0.5939987366720644 0.0002892596657862059
0.21264608570323656 0.44482602493034434 0.5954042053715873 3.851082565154666e-14
0.046573748612953894 0.4416354880968365 0.5922632743153486 0.09119877267294663
0.035440916142685686 0.4351268027731663 0.5826593750293438 0.040311764396695184
0.0685151699070267 0.4523915300474473 0.5910056630600125 0.046663951604405375
0.28766245972330867 0.44390939179622185 0.5990890427708517 1.2698723221151382e-13
0.19770307094818249 0.43857928113947714 0.5940310504402998 5.177615614865946e-14
-9.795112420979064e-06 0.43544189904477976 0.5242603541330312 0.24446484207107544
0.00568226319638714 0.4396199246184936 0.548664188904273 0.10683103918212317
-0.01834019495955583 0.43864304512354985 0.5225168693925788 0.0072547890703364495
-0.0009378957514630425 0.4462216888812452 0.5587670555535403 0.01125614933362985
0.006997270348102791 0.4537375642928262 0.580268317465691 0.10991923665095704
0.005727181802074467 0.45251915723192215 0.5887815088136732 0.07988956329815045
0.06527119803522621 0.4407643251321494 0.6049669763286488 0.023468384747770292
0.01040678139988396 0.44095459355330247 0.5830669454302028 0.1408655866096013
0.09607448769763946 0.4376882702554663 0.5961909562111132 -3.656031593808069e-13
0.1622415448022699 0.433585623714767 0.6013412884566373 
0.34573232388393077 0.4466540443908964 0.5994221471954534 0.012461373633287247
0.31019464927071827 0.43688043726594433 0.5953164603427015 0.0015026560224714772
0.3436848558968162 0.44107718702575666 0.5931760698517308 0.034879892020681064
0.10025882949788138 0.4408879656347382 0.6008785016101819 -2.742278040134115e-13
0.008007376037277499 0.4361019004585894 0.5731478735831538 0.13719297175756312
0.02798572495131499 0.42515722056703287 0.5296712644367073 0.0072547890703364495
0.003086180279969707 0.4349478150739397 0.5205198625745897 0.14693382174735067
0.3554616294541355 0.4359139457628391 0.5119266394671248 0.07238420866243242
0.05496218470421571 0.4303645329109118 0.5781886156005562 0.05165168105264991
0.3407746355105749 0.4367722622325246 0.5873177920739263 0.00029202853814514515
0.2877906452526802 0.4337210621846618 0.5929446288311563 0.0022178348755521704
0.3444285320598463 0.43393962151623056 0.4988315232604759 0.00013571334265019438
0.37814316901260114 0.4451346302428989 0.529882493323997 0.048901913114921175
0.005917134909718763 0.4454874295444648 0.5856022570556482 0.08840729200195988
0.21327914660651032 0.43518822391835665 0.5917573293381412 -5.0085378728181406e-14
0.0279575564458696 0.4419530925988568 0.5957344340058043 0.06014840085402912
0.24433978395843772 0.457197326068735 0.5929876049933642 -4.8692001798718964e-14
0.21765260802547093 0.4151327087482159 0.7848810429587817 0.16254100279563105
0.2018756314566237 0.4306127636812211 0.7699582342579901 0.17517691153462947
0.21581445768033702 0.4090140866437544 0.785223243487895 0.17447163990539258
0.20574158929332137 0.4410529171791753 0.7617676252701371 0.2560280792271349
0.20979907491234748 0.43879978644108103 0.7896023925840181 0.10602182563951182
0.21180475112817684 0.45861975265795923 0.7607702609889627 0.1427813443136212
0.21074899872445843 0.46171861311521095 0.7669632754434407 0.16459916657662071
0.20758011904238785 0.43805593478100846 0.754820385747541 0.1819444205216667
0.21193463057262085 0.4531007954416939 0.7671325701341145 0.17923326671867457
0.21796971622185 0.4227553378392234 0.7966852522432049 0.15927096948109631
0.21506619620630352 0.4575537945001811 0.781103790500011 0.16240953170452055
0.22720534280685908 0.42384354161054444 0.8019947868837471 0.17457911342826224
0.24228059669580565 0.44893712115459306 0.7673325335260078 0.21185913070315568
0.2340160395410745 0.4435238269980239 0.7783415114817053 0.17006818914370966
0.2429200346177441 0.4576066835225451 0.7659009567098476 0.14180021948756208
0.2359842499578798 0.42712971443715686 0.7662665166830804 0.20468716794771757
0.240974672760945 0.4288468729484689 0.7776909426339644 0.1653446772743174
0.24939998210839662 0.4473819465134566 0.7632415517506458 0.15911703712717218
0.20925509068997963 0.44310643027537755 0.7802035259439598 0.18427488170016174
0.2253535361908388 0.4437373508450972 0.7941401255595315 0.10518724578606066
0.22877185178481543 0.45870025322632674 0.7855633033636522 0.21253072355780292
0.009404504394595576 0.46731004202046683 0.5195095115368882 0.00734463198720511
0.015656807441585485 0.5300119990362 0.508427629163554 0.0824447494027893
0.008446542514528333 0.46076100318699875 0.5554979752513732 0.012509821442474558
0.006120022487991936 0.5008836471141879 0.5138471660885624 0.021989805745596593
0.011080306630818826 0.5487189380169943 0.511607623342913 0.11713922449463729
0.0017033997500716155 0.49314276771091714 0.511390262027056 0.009203650735981256
0.005963356229803665 0.5114603348440099 0.5424398078459449 0.026126714236740407
0.0018906500961056623 0.5041174445899701 0.5640823006879558 0.027848695123139294
0.008711083443096557 0.5472701463825352 0.5627688058370933 0.08053269198367503
0.008554356225388172 0.5482861099690868 0.5431886771259251 0.07353123484293124
0.0026289899109490106 0.5347072186123779 0.5335938669441996 0.03730537024274922
0.010332928135700374 0.4854267146284796 0.5742763599964373 0.06798821635869563
0.014172951200646884 0.5178557175461903 0.5669363656025865 0.06898511010264131
0.006563842434487199 0.4567399992253624 0.5233696417171069 0.15284780788549437
0.007561597731896597 0.512284260842708 0.5487957681281118 0.03568067436970935
1.8603623079359657e-05 0.4991744657570545 0.5442386985912132 0.020955926396362387
0.010921596127123831 0.5170281242081904 0.5117107445389099 0.023572960416628
0.017758306622095543 0.5112771883463002 0.4978499192902092 0.0003681577586575102
0.014570853694786667 0.553248195961989 0.49508991095725624 0.08674058816291241
-0.0017242763940616985 0.5547548328358262 0.5278201723216669 0.03760474312021643
0.21403906500364683 0.40993932633409697 0.536610055874186 0.0049864165077789175
0.2127030744430523 0.4117221345762054 0.5529308426554939 3.802878869871579e-05
0.23972154187997016 0.41132637119380194 0.5715510878767407 0.005473226726187226
0.20872325677170447 0.4102759766681917 0.5319998268054486 0.0020928088500596345
0.21321765492537126 0.4142755012379088 0.5083635755502923 
0.2543568663700729 0.40665369884243885 0.5403434246180286 
0.23477668911963004 0.4047271569847968 0.5498157742664478 2.8644630060714992e-05
0.010489115146810182 0.4740395286373475 0.5303736383508671 0.00772566520786708
0.012170056423530843 0.4744279864122454 0.5737844516366033 0.07178136515937948
0.00810417324564838 0.5288319368810749 0.5403124120444314 0.06032412427335005
0.014146521472897702 0.5527832089599033 0.5500385301363545 0.11112570371060952
0.002331300100936927 0.47696026247335194 0.5629048963857105 0.023154453309458957
0.007714602511619044 0.5355094024823617 0.5644889678261213 0.05137155518437263
0.015119765334050544 0.49649835476333226 0.5729350958965495 0.07575104046821861
0.014776836461947879 0.5202667825804077 0.577714531059624 0.07021904271304989
0.08851572690511378 0.554582425396038 0.577180890278088 0.04429163338171067
0.11039594171298088 0.553932743556179 0.5786394955442499 0.1251846745158781
0.12863712168201602 0.5532918305138453 0.5839161203393245 0.04860738284604602
0.2674602821288719 0.5375222625404816 0.5768180552278134 0.11197290530720658
0.3640914803412982 0.468518938075345 0.5799101743067968 0.06348703656656432
0.27461328430950055 0.561141201502221 0.5781799696004911 0.062156802479777014
0.08763947756051277 0.5430327684700871 0.578908522281364 0.06952440366792205
