x y z curv
14.959616620298199 0.45543267420223477 596.4260242132351 0.0845253937184455
14.951235468689939 0.45885258594570016 596.406718882735 0.1085437440859754
14.95254491213415 0.4533023161315212 596.4030757903345 0.060474875555195796
14.950859917562079 0.4592819401261468 596.4279530122776 0.08918289877740787
14.667377684678904 0.4592995481914209 596.408185804758 0.046565270512958334
14.672410618093544 0.4155110876813578 596.4369136697962 0.016116380819173236
14.688349149960377 0.444528484803172 596.4414186042566 0.11808541550154379
14.694302663696323 0.419250445080541 596.409909031673 0.034922916366381784
14.698337474988328 0.41896833984808185 596.3947915349635 0.025563489116805917
14.70059470700708 0.4207963378900359 596.4240464516653 0.0676846261216425
14.695408668828517 0.417446614580673 596.4186162739719 0.061444125031081896
14.680034690464137 0.41544649123819005 596.3862509602827 0.021262386159045115
14.89979588899464 0.20520357356441546 597.4694916139906 0.015557112117499742
14.71143170733759 0.18373431879048172 597.4704494312734 0.001806901617509392
14.715902644044762 0.1957137475561663 597.4671106925015 -3.2988806587972906e-08
14.703807978821926 0.1155164618712598 597.4717064711119 -8.699387586319943e-09
14.714598639183553 0.0035592706034323907 597.4749421042195 0.013068242773121326
14.701388324948354 0.05707831375319852 597.4777394932728 
14.709351392959691 0.13546101870831936 597.475517711863 
14.800927425049485 -0.0013045261731326923 597.4641850582353 0.03504434655138206
14.70941016961282 0.0002209375237396501 597.4686114946584 0.026741389176062936
14.843674559828443 0.0010007128726753692 597.4655450462174 0.023235985070196023
14.857320679930003 -0.0028209985453832875 597.4684905478231 0.024554445650950312
14.798524277395561 0.003461399835655378 597.4738795584756 0.02394485110327222
14.824264617004198 0.007425432586251104 597.4704021649051 0.015314225616214325
14.876049704987306 0.0028870745793994684 597.465215414887 0.04330371019549687
14.9059921300093 0.022561646906026106 597.4647533185545 0.05679525971573005
14.913897777587488 0.006997174210033244 597.4704602819736 0.07129155552626591
14.914818541303939 0.05846257434362413 597.4721555750032 0.06295194051342246
14.913506881714161 0.07121555521392434 597.4748838058191 0.028966692689209553
14.907626990622136 0.18910679533308636 597.4666970027719 0.03228804357007182
14.89617417452133 0.03736030416500612 597.462007053583 0.052734057154674364
14.903062472820524 0.008881332186228292 597.4690263248975 0.06723325275357321
14.909825163485374 0.09165365723027952 597.4717113489376 0.05719807812643936
14.71491605317756 0.19135657704999928 597.471841713882 0.0029863235057081567
14.916515182788453 0.038668582941308115 597.4726199691389 0.06801346886932828
14.898258072577127 0.07356031411927642 597.4628021423524 0.05486114636687184
14.90827858367261 0.09385710725805993 597.4699582894074 0.05560587384936178
14.893450510910352 0.19494777814811987 597.4624272605828 0.02044144234617574
14.912486799481513 0.15960272353539176 597.4747388424706 0.009900428972134155
14.907095095244848 0.18311436989723331 597.4608993447797 0.015717494544655215
14.90367904471073 0.09822843949877214 597.4644492668201 0.039766249377282924
14.758480587749437 0.029636390274655866 597.4524796420061 0.003028642193950854
14.706704432433932 0.15372359257374643 597.4664963889961 0.00012003219000532028
14.875057972003246 0.0019211568504479443 597.4611277709237 0.044107501068159534
14.758619235728673 -0.0010172214145095122 597.4653399632987 0.1208539753575802
14.890284734014257 0.000422722826604435 597.4656692707852 0.06362321223480356
14.735683222369298 -0.005817999326852303 597.4599030531772 0.007554823249545988
14.872613318253043 0.21134055161991397 597.4732329516678 0.06749813747677566
14.876778554732951 0.2037847468970422 597.4747629947841 0.03154607505825096
14.890905062213093 0.1936909668739002 597.4716177029649 0.03345900691484242
14.89004828176344 0.045605140187590765 597.4841053295567 0.04824616036404178
14.897099636827244 0.14947014258533067 597.4783485834782 0.011454975471228045
14.916030817304845 0.12501677354833168 597.4805271334459 0.009392886055965888
14.878419479284037 0.08699604916793263 597.4788579065734 0.0013604068409721311
14.913194822652507 0.14554945045790985 597.4709767294033 0.01338982524049893
14.718549737508049 0.19824689863197928 597.4692877528665 7.293866814046484e-08
14.910488904152164 0.029181697806671594 597.4790406060747 0.059214704464057355
14.892552580198844 0.16713853836722276 597.4794917942799 0.021372477095258382
14.79366839435592 0.006392090334900657 597.4606723467405 0.009521018483232025
14.794229925581025 0.026152271108169978 597.4797715668725 0.04689789058494195
14.780216275185458 0.0019966044540324366 597.4738543893784 0.024797689822789577
14.761224678547922 0.0016581126392350171 597.4699840489367 0.09788357331300228
14.703942281711509 0.076266400718931 597.4788649225839 
14.834804857596568 0.0019155918600979476 597.4738433046516 0.006918541102062968
14.770268547188584 0.018612723680262476 597.4774988702271 0.08493771936012035
14.884283692560546 -0.001379564274031346 597.4752948011018 0.03908939359825222
14.806462752972394 0.0186636152960339 597.476374761737 0.03563502187814045
14.87552572631655 0.00922163261625161 597.4770567690304 0.048164649574601294
14.727250406100632 0.025657243463618085 597.4834198403003 0.014348912989719685
14.860048937666624 0.014442940181959272 597.4754896319181 0.02028292265098062
14.71428270583223 0.030423090550689456 597.4797011765103 0.013801702209275997
14.732814033579974 0.020445346392289974 597.4758718308514 0.08395092376186004
14.88227844124319 0.43740869019924883 596.9202088405438 0.18858267739414564
14.882687320627449 0.4314341869444836 596.9322549083162 0.18744758002763917
14.88291448769122 0.43783995364233463 596.9017434837153 0.11778713622422886
14.86684149434085 0.4391165284457809 596.8798534821152 0.1722134442223618
14.872893780135536 0.44345970819533304 596.8772498541169 0.07724934006954227
14.872202089230907 0.4420069119328923 596.8760742949017 0.0009206295434041437
14.82215725913815 0.4356108982996174 597.3720803328016 0.0736552127767104
14.827789378208918 0.4003413778205702 597.4216733904872 0.03919407324502014
14.827110711620575 0.39690780710025164 597.4406807088172 0.11110662865731391
14.819824024345957 0.3420071643944906 597.4977445993939 0.11349112617982204
14.820905265485841 0.3316149521215569 597.4959857836129 0.07752201513136045
14.807934490383836 0.3768173919998879 597.4582498255825 0.11267575661225943
14.813041325243772 0.3645056171772378 597.4719472594968 0.11287292872340601
14.815735988878581 0.08243486700335095 597.5115983812323 0.08678514710836027
14.800102182794905 0.08306027482238006 597.5224516155971 0.05332063138570339
14.820276277176157 0.20817417398600443 597.5317046623359 0.04003471023848908
14.82381432914692 0.12921248942304792 597.5338668871516 0.03148132217302309
14.81988784730708 0.20285201550837176 597.5316289436118 0.03998908598716658
14.806534528454279 0.44979021166910854 596.8494102016243 0.11660682195420892
14.798474959933898 0.44254236048395806 597.0791503577339 0.14045972189124953
14.797877451526018 0.4478509479352159 596.5909189355586 0.13717374440511954
14.799507418084405 0.4473628102662026 597.034332606325 0.15526988186657437
14.802552851029645 0.4502231650340924 597.1657938503987 0.08829393281680772
14.799823400188659 0.4556255955048084 597.1356559749228 0.13020253481037947
14.791457472497166 0.44138294254142707 596.8194269248046 0.12336598212135416
14.803610686167916 0.45855973810828576 596.942622499548 0.12032878981765369
14.793268632913925 0.44115277073624115 596.785586218174 0.09404293184245335
14.801622705934978 0.4439147569378703 597.1078497407086 0.17082405922930755
14.793171496607616 0.44702202985660766 597.142218099491 0.11282143841384115
14.798793984541902 0.45339220098383787 597.0065152578642 0.1265625376330772
14.793783804449982 0.45668372553643066 597.0622763310027 0.11557873427037783
14.802774963789112 0.45803622117267184 596.9621261746659 0.17656269558580964
14.79346870848563 0.45148735799033024 596.700436446858 0.20907761273472483
14.78779020424229 0.4479090209420954 597.1758020045899 0.07916915075159098
14.80031651174486 0.4515568931674448 597.331921172627 0.1415625623433887
14.783519710511596 0.447124679360009 597.1336043648711 0.10029538330853457
14.782297618144826 0.4511526327521983 597.2760794271089 
14.82334082367732 0.22026241747921718 597.5227559108396 0.0664058615754619
14.826180545075061 0.20810988740576133 597.5182079009943 0.04239680708353544
14.826380422716957 0.1392814937175346 597.5266295571397 0.03641302881119455
14.827836379829522 0.23436344032830123 597.5162717124427 0.03631876920325395
14.826242450599986 0.23326159062228716 597.5334046021478 0.03838463470030498
14.832941774482869 0.08772473748951029 597.5253299679542 0.1356632199246235
14.829378436239233 0.17797606509071962 597.5194751517997 0.04534102265148624
14.825837983960122 0.21250903484553985 597.5291049956721 0.03290966968518794
14.83395348061996 0.15488469120029927 597.5349509774203 0.03539747785914603
14.83475255483825 0.16199392449694075 597.531492404169 0.03341919694995036
14.831721779083978 0.11096891373754067 597.5198411994628 0.07379338064329743
14.821898066166753 0.24915625928422142 597.536005929908 0.08678258306133073
14.83147625428028 0.3022062771219559 597.5216355004698 0.09701486186253198
14.832736480833098 0.42812942061578446 597.3954708760006 0.09212056275758623
14.820571921878422 0.44020624897222155 597.3698336671811 0.08763859619172674
14.815898729334897 0.42436468737127625 596.8374975729168 0.1384974071463339
14.80266441829475 0.4315073944951578 597.1663186214906 0.10166765594190792
14.811602850207287 0.42523602434647423 597.2467622370417 0.15726231667283683
14.80848196603837 0.4282351637681763 597.1912512775303 0.1334045626651649
14.82144908089404 0.4204799701480771 596.6707142367098 0.12052268801987226
14.811558599751423 0.4214422462521366 597.1203043956834 0.13022647997575193
14.808541195011202 0.427568250342912 597.0380990994548 0.13029535940654477
14.824315882545521 0.4293241057704638 596.5423699748471 0.13738652714076482
14.808732828341505 0.4211287903697642 596.8907149325433 0.08339950832989704
14.802778049934984 0.4285482732961917 597.1016454644465 0.22600424514059955
14.817539428406155 0.43007255580244813 596.7623055388374 0.13299185026332505
14.814841340459646 0.42771158078988913 596.7767538687801 0.12146002318132196
14.812891041358814 0.4226803301298482 596.7267480602784 0.09675046700140906
14.804725936841784 0.42065671724319675 596.9696321235879 0.188313636137374
14.802956577209528 0.43170058160481306 597.1697520888191 0.08454294771092977
14.794288835991354 0.424842904446057 596.8105493463478 0.13614027861191388
14.804500356006388 0.4247206794428143 596.6521394279567 0.17901410860903438
14.799017372298485 0.4232603583317951 597.207308497605 0.0992756322015351
14.806409992674196 0.42521253308384066 596.8001320035874 0.09973398847862637
14.792045066329745 0.42255483447971764 597.0858100805597 0.07634728489758055
14.792914389700366 0.43263180685657543 596.8435821766632 0.17231848897535396
14.799866997090575 0.43078298469539406 596.5139642645897 0.1367119777554648
14.801361708082318 0.42386956077313764 596.4439207457978 0.018084799738480983
14.81470784597564 0.42204308956889963 596.4640491536093 0.11114090232132358
14.790567624780383 0.4282497356222466 596.9622630970786 0.16329880462836685
14.798472330359981 0.43392359942383907 597.0520832194611 0.20224964344276672
14.807942330289224 0.4293414360384113 597.0520994262062 0.19944852546311154
14.811733343437465 0.4236072881922664 596.883352665501 0.15247125610879225
14.80026025481058 0.42966913841633275 596.6210877966859 0.13670544323901243
14.794410210761836 0.430401655599357 596.5995026857031 0.16919938259486
14.800498772586685 0.4308284006999969 596.697608146888 0.1628520056031439
14.80389175160884 0.4313671749788443 596.7627660177851 0.1288550735980626
14.81094411552369 0.43089516981910103 596.4954524668804 0.19140046098765565
14.79190266102983 0.42951009615024677 596.461893890133 0.1717555971359267
14.809079622568781 0.42531919858709083 596.5834206608044 0.10523700417127496
14.815987811269158 0.4230049238127855 596.7123620585626 0.13389378190688986
14.805141720359066 0.428919070023195 596.4978234516128 0.1932232013628265
14.800027317145185 0.42886843815131576 596.7718017036575 0.12285465519672846
14.796411804939906 0.4287516016689644 596.472263428341 0.2156423822489717
14.798215450689272 0.4250508173399026 596.9531846187231 0.19936256301660585
14.812921025025085 0.4240691462933368 596.8498826620005 0.12019889927326156
14.796683756551902 0.4270478311199847 597.1562854186005 0.1206614756208786
14.798532836569294 0.4290867840230261 596.7434574205399 0.1416478422250178
14.801859503563003 0.4249129964652708 596.5768641587805 0.14806244092095272
14.80488679549502 0.429140302255565 596.8258268419298 0.15727009526864366
14.806032812949415 0.42560440275725836 596.5543688826424 0.1431519655243859
14.81449115301338 0.42171817187742977 596.6253530723976 0.11922091068799437
14.80172415392687 0.4273929963264086 597.1245676916254 0.1003110221089152
14.801226255113392 0.431134335666537 596.6997051373427 0.16499258479290527
14.814118729646967 0.4283038520092019 596.7450402496468 0.11192637469791065
14.810242655892527 0.42524357390837714 596.6119312847965 0.15597790813064574
14.798310419138218 0.42597225752920004 597.033670879862 0.08474583503251948
14.810911503516058 0.4253414140470402 596.6541646535986 0.157713226019898
14.83179602024247 0.42863399615073977 596.7840487786349 0.17307734973474312
14.826163041664515 0.4260658851470103 597.2505260683608 0.13807023184168402
14.822972138078416 0.4307887270130999 597.0550632257028 0.11804792395856113
14.824283421406019 0.42343920010855246 597.1952376789254 0.06343376366139954
14.822264913348409 0.43222967386865924 596.5350191425015 0.13395349391162306
14.822626456844631 0.4298493385280061 596.6981693768574 0.16073373202445904
14.823625855159023 0.4314960310076788 597.3138023388397 0.09203181677303124
14.81527012087238 0.4256429621073603 596.9818008536191 0.1475118055356763
14.817155126236363 0.4204718193362775 597.3096304772674 0.05234178984263159
14.82464277419082 0.42737349689347115 597.2322850415105 0.13951460909498106
14.825984669776714 0.4266810219097889 597.0105048625643 0.09348573986683772
14.822870723283435 0.4301422047051921 596.956612063995 0.22558786120002558
14.822097629689086 0.431174495796621 596.877959607923 0.18543877128073485
14.824651278389137 0.4255498105824942 597.2052946733857 0.10022522392420921
14.82362734705626 0.4261940975721436 597.0755409022494 0.14214395513093073
14.823888179495647 0.43304262621568346 597.126274738385 0.12354530961799381
14.819780743334489 0.43255363013316606 596.8650792396006 0.18225940254358444
14.830947561162501 0.431418143774741 597.2901139819028 0.02887621891555192
14.813338071019054 0.4253706478243583 597.3340573396547 0.1385155837879035
14.833726581144642 0.4228158973870495 596.45733107304 0.1298640423252705
14.833250721494277 0.4325139300974692 596.5141236767947 0.09489989420868204
14.798224603458564 0.0974375814987955 597.5233003292627 0.07140116426977285
14.794006088138703 0.07125413880439734 597.5136968234136 0.09942641414659568
14.794746534368816 0.14922126034184452 597.5342248187816 0.01779443340227482
14.794706063868897 0.3436266571756945 597.5204529077523 0.07140382607793952
14.795895085310105 0.44907503075086264 597.3605699584652 0.13871244931934668
14.815720380269646 0.44011310728620184 597.3987245519796 0.05307355944393465
14.801141929722588 0.45287106703529467 597.3808701042921 0.05275775578338962
14.807388314856986 0.41791547242154575 597.4451728009145 0.062239789967160834
14.803322877835758 0.4272156329570336 597.425040887845 0.11696015125896016
14.81277366156444 0.43201155604889363 597.4312178654327 0.09118265266426309
14.809903012872491 0.4285903942067492 597.4307113547075 0.09753363013346461
14.819857978196916 0.42542874408843806 597.4175965142447 0.09443521227482166
14.830371587862896 0.39242214787266233 597.4754121062914 0.10433908078154082
14.822999378513751 0.4029900751143073 597.4591424715449 0.09126077720702477
14.818086384996441 0.3958607775910214 597.4765321971859 0.11693155085044606
14.807944087863538 0.4166908185483368 597.4572429434589 0.08633096503465744
14.80201037577208 0.41691692209616527 597.4426500847803 0.07351386027850336
14.832718331748858 0.40750701053634075 597.4459215258935 0.032630786163963844
14.816203809195276 0.4357484461785311 597.4182865726565 0.10869965776944608
14.814639166895772 0.4416317455273312 597.3617689625244 0.10401855379020825
14.796310554055808 0.37803516402961307 597.4872010067204 0.11293739296682524
14.818632418043718 0.3757711694804741 597.4967946014827 0.06799745515760601
14.816008579599881 0.33489110811715017 597.5199368737186 0.0489200331271549
14.810336269548099 0.35134996430011534 597.5059349222188 0.10361613611680452
14.820583809036586 0.29301127955117645 597.5365851707769 0.10617517039953224
14.829410216724874 0.30587852340007504 597.5276086005061 0.09218032566415375
14.808293726820656 0.31671717014466066 597.5279808364342 0.07261742890474493
14.789509180659604 0.27054026361311573 597.5397521406205 0.0066424490593191745
14.815536247847247 0.38677809225532844 597.4848019816113 0.1273669335343524
14.803666490832962 0.4062399593256554 597.4790645259661 0.07337360205873672
14.808918340604556 0.3893945375655619 597.4862459232994 0.13766994604707336
14.792555068350937 0.2865048435200035 597.5363446562892 0.10099890386974403
14.797716730068112 0.3079707847696976 597.529461166426 0.06945746785208172
14.835468858548415 0.19951020221376717 597.5064722191531 0.009021610026303105
14.820253765715625 0.24812245902371632 597.5090834945867 0.06801970200330625
14.826391892529783 0.19315451498024552 597.5171814169208 0.0628627121335808
14.824579103188647 0.254638769187714 597.5141835693464 0.08698899044284734
14.791562839025715 0.344903818579622 597.5070222615785 0.06026548561927495
14.793079301763338 0.35385267925116554 597.4993762858927 0.08771239563376615
14.793251882834268 0.38340102971605644 597.4847508159021 0.179581107770032
14.79558399443005 0.4024881716230247 597.4752984400873 0.09567090440359194
14.792196666645376 0.41215887962383857 597.4430279572894 0.04652205964760479
14.793767684463647 0.42709955755811474 597.4171344922175 0.016540808389591405
14.794104263349794 0.4265063521005774 597.4053177308177 0.0703880650762262
14.786284060612624 0.4269783217573245 597.3957477198907 0.10966756356201664
14.796143177156974 0.44933701986149766 597.3790172110237 0.10170970744632517
14.789449193723627 0.4340730803195734 597.3809007986167 0.09948420116033127
14.819828367751677 0.43416127709748875 597.3621804391552 0.09316271125355582
14.824753516374223 0.43179205239170426 597.3494092577736 0.08785681051450771
14.827592607383032 0.44871066258604403 597.3521746084299 0.06179065444653047
14.824433409554056 0.4290509548239235 597.345324601565 0.09529146306849282
14.821195351541615 0.4262078862434781 597.3830741807499 0.07025926856329164
14.825225825533737 0.4337846223581273 597.4138787850242 0.11767009562050552
14.822577639572438 0.409192233584569 597.4563306575205 0.08416566624950568
14.828324389372243 0.3907895399613971 597.4502541470619 0.12423430580042147
14.82162933980231 0.38454986037129374 597.4699016315797 0.1168966879801322
14.826506732187998 0.38079146442660644 597.4862919266898 0.11509385908906326
14.823315889298772 0.35875665460355183 597.4930076116648 0.06743681014517743
14.820231922335976 0.35333639257162514 597.5058800429248 0.08709251063925526
14.827148962395256 0.3375036418224115 597.5059977988752 0.06104392772614627
14.829447898310681 0.2846025848853549 597.5366523133898 0.08954245191768483
14.824555094093412 0.2675561814834569 597.5064175711456 0.0243324059784217
14.824731405808617 0.26223130867683786 597.5208962169127 0.08064211587294294
14.819733205174602 0.2889434981939683 597.5106753074685 0.1127075176211084
14.822568120644846 0.3076470223227265 597.5092284909147 0.07758963248270943
14.82594452481083 0.3272774447664561 597.500814360992 0.06515754927293634
14.811819885839018 0.1761036476890564 597.5326457199467 0.037346155873278934
14.807377957922608 0.23061126103636106 597.5355393187127 0.06817977221042563
14.822726346014207 0.15612253502486964 597.5355448195982 0.030914169662159995
14.801035135912999 0.25357686345205455 597.5365875808398 0.05705946705726398
14.802464854985594 0.16601021082342568 597.5356601681335 0.02848374440370056
14.79902167290442 0.130962355443518 597.535135656956 0.025215565396736486
14.79880541569248 0.1983433551851026 597.5314826156254 0.017123923526436432
14.819426156828618 0.08484838091563492 597.5296474891405 0.07692333955942549
14.802574539412579 0.09112070561363711 597.527103154472 0.10422640757982042
14.816882393909484 0.10288768113481711 597.5373735376289 0.03998916962187051
14.793928035711481 0.4299372035441229 596.5079133045323 0.10469286925912774
14.794641650251632 0.4445943439207085 596.7296637208893 0.13278951308281853
14.78801856236724 0.45483464424625875 596.5486879183669 0.14785022572277393
14.793081269815778 0.43427536200917133 596.7181911196434 0.14912717701034262
14.796138101478524 0.4446553339578845 596.969168724134 0.19179012672502285
14.796873151112806 0.4327171542960618 596.6852201186799 0.17365184806495626
14.793912225478001 0.4512323309963283 596.9952452880888 0.13740519058990971
14.790620966309387 0.4332309585957993 596.8122198362187 0.12920210514371674
14.784106153378454 0.4342255023043902 596.7403384909071 0.12591467265041986
14.788279831293524 0.4206493261335935 596.4439841339539 0.006971412660915496
14.793982804851234 0.4500439359176919 596.5177818895637 0.16897660844755288
14.794265466150298 0.43241037217682904 596.7659297534977 0.13012198760237245
14.792612508850853 0.44662834408471447 596.763329343135 0.13654254309610328
14.792191632804387 0.4515640783517099 596.6588306178874 0.15480945286673412
14.793682074463675 0.44019715914326524 596.8487420199957 0.16571352752729843
14.786162802234788 0.44044785108490553 596.5612862164421 0.10591056463414099
14.80875335905089 0.4547634589400546 596.6849487927577 0.1437767432677648
14.807766389254319 0.44905422011549045 597.0917998310397 0.15112812748406323
14.7877487977294 0.43251801898671166 596.4707314139102 0.09083620344192236
14.782752069321202 0.43902234881575375 596.5858838810093 0.1487569408300215
14.793448609361395 0.44422431849235017 597.1496455594477 0.12304781350069825
14.78935503035371 0.4421904148850911 596.6053232484115 0.16623110395033258
14.801815851418773 0.4458921080035872 596.8026649169302 0.11002660877843591
14.798403466515328 0.4408541818221781 596.8324171352446 0.1525109474292278
14.798974982227776 0.44620892583708627 596.5666318507325 0.1546534871150414
14.79028237946678 0.44024023848327926 597.1782689445191 0.08298960346598651
14.787032670983235 0.4435697847598519 597.0667654053195 0.1434434305093458
14.792521435745188 0.42537462091070527 596.6559785994011 0.14823150888691003
14.785238293764822 0.44293526180795717 597.3390538666074 0.2286184627925818
14.79060964547025 0.42863626873571764 597.2073534843869 0.1306244001676458
14.794456084414005 0.423420815944402 597.0146251676853 0.07236765445455029
14.793080499330882 0.4321746857477627 597.2363620626406 0.09637965629132077
14.78461971481908 0.43292634463855934 597.3453819774419 0.12447612604309115
14.789784981217384 0.44245967501036126 597.0072610224205 0.09891122693927705
14.798544718992611 0.4302168596540894 596.8547308177076 0.115754171629917
14.791264751657753 0.4404741847526178 597.1111658614933 0.15681222022940913
14.790237157985365 0.42230288557084156 596.5496066999913 0.08823970942448467
14.817699506258148 0.44764912599453494 596.5943778488647 0.11880920603463922
14.823456593589372 0.44567216717663327 596.6843093016369 0.18115333188162963
14.82867022721677 0.4363194452561517 596.5453489881929 0.12248178263992147
14.823736098606165 0.45128888101487785 597.2463980079701 0.14062531612145487
14.834320679536413 0.44061758555572267 596.6101418525623 0.15669258058281557
14.830486915687043 0.45329124833151013 596.9868272264547 0.10515184344457605
14.828344815975411 0.43471495522180964 596.7640864348818 0.12689411173764362
14.817815067304483 0.4399093259062648 597.1379385933833 0.11446217587774239
14.826696392146943 0.43206609696086584 596.6640065698231 0.19759167064212568
14.824815075274808 0.4511976156707763 597.0518500210401 0.12066936571764296
14.835555447728751 0.4440113344917421 596.7217975020556 0.10280323878760705
14.836673981683045 0.4361226492799572 596.8698474204178 0.11347711382683992
14.823720040360207 0.4437760880022271 596.6283906886316 0.14861196732268686
14.833624157430084 0.4389971762868948 596.5657777047777 0.17664830354765937
14.824027225861553 0.4305684285174709 596.7537891151723 0.13184653284314496
14.82864411102682 0.4599255030343496 596.5079402314357 0.1044119291633175
14.82713658402343 0.4366549084792858 596.4583542036387 0.14778484799731642
14.822899957059116 0.44011336619622354 596.6445690452839 0.17592921184270646
14.830639813440724 0.435105186764322 596.6238242831441 0.14492875112432071
14.828409936932234 0.4342399214181292 596.5785091140638 0.15563407147951405
14.824845078781413 0.43217899709898516 596.4917071576984 0.18541161325577324
14.822221959537604 0.4524440931934605 597.2078225588291 0.08812472868512879
14.829629543875177 0.4430635715709969 596.5304590747144 0.15208105783401266
14.822536879159955 0.4502055841705634 596.7994819040185 0.12459085114090492
14.828132376757562 0.4528765312282227 596.458454268076 0.07165176828259961
14.827708335433801 0.4433360073578825 596.7370238749264 0.14434619161348616
14.817693011485296 0.4499645433958925 597.3453026899548 0.10870770002907008
14.83009420559584 0.4406717737784582 597.1927828137623 0.09870658197706951
14.831655811395207 0.4484924170605526 597.298184331353 0.035199679194985414
14.83224411518011 0.43640811915160704 597.2294867390393 0.13455969861691058
14.833307566099174 0.43532258471281254 596.7951296367646 0.13698807653342515
14.818916566020745 0.4299309994201974 596.9998716182906 0.12345828596946808
14.833524582551059 0.4283770712396003 597.2611494027456 0.05340802162028019
14.830450437616227 0.431378053287777 596.984856865258 0.128363342291134
14.830296732235656 0.4463873122461125 597.3145768147137 0.08962548573144587
14.82114067101794 0.4268435654262289 596.8228182558043 0.14610674811702212
14.816487045810074 0.42677766627083796 597.0465472554297 0.15435815395615926
14.827765211099372 0.4257108766912809 596.5623598301545 0.14437697624269638
14.828279077246389 0.4348001234425519 597.3341799133278 0.08102878975270328
14.833186933763441 0.42524904592864227 596.8178193979162 0.14908192874208154
14.834174000661541 0.43885807856998765 597.1795417989973 0.18302082020899366
14.828096266015608 0.4462749225513143 597.3263040493028 0.08579351883435853
14.825686801039877 0.4292688838748038 596.8414216640294 0.13790079929143562
14.832376829183486 0.4335890803745004 597.1114165701786 0.13725261318978735
14.82896004145682 0.4290597784744502 597.2827412224631 0.027193342135763906
14.823566827207392 0.426591600189225 596.5829662274707 0.1219367729854147
14.829019952574638 0.43896786673063054 596.7115816176319 0.16454400896033758
14.823390802076508 0.43821968447209547 597.1401370878211 0.13032331431700858
14.806936804895615 0.4558790972661472 596.6119106336083 0.13918808975737673
14.82027052772501 0.44925255127857894 596.669584986042 0.2085355767859911
14.819544159417992 0.4506375732785801 596.8516648565673 0.13744381500896652
14.825786488871554 0.45209312231027216 596.5498897056941 0.09814554148237456
14.819483228127986 0.45061139200989503 596.8808886673288 0.16732241552525876
14.822198578573852 0.45126296198070687 596.6153077945089 0.1821750775142839
14.814608111939023 0.4471816233842129 596.785695200196 0.12648823160238
14.81110779458613 0.4500555015652533 596.7275254488013 0.1338081432130245
14.829566796617032 0.4499295106685806 596.7288923296328 0.14637699948519672
14.802005860502758 0.463318208692903 596.4607580974614 0.03180343392685863
14.83069530863124 0.44858251381175257 596.6048153070154 0.1584414967131145
14.824457832736572 0.4506971007343472 597.1730904742801 0.11205636110310516
14.809512728379524 0.45228768213839254 596.5985145707605 0.12521197974090342
14.833052738659086 0.45211688662875554 597.0375777827587 0.11167611778425104
14.798480899670588 0.45106442951035935 596.531592017172 0.15945503782371456
14.82687187452824 0.4474573077442573 596.5732744807322 0.14899085243063792
14.834470250668252 0.44290132893589207 596.7064746662941 0.16657962041039215
14.816138982589894 0.44863073114833835 596.9594591337506 0.15948009075755193
14.817800665549678 0.44368307912391475 597.0048428252304 0.11531268698088254
14.795051457234866 0.45232761766149876 596.48851807728 0.13979140938199014
14.83958638929788 0.44862786356212075 596.8225007252978 0.12580496737906932
14.815250529238527 0.45935325905901886 597.0930615168696 0.10057855701188034
14.819841288125474 0.44708058533996 596.9725930942396 0.1531977636775229
14.821385773818394 0.44979123170158974 596.7711193860314 0.1199832692827994
14.798857018506308 0.4529508829785989 596.6196547518549 0.14328606649676454
14.820043704086185 0.45693584823551964 596.4913824772425 0.15430129339485507
14.818591465958747 0.45289447185626525 596.8000415950039 0.13362370643141022
14.805914794840337 0.453614523162787 596.5525417509255 0.13458034011317502
14.809096693790709 0.4483426612915259 596.7451054660587 0.11157622244037546
14.799955446264795 0.45557744573586556 596.7001997376038 0.15914407475489298
14.807723895079794 0.4580369685437928 596.4990920165482 0.19934265750772984
14.828802317313055 0.44410254485761835 596.5678493612211 0.1445174929519926
14.823590217101225 0.4458369612129668 596.8255353823583 0.15765338566419837
14.825739360451538 0.44783763519053227 596.6626998885368 0.1719532213384077
14.825738549275068 0.45062383747013635 597.2745757983096 0.01204986717829763
14.811847655861651 0.4478590769087078 596.7472190432442 0.10903612664712252
14.814535638258128 0.452791958788953 596.5117480636159 0.16918146036050333
14.815344707290949 0.4535016258432388 596.6574055389209 0.21089992793535875
14.823507244656248 0.4499823069949452 596.7591241806595 0.11644769723841236
14.818906602568408 0.45552039633281227 596.4825121949659 0.23331559174670707
14.827219999037384 0.4462000997897375 596.7468070220227 0.1375649616250776
14.799729831915133 0.4548384953815781 596.8770123187885 0.06379080374251897
14.806826567637101 0.4471659866175469 597.03346309454 0.15710361082115856
14.81445727015507 0.45525516400574223 597.1582407154818 0.11363844658808729
14.80722214281669 0.4469798334350099 597.1035969027703 0.16591564420787544
14.8275247761882 0.44941956732974403 597.2224525104699 0.04038456519027372
14.808978637958791 0.45311492046762647 596.6790977713396 0.18219582583744182
14.790671329163953 0.449167658756293 596.4847621620285 0.15037457157125553
14.80837435029104 0.4511557994893261 596.9766950045773 0.17823896227952846
14.819009424466712 0.45624984292385173 597.0592966746498 0.13032720084751317
14.812040783187053 0.44841479628998937 597.1079381449842 0.1291303992223206
14.807588499939376 0.44921876270282574 596.721980970441 0.1453098445424519
14.80366782637671 0.4493102894091179 596.628447368744 0.1436393182074984
14.821286485524864 0.45008702299884834 597.3124050520892 0.0783880928182857
14.826648369945739 0.4451855260553731 597.1808782014535 0.14089093170733655
14.803044352645726 0.44738701923282215 596.8144307933746 0.11360692614557119
14.815049288339448 0.45581856089224143 597.326649507667 0.15126171453862225
14.810634251381233 0.4438920009517077 597.0254000986815 0.16491463749822818
14.809476225544586 0.44562391097570636 596.7770408648933 0.12086233926693167
14.812053891488103 0.4514219725275004 596.9425587849665 0.12598066447833892
14.81151790005157 0.44555113903002647 596.8341385391444 0.14109128858055683
14.834965254444207 0.504058462854646 597.2673722059321 0.16833031879230723
14.835153355566085 0.508618296491646 597.2491382940948 0.09096150686087552
14.79022047360538 0.5145260487970313 597.2467686884065 0.06959018013179294
14.78565928703023 0.5011975933717571 597.2910873844155 0.10561913942509671
14.783900902704767 0.5112216888006573 597.2691617734641 0.10162179739913062
14.820760915041637 0.47296160881818883 597.270521840584 0.03801456726841517
14.822296459553659 0.48745083658004196 597.264191498092 0.15139029227975737
14.817317519959984 0.475799288955438 597.2573302775206 0.0841119891115037
14.821581626319151 0.492465207391551 597.2486390960854 0.20505520555560988
14.833956753104742 0.49770113774518826 597.2805691273506 0.0863520867675073
14.81748072276979 0.49954287633320804 597.2850030756637 0.1632746939475818
14.800039609929616 0.5088062836690106 597.2861910313557 0.11355415203934112
14.809447474036824 0.5145397949276569 597.2825113314507 0.09900989240372168
14.823609597526934 0.5120474616214016 597.2753530975123 0.15719529156522014
14.823057569839765 0.5170841777950044 597.2558465487401 0.1023983674503433
14.809361382374075 0.5014225882095477 597.2436909118715 0.18191760363110568
14.790295851168763 0.5212047145736493 597.2823492718056 0.04071459073435747
14.803903312454217 0.5168986213947695 597.259925723926 0.117045366684689
14.80713662429234 0.5133251800364349 597.2774793428479 0.11492919546712459
14.779953613161645 0.44759104929762966 596.9373158334249 0.16093367467729383
14.854408768142786 0.4630099723486597 596.9287410805456 0.11053131929774537
14.867547642961744 0.45842791876273403 596.9288478901107 0.11786107489859163
14.870499956001098 0.41886264634650683 596.9153152800224 0.09930320013984824
14.867160587302223 0.42704284743555154 596.9287799512261 0.2498355252211428
14.84493184068268 0.4152832766311981 596.9353539735804 0.13001523615644964
14.87526529846857 0.45667614376042903 596.9145562186961 0.09071069444130328
14.880158584878899 0.45287606035867833 596.917634734633 0.13682010125242586
14.87976421446118 0.4233456501794958 596.9133523299622 0.1037805492580553
14.849249288154342 0.4649632275455697 596.9159458702762 0.03886808939379848
14.709438544927961 0.5087350148974221 596.369624253992 0.02613261246243698
14.697569176258241 0.5143964203010674 596.4095346576065 0.024124242244653905
14.760369308228318 0.5127355253970992 596.3881008891939 0.07288631786033689
14.730750535923873 0.5195257835487622 596.3811409851213 0.02788442480554991
14.702117352498952 0.5210335320814394 596.420908404282 0.05267979952265637
14.723912966090566 0.5168453550023283 596.4046137537114 0.04854866563214015
14.76110007272169 0.5148865058937617 596.4382586877083 0.0427415736990607
14.725471704085228 0.5205582007985543 596.4328412961887 0.038995489375570236
14.77516649379371 0.5141261813210128 596.4410049975213 0.02103790743266438
14.697857343971174 0.5002836206652382 596.448201599673 0.05564050731980986
14.700165184130945 0.5156419402219861 596.3991993906667 0.014947113587308151
14.691673549443628 0.5066741685469807 596.4275970172637 0.09423623842925441
14.754809745837282 0.5096467313923215 596.3772144521755 0.03808686722198635
14.734040892162792 0.5062679008085328 596.3702450528273 0.05672559793922315
14.769448148230946 0.5038503694566555 596.3935435956926 0.019327071191772644
14.773122111375251 0.510694409265893 596.4298030868272 0.13192365335193995
14.76435300543079 0.5024085943880229 596.4447988283831 0.04276693954263807
14.701121394567076 0.5141001078886726 596.4358203147044 0.06462176979844962
14.689911519049566 0.5060561965313513 596.3932862086226 0.03282670720693423
14.724145964688494 0.49902294837468375 596.436106195342 0.0613284884375766
14.737006119403395 0.49772191957536704 596.4402664583121 0.03670315143779969
14.869347383402367 0.5262536013067738 596.4001763939962 0.0411626840416911
14.869558603166093 0.5185922388378456 596.4194744280196 0.07663381643509465
14.876802749664133 0.5313629900667269 596.4059539337482 0.01833626142183056
14.838316220875285 0.4555351786580334 596.8966515171755 0.0807361060475651
14.846402905326945 0.4274182704497665 596.9000779395955 0.04888298103678041
14.839081045466143 0.4491013377767069 596.935535491879 0.10945007373407033
14.8407892519008 0.46697152277531917 596.9193974242448 0.03852982887627109
14.763931665397447 0.4239142077974709 596.9134726765075 0.19265747584782358
14.755421224869508 0.4252858625083438 596.9229468119223 0.14645936182652278
14.764420835674965 0.429155907664301 596.9428696834037 0.10001465101965518
14.828872937808853 0.46130415154112053 596.9134453412538 0.040343438703826104
14.810051955588934 0.46008393135912423 596.9183691180925 0.03156682895092555
14.766946863661808 0.46353513201979607 596.9099877544747 0.13376355151688676
14.75081678257432 0.4659723174056593 596.9139834681141 1.4596344960500484e-08
14.776143069037444 0.4524552395801845 596.9283571096521 0.11079374956794327
14.832913454006176 0.46371329258205063 596.9247312737658 0.029199457972480275
14.795885484582357 0.46066009254654383 596.9318647348512 0.10097177156136981
14.76170347799314 0.45735548258236375 596.9371939367135 0.06577528232992097
14.820299422238246 0.45488774331169163 596.9274029941325 0.06091114121222133
14.789337476504054 0.42377841835813873 596.9316250921781 0.22430355835860644
14.81446760584588 0.41298706786735306 596.9254205700367 0.025203796801556547
14.798206501696727 0.4142151401644039 596.9288359499863 0.05875653172201894
14.764194682068608 0.42053261201238623 596.9275598981931 0.1085708776583575
14.782367273208129 0.4149118040592359 596.9107658108686 0.014995851338913669
14.83099003892114 0.4132311830826659 596.9155040289044 0.004388135639970606
14.796796059999389 0.42127921243402394 596.9004474856235 0.02121519306237599
14.794541158291507 0.4560480768613038 596.9208548124145 0.09355239195376829
14.871460958292271 0.3965675023220027 597.1491226056919 0.12977795467911823
14.844684153799218 0.39831050805337886 597.1466189748422 0.19998859459664034
14.858625514894623 0.40513198810946227 597.1186632875742 0.11922335547223016
14.860449326204128 0.4210841896402529 597.086169239186 0.15125667166979057
14.868629579796368 0.4203759970765058 597.0931179514055 0.1655516947609954
14.906303401163399 0.413198014842227 597.1075199795721 0.14020277823240374
14.834882254089294 0.40901718454553454 597.1303480341071 0.14942811816789173
14.836864602402658 0.4248564055210261 597.0887501720313 0.11635984205130034
14.889321126239777 0.4136291223129045 597.1132513501437 0.13258788106711594
14.941257671092176 0.41582952550228747 596.3740364396776 0.026311928515072656
14.947958497220887 0.4405109579439287 596.3901612259078 0.10695879008030383
14.917891402924713 0.4517133609644843 596.4412590559064 0.023887337588524644
14.93656776996422 0.4532902090568608 596.4336710361687 0.1231005567032666
14.906640886373543 0.4359557798122415 596.437637528712 0.05976550300750994
14.913521134274907 0.42665755284868995 596.4327655167642 0.06505620665510525
14.936202591868751 0.4340070581301244 596.4396644433313 0.0482027887615212
14.924927169055376 0.4176216098909272 596.4309821613817 0.07628170858490953
14.939971743498727 0.41817805489119886 596.4147983804602 0.09199151229338631
14.9190797734944 0.42082125467466486 596.3969638264682 0.0475255358246256
14.909063252390489 0.5151977909162279 596.4442180496358 0.07547075010255674
14.915892469089552 0.5116038137016744 596.3964591586051 0.0200128925031266
14.90431321749567 0.5164910339135724 596.4137914704821 0.036076937493526876
14.88646875599196 0.521040475997354 596.4203054597277 0.05125687345019961
14.865738941945708 0.5173802946778581 596.3797241820188 0.036338138962115
14.90558867798374 0.5102233515136833 596.3796196053929 0.030390389882145184
14.85417695401225 0.5147035882785135 596.4225596321246 0.04641451457368868
14.889103269953624 0.5173715269056484 596.3753465253455 0.0047609558670156284
14.876610946139486 0.5112583614531162 596.437877258757 0.05594226009102657
14.88296836067654 0.4931003992090589 596.4427745433779 0.04141839669667727
14.91386207512762 0.4998507097773784 596.3687722255356 0.005432411616242508
14.854815856447757 0.49242988341948224 596.4458290170137 0.060778790672699194
14.91684633147726 0.507334098743189 596.4420457131282 0.12649754326506557
14.891581362196222 0.5013636140190841 596.4446438600838 0.07530040946068012
14.916194020499937 0.5052450255616281 596.4154056034484 0.047522862436023675
14.913938038548636 0.5158570252655037 596.3939649559505 0.017522067863129143
14.921243459056816 0.5029069842019261 596.3849809283465 0.035523252789437486
14.923087267264496 0.5003642754314964 596.4331545525203 0.08757330274937
14.922438418289827 0.49681506844215995 596.4159032580402 0.044703394805386494
14.872119742800828 0.5142380598790609 596.3726213089899 0.036975663302865655
14.84815564002052 0.5019759639151512 596.3832732733019 9.447836512222502e-08
14.849398355881922 0.5142904285298628 596.4417325100723 0.08066108021947303
14.859143023632761 0.5080074973790483 596.444694177582 0.06538301259782388
14.891960175250372 0.519726514889565 596.4362072350332 0.052078943955183206
14.873996712514945 0.5167299874876969 596.4359137431162 0.0500842640552454
14.898742422349676 0.5007206426479663 596.4415913501753 0.10979844801869133
14.750278981470922 0.42266117548171583 596.3836933471032 0.0012607631401114847
14.862662818731822 0.4235650642269356 596.3835275305569 0.015369738798987596
14.846593473059235 0.4136001475383006 596.3892734323929 0.07233460285046002
14.906722356078726 0.4252746850740613 596.3828073495588 0.00800975831427581
14.888096329034665 0.4201940762828919 596.3933699312785 0.017303435993505135
14.722087472920885 0.4212074585814535 596.3779046762824 0.0009080857405983195
14.875272933719442 0.41899185881568085 596.4257856901072 0.03606602984924342
14.743369356776185 0.42285409827535153 596.4341443095547 0.14049556036037325
14.739803044609832 0.45190165874286164 596.4372584756227 0.013705019067332104
14.734688945037039 0.43510153301899973 596.4392252327334 0.12356270438830955
14.894454395156977 0.4141300572949899 596.430795245726 0.041145525693276515
14.850788789112748 0.42116919436682665 596.4371529491337 0.02285668920802901
14.884028608761062 0.4274385138590501 596.4329626328157 0.04448057568447026
14.871676815337485 0.4388972960736659 596.4379708365991 0.03913387644131392
14.897597561786526 0.4263057940277989 596.4328310487773 0.04284067169205023
14.763322901187001 0.42085697469258115 596.4378126555771 0.06484696239572629
14.723426277773715 0.41396929205905386 596.4092153971498 0.027562244281615314
14.751584448327275 0.41454309913777865 596.4212249152012 0.03349086363842254
14.788194892628807 0.413587958704353 596.4173573382485 0.017375549461960474
14.793723144019513 0.4138369161545585 596.3940028426806 0.006992193157084885
14.777188051574306 0.41839786996235157 596.3958937623717 0.007661625171221356
14.758586826359048 0.4171496399714313 596.4101080695347 0.013201553684047245
14.733789410098485 0.41722123154483626 596.4051106756656 0.03272469224102071
14.785550733128792 0.41733398435125685 596.421488664001 0.017889690863638032
14.836746219109836 0.41810065357436965 596.4284993487079 0.016107360731929594
14.821759324155217 0.40663431951769824 596.4200584976712 0.0029697063080955663
14.856124791595747 0.40989797518753035 596.4036167309035 0.01810758572208329
14.862176980466918 0.4184026771654407 596.4220286419383 0.051358095573055304
14.900166857775552 0.41409059284011146 596.4116030441602 0.04201892338457679
14.908513421581885 0.41713049986091244 596.4064433008385 0.032529562690680455
14.724753250189682 0.41583665347018056 596.4388089515726 0.059055304955965955
14.876636453565306 0.4159428309711034 596.3992631193089 0.03199253004352899
14.88307976836593 0.4166899698117202 596.4136184874333 0.05582292585880491
14.909431779228477 0.4358403878775554 597.1070096033171 0.1099183852146576
14.908200487253204 0.4277085530116024 597.1195263742441 0.09908189703083768
14.910556753467596 0.41355659359990965 597.1379271819966 0.17042514656714497
14.905620803821442 0.44001706395299756 597.0930528065426 0.10969681278657316
14.901018130790648 0.4127391585556632 597.1511336384106 0.18674848815177345
14.86123912954737 0.4289199656756284 596.9415763164812 0.21174122235298798
14.86614341215868 0.42968064064698247 596.955492144674 0.14713050946089823
14.836001207406241 0.44264753686141356 597.0829677286671 0.12824207840814603
14.83960071592763 0.4275791118392438 597.0802841554348 0.1586877543116454
14.853540393536653 0.41277694781129404 597.1609348687942 0.1625942242760801
14.831530074691381 0.4021863989100765 597.1490242462805 0.11836971628556056
14.842858685186542 0.4012678371033324 597.1512649033141 0.21204236683925665
14.882411427097411 0.44744823354527336 597.0791833868668 0.11259221668971844
14.906758244738485 0.438280959083368 597.0795923434052 0.10072224077158407
14.839264181592156 0.40797198599342555 597.1264507341338 0.14123259481941675
14.839764407710014 0.4050721532312971 597.1319951371132 0.14318798346197303
14.904216249743982 0.4062729988770784 597.1519211089299 0.17401395723281574
14.910041764910694 0.395562956492992 597.1485306928756 0.23611664054286374
14.897723499878401 0.40237395594241815 597.1268219023918 0.16400464688808758
14.91134779803175 0.425774331277548 597.0872673109457 0.0871810839694293
14.87611630094123 0.42481032316503947 596.9916993939743 0.0865525681382319
14.879258497474682 0.4337683302243987 597.0238093135055 0.09593584587232142
14.871134585648074 0.43086569907706274 597.0381517818621 0.12005762975497437
14.880244152441994 0.4295729786505686 596.9987609041935 0.108154390164173
14.875262896373545 0.42941318002204465 596.9671320139178 0.09996194720980678
14.856377305844067 0.4306527727372711 596.9975981610163 0.09036813262233898
14.864013449369958 0.433374296987881 596.9765121065977 0.0961629492261527
14.861100926945841 0.4305981947758158 597.0154188347778 0.09668623071723147
14.862939850767258 0.4257345472591383 597.0516161254542 0.11587701503574763
14.878437118501063 0.42694366868338757 597.0897437350853 0.12818903574184926
14.873354325596658 0.42923434503651897 597.0115349110176 0.07994967180610969
14.868338623189876 0.42930125476913883 597.0625028286623 0.1289336828989264
14.850123661786107 0.4312391188298998 596.9648414227765 0.13572587915017692
14.85325311856987 0.4279846272324664 597.0646925781174 0.1323708825671822
14.845520847802707 0.4336021049053522 596.9932407559696 0.09246526256939058
14.86246558638646 0.45063046220739456 597.0709465815039 0.15687421879884467
14.861687598722769 0.43163164545039095 597.0265516853403 0.08631648346629132
14.85249498140549 0.4484126675307169 597.0182980540038 0.09865912577687522
14.843160021184154 0.4432916672166617 596.9928361116167 0.09244048121616828
14.853726198985765 0.4444967734133494 596.9887273682297 0.09325047143062395
14.852082412020636 0.433283592454268 597.0313503910032 0.09342769752869216
14.84944786361892 0.42926055431767446 596.9496109300401 0.20713591424716388
14.857173078670755 0.4492798255273027 596.9565178557244 0.14962398227816506
14.852539843825399 0.4532069843232887 596.9408413419122 0.16976654702223146
14.855669529129925 0.4502348008961961 596.9743326627942 0.10312000139872794
14.85501905077083 0.4463926033302287 597.0379476885927 0.13368704609581522
14.862079450672695 0.4500633463662628 596.9858538281464 0.10966728950896856
14.87742982582847 0.45145069902430807 597.0133347008458 0.08721051801397078
14.886684311990983 0.43930005232102975 596.9855503838061 0.11386309196486513
14.887000813204361 0.44403355278357864 597.0464313986192 0.08392005737149286
14.867786495666156 0.45366029933346663 597.0665876165098 0.12518202808368853
14.88308459501396 0.44601874049340234 597.068237848175 0.1643879936692597
14.853859077250096 0.44776674640162667 597.0597299723058 0.10716188985001607
14.861434763063752 0.4470438671450993 597.0296572032166 0.11155072572436261
