x y z curv
0.05280357702464088 285.039736309178 1033.7582550349107 0.0008316212479348054
0.02855871514892837 285.04407351932736 1033.758493610672 0.04280874054896028
0.065315714800736 284.98258838677526 1033.7574281732675 0.005322501725450907
0.1108861561811818 284.9662233775829 1033.7544345958745 0.039903439144202114
0.08457987044909229 285.17117520179784 1033.754743149288 -6.581127856104429e-08
0.11655383814720646 285.1690777669281 1033.7526584851305 0.0008322347029420205
0.03138329719309403 285.11056824274266 1033.7549252733147 0.015111572586982222
0.02256738106220655 285.1038219605727 1033.7493774543573 0.014918576731796413
0.03311545619731554 285.1058420132936 1033.75563698154 0.014753942590220838
0.16358695898765122 285.1307648879262 1033.7605892463182 0.03447068955002235
0.18308387331663478 285.04958273350996 1033.7563524619022 0.14151737369677972
0.1981572209261477 285.0382475424377 1033.7491520954266 0.1171043042451329
0.17776381286723955 285.10736580168395 1033.7524782350706 0.049310827151903484
0.20315657533782933 285.06643846775535 1033.7564607003085 0.1576850537276659
0.20056811650249973 285.09603423661804 1033.7510744547883 0.049028582779070864
0.13498569240762598 284.99161219625654 1033.727383446807 0.048676834050312805
0.06827644599948678 284.9717939774787 1033.731523768136 0.009495000722552965
0.1835242609744557 285.0638852383804 1033.727028408544 0.08844004268738745
0.15107726689618756 284.9743201979191 1033.7381384852442 0.03652048346524942
0.1469034239261644 285.1599697489469 1033.7477978173513 0.004463882049394333
0.18750826575091556 285.1281854194833 1033.7349054066758 0.055714246919620444
0.18021046923714537 285.13627401438634 1033.7519222434225 0.04444502679163567
0.20739174085380477 285.11013280723563 1033.740193625421 0.0705561867115366
0.2019619350718523 285.12222094903655 1033.7497306973953 0.048579737375468876
0.20329526108296084 285.0469200620892 1033.7285662425847 0.13620175031037557
0.21231060094732324 285.0596205285807 1033.7434692647576 0.12570905718746397
0.20012933782108278 285.0177591135563 1033.7381876786699 0.06326947597381972
0.19301253769125395 285.0224299596613 1033.7496941612803 0.04299831369301638
0.17763786123635333 284.9926818746218 1033.7496562656365 0.027049152988397173
0.16122960095769392 284.9734117140445 1033.7487976525067 0.05570976024202014
0.20159044458207606 285.07699158159096 1033.7384765446893 0.13409951314953672
0.1967978498108086 285.08170393433227 1033.7529308602304 0.12550700829948358
0.10526374946612331 284.96218474409375 1033.7386153992227 0.003345822986276422
0.1315641270099215 284.9667932760239 1033.7466453100112 0.058680422122936116
0.06023515853411738 284.9774761034551 1033.7508144954663 0.008664828291644982
0.014269619849203677 285.0189672402195 1033.7401679340076 0.01515822857022081
0.012483855154713444 285.0524967825212 1033.7341862213368 0.023945894648920968
0.03273088256123507 284.9909645867335 1033.7449358201302 0.01162983855323192
0.01655880906356853 285.1048474377292 1033.7290241134458 0.012510486633546102
0.011640712732232472 285.1190417354316 1033.731607812529 0.007153301188343266
0.04253836509017195 285.1228435183823 1033.757566142325 0.007536333319397348
0.0576114700426782 285.164628242588 1033.7412594795169 0.001073678156197419
0.07923423057780751 285.1675240805864 1033.740084605766 5.182085590207765e-08
0.04526569049405735 285.1404821111368 1033.758245658266 0.0013523120842340985
0.006708142826076741 285.08766200267627 1033.741992405748 0.02643806894025897
0.0708403111995698 284.97642471973364 1033.7600045369315 0.01034703980584229
0.08435261859418407 284.9681462065092 1033.7468487344502 0.04147506575884049
0.09830828600103575 284.9647751787139 1033.758380863352 0.04148818636760757
0.01223795202837092 285.0510231634012 1033.7508184954904 0.0189375127124449
0.008471278937442858 285.07097936548263 1033.7497043067074 0.024096650258360438
0.013838484736376928 285.09117795945605 1033.745913952235 0.020922359684808472
0.020577301551430793 285.035344629387 1033.7469061907711 0.061890628575215136
0.03116596404430682 285.0075295862963 1033.7550850554849 0.051575620254416706
0.023692744139211998 285.02288075901276 1033.746560034972 0.05237150755637367
0.1655556992613886 285.0242709508984 1033.7563132827759 0.016834907523762273
0.19367563424238113 285.00639633422986 1033.746330751125 0.03271266346179394
0.12971150709410695 285.16679504394403 1033.7536868616107 -7.335168895337599e-10
0.03181475453751758 285.1395480130502 1033.7258279917203 0.020892850847843994
0.01901643635029154 285.0379518177167 1033.7343354564107 0.0203109867608001
0.04957921833612478 284.9862791431265 1033.7321239760236 0.020506078773645735
0.16052362327130787 285.15804660870435 1033.7368338007832 0.011339261140712032
0.1823153668570592 285.13761713526713 1033.7345501520101 0.05762960660584121
0.20599587699132874 285.06329682968396 1033.7395746336092 0.15743585194783688
0.1847592300581164 285.0000751721374 1033.7359278806227 0.012211076964695429
0.11950957205907621 284.97573323273537 1033.7338241019543 0.06014120325371772
0.09626562365917446 285.05832540407505 1033.7760993662675 0.11092839741774162
0.09067506126200364 285.4545895527192 1033.686756457316 0.10872334360866269
0.09922720103030375 285.4604684975442 1033.7111564205989 0.13091278971317744
0.1256839129217511 285.47263400671415 1033.6958221108603 0.1271448556924517
0.12347339679174717 285.46109653328375 1033.7059370289808 0.11994489972942232
0.12558253801778557 285.4584912477837 1033.684526700489 0.08866918551759655
0.12700524249961836 285.4824256088984 1033.670272700607 0.03403226929795527
0.08808533346496526 285.47513364665895 1033.677515678979 0.0795556753800021
0.08636080037236334 285.4846399571541 1033.6880012972288 0.015371833515758352
0.0899500379013123 285.46870336812515 1033.6869938641885 0.14647841985741217
0.09544523315395759 285.4580850645039 1033.6653989363228 0.14798573645455448
0.11683733321112767 285.4532194402645 1033.7000954613088 0.10579308505896866
0.10721679849632873 285.4445865207769 1033.7103207289879 0.10360342184721666
0.10465733960804491 285.4481427858912 1033.6667009234395 0.09860265485049992
0.08849041114489299 285.454325973935 1033.6852813560554 0.0935243536378325
0.08201831787527938 285.5302313380413 1033.6783579025325 0.059948589375184165
0.0819502310675652 285.51304093970384 1033.6826674863723 0.10619407210580957
0.07577888245397338 285.4996298956525 1033.683445831711 0.015870278570009014
0.0876318843250915 285.5165329441967 1033.6619162469012 0.07659376327844454
0.12234650350742997 285.50309954886524 1033.6623144765513 0.08275682739642337
0.13112692524259847 285.5165318764758 1033.6817318774686 0.10420842023237688
0.12468414246232838 285.5303470159646 1033.6688024833197 0.06279225686993714
0.12867581385716215 285.5307112194916 1033.6738273997378 0.08497747342240185
0.13729755915069647 285.5149556194621 1033.69326831978 0.11572121980747636
0.1294782482519422 285.50224122257833 1033.7037635451015 0.0713326489393182
0.10986429375693293 285.5153556257219 1033.7123017320146 0.10907731451456772
0.08105380487856692 285.5099983481063 1033.6875313722533 0.11286795316819308
0.08752583325412816 285.525428735738 1033.6955064439787 0.08719180774424835
0.10314574745737552 285.51616792007326 1033.7135855363983 0.08527184146929856
0.09306089044896027 285.5280320690755 1033.669471382578 0.07932524616977037
0.10812078402454572 285.5369251006803 1033.675647867892 0.10134771857596345
0.12345064897659604 285.5364210518294 1033.6894167096273 0.07633285716349111
0.08343551774124726 285.5330295175988 1033.696317218064 0.06100462070789609
0.13521887135753466 285.5262872814243 1033.7026908409039 0.04637259012632426
0.08372168800404778 285.50104918908687 1033.7000215841538 0.048111920936242794
0.10778613185407304 285.5009381369667 1033.720173993551 0.12000463982411949
0.13139291825390997 285.4931785590982 1033.6790276087643 0.009455506797311521
0.1298997137012272 285.5000236117249 1033.6960034800404 0.075761410499411
0.10037748415709996 285.0673212499736 1033.7877753038674 0.1250675360491428
0.10509253720267336 285.05466039369685 1033.8042848280709 0.06348346209130402
0.1231247429054449 285.05849003351517 1033.7897207856558 0.03561732224186526
0.10077347782142321 285.07539320298685 1033.7906567916787 0.08744734156744208
0.11497460772953313 285.0678320054318 1033.8133177590116 0.09948852564407636
0.0907927501668567 285.0741347472157 1033.8265679269489 0.11270029138797236
0.10581645105037189 285.0610681182835 1033.8379375210534 0.05164358776619836
0.10325611835844191 285.0827648781971 1033.8554700409234 0.0841479735292407
0.09697534951649162 285.09887291710504 1033.8632125187632 0.12299744480240937
0.11795012180007397 285.11323136607604 1033.8543296705097 0.10758280635830281
0.11290298742496854 285.2363519587032 1033.8565433641606 0.09344715586509976
0.11178729086079187 285.11326846601594 1033.866569010765 0.1075135781369451
0.1204680600090105 285.1601102307317 1033.8645323475587 0.1395206644038617
0.12239490881758591 285.30785612422085 1033.8630952815406 0.06172802070202839
0.10730661959379384 285.2431780061335 1033.8727316826935 0.09852789841479047
0.0976573045154824 285.3950649329968 1033.8407082883678 0.12840946781297666
0.09729968269603965 285.1751249611065 1033.8606192178531 0.08256379332461644
0.0971093123312269 285.1684506971912 1033.836631569618 0.15998610236149657
0.0982798625849403 285.25797346523024 1033.8527252185047 0.09687288505739618
0.10769166473742364 285.28660282692476 1033.846533277335 0.08039884711065445
0.1035422439499052 285.1597451292523 1033.86402736545 0.10265503375809618
0.10320092676319365 285.34015452856545 1033.8673035621039 0.06311181950883087
0.10045378014884139 285.409941167775 1033.873334257947 0.06712619283853168
0.10695369637818747 285.3415638637378 1033.8654971315339 0.06531584584275558
0.09935865872782418 285.20719600751585 1033.8471490044183 0.14872076459487002
0.09769369004621067 285.1503461564917 1033.8495995738053 0.09712848022369189
0.0999609480465078 285.116883395909 1033.8452064434048 0.09913716745115865
0.1189937249177346 285.1631217291372 1033.8459069326186 0.08725230348362437
0.12072865058074891 285.1631393675321 1033.854522856421 0.09571209630724513
0.10208874451457382 285.1410699063039 1033.8467065520717 0.09063762818116904
0.11668325075520401 285.25913153706523 1033.851653621008 0.10290458479174402
0.10466817906358185 285.4009645946619 1033.8532099538531 0.09167302453277894
0.10519369155689015 285.3150324861296 1033.8643365831915 0.07269683824160367
0.11428394255356086 285.3066366386355 1033.84476977784 0.07929833773826753
0.09546524125927386 285.3743671076656 1033.8411329788908 0.0885937685477309
0.11369598907562782 285.2798248216333 1033.8469980699047 0.07951814823560908
0.10372329476003969 285.2542580222088 1033.844578277955 0.0995774550583041
0.11557889876078548 285.31898902543855 1033.8525506250794 0.06961453131306848
0.09797033444072147 285.3886920762513 1033.8576685466996 0.11779900990885366
0.1166980624519485 285.21210361397954 1033.8519725248582 0.11936430577246722
0.11761682546303066 285.3718527865475 1033.8503569274737 0.0793482890880475
0.09685858452504215 285.42055797541076 1033.8645973785685 0.08768011357487451
0.11665334518564592 285.43397034777564 1033.8423081415194 0.10802237128956954
0.1249427508634047 285.45152159576355 1033.8429296292732 0.1377255470613137
0.11090768432248993 285.45317986121074 1033.8476752414924 0.12274154018544316
0.09539039145009746 285.47120822948773 1033.8316355562852 0.11827250184050637
0.11096540073477894 285.45084904438505 1033.8268731445621 0.11918233072536594
0.09755270143813788 285.48721789062006 1033.8259437517072 0.17061515906618718
0.12722508579187466 285.4791241493909 1033.8393371184502 0.07955837124828664
0.11751828052114487 285.4540227604448 1033.8206082668037 0.11976756258890427
0.10397665232244996 285.48009454822324 1033.8118379255855 0.1689294424456338
0.10421668429766541 285.46117480708966 1033.4428887977003 0.043926630200025206
0.09703650712685312 285.4570691929162 1033.8054304323823 0.1114005868277757
0.0984018459829909 285.4719173689765 1033.3734587708225 0.07477700381538002
0.09482002492369329 285.47737105685854 1033.6427682601538 0.11633804929127288
0.10053785459454587 285.4818161026467 1033.428220298236 0.08730632626916617
0.10000930636402149 285.47692409930056 1033.218453362588 0.08483156299926098
0.09448651694577596 285.47513368607224 1033.7682490327045 0.104212694966738
0.09612619014500991 285.47662486833883 1033.0395145990765 0.10806907974702654
0.09719367578485309 285.4777977880098 1033.1128771372498 0.06652788669111064
0.1033579074878881 285.45575071668344 1033.5803736206278 0.06085181018155005
0.11140220651597231 285.46314509309616 1033.1277805543655 0.04198751544740821
0.11101041794065872 285.45192753732465 1033.6429142091408 0.1606180323990164
0.12284634074225881 285.46459143631927 1033.5987637697258 0.12467896210149523
0.12363305017507857 285.47514878191663 1033.6728001426975 0.1437467226543407
0.12175089694350906 285.4732333928934 1033.7215581849368 0.10793793594862633
0.11961228067152624 285.4663469246861 1033.7704071184373 0.09701266823902611
0.11565509785669294 285.46489149108555 1033.5499594190755 0.13383205460249964
0.12453837113998498 285.4620631176328 1033.5767619348956 0.12284762960586394
0.11875560342446409 285.4725257501637 1033.7438601327665 0.13950094432264484
0.11893110940580234 285.4702010493213 1033.6024910124383 0.09790196905679405
0.12171146259794115 285.46394020333594 1033.3998725809322 0.05627507012347449
0.10324387483052155 285.4558532909996 1033.419060291085 0.09737904096952224
0.1013545056437593 285.4578522862404 1033.6538964984888 0.144386118037947
0.10568947964359013 285.4508452027465 1033.6147804044851 0.09195819780931487
0.10247782606628174 285.4575712720942 1033.467600430517 0.03107342837829807
0.10705560045801552 285.4504319258741 1033.7347629712574 0.14190527029893768
0.1182061429826496 285.4784124994651 1033.781665009832 0.09575908207115393
0.11498147100730186 285.4794583049874 1033.8083149300548 0.16759012512118815
0.1174977251546718 285.47509965967964 1033.5254544808345 0.13493767615096955
0.1180951193767461 285.4808257110626 1033.6161818236076 0.1192136198095781
0.09167729202231231 285.4791228933457 1033.1808028198168 0.0630770005246853
0.10073957743552066 285.47373383337674 1033.2011989548937 0.06986550705652983
0.0875585486787243 285.47168083600224 1033.0097052914296 0.06235767834839758
0.09282357285597108 285.46621151809745 1033.4023912822124 0.07230706008065954
0.09867339428228149 285.4712338867253 1033.2313961680645 0.061308907526371186
0.09684335701892603 285.4789770941853 1033.1372596100894 0.026116164900972346
0.09406183727817115 285.4657864954541 1033.5082296507176 0.04067122614347355
0.11089898922610053 285.48756344797135 1033.5530089737756 0.08952966054677543
0.10771756373858384 285.4809318541681 1033.752978233205 0.1483187789964092
0.11322320261277373 285.4700041493123 1033.801644232203 0.10375625531229496
0.12285238337114297 285.4575951934889 1033.6405371075136 0.11302593120881631
0.11771383674080137 285.46418978292235 1033.7609342045128 0.10524344171149445
0.1028029874766506 285.460169532259 1033.6351097037893 0.1323182591171955
0.09616106344019164 285.46076261045755 1033.558862402102 0.1048190341732017
0.09573815127835374 285.47059462736024 1033.428517974227 0.10234031337793353
0.09555922222305105 285.455973162501 1033.7598118243786 0.12576763436865582
0.08906460090370569 285.46480327894756 1033.0682772816049 0.051135843414566944
0.09827785434445979 285.47384304444705 1033.5662420790106 0.12640693232571892
0.0844306829290395 285.46039640037236 1033.2802460245775 0.08106859329103448
0.09723373237352723 285.47969261845356 1033.7910078957818 0.08705279715069032
0.09908274467424942 285.47772173505143 1033.567574801333 0.10151673493628875
0.09778018111858686 285.47980003273926 1033.6225465849632 0.1283429883879759
0.1063156249469894 285.4755893665761 1033.4735886332753 0.038170576867827266
0.10617878953060342 285.48098641755365 1033.43572250467 0.054784536063596796
0.10361399142348036 285.4836269788872 1033.075063324494 0.09127679318009442
0.11291366758625793 285.4599939903241 1033.7356679980444 0.1361589767253892
0.11305696332800955 285.466786349611 1033.3479124293635 0.05856806771607459
0.11931761393578372 285.4526793951806 1033.724519531534 0.10420500097045302
0.11764828787839245 285.4632995323679 1033.3713012142769 0.07762497974385635
0.10938572769971036 285.46236240240984 1033.1887527572774 0.07344564411354634
0.11065110027559696 285.4581170117704 1033.1109925460362 0.0659286513018422
0.1111496111821717 285.4548695778372 1033.2719408407431 0.0032998120151689738
0.1183907095729874 285.455650183589 1033.0748449292382 0.10550623322977036
0.10952991539679992 285.4611773197876 1033.3895951360555 0.07024732409627583
0.11620348310047085 285.4554669113756 1033.0552701311526 0.09991724678486984
0.11057909691972131 285.4883503919875 1033.2249342091675 0.12309601457759506
0.10103052911074754 285.4706219283388 1033.4508256736372 0.02160807026950722
0.11519755663916567 285.4858082581884 1033.0053326049624 1.0887094914641751e-05
0.1143388396034717 285.06255201741106 1033.808206544266 0.08731456431178021
0.111478188141926 285.0740877483677 1033.7880659387035 0.07823626354840334
0.11274012031474473 285.06222301807185 1033.822494372516 0.0864715085052247
0.1120184751306553 285.07076150508567 1033.8165542821578 0.09778195251376666
0.10046451196510602 285.06283418533735 1033.825731894173 0.07593757474333239
0.11286350318849825 285.0740972011237 1033.8253041712385 0.13214062182687414
0.12690869503552135 285.0617332670718 1033.8301012758227 0.09813716039573173
0.1003088480269648 285.0631694448794 1033.8304082925422 0.06274176519868198
0.11763479127714632 285.07920667265313 1033.847643250688 0.0757166502162821
0.11464734798812734 285.07736384477937 1033.8370534142327 0.08429313105587098
0.0861395704644124 285.09082200280807 1033.841484450699 0.11255462533545509
0.10919237151215251 285.10063051011514 1033.8432175866963 0.14393534643146663
0.11996032521555716 285.09416695177464 1033.8563410010872 0.14567733349337758
0.09196454101256647 285.0883760471251 1033.8577882996492 0.0851856316650575
0.11512594098099072 285.1041458414099 1033.8608692705188 0.13745426325547727
0.10370550137816018 285.1100762215341 1033.8671406235535 0.10722941712836911
0.11448561564984601 285.15232697782324 1033.8663635475634 0.1059657947198455
0.12289835397175436 285.1764038498819 1033.8603056743673 0.09289684286545226
0.11834189240586875 285.3268949897607 1033.8601758390473 0.0960233111817895
0.11530304388279153 285.37520236174606 1033.8614608876387 0.08793961528086726
0.10559649975203435 285.2684602693558 1033.864838330632 0.10399953371903074
0.1075426856479293 285.28224071184343 1033.8581412364815 0.08368830867397349
0.10940259780364142 285.13008264579037 1033.8640206606508 0.08421705695899975
0.10613382971121782 285.19286265617 1033.8455613962276 0.11290041687902781
0.1071808246965581 285.3134774030953 1033.8474716516419 0.06600411708006149
0.1037402113165102 285.1289187992298 1033.8458876819018 0.09010069140452878
0.10537082430816841 285.2774548764499 1033.8430344577068 0.07857861092264083
0.09373678984296473 285.350459025222 1033.8629765684775 0.09085897759450648
0.09919208851726224 285.1663489772255 1033.859235348527 0.09664709697669349
0.0979792112726126 285.22445728813824 1033.8636548456093 0.08838127438359339
0.10842774651049086 285.3677087362736 1033.8698878831524 0.07724534637370419
0.11536551972550212 285.21438628828327 1033.8702215536393 0.1123125996583324
0.09278219211202089 285.23264573302254 1033.8484018105116 0.11651697682228859
0.09298685973920588 285.32893168420065 1033.8530204350138 0.10737227863741265
0.11922498019110131 285.3329862583186 1033.850335186261 0.08745595530064025
0.1168642679558002 285.243104801145 1033.8494364103674 0.08608754620214899
0.10563645527422882 285.409150793623 1033.8503005081038 0.11383297032110312
0.09067671596968474 285.35687187082027 1033.8512155191272 0.14366078884418854
0.10030476353825223 285.21167365877784 1033.855251862808 0.12079306309745218
0.1165512634280044 285.1249518891333 1033.8520003784188 0.0825069542887977
0.11843361957517616 285.2752304379023 1033.8502347315782 0.08017140740376637
0.10829376229377176 285.22462419286967 1033.8467917208934 0.09209591298309108
0.1099201105786084 285.3538117278243 1033.848562140401 0.08417661737431686
0.11011701615545855 285.2060221638475 1033.8482094416554 0.1011284718000177
0.10201454278770632 285.3695083965966 1033.8617084650396 0.07506057196111042
0.10306444650845117 285.29057503015287 1033.8620697761717 0.07874430530933013
0.09790417042650136 285.30441316028816 1033.860158731839 0.07610149086971128
0.12630358922186027 285.256362355439 1033.862099367503 0.07210056250331476
0.11830389223715734 285.3179457008657 1033.8594376207943 0.08376116810205476
0.11999087832852502 285.1994575581272 1033.8517581412605 0.09356089776395958
0.11730797320719293 285.2839511808271 1033.85867246192 0.08539905709197301
0.12190872255648781 285.2140609697579 1033.8586970306742 0.10094942394581385
0.12096710013589033 285.40129209572564 1033.8557480136049 0.1016300297642341
0.12196039916813783 285.430410616004 1033.863032248099 0.08813504950957543
0.10480527390466947 285.4357549071663 1033.8425904393619 0.11201686619768547
0.10121454701203854 285.43628043307314 1033.845444304614 0.0995171600155979
0.10066790527437013 285.4649507345436 1033.8322418026657 0.1140356224419411
0.09771592225990834 285.4673524050971 1033.8208939865358 0.11796387335255974
0.10342271452464644 285.45708644267404 1033.4039406735467 0.0655094635462182
0.10680978537585092 285.4887133133931 1033.3633147251917 0.022139007565233078
0.1176640975931539 285.47671280800665 1033.6395293199453 0.12561579704242531
0.1095819606349652 285.4766861621879 1033.5386675349457 0.12076031844244618
0.11925037052188135 285.4649227248643 1033.040418375937 0.04018907418497709
0.09774858743636683 285.4657357043068 1033.4602445485746 0.028258701500816115
0.09865183123141137 285.47273069839133 1033.4795853088638 0.03923451612815029
0.09425801669256766 285.46667683795465 1033.777516162438 0.09926862830691159
0.10103251290842928 285.4666753884376 1033.216567322418 0.09023772027887911
0.09889387109494838 285.4599485443825 1033.522660828494 0.10819856232480068
0.09541879199052046 285.46208515326435 1033.7488393343474 0.13414529056542923
0.10124285564664612 285.4763368287872 1033.7980415940874 0.0934269174053073
0.09862340023053921 285.4708146149666 1033.6445218544193 0.16623419752928606
0.10497001348270601 285.4824379119492 1033.4992389834415 0.048659668743889946
0.09849836158878991 285.4766045243906 1033.7619269717059 0.1097957077652183
0.10880375945398289 285.48177569285855 1033.739776031993 0.16419447445118635
0.11055979928726507 285.48719755448707 1033.5100648596856 0.03600487376748367
0.09665195510956968 285.4864313068352 1033.1667333748715 0.027425706603409622
0.11463812360498607 285.4653974469847 1033.2173740094763 0.15317367085404887
0.11915710955242571 285.4608572964346 1033.4148963329205 0.09240017671341698
0.11461822896133025 285.46461590173624 1033.1444647637882 0.012366803815773741
0.110643039913579 285.4627860196476 1033.1691663043825 0.03144743950157586
0.11077891061996195 285.45960281583865 1033.1814472097878 0.06882161771969436
0.12191389424687243 285.45896624940616 1033.0882078813443 0.11153532049121426
0.0971228163331162 285.47053787806425 1033.1163141390966 0.08068954992521826
0.09510950944322583 285.45733429013245 1033.2562650396737 0.011199944840693941
0.09819774061065854 285.4664777817706 1033.1298465194266 0.052807853621784584
0.10099228615674821 285.4643417284706 1033.3391227214781 0.08585914517847779
0.10619445331778739 285.46185122412896 1033.3706176269532 0.06272576613241589
0.10111788889688672 285.46539247689685 1033.0518685123056 0.09137321705040556
0.10759641802461162 285.48332339603303 1033.0460076539018 0.09492172659623568
0.1155052080568943 285.48273144401446 1033.0867092707126 0.09443110912579739
0.12078153709203435 285.4787538827367 1033.5683719003403 0.10421935981993066
0.11110116391411623 285.48591435552584 1033.210581562923 0.09085322603244055
0.17234528575440722 285.4309629964828 1033.460682020796 0.06867833145602639
0.18749378395058133 285.4205348487659 1033.4763156894446 0.06711732501181125
0.11584019239178622 285.40871429026635 1033.5014971325968 0.03190889892295739
0.11893077283421058 285.4030144296901 1033.5175788966183 0.02393019605970226
0.11620058371098244 285.43782834123243 1033.474623620199 0.017668743024586417
0.2041492147270432 285.4124406367107 1033.4999319579545 0.024286648731778163
0.18724520880425144 285.39399061114034 1033.5193049573588 0.05387094814985175
0.1626156677215604 285.37562623861675 1033.5424573159905 0.018542605632375937
0.19145296259838512 285.39778693472147 1033.5301389823694 0.056153134240915996
0.16040882330980724 285.4074439798822 1033.4808763615122 0.006713176622829804
0.17078983336532744 285.4024605521163 1033.4978635949294 0.009244180899593175
0.1414726506885057 285.3968312480891 1033.509174448334 0.03950597481389931
0.11567559580192441 285.4052148804636 1033.4906257172547 0.03669012224065662
0.19249910786171595 285.4066869752269 1033.5011231783337 0.050285206621610457
0.13535459619701018 285.38561100371027 1033.5206135702097 0.004287809833360987
0.15700829974086952 285.4853146955084 1033.3642543395729 0.14772130120420515
0.1689478441906278 285.4820529890856 1033.3584306457028 0.16839117439072646
0.1632515605836947 285.48545211635866 1033.3481202384971 0.11024653382686438
0.15183598030403467 285.47328907766007 1033.4170802575197 0.07425457912080531
0.1668316324561518 285.46933288503993 1033.4121848186844 0.0698723306205344
0.17457984545554214 285.45915932144624 1033.4399408301044 0.0450027104151655
0.1621912180850456 285.4638131048799 1033.445742849264 0.05428901557371813
0.17139689952405013 285.4568782478911 1033.4728370798468 0.05073378586768075
0.18890350595342625 285.4493716096587 1033.4918226776435 0.0534417599644598
0.17114370358818004 285.3993379510173 1033.5502325073091 0.05896444452069582
0.18412050189802043 285.41415142963143 1033.538728088526 0.050816857100522216
0.11891962062538004 285.40249248203486 1033.5399063979128 0.024701782608243097
0.11201782858637947 285.41709970178624 1033.5302831293877 0.01787976897360231
0.16314749166130219 285.46431750890343 1033.4349753996887 0.04833629695593007
0.15200388176060006 285.44046356934507 1033.4459921513733 0.045177348412450025
0.15513818559258782 285.4497819309949 1033.4226446848397 0.1380264096310403
0.16354397961658243 285.4519859737115 1033.3863476131332 0.07728528627586127
0.16557932360524677 285.45443688819205 1033.3719291725422 0.11491567160160876
0.15350721184059707 285.4579762467477 1033.351345767029 0.146728858521821
0.16492882537315717 285.4748508244154 1033.399985317 0.0596987307235569
0.17699758408324548 285.47167440358487 1033.3817896317144 0.03254187854372669
0.16887909285400066 285.46273044392717 1033.356160640213 0.11201177337144438
0.16864867599272354 285.46146833061033 1033.3347208744221 0.10850172135126503
0.13998940111514516 285.467406939371 1033.3615151815918 0.14113267053358702
0.15660466909407345 285.4535374094098 1033.4160000910658 0.10787668083883634
0.15415022175823392 285.4560921730096 1033.3927085428509 0.09914704369691273
0.16079646499286993 285.45874130060463 1033.40285496535 0.09321797815803379
0.16208003712430344 285.45272542869 1033.379571491017 0.10019448189701785
0.16758150272947014 285.45943292305344 1033.3701952992963 0.11269976562337378
0.19985683947577015 285.4082933519318 1033.5314657565457 0.0559504294591675
0.19839670923503638 285.4055263769745 1033.5396214228767 0.05768212115618599
0.17967259825366014 285.3874575583556 1033.5445447780658 0.04829375494471162
0.14370559519042234 285.39005230281487 1033.5481478863683 0.08733773316105395
0.11340472700453952 285.42026175745093 1033.5063454343165 0.041936819445756966
0.10934237784411915 285.4293358083497 1033.4888811613591 0.019422010290446556
0.20380558791225215 285.4433282287714 1033.4816251459972 0.007602380770896479
0.21111455078599137 285.43002789932405 1033.514864226628 0.0659498126803181
0.13689232014733207 285.39034913512813 1033.5441705518374 0.08197569816788434
0.1102167316986961 285.4245335394544 1033.5107562475723 0.01063775289111594
0.10674809616390872 285.4227303408231 1033.5249247627235 0.0010626666957429646
0.20244351242381972 285.40946212690085 1033.5213114911694 0.05527500983911416
0.15761753006357274 285.4287237026999 1033.4562442923275 0.0980453838320186
0.11242264215475903 285.4175594206661 1033.486592696345 0.018577634069011646
0.12276854197855491 285.42769182597493 1033.4721464823535 0.033629685134786716
0.16605361686237982 285.48045539556955 1033.30932793449 0.041758510290809334
0.012936482648998012 285.48661397445323 1032.8827095685435 0.0884898093335899
0.03151046343622861 285.48150368102745 1032.8886098842631 0.12414125276119452
0.01449354921066282 285.49527466141535 1032.8701239242446 0.04317064939617339
0.005288234797370813 285.5250780718529 1032.8727647632277 0.06743849127029498
0.02049634277061512 285.53800667848424 1032.8907541137094 0.05569852459372058
0.010727041785149752 285.5301643760224 1032.8682087628272 0.07684802450170268
0.015371290931823031 285.52738403279153 1032.8905432093882 0.07720351994597643
0.014853586405459158 285.5130349570516 1032.8462035888947 0.02110548044292424
0.0020585860709578917 285.51985441596827 1032.8769115509715 0.04958348487410153
0.0065528892368994585 285.51563440417874 1032.8793389510015 0.05066737621151974
0.008758546890379634 285.51311634433694 1032.8958705996151 0.04960496201133264
0.017276007311892074 285.498036962227 1032.8598789779098 0.04804045448191466
0.006815866460068578 285.52267103093646 1032.8587798559377 0.06211362215484499
0.04271533781618132 285.50565709587374 1032.9035642748502 0.029330905869414916
0.02096792975692006 285.50226683907 1032.8945534281127 0.06127828072861644
0.03449699908644714 285.52512397763377 1032.9124308059252 0.012363889547250016
0.01961106507736813 285.5334227097713 1032.844152558288 0.03219095458803736
0.19625724094102778 285.4947892317591 1032.8888936478186 0.04814122018616863
0.20118408413370184 285.492061006978 1032.878804683093 0.05321867343855938
0.21354006763052916 285.5219672801292 1032.8773475339449 0.0709782968731288
0.17522350947594745 285.5335707255593 1032.885229148044 0.06747984706668936
0.20009183184047152 285.52871606459405 1032.9002829780457 0.09870017442257634
0.20528213979902163 285.53127421938746 1032.8462474829137 0.07890189448607988
0.19872521833528597 285.53119145094746 1032.8852555190988 0.12531466576009564
0.20404566809143979 285.51508587617093 1032.8950921838384 0.1591129244925493
0.18707681239985532 285.5199033840545 1032.8991204013128 0.14991960697508946
0.2041785476132728 285.50595341512025 1032.886746883675 0.056966404100827275
0.21167937680998752 285.51774184724883 1032.8704053911345 0.08001698791249877
0.20303254599016665 285.50383067946535 1032.883059666357 0.045821350180974
0.19866255835250005 285.5016417187375 1032.857926044256 0.05138445560677463
0.19829067454777502 285.51585225550264 1032.8970683638872 0.13097266685377396
0.08941624031691868 285.40903133866846 1032.8604526145484 0.0223649345531885
0.08656458940371278 285.4091463921957 1032.8701699591002 0.04184320564254671
0.09346564861391375 285.4052847100402 1032.8703699534426 0.0438081082228624
0.11063474374002988 285.39923750235903 1032.8767155573926 0.031151951397641105
0.1259630995690058 285.4049460934516 1032.8720719274154 0.04728580486567859
0.13363869566241574 285.40838064588974 1032.8718735782145 0.0002544418032635075
0.11789785827143433 285.40875897884564 1032.8796701925678 0.05140637207805003
0.0961870317171704 285.3909709607602 1032.850573300128 0.035210403427572284
0.1350121535604301 285.39743520350237 1032.8592988605544 0.06665995260187985
0.10247571815300406 285.39048898914126 1032.7864049634952 0.029100037551532974
0.0927663506136756 285.39146443256453 1032.7933387780126 0.03906420254787533
0.09350644720925122 285.39419082670156 1032.835416203655 0.011098880567318338
0.11399680088182582 285.38638640065005 1032.8416867170483 0.053917644012478394
0.1194004506715561 285.3960134507194 1032.777474973164 0.0035977076486468254
0.09901524018465836 285.4943997828509 1032.9564985813008 0.1275196144652098
0.08414243785150738 285.4870769976559 1032.9465877181608 0.047409211109658185
0.09335185595339444 285.4490807139992 1032.9493319739652 0.027606913116039966
0.09519614172659636 285.4140426223063 1032.9281768373992 0.001321889827024246
0.08767622917790731 285.47945020690736 1032.9453782883302 0.041507873673279634
0.09236257666448672 285.417488900681 1032.9332005803712 0.08645773236166618
0.09228796873018637 285.4639541781346 1032.9389734859963 0.042568065495683656
0.08656143689918555 285.5012400474719 1032.9342042619419 0.0691882912247515
0.08163767348050804 285.42400675821654 1032.9551251525793 0.02523310749455735
0.09126024450342478 285.4526844488564 1032.9568732535058 0.047030959051204455
0.0893272296220424 285.42335248907096 1032.9241560065448 0.07209752963858287
0.11871280258110219 285.50445936084793 1032.9600424117427 0.10884581017461495
0.12248094275574953 285.5126631752356 1032.9476689281976 0.09595552798021006
0.12708808591571552 285.50663430525464 1032.9319492223262 0.030984375847711142
0.09845369177595621 285.4548767871798 1032.9206108240314 0.003808161784618124
0.12356070146757832 285.4022638030804 1032.9553222907923 0.0031318302906186927
0.11420224207814436 285.5089221555149 1032.9594729329426 0.11235348282620601
0.09430960462817436 285.5184693575227 1032.937009042189 0.07290589256035804
0.09664268667055395 285.5096085391083 1032.948254131752 0.11189068622028253
0.10897662917523018 285.4032018267354 1032.9425475962478 0.013984972863822045
0.111897969884326 285.4202914583825 1032.9788109418032 0.021137154821927753
0.10033856477950374 285.4151403553827 1032.9731575384997 0.007346455401030884
0.1471924075863648 285.44067592985635 1032.8926818151078 
0.17121577101942206 285.45378591632925 1032.8798353637044 0.01339245395702192
0.18337253789866717 285.45454830664994 1032.880989103804 5.0921073484104294e-08
0.025491460355501767 285.44707004480097 1032.8680588420152 0.10340712690206426
0.004359122945196428 285.45697084873854 1032.8850092286148 0.05485910613990083
0.03313544364591624 285.4550596694715 1032.890703751495 0.11108573226079416
0.05059824600732574 285.46465894672866 1032.8946651784684 -7.701340499385577e-07
0.012155139726850197 285.4721299953157 1032.8777760056505 0.10630452477405873
0.021018958374967138 285.482202408349 1032.8873784990335 0.10696942298126373
0.023345286510465947 285.46118775551275 1032.8624913621377 0.1377150079411948
0.20051845241437072 285.4747573466484 1032.8746590720532 0.037361691336260085
0.1994666011137487 285.4712114190989 1032.8656942003126 0.04578029499781047
0.09007581290747106 285.48002482418474 1032.9195692002231 0.0010039751101806793
0.10858151819197479 285.45204246806577 1033.0008006889495 0.10272929777077608
0.08422266181002219 285.4706513600808 1032.9606142353002 0.03505093267996438
0.16229696187512793 285.49239214216107 1033.2979639398895 0.005627464869821058
0.1339959683918848 285.4505139690012 1033.3226106061536 0.021905251459073818
0.14829423228345062 285.4406222657519 1033.3197589844156 0.04535179827173895
0.14377332428025447 285.44396276500146 1033.3071063305108 0.07613388179323119
0.12901171614669563 285.4474838253347 1033.310086347716 0.014302974844842534
0.15197026967547175 285.4439783385515 1033.3030122107516 0.10296410112640718
0.16837966144630923 285.4711613444674 1033.3215623719018 0.05551325092083649
0.1661811865253889 285.4866398775375 1033.3145587841173 0.0015771210969983418
0.16735819028431306 285.46786306322224 1033.2997480575302 0.08559451586632258
0.17282072604806703 285.45612053842046 1033.3228451026064 0.07006454297344612
0.1700317945390419 285.4571096006177 1033.3038489901076 0.07425191550592124
0.07592534251265214 285.4921768255447 1033.331332320331 0.06560458781100625
0.06333932844088107 285.48261543136124 1033.329836077618 0.10573109236695816
0.08021949275959649 285.45244705990063 1033.3267112596072 0.09542481010762263
0.06696734929333438 285.4521743389142 1033.3257575754608 0.07895534634163799
0.10706475465410353 285.44800586097375 1033.325237798643 0.01242007365436937
0.1303975896670433 285.44767118269584 1033.3012627322148 0.021464211451820342
0.06559893136460308 285.45677620095313 1033.310978921521 0.09686518988332077
0.09045358423877617 285.45097719960864 1033.303599124631 0.07052313098950325
0.07638467733192818 285.4568215963329 1033.296885592014 0.10445053275074317
0.06640340252093063 285.4734900749164 1033.2966430025194 0.07994144500554419
0.09508948232978172 285.45081624219137 1033.3203477849222 0.029498613377702026
0.10524448757795922 285.45050033399906 1033.3049310367162 0.02105610883604126
0.09527901738928514 285.4555224527776 1033.2830271422908 0.07351525742293825
0.1269400244207132 285.4961483746925 1033.3210653693507 
0.06073700301181783 285.4783283401376 1033.3218193793314 0.0906943695916168
0.06488080911710892 285.465682756457 1033.3209264618959 0.11958125791817655
0.13158803210504447 285.4548136292524 1033.3311559607525 0.018930561215182554
0.08703685531137939 285.4714331484422 1033.3444770867802 0.07705105465599517
0.08608061976298331 285.46237284723185 1033.3348725899891 0.09834678523965669
0.14521921174336322 285.47824874117686 1032.7156934268094 6.066370060468036e-07
0.1627830087734124 285.4838929570668 1032.72588889996 -1.5602039030888036e-07
0.15986974134763218 285.4717837414911 1033.2403544853998 0.0947583021139838
0.16340172945214887 285.4751681502312 1033.2147024271471 0.07186873100795135
0.15834715565192464 285.4774830496195 1033.2616129531125 0.028152779088312537
0.16722465364667136 285.47435954975964 1033.2809008769518 0.021253769328413673
0.158693936607925 285.4633916896589 1032.7085358789 0.00010965690610768996
0.16509354294060558 285.47379786667136 1033.1909711109265 0.07334153246218944
0.1583226211021094 285.45550799369863 1033.2483506911012 0.05369050898805151
0.1653556591599201 285.4512494348172 1033.2858130544716 0.059124574371827
0.17256724833908063 285.4634967587705 1033.162777720634 0.040201480606964844
0.1812401553242668 285.4485175688371 1033.1506839348308 0.02327643744256184
0.16734431642636843 285.45319304549565 1033.1790818827008 0.006156744908762907
0.1465184942404872 285.4603294898431 1033.2189456228778 0.07444359605095856
0.17426977663667473 285.4585953638848 1033.2008570641112 0.0504142412381272
0.16921842953048388 285.46591509785316 1033.2566459404 0.043114147387139375
0.17204271197183274 285.4659806065711 1033.2527895258434 0.028566472310392197
0.1629368877640137 285.4592440397937 1033.2312181371562 0.08514228455627634
0.17047291071794432 285.47776348498166 1032.7183453861123 0.014030469880100514
0.19386688820884304 285.4526361920808 1033.113455859484 0.04211392902473171
0.1707581241086518 285.4689608349206 1033.174021439916 0.017502622137974752
0.16751890135999523 285.4567044074773 1033.2111202069277 0.047805972161961016
0.16793541348586472 285.4693298401487 1033.2118967266529 0.06161082739471458
0.17039677314771073 285.4567413238746 1033.1851689658845 0.014250865030748495
0.19033143452401083 285.46531927226425 1032.7006184772047 -2.439805384582494e-07
0.19288042080949674 285.45528561078265 1033.1324117628433 0.023641533020530018
0.19242158144853935 285.4480876559196 1033.0730849612264 0.027798490337355836
0.20954653293049227 285.443623530402 1033.018511982366 0.04033205702805299
0.1901115340857397 285.4545334603914 1033.1139628401038 0.05447915670468721
0.18229223239452824 285.4677629474704 1033.138911707415 0.03560594040644092
0.20732328246882134 285.43699790440877 1032.7081898500182 0.05161094548658792
0.21092441298246759 285.43519684756177 1033.0408086194245 0.03374345347175004
0.18637560493304736 285.45517191693295 1033.0922189247578 0.023888404991266387
0.19632336653701965 285.43805145967275 1033.0553113581873 0.019494786741445332
0.19578094422425282 285.44634132379707 1033.0955442813856 0.03766606478520086
0.18717875740827994 285.44255891371574 1033.1055840472518 0.04349545171554796
0.18328015818080584 285.4382514686034 1033.0935405329978 0.027942765108023113
0.17786211264930307 285.44933901327687 1033.1440394740168 0.026993120513546964
0.18575412373750586 285.44393140130666 1033.12824958987 0.05066713863331733
0.1718276664203173 285.45337765249684 1033.1392579456908 0.020181084254053943
0.21073723732822114 285.43364080084194 1032.7193702429292 0.061044259303388394
0.21391821556043458 285.43274836204506 1032.7129737107234 0.06156707539790182
0.19953842544268513 285.43215805970055 1033.0123927503732 0.038123190382280195
0.20768710313249142 285.43441085920784 1033.0259228498057 0.037261196248152564
0.22138186048412922 285.43760313949593 1032.9922541319725 0.034530003829948586
0.20659616007912399 285.4393464320527 1033.0556990080663 0.02365865864264445
0.2052827155930056 285.4333581842156 1033.0495364188598 0.04227686572094375
0.20149296092293847 285.4428923855117 1033.064020174461 0.03337876366017018
0.20186391268774967 285.4418013494509 1033.0759807271672 0.031344669655503886
0.20197130898776672 285.4295028150639 1033.055718912271 0.020273450797142434
0.21915896850246439 285.42440318711175 1032.966608666495 0.04097344994312166
0.22292379608267002 285.42164363045515 1032.950890371353 0.07613144944065975
0.22098051701128787 285.4442145603687 1032.9919150204153 0.03255395300861789
0.2325866574704422 285.4349136788944 1032.9669296105203 0.07468587179310701
0.2181995015122061 285.4232597167945 1032.9843299594552 0.04685128695225905
0.21715679499668017 285.4383743340828 1033.0129687484687 0.06055457216888056
0.2277182299351621 285.4282375989268 1032.9877026244446 0.032055114613024814
0.22889491720851493 285.43241001996 1032.7038466902466 0.053885934339637925
0.2376814347588172 285.4263856207359 1032.713763532716 0.05975014453534155
0.22544928635854553 285.44110220136423 1032.7250538749613 0.006571365846530575
0.24773773380384442 285.4218630724823 1032.728131116004 0.047529319525161394
0.23357138251282553 285.43112292213385 1032.947454144217 0.06299146985430473
0.2606892834952962 285.42444190674945 1032.7391514574897 0.003806819505360666
0.23226018797157766 285.4270069376329 1032.9717165975242 0.056034158863532225
0.23601404899389883 285.42068376982064 1032.7273003792227 0.037481597643295554
0.2439181466112367 285.41243688650707 1032.7385453456038 0.0496848639125114
0.23524292412602046 285.4153826816302 1032.9008888511282 0.03582203973353605
0.2461511460838262 285.40658391670325 1032.8915160172567 0.018690618628399616
0.2513680307628835 285.4137317949327 1032.9398347264646 0.05668278597092167
0.23298052710113018 285.4202488131298 1032.9276296146352 0.049977955499306836
0.22762078717261477 285.41471236399866 1032.969491425812 0.06425910693308619
0.20932406962807248 285.42940029926086 1033.0024196071527 0.054923428820110476
0.24479780612484406 285.4070909794606 1032.7543391499057 0.0510403147289749
0.25008917933947084 285.410104242413 1032.862453049467 0.0320855727840509
0.25476622551374806 285.41099801966214 1032.8311000526103 0.04229084925892089
0.23643475580945064 285.417209513652 1032.9453087396214 0.06130756187779022
0.2557331585903332 285.42163284522627 1032.8896363785118 0.016325422712791096
0.24827037518636436 285.4110305482337 1032.9132693480285 0.03080282487992385
0.2572236785427185 285.42069675869107 1032.9212114059474 0.04757243620969256
0.2565959895547245 285.4251826863195 1032.7806653662994 0.014571492262206427
0.2531853795336804 285.40523123372077 1032.7555839333982 0.04539808488014585
0.24807687069946938 285.39946606063194 1032.7695538045787 0.07245302659542117
0.255212404839918 285.39854227705143 1032.8050317478 0.08498547692693223
0.25909781342184285 285.41201966823 1032.8550416414046 0.036474986041808904
0.26195677302648074 285.41535557118283 1032.8860379259568 0.02347963257393148
0.26058482650617487 285.41151661818424 1032.872895888111 0.03085506099328486
0.2582257496433302 285.4025927549229 1032.7781654868534 0.07640514268667883
0.2816922260407655 285.40998680613677 1032.7836579032073 0.08580400909586035
0.2754008155195468 285.41359844857845 1032.7902263777708 0.10606635347057816
0.26728753054339977 285.40856057133436 1032.812763776962 0.07544823970663161
0.2698985619136651 285.3996452262436 1032.8274728794647 0.03141118225132721
0.2661740418172161 285.4078502998949 1032.8523895762678 0.025331406546583436
0.2681356076826379 285.4151594227604 1032.8257511716588 0.04477881824146635
0.15090186754957594 284.98724171492825 1033.753633570514 0.07720883562764269
0.13351291219840716 285.0076091429494 1033.7585655956843 -3.680855582915495e-08
0.10110840194238566 285.1146919381365 1033.8488480181622 0.1037781916415333
0.10725321635837332 285.19112913891706 1033.8712608421172 0.07531955128143829
0.10255575058933851 285.13650187369336 1033.8624236037035 0.08180877862254599
0.10458755986222949 285.2492560042361 1033.8641242019992 0.07315090838875594
0.10979271665326928 285.44624387259665 1033.8653520641396 0.060755395034358804
0.10296963347125268 285.45904939843354 1033.028098162616 0.13508899299662147
0.11944529606242421 285.45868930193274 1033.538464572372 0.12443023204343823
0.09578920913573477 285.4615831821699 1033.1964838639003 0.04567309387526474
0.10193529608536071 285.4520248433628 1033.4296058149812 0.08420099634180037
0.09534823555977201 285.4735979410553 1033.5474358680344 0.10174680125700868
0.10314111047327207 285.46010339518415 1033.1394031518844 0.022128826247368834
0.10679690062857575 285.4604904846005 1033.0889868726904 0.0849075424088681
0.1063363687523929 285.45769134868664 1033.2408550232262 0.07952283319567054
0.09907727590396029 285.4618172532908 1033.5955271256914 0.10394888852120432
0.09864156095556363 285.45973981731703 1033.1075974491341 0.03931727177219249
0.10484619547377193 285.456398639594 1033.0168979814325 0.110991354638132
0.10351464746144129 285.4659282627887 1033.1705435047113 0.032005420807941255
0.09076904285208787 285.4711700064552 1033.5265194283045 0.11740265110883379
0.08876463218810723 285.4820937647918 1033.722515540586 0.07179076086584567
0.09425945794329926 285.4658042430238 1033.6056035993388 0.09778289419594217
0.10078847004060042 285.4727007910679 1033.7252007435015 0.14688577550253723
0.09618157876729887 285.46503880243336 1033.5789882249278 0.08394645047284331
0.09009724708323305 285.46686016607146 1033.5964725711299 0.12631398313764855
0.10218123446606311 285.4644641013595 1033.041596511019 0.08849637589212479
0.09404667616992012 285.4699774467796 1033.3921517019548 0.08119874626693557
0.09925734888663569 285.46665013092513 1033.4400885352102 0.04872198807721954
0.1818813604747146 285.4117260974837 1033.4795388173418 0.01492494926821492
0.15938406389587367 285.4542350882774 1033.3520391280733 0.13165197215593546
0.21445780535706307 285.4169472650008 1033.510937613422 0.011460875061894795
0.1897239413233203 285.53496545614576 1032.8541156863246 0.1895810476949973
0.20577383957822507 285.52767688915793 1032.871584106737 0.1295997703386398
0.10149254309002413 285.3895088741536 1032.8097854444388 0.014384440901371311
0.12118037637280041 285.3813320689583 1032.8562891515767 0.022220847920806624
0.10824243596483155 285.3888441019039 1032.834117447108 0.049957886117133796
0.11619587561992428 285.3849864343045 1032.79084342867 0.015514176251054917
0.12108931470994697 285.38592477488635 1032.7999192481643 0.020490419584057177
0.09752819123810676 285.4090494619865 1032.9532517539758 0.02196622000179911
0.0951790619794449 285.4611017792688 1032.9807446317623 0.005503865709265823
0.07461272094587725 285.45423378666516 1033.3091545853933 0.09442888633834097
0.06759737972580623 285.4858041487082 1033.3096189249718 0.11252186753309837
0.07764049784844282 285.48455247967644 1033.2943650819643 0.11592828707092716
