x y z curv
0.43368410635987725 258.5873406481741 1917.3050716023904 0.08029946160637541
0.4580030850974077 258.58322043231664 1917.3434755695266 0.05515285774836863
0.4414947821311336 258.58970515288416 1917.355216112957 0.06064524113475272
0.4575150204441843 258.59667837186555 1917.4098930417795 0.05635973072594202
0.42521399176710367 258.60049733552404 1917.9876359345146 0.0795150781101469
0.4509664509655099 258.5773661529596 1917.403934371301 0.06473847990574177
0.464680001259516 258.5794612383727 1917.4499542044193 0.05913399687734324
0.125914578277187 258.616378308855 1917.6722078243067 0.026858079243020413
0.4455869596761439 258.59095175416354 1917.4349374676626 0.07161267206676006
0.45862628401732863 258.5905588224828 1917.585484115877 0.0558057991831765
0.17185795368879275 258.6613385645692 1917.8318219332184 0.01367403061892532
0.16941399954275393 258.6660778340068 1917.785614822058 0.011472362952477834
0.20718836958912137 258.66314410556555 1917.845152836978 0.14035338702768232
0.18107646526826812 258.6626117578198 1917.83236545051 0.016384785701969714
0.21692864570919165 258.6681997906275 1917.8177500100094 0.0806111232031803
0.21115303741002436 258.6722339046031 1917.7956465740447 0.014045605621305343
0.1979417051149914 258.66538870656353 1917.821472211065 0.08889763822627794
0.2189995585439764 258.6691570637926 1917.811517033239 0.08899085025917466
0.1914039713521699 258.6664544356319 1917.8354539383895 0.07964193592414004
0.20694230040154313 258.6718652260487 1917.839893301745 0.12112228893441063
0.18332367748906894 258.6637647083134 1917.8371856394597 0.02405409234168738
0.17062399567160239 258.6605988932007 1917.8067759669289 0.013217034317314183
0.19030348091202842 258.66366222621053 1917.7703093113666 0.01575872219660321
0.20464256462589994 258.66936425448085 1917.8463354270373 0.11882051779972207
0.22797337231035347 258.66901597684006 1917.8290669988512 0.07189379669449147
0.15699130431920924 258.6575063332268 1917.7998739626069 0.009472672292190242
0.18452530361112876 258.6537711160467 1917.840062767637 0.08476122614155764
0.15840594586463283 258.66171199076587 1917.790045869901 0.014753629901163245
0.2383767181849923 258.65967759806125 1917.796179224605 0.01059378139812654
0.22423235376949358 258.654880406797 1917.7873853650244 0.02189833879401271
0.1290904565940337 258.62517394315364 1918.004301115414 0.07444000240947136
0.13950458651389117 258.61112660833675 1918.7414763912307 0.1090698225858667
0.13189417675342457 258.6240443871143 1918.1038881703032 0.10495124495362672
0.1389564649169687 258.61712703295353 1918.417035730366 0.1277211442484759
0.13538694782894098 258.6215072778677 1918.3129660089116 0.1283474778298887
0.13081445198535765 258.6232921212387 1918.249477923559 0.14643288155117865
0.13294789245083136 258.61850795925847 1918.1885591802734 0.1220955274704575
0.1314237167928062 258.62455131346553 1917.8873834598153 0.1238042146295761
0.13579860360380763 258.6212029455242 1917.9754870941417 0.09276868178536334
0.13995888060590203 258.62541440601814 1918.1350012960386 0.08677351957792313
0.13755824560043592 258.623250438541 1918.630608598611 0.1135462531710768
0.14362048252129134 258.6274647416452 1918.8280155212644 0.10355933518938244
0.13663567103382054 258.6162352349972 1918.206113693315 0.1000903547970057
0.13204944150059947 258.61171578753385 1918.7998113730234 0.09325676845985559
0.1295265758155348 258.6209149621678 1918.497100765004 0.1132568616815673
0.13329180827798937 258.6291400371903 1918.7745935530224 0.08663005681024498
0.13926940323738404 258.6247569611975 1918.289086261055 0.11198573206883136
0.13616262279407126 258.6238231592733 1918.6770076363312 0.1195766096961504
0.13591422669850978 258.6186466711416 1918.6532782917905 0.09743531110063673
0.1330935083403535 258.61822699270465 1918.716964061253 0.09672052594302914
0.14095959186314322 258.61822230352635 1918.5392624821593 0.08065537988008735
0.13254548257274348 258.616197785181 1918.4298896417524 0.09801496917202887
0.13056665736213854 258.60581207210475 1918.3587459005403 0.11700620695930437
0.14266695090964426 258.6090047003777 1917.926483075261 0.1161813602717358
0.13521697292154192 258.619438928178 1917.9126463281968 0.09915977655652781
0.14386806016950252 258.6245156523324 1918.4640628006102 0.10181452063106544
0.1312255736677203 258.61462574152205 1918.5749504223427 0.10368481589947112
0.12471820263429827 258.60766175553755 1918.2121459986633 0.10056559085718186
0.12327501506580026 258.60981873139366 1917.9152288251119 0.1011551200867061
0.13957401933339106 258.6012382318245 1918.122689489166 0.10486483170047552
0.13226082382889556 258.62097199815594 1918.5512905736657 0.08311077867687804
0.1352883374469486 258.61622570967165 1918.4110873918662 0.11727156261041276
0.132003939301414 258.62339653402614 1918.605692825627 0.14478953263050992
0.12971221933446306 258.6289492278658 1918.6180809595473 0.11511774545878149
0.13351005934036642 258.63179107990896 1918.5788385648545 0.09445451384961896
0.13352905873652718 258.62137475639025 1918.8084549903851 0.09899076079300106
0.1360161573557893 258.62891607535397 1918.2974392218694 0.12327501759544077
0.1343915440631828 258.6256019545078 1918.3290627033625 0.09776774120128252
0.1317768599775221 258.6266453329979 1918.6009890128742 0.14289504490630608
0.12893886536439536 258.6248559362368 1918.7485151785775 0.1290139470969727
0.13511299365628926 258.6208144768438 1918.474018768511 0.11197815665624533
0.13815674437977862 258.6233676795553 1918.1181060695715 0.15803456956598283
0.13622651904526267 258.62686507794524 1918.1475235143955 0.10256824952711562
0.13211807306449028 258.62847998041013 1918.0427967719388 0.12144029399453371
0.13390232460468973 258.620635507758 1917.9072773797134 0.08190159291256137
0.14239457988168575 258.628652395714 1918.2539329696003 0.1135360717272199
0.13369854080050575 258.6293395677402 1918.364765860243 0.11886301776983867
0.13166636524180916 258.6263422489613 1917.9478915975246 0.09801802024173228
0.13074430406518686 258.63351669538275 1918.2100225568706 0.11429302953074445
0.13084388681914152 258.626780958425 1918.6857712382218 0.08769158373312877
0.1261582129528843 258.6277244354268 1917.9173547538696 0.09396381299826563
0.13155022998641355 258.62881661124794 1918.0324470214416 0.10986272197650393
0.13738923534682498 258.62577514663826 1918.0887485528497 0.10911617539183874
0.13472226382951777 258.618060362572 1918.1792791806117 0.10672645206165077
0.13090414705322903 258.63405327373755 1918.2077144378222 0.12469182512290916
0.140245086418409 258.62609989948675 1918.02060166904 0.08498806953731866
0.134913727798238 258.63399864032846 1918.271210241569 0.0998192489116042
0.13705687117518167 258.6204082269951 1918.516627042498 0.13236017665099262
0.12345947716463866 258.6416609622178 1918.6458038544472 0.08432472016784277
0.12331322003480523 258.6311467400714 1918.5562273354637 0.10759655603367801
0.13236458090387077 258.6327639638364 1918.4464897898451 0.11225392039640542
0.1296479143156889 258.6276220412704 1917.9460583538826 0.0958953264712886
0.12212949073893334 258.62909022753587 1918.7737154630374 0.09947838106189548
0.13671242745424084 258.63706894691376 1918.487383220425 0.11997569646554204
0.12899732493783267 258.6321664323165 1917.965226371276 0.08922697496050233
0.1351844247981148 258.62542491553 1918.4296504644203 0.12745331651019534
0.11963941198865902 258.6335198786082 1918.136950469028 0.10617015623779728
0.12612500066935697 258.6301453940022 1918.387316447447 0.1087335469206251
0.12795442788850195 258.6281401356768 1918.3177597696042 0.11676011582953447
0.12323893285786677 258.62575318452804 1918.5031696858646 0.11608468826194702
0.12842657774913402 258.62675814657615 1917.874054712767 0.14376930076201963
0.12610248428054552 258.6299757656555 1918.391719946586 0.08694094262056938
0.13337629471145634 258.62555850942135 1918.466457108465 0.09597846584554423
0.1304706507767312 258.62911700864214 1918.3538108826087 0.09897816159485054
0.13258884202733923 258.6292884072943 1918.71345434747 0.08186487673144446
0.13119037504956627 258.62609783550135 1918.6991809736314 0.07493898143390217
0.13089905347288955 258.63237238690175 1918.7770909762264 0.09904676109195547
0.13552932763634795 258.6199157458748 1918.6308692914429 0.11217032457165027
0.1379245061418847 258.6256083865473 1918.6710060318826 0.12383799253991833
0.12911797950778106 258.6247798274911 1918.4206032554323 0.1257823836217572
0.1092194496907972 258.6305167558365 1918.7751277911514 0.10326969618482593
0.12222664177801781 258.6272120080022 1918.686246090175 0.07860030305061012
0.12228816698714273 258.6257860860881 1918.4885359871864 0.11861532686262775
0.11558100616244822 258.62725563335755 1918.7724789961003 0.10325761163080677
0.10916458179835456 258.63085397224336 1918.5871222962976 0.1007588337293798
0.11906808964614021 258.6304031828143 1918.1602055880248 0.10827647691535526
0.11549652739596822 258.6315886686764 1918.0114291009504 0.07202608609967424
0.11506562987322 258.6244821942743 1918.7270911861171 0.10867049230939503
0.1156073555015254 258.62937014916116 1918.6318504233484 0.09068366611352013
0.12645941645563982 258.6263731802888 1918.8038177758958 0.10683190856415363
0.11895621617838116 258.62781165017776 1918.726804638647 0.10585182627817717
0.1171288204580719 258.6302068272418 1918.5465815770217 0.10380894328640128
0.11709653118873603 258.63441089874686 1918.1129185889222 0.10832689398452616
0.12606427261818567 258.6341436644519 1918.7488938695694 0.13802842464196505
0.12205851887496283 258.6381433568271 1918.4366519587686 0.11216816233595778
0.1225643641384694 258.6341290755246 1918.3021675017549 0.09030758658722003
0.11255716366977464 258.6327374934343 1918.6569515799563 0.10304060854209113
0.12249798263508627 258.62919219813523 1918.5932104704082 0.10997566650789511
0.11427569206461152 258.63295381741125 1918.3822515243692 0.1375766467660105
0.12225592226665812 258.62349622479644 1918.4641991440587 0.09608780720812304
0.12798581753599983 258.6328849749348 1918.4755130084966 0.12325852233777554
0.12792853446645497 258.6287909031299 1918.1128619871188 0.12751053394432482
0.13279035654628063 258.6275638942104 1918.6663946826975 0.09703787924080809
0.12867416696620246 258.6391363711062 1918.6171250856494 0.11983176537901762
0.1294726893202233 258.6322767573389 1918.2952592557792 0.10835378320790627
0.12402839394288609 258.62642757637127 1918.2405463770651 0.08526321484311832
0.12904007703271805 258.62986705172636 1918.2347818276828 0.08818031619078952
0.12519718028672414 258.6368849382441 1918.5246936101553 0.09509319529121874
0.13045973976980776 258.62765256185946 1918.7071671207525 0.08708809524756762
0.1386354374481372 258.62570092034827 1918.0571438855195 0.12080165150383049
0.13149841196174694 258.64026729568496 1918.7317404770424 0.10094603840838112
0.11027530337697362 258.61598388129715 1917.932527185904 0.08199048297579084
0.10278605368442645 258.6155069553219 1918.0034009188907 0.059481964633185405
0.11466091299007432 258.62106680770916 1917.91529559233 0.08569868415474467
0.10144125249671283 258.6137043671129 1918.6529491328722 0.12382903522032891
0.1147876561775989 258.63227145312555 1918.369317554332 0.12180209478196542
0.11356594781908527 258.61885844326514 1918.553490416988 0.09570470995343473
0.11238402870604643 258.61517020040634 1918.4807012019085 0.09249921333278016
0.10823959918321492 258.611612463002 1918.6361457253743 0.13015469097162044
0.10630718612426703 258.6217249205915 1918.516138221109 0.11050879717092225
0.11498606033369926 258.61462459160145 1918.6702970540425 0.10577377843177001
0.11456383637981091 258.6190522797292 1918.2491357147924 0.12468190558725535
0.110841124310837 258.61818820747635 1918.6987412731933 0.0689967342180596
0.10985561493191649 258.6193986114005 1918.300001331478 0.10382553489710045
0.10789922360041432 258.6193384466746 1918.2052554953013 0.11343651877426582
0.11513332185475585 258.62420957366163 1918.5618276461769 0.09420203857620564
0.11488874937068531 258.615335664348 1918.5415541476136 0.10142397117426749
0.10865559463450253 258.62261187192365 1918.7539173322052 0.13271001485213485
0.11748891520033398 258.6252245847437 1918.707321067686 0.07440966089028324
0.1115241225857943 258.6204501975475 1918.6012588679612 0.12785991661647184
0.11175496395821746 258.62444919272053 1918.2081442371768 0.10113816866940861
0.11174926608063666 258.6303345477183 1918.8153025882607 0.12141772955396217
0.11586250966284502 258.61901181867665 1918.7622036996947 0.11437189421728473
0.11045315215473081 258.62024458969785 1918.6179473113175 0.10653602699203861
0.11477445639007812 258.62226252093006 1918.4268421643815 0.13781789463207592
0.117683047044705 258.6238561575643 1918.6669547568497 0.10910400421748372
0.11199833464553761 258.6258005325488 1918.1618042551422 0.1046821232209683
0.107375849610072 258.6320681969565 1918.4951834680394 0.10133320427548462
0.10699158013853628 258.63069549347045 1918.249249773967 0.0825035203388423
0.1146465349496987 258.62742425342753 1918.3495232117991 0.09342793867781636
0.11632525275301998 258.63168066952994 1918.228726219863 0.08546621846048232
0.11984071957766876 258.62997111540864 1918.059483419564 0.10850556954112472
0.11663796419130083 258.6235385125235 1918.6994756786166 0.06529248362451523
0.11397286332939428 258.634125407347 1918.0312396705615 0.07107232807881358
0.11310209085590887 258.6412209310775 1918.0747673177416 0.1010122107593764
0.11293178096390022 258.63036961892993 1917.9017338744188 0.08253414689243993
0.11595648246914655 258.61813373884615 1918.1648396170217 0.10570689458831489
0.10696560967585766 258.61293938265294 1918.585114706919 0.091351594844788
0.10973611508051918 258.6111594669423 1918.4176323753773 0.12179568292718874
0.11273236899597448 258.61574345257486 1918.440737322578 0.09108965783904766
0.10713045242918381 258.61583571032395 1918.7313253648197 0.1087870536862981
0.1113183514822862 258.6108852207361 1918.3649600244946 0.13721529455709944
0.11067499736483236 258.6191339394193 1918.19132837044 0.12061723461753465
0.11647454164559298 258.6120880518176 1918.800569020527 0.06822169414790337
0.11543944416945104 258.6164106805642 1918.503234219896 0.11816994850796318
0.11473614407975828 258.63060293116126 1918.823619163482 0.11574955294169043
0.11473976360790047 258.615330650424 1918.7799647945776 0.08198325628474022
0.11670733108120213 258.6172199752086 1918.2367103896845 0.0940298175955281
0.11071304756474837 258.61329769558057 1917.9011030797506 0.08189056689150723
0.11338054815814158 258.61871038880014 1918.0915623805204 0.1225730827806594
0.11954597156521049 258.6086397225993 1918.1094299196454 0.14073791866150384
0.11130934594272386 258.60953643756704 1918.1924443427251 0.1354585875744388
0.10531944508301075 258.60867107183685 1918.0487186982912 0.07825798600820529
0.10918750880741186 258.61217074788954 1918.3085030232774 0.14798599341696572
0.11553339564870212 258.622539640448 1917.8946823883573 0.11191215782702163
0.11997084847729067 258.61357724149536 1918.0696083067728 0.12707531924771232
0.10642839231963284 258.6151436174726 1917.9823317636178 0.09791248350920609
0.11435237048557471 258.61690682462813 1918.1353658151575 0.1339475264663067
0.11548399358954764 258.6224898676049 1918.3215441224834 0.10097730060145849
0.11495082676334246 258.6167353362697 1918.2638655087233 0.09834786828141849
0.11317153505685448 258.6144129247925 1917.8729753625034 0.19902995341469829
0.1163068817716917 258.61379755363345 1918.4475466343345 0.10047118045068265
0.11670135515430846 258.61253404357734 1918.1559256249923 0.11186269294783194
0.12230884123053137 258.6034254297498 1918.0601395719286 0.07932859822778728
0.11133515233139593 258.6084439241892 1918.3797106335921 0.12735891148917047
0.11036318091356728 258.60267933338054 1918.0114917544067 0.08011625123836491
0.11974807278515456 258.60357476549143 1918.0782353751356 0.14565251328928522
0.12494318474734309 258.6046478359982 1918.127495217252 0.1773405689051025
0.12112922219407343 258.6072325809665 1918.5311150176253 0.09207835161507402
0.11222285896957042 258.61848110613096 1918.2124035708416 0.10546311369061415
0.12185522125290728 258.6155913366669 1917.9430837324721 0.1017328534962115
0.11101109974503805 258.609524306203 1918.4886957953352 0.13600959438299906
0.1192585162564684 258.61058582209466 1918.5976169309881 0.11408346587900915
0.11160355727205283 258.61168195018354 1918.7195910599087 0.09176062182259148
0.12602168513919138 258.6000440272295 1918.761316051964 0.12917827783488722
0.11494493119765518 258.62145816989096 1918.681797557135 0.0778951527366409
0.1252722044638901 258.60703881652137 1918.4730319004582 0.10669786938669848
0.11295457076351556 258.61719658502864 1918.2919283861536 0.11773118143535784
0.10932516803146056 258.61299945289505 1918.3974860373237 0.10331100651618623
0.11079477901162606 258.6119968675286 1918.0189082754898 0.08322688729236026
0.12180001963528089 258.61439749967883 1918.765692390905 0.11358418005027995
0.1209105380161028 258.61083335557987 1918.6108887191663 0.13149974260986289
0.11858776236714169 258.60449805200204 1918.6685285238432 0.0681969789219437
0.12320722079750382 258.612010615736 1918.7517143583989 0.14018733084468793
0.12245669714256714 258.6089539284965 1918.2323691882666 0.088915266902854
0.1242220467509793 258.60874137334946 1917.9192724293025 0.08730378474521865
0.12787886086608946 258.61016370067733 1918.5587719393395 0.0907106962337563
0.10853051736523728 258.6042661204513 1918.1821199109283 0.11428621312879192
0.12617202724564622 258.6092834203594 1918.7609146052848 0.10401393397818412
0.12718452897566276 258.60967530632576 1918.5290707015297 0.0986746891919603
0.12190392614777547 258.6084626257065 1918.5193172312092 0.10250316102615366
0.12961482367594515 258.60712853153353 1918.7425671780395 0.12021110900642729
0.1300510764448713 258.61550364569723 1918.7851753440707 0.08544112735415332
0.12064321148037155 258.61025125949647 1918.4324396895893 0.10916255885892164
0.12831002925073487 258.61612076696724 1918.3902032817527 0.10417560294175908
0.12778273892652198 258.6058370482468 1918.8297733599497 0.1303923620839163
0.13127929430821622 258.6108390671384 1918.7067444462862 0.08390454642386505
0.13355096912266937 258.61974018797554 1918.675299256032 0.0999456516850597
0.12102652825614132 258.60583684028614 1918.6523295645923 0.09914365007361316
0.12821471415578772 258.61625828093395 1918.8146276876064 0.0989205055171244
0.11605901312305586 258.6121247276592 1918.8221258731503 0.07801008951654069
0.13883025249887415 258.6088435989749 1918.4492963483497 0.09573686830866485
0.1173381890025761 258.6096393168976 1918.6198929301142 0.10189183041308948
0.13274975738328992 258.60168540121094 1918.3280778924914 0.09231761023531612
0.13513638514288795 258.61830007522343 1918.7047294293636 0.08265342418269754
0.13654464156207752 258.6118431615488 1918.5080184880642 0.1212018431955861
0.13813913156725308 258.6215434248821 1918.3839110488436 0.13338160182781786
0.137560933381186 258.6147594843078 1918.6887191904061 0.07178721552432119
0.1311140978197288 258.61676552212 1918.7920796424792 0.09460043337587923
0.13506271897280347 258.6278808962084 1918.6582923403764 0.12073994743621784
0.13351369637936109 258.61730026134734 1918.7490267605044 0.12429821711477701
0.1360345094575458 258.6164533716722 1918.6364123806889 0.08952825616977902
0.12458348638157858 258.61811453707367 1918.5887161476546 0.11333884220680696
0.12517269049766058 258.6125025468948 1918.4041390796356 0.09608226727224031
0.13252212348248424 258.6224917476585 1918.1984500248616 0.12597386176578826
0.12774766473454774 258.6317142814555 1918.0500683593739 0.13446037182471457
0.12280916234281426 258.6304473358039 1917.8883038019103 0.13382086307736465
0.11853110270147343 258.63214323268863 1918.09545503181 0.15336858841926332
0.12167278792080491 258.634023648195 1918.0671341017016 0.1233829235016442
0.11554883513989365 258.63786627804126 1918.334891679959 0.043719041377361656
0.1246449212521663 258.63729247119704 1918.1743239270268 0.08797620169040389
0.1300689251259311 258.63398573440804 1918.3449920514663 0.14462303261706747
0.11422510487837323 258.6402205834729 1918.573240529964 0.11388218039374864
0.12033694072763305 258.62772337599426 1917.9303063673021 0.07876137310590732
0.11529553815465125 258.62477516540116 1917.9913374720745 0.08365795965846448
0.13010711809931483 258.6275640914852 1917.911790703494 0.0827244383143971
0.11422635993992707 258.6329786124976 1918.3984049325402 0.11774303371957283
0.1182770001140059 258.62589134348843 1917.9353203841388 0.08843558829741349
0.12483422310452562 258.6312386336329 1918.1367576814246 0.13319912060679429
0.11789700625949072 258.6385619521895 1918.2762982392678 0.0912363296094769
0.11059683725764391 258.6199874254181 1918.0457093260302 0.09864003173003813
0.11759073723692218 258.62667459714515 1917.8765981451684 0.16330110483980442
0.12109224763074752 258.62794196807374 1918.5070363200987 0.10374185207581602
0.11570962917843283 258.6264272421741 1917.9656657547357 0.09401468638856683
0.11630006450085838 258.6262304487497 1918.0842910140054 0.11090142573797242
0.10906275187006338 258.6225253660853 1917.9519510119494 0.06547947808195134
0.11854454116504032 258.62892704869233 1918.8027777380253 0.09896141405688066
0.11744267967296541 258.6258180476218 1917.9108142008645 0.08484028298604819
0.11760373458124311 258.6212808612199 1918.0287281550782 0.0875960835977184
0.11574235428326726 258.6300158899115 1918.3830835315005 0.1254193339435578
0.1262950579733011 258.63270704509966 1918.302275639527 0.09458225467073146
0.1246010990830343 258.63706393788016 1917.9817931413145 0.08522754255392714
0.11119468051881427 258.6336983630972 1917.8605457539823 0.10823855965918837
0.11411183744658007 258.6271252246996 1918.1785514470396 0.10039009661615593
0.11697669220532282 258.6145388811905 1918.338787361193 0.1328087926246797
0.1117296131837458 258.6143751968352 1918.3199714865866 0.1437974087773258
0.11375398122223847 258.6241859299258 1918.1499211333592 0.10392423378083362
0.10579665589847498 258.62150661722825 1918.1141326658717 0.11468400102311085
0.11593941816721638 258.63371119159825 1918.1929648790415 0.1230202248508289
0.10871286225034421 258.6307560550606 1918.096721982401 0.13848696605202387
0.11403178407512397 258.625991530378 1918.300461293997 0.10308773909107535
0.11397850932755424 258.61655610110586 1918.4696368933949 0.0777499465618514
0.11717172694564193 258.6205755870709 1918.2758944769264 0.08417216715325875
0.11635123702881474 258.6196872897189 1918.4134672704743 0.11531633545942599
0.1188234057319571 258.6116426680936 1918.280425168329 0.09688326414279233
0.12682346340854034 258.60867158453703 1918.4202222895437 0.13290938629560559
0.12063273599168224 258.6127521843838 1918.2426217071582 0.09076649176973621
0.12761478062813947 258.60194695103894 1918.2745122014524 0.05417938672814406
0.1165698662389142 258.6111812900588 1917.8675112516353 0.17925441177295973
0.12226857674691774 258.60104559450326 1917.9717702598587 0.04993483472636706
0.1273698790130574 258.5992526566778 1918.5458726136476 0.10297156676305079
0.1312704752658378 258.6043734482307 1918.443830093521 0.08768344047952764
0.12316391529386975 258.6143046886075 1918.6865142557601 0.07691853106487707
0.12182949102855739 258.6053744245165 1918.1593479202536 0.10363896812932957
0.11477210038804708 258.6125629595827 1918.359893116463 0.10946672234400497
0.13550505922993233 258.6070761637208 1918.5652286370932 0.10839954591551156
0.11559218556340858 258.6092263545776 1918.4780817983265 0.10021837984064891
0.13044878441519123 258.6028874185631 1918.5849741532782 0.11732299260454164
0.1321914922623746 258.60802162320834 1917.8944496070735 0.11530327395367067
0.12023106578546547 258.60534182300637 1918.036055904552 0.08136860880444305
0.4291753489623595 258.5821118451651 1918.1912956267593 0.1254496016707284
0.42529748097882863 258.57760565877385 1918.1874846433561 0.1524799432720936
0.4233949285166077 258.593875195109 1918.181489491138 0.12081085636911268
0.43303211847159906 258.5890496236956 1918.1862499856488 0.1274686509003347
0.41053009354779246 258.5947250066148 1918.1883174575905 0.10907073113018044
0.11545921633597346 258.506931143389 1917.8201525551049 0.11709139975519103
0.15178216829310942 258.5126733829917 1917.802187387357 0.003898333172045938
0.14288126370555515 258.49896075544893 1917.8231023289788 0.14791651277637757
0.11809233231374801 258.5025574974634 1917.8326126315787 0.13700544773002934
0.1172985464292301 258.5165448469353 1917.82780247404 0.11963681753856911
0.10212854151042988 258.5085123259931 1917.8098656300972 0.0787216093971951
0.10647371822195616 258.5136241028272 1917.801939327693 0.07393772768450585
0.11052631145619726 258.5134194496266 1917.7970872748288 0.06613837173272594
0.11389026424288397 258.49322468461526 1917.8181145352519 0.20713525107934908
0.407798809995121 258.575602165653 1918.101334841863 0.15857396396729814
0.43799014174219303 258.5800385032386 1918.093224866304 0.17266467517529657
0.432447076043333 258.5684380562801 1918.1040048884386 0.23008495999383125
0.4448055227983095 258.5947859672363 1918.1047602906965 0.06239798329483548
0.42600743268255803 258.6087125774699 1918.1036209142553 0.1542165001779942
0.41259589019390014 258.59892174377296 1918.1034283963288 0.17132091084927967
0.4089370137218141 258.58480675829 1918.120828141309 0.15733350630421505
0.4282230604829193 258.56317609886923 1918.1330774076605 0.12134429641243977
0.4353018873012545 258.5906023652841 1918.1175901419356 0.1613537170787077
0.4350953266184003 258.5908743618649 1918.1142248863544 0.17089359981535948
0.42540240708553934 258.60354537864947 1918.1217947799976 0.14905981484886582
0.4249020092399535 258.6046115307037 1918.1140677500505 0.15492016464041058
0.4213051479937232 258.6025719245056 1918.1247392631867 0.10749866427842955
0.4131384170719699 258.60193098740444 1918.116308566417 0.11792882759800495
0.4113065929791488 258.59756506444023 1918.1416117958836 0.1671927105200972
0.40608265328688825 258.58675282838476 1918.1538645020917 0.18743054291220562
0.42414301450635955 258.57801474506823 1918.1525830732394 0.15880734552050046
0.4199186144478372 258.573836777536 1918.1568931461497 0.1645122968620697
0.4362241658136418 258.5876653175177 1918.1440839377408 0.17753391973590296
0.435097464613933 258.5828421584877 1918.1427971867568 0.17559992306695796
0.43570712134828316 258.5964038968808 1918.134844301603 0.1563829512695725
0.4231044735191238 258.60344916390756 1918.162150992518 0.13210411972026945
0.42479220067867846 258.60202425560175 1918.1441906763769 0.11789294269455407
0.4070602957270565 258.5922185788803 1918.1534938990421 0.13509934590448355
0.408992889483493 258.5867194813257 1918.170965571027 0.176271548107099
0.406461424208044 258.5814110393848 1918.1709739458968 0.1819205790293928
0.4354114649383459 258.58566956446487 1918.1725351686073 0.12334707829201266
0.43917235818804556 258.59393903391685 1918.1610989942092 0.16093250376082363
0.4374320686587055 258.6045161352 1918.1683042773873 0.1432503053653371
0.4159482026542388 258.607042071807 1918.170421220371 0.12430597614862164
0.4762674639775999 258.52745671108465 1918.2609905285078 0.08803488430030462
0.4577993675135258 258.5243346286558 1918.2219132564653 0.08633293572358568
0.36594820462509403 258.5343997865485 1918.2429547438455 0.02498587303575849
0.37157199219911446 258.52827438699944 1918.2749781718137 0.06292211754010237
0.3812146561704508 258.52475903795334 1918.2958030312934 0.05114542537656002
0.45773064342030245 258.5297043712208 1918.2925432248128 0.06986969696120511
0.48584119785291274 258.53141875839304 1918.2732904925094 0.058164819199656395
0.4545713830174538 258.52982204473864 1918.2144563484096 0.06903724249834511
0.4238060602028018 258.52762209511354 1918.210078743325 0.03716494024048839
0.4670248435246974 258.53062001135805 1918.2317389194143 0.0554870261651565
0.37841649894312424 258.53181093324974 1918.2251694304186 0.05480768392792262
0.37217309694923095 258.523687902822 1918.240312744346 0.05797024581582067
0.383871067527545 258.53911839688124 1918.2896861493534 0.027692733970567235
0.4322051306595196 258.53517724040654 1918.307646747721 0.043442614904243164
0.44528561120136007 258.53752377942885 1918.3046577017858 0.05095478011493037
0.4560182893973664 258.53674056192614 1918.2182296455567 0.07323559701168396
0.3738608199406752 258.5339637642391 1918.26840403826 0.05514010738909352
0.4709733845211775 258.532579714186 1918.2386603188731 0.06029326459423064
0.45964476165709933 258.5486803601549 1918.2265855604774 0.058110100743673634
0.38802021210213566 258.54729400519597 1918.2175183420763 0.060755963773582104
0.3854475063651239 258.5448822589615 1918.2995189971389 0.024237286786604948
0.4070096984187332 258.5463919169635 1918.3060386083046 0.05427509437425844
0.4715551154481386 258.5460839398337 1918.2370970889585 0.06007464243289551
0.3824985224429048 258.5507066663807 1918.2278727796943 0.07014200340270095
0.40759297250470616 258.5466733467673 1918.2027207153678 0.017008808986353874
0.4551430234239768 258.5519241960325 1918.2867104558654 0.04487439585493945
0.4470222547630357 258.55664160348266 1918.2067602063246 0.05690469109021406
0.36870010031028877 258.5497069163196 1918.2542827147931 0.04611888519792136
0.4743832076536636 258.5444361775497 1918.280227262957 0.04185381283259967
0.4652543294678041 258.5546298122997 1918.244724245508 0.0691972971043506
0.451385762698286 258.55615251525626 1918.3038885962385 0.02212975486111043
0.47324433547276334 258.55728355828427 1918.238751210072 0.05023820649046987
0.3836807761644775 258.5645951694984 1918.23764756462 0.04704893662012885
0.3773860367993115 258.5613199657415 1918.2431275828167 0.06054351991512957
0.39495017341409405 258.562618869211 1918.2595522146385 0.02546176697567723
0.3937117101018438 258.5579144522793 1918.266312062084 0.022134739775202236
0.37828183252842895 258.549789344897 1918.2708144086919 0.02885974486515662
0.3795794377541592 258.55001256984616 1918.2844114507204 0.021434871984218635
0.3976336427342442 258.55825148428687 1918.2719621146255 0.018708212079986845
0.4077878753706102 258.5550685859027 1918.3012747127545 0.04079220222462415
0.40112059176095116 258.5533958961721 1918.2819572501842 0.029259146829458935
0.4087629047898207 258.5575487371325 1918.288529117134 0.037864981397223295
0.4168225235532921 258.56008593402373 1918.2880244625248 0.0330950944085089
0.42188408032762664 258.55737550232817 1918.3004068823404 0.03679360152866432
0.4195335838038891 258.5568790231481 1918.2949258535139 0.041627851218459196
0.4503354717163263 258.55270423437156 1918.288042646864 0.043761347742416135
0.4541356215837637 258.5551633731631 1918.2735232962993 0.03766295295465251
0.4617583930939434 258.5561445940608 1918.2689423542142 0.037006587584782306
0.4578139802721878 258.55707247250604 1918.2596478187752 0.04544877395822229
0.46542324523583906 258.52301020513835 1918.2377630248145 0.020204823922867217
0.45145319134445544 258.530627116548 1918.202599274791 0.04750148395127318
0.40462014978102817 258.530011337138 1918.3183215473323 0.025446216504706392
0.4345544045987991 258.5173380103308 1918.3073485583482 0.016935276894654492
0.4598487883828034 258.5389100271808 1918.2986866931328 0.05441869390559769
0.46979689499349814 258.5355689714232 1918.2828675203748 0.06738712386486177
0.37056125232579945 258.5422155280502 1918.25825150562 0.055298746004812604
0.45667946126573294 258.6545309312084 1918.0234449107843 0.20593746848111705
0.4509647047532386 258.65884974526904 1918.0204168204646 0.13915401467357585
0.3927443491075661 258.65316672337065 1918.0345612569513 0.030926950474593127
0.42856600169033443 258.664882870687 1918.0411980713723 0.10144632858488381
0.42073798583550853 258.66643950398304 1918.0653019553877 0.1505990845746784
0.43765563873563623 258.66057337147345 1918.0540872015638 0.17131235564083894
0.41461387888803325 258.65931227318094 1918.005423642797 0.030665738752679892
0.4038655661514762 258.6621753888814 1918.0275495296892 0.032037666222351234
0.4135181401552903 258.66412602845884 1918.061138288993 0.17454155021096107
0.417600557689944 258.65455553709234 1918.0179052281226 0.10935942663143847
0.40778553798523465 258.66443137675975 1918.068260004813 0.08615544613854134
0.4005882672837272 258.66033753415746 1918.0549609187633 0.14780867054992913
0.4016269330902938 258.66416072159484 1918.0399691529678 0.028541635926282366
0.4131622045357404 258.66231610181376 1918.0513208353057 0.1765014183173879
0.4562943891484654 258.6605616447122 1918.0399960934058 0.1340105392728201
0.4460461373925734 258.66797873782616 1918.027607085952 0.10511598901170885
0.44513056503103826 258.6632822521428 1918.0619928188557 0.11744189129352865
0.3912816592189007 258.6651077380289 1918.024151312445 0.03957039813139842
0.42946173993805187 258.65482165905695 1918.071733241524 0.11531572440110102
0.4274949965526751 258.65915418653714 1918.004215628316 0.12842241645005173
0.4592614818136629 258.6578656423159 1918.045291599703 0.09995466116618351
0.11667309349618774 258.6382673768983 1917.7499793861082 0.02515354677275401
0.12435430763193056 258.6459657802101 1917.7474238627233 0.021010987492629883
0.10845622809939517 258.6121361974109 1918.8532786593562 0.19019218053673123
0.10415819954897404 258.62036978073826 1918.8562278124555 0.1305194686260284
0.12501750069578982 258.6099670031066 1918.8812489838779 0.2406647109858696
0.12424432518494753 258.61394017728384 1918.8797263827869 0.2629216570686825
0.10402641163946853 258.60655226802476 1918.8701516781377 0.07005653536439473
0.12509602766378075 258.602100565852 1918.8813836709394 0.15882548092404042
0.12670052005658072 258.62408709433 1918.8770114831545 0.17928653232524713
0.14365234758556875 258.6352576823535 1918.856299648503 0.16638548892683636
0.13400957523083512 258.607573769153 1918.8642887096457 0.21499462107567704
0.1136887392163689 258.6238555335423 1918.8717701714331 0.15773673585961415
0.14033516090171722 258.6011940753622 1918.8513610907353 0.1627253922563149
0.140805963216746 258.627324565999 1918.855447071775 0.16307345328818884
0.11193807202739087 258.61773383500446 1918.844260384675 0.19440200209832192
0.1316887013241302 258.616553872243 1918.8360343741633 0.13502698575804542
0.10619761973288168 258.6225282146002 1918.8479717163073 0.16615794665796463
0.11058895792160865 258.61024437621995 1918.8434429029624 0.18936065068868949
0.1350725003884812 258.6157808131473 1918.8435503226644 0.19855123872577757
0.2257064601745856 258.28661280630837 1918.7264247383016 0.04226699700043446
0.027170909008282448 258.29176028202727 1918.730429372316 0.07381197186845738
0.22832910940723575 258.2720548132492 1918.7311778301887 0.01539779249330393
0.18955781340909342 258.17571192015635 1918.7289689923464 0.006251549834746185
0.03652242705918838 258.1602207309344 1918.734057385499 0.07334530539717672
0.18559539522786167 258.1286857645368 1918.7360321959902 0.04673275022013963
0.20967616730692998 258.15433953113194 1918.729410536492 0.09944282356740262
0.14792867269090784 258.11893720664045 1918.7281574233177 0.013790672785462251
0.03969524671325195 258.14529343914694 1918.7329352812203 0.11592543781796064
0.03327011835984343 258.14416517452224 1918.7406781691138 0.08583029322071799
0.005829821376094889 258.2496828797321 1918.7240880399418 0.026444070639639834
0.05393676026410863 258.32841253871254 1918.7352968774155 0.16858325016546027
0.09654504170893312 258.34587895992513 1918.731450988015 -1.304359310019821e-06
0.1708673852688952 258.3248329872353 1918.7272087534154 0.08442930333339028
0.2452377101491611 258.2570814848033 1918.7347770047784 0.03313845624089757
0.2290201378300823 258.2966502603176 1918.7316631619124 0.030369617309980446
0.18868112547916743 258.3315449336376 1918.7378281512208 0.09283425996548599
0.1680790722756428 258.35360357843837 1918.7237535218464 0.03416393745573267
0.12766454174931063 258.35168091865785 1918.7261224214344 -2.2902617334442493e-08
0.08666886276179325 258.3592414881448 1918.7354285970591 -1.1332332737117496e-06
0.024998536867705673 258.30799472505424 1918.7291734143778 0.051133200165446396
0.009825646255007273 258.23613711836623 1918.7386248034038 0.030189520620246657
0.04981910701765693 258.1215655555511 1918.7254342606777 0.036337484149787685
0.2022584795777693 258.12789865739086 1918.7404750267572 0.006657039210068405
0.19936978848862472 258.1479502753657 1918.7304303233675 0.11892495571108465
0.22107921714896486 258.1694428276044 1918.7354577881852 0.14583528673136315
0.23543091312135248 258.21459729691344 1918.7314020891904 0.19144566423400153
0.2513097821461871 258.2403549960018 1918.7402630589536 0.0321204588034022
0.20442495407684075 258.31591062466595 1918.7360088715939 0.021235472414320843
0.0015225437250836378 258.2198129579581 1918.7295909022291 0.029600679170810284
0.11003810223003081 258.11062743823067 1918.7297574539862 
0.008975425520122489 258.2604633567011 1918.7438896344229 0.03714627152589065
0.05284561700481755 258.32850318009463 1918.739127293096 0.14517582819700037
0.007428413781955124 258.2219325672973 1918.7462992684932 0.03136405757640026
0.016553299065153737 258.1685346249137 1918.7466032533198 0.06521706056158266
0.23446337430598388 258.1893493349304 1918.7452114711411 0.05348750937020507
0.2411758218991593 258.2605676508689 1918.755589148615 0.044921930440168324
0.2424885252538229 258.26509187770785 1918.7552871068126 0.05144358458482404
0.22542286335987488 258.3008536992243 1918.7369147866254 0.03739304860742587
0.18617621155744596 258.3408523387901 1918.7460022075495 0.05527538830752706
0.16227240779278845 258.34461930052254 1918.7515441017952 0.05672766166591121
0.13502367388902953 258.3488768397359 1918.7536787699974 0.008307004403541493
0.05637262814416255 258.3344509837329 1918.7430949574334 0.10421385266550603
0.030842575325526443 258.30974650323077 1918.744575910335 0.07285917099243397
0.015527162615830661 258.2806090314201 1918.7525850223444 0.026480382188718423
0.009379064039266484 258.2717001720648 1918.7488548637461 0.042683545658752126
0.009456176153628813 258.2356843862731 1918.7451462426432 0.03193534745679598
0.03104365344593335 258.1495972187369 1918.7487387192193 0.024146322699299703
0.051397298378786115 258.13104170803354 1918.7444625544501 0.09547987853057606
0.07324436081555567 258.1148461279072 1918.7514008063408 0.003749080612578894
0.2181052576452872 258.15243327194503 1918.7529519543252 0.041400266456325455
0.21906670466330214 258.1674748818224 1918.7393108712574 0.14607836149488507
0.23006633502244925 258.1758376792811 1918.7480472758014 0.036891770133662884
0.2433128372437578 258.2031589476344 1918.746838999247 0.05630529013309728
0.24529359932158262 258.2211474937935 1918.753423107293 0.04034862515632035
0.24374617069274343 258.2247688979946 1918.7388900740432 0.12632559987164918
0.2319756558166634 258.2859694061105 1918.7528849185044 0.021167585424833615
0.001051696584970896 258.2524908346607 1918.7527203278157 0.027323871007198134
0.16558464995516028 258.11296122789054 1918.7387518041269 0.009449135716283153
0.2197011337394759 258.1663389844591 1918.755517171445 0.05205759483007883
0.010279914788234503 258.17802980629034 1918.7559279502177 0.06421039076116837
0.002056803867445183 258.2194027421829 1918.7547626832745 0.016002845944626764
0.13523025069219163 258.1099267075655 1918.761429502841 0.00301546510531527
0.06783247298396518 258.3447136753117 1918.7698801929773 0.0329522645070277
0.0353678846943691 258.31533050757776 1918.752289636553 0.08043199167537086
0.01653877529478299 258.2920638317552 1918.7512139995385 0.02944180454914806
0.003073651116058186 258.2685291051044 1918.7460379555166 0.031606358817811236
0.003983814060201625 258.2107093496258 1918.7416245939387 0.024028036787405962
0.004884462287607376 258.1768141262236 1918.751119336232 0.06893426194203998
0.2148998989286257 258.15094449278035 1918.758706485472 0.081563656324088
0.24617448054373492 258.1963916769859 1918.759932428196 0.03888971272303256
0.23994835273033155 258.2526982160666 1918.765470930858 0.03122000098478313
0.2138177775947641 258.31749492331545 1918.7621500284413 0.005776895542723588
0.050356433928191995 258.3290054761922 1918.7501422856326 0.12945062049935677
0.03441265841066829 258.31581304218946 1918.759040653799 0.03807790034638956
0.008789240963682459 258.24602664035353 1918.7463418977218 0.03267753771067001
0.0074422839224593685 258.2452398399331 1918.7530024997652 0.028956818702467264
0.018665415714196183 258.1704419343104 1918.7662139512518 0.08108898255763398
0.06441947993792835 258.1257489162405 1918.7622584401697 0.00207812042792354
0.08597254737701618 258.1180507960401 1918.7673707102913 
0.16469390248855859 258.3388245975106 1918.7602269056163 0.08026375194218503
0.02275780563113705 258.28244680574664 1918.7674004580372 0.03294932917452692
0.24340792847818846 258.24452610730094 1918.757298999754 0.02043252100685516
0.22214522059290037 258.3023875494253 1918.7556221963116 0.04058009561295683
0.2311314317971788 258.26859868785294 1918.7666647774336 0.0736894415670089
0.12760983731496098 258.34900977055656 1918.7619602206876 0.008852858050515519
0.043915055738082125 258.3022822227112 1918.7642533601697 0.0524143476878555
0.010726255517600243 258.25125378464463 1918.7611612217086 0.03034949787343619
0.017564884668794797 258.22630351436993 1918.7663836305974 0.02643138797863818
0.02289438055028111 258.1928427492331 1918.7625218054372 0.024951983433173557
0.03118920508247046 258.15087726156145 1918.761303540548 0.025797114692454496
0.03558023926326792 258.15451918553435 1918.764055888906 0.021428405450881666
0.14936017994732306 258.1107714966654 1918.759420344673 0.025684484899949688
0.18221845816733548 258.12776985942435 1918.7664584622014 0.023372756607766228
0.20840080903420127 258.15978412359743 1918.7646100305512 0.09657036535180823
0.2349204359728094 258.2477427334459 1918.7696146775152 0.035774628215388654
0.2092240027229238 258.2476988318138 1918.7780998203575 0.005128175861538577
0.22123385697639464 258.2784306479337 1918.7719869998414 0.05217534420407459
0.17386200431648133 258.3289761288181 1918.7735248154106 0.0205696718284242
0.15837554220430158 258.3358963826127 1918.771736521927 0.021934053568050237
0.14904490302226822 258.3097375137256 1918.7818290594691 -1.3008539214405128e-06
0.06335604330086193 258.3104964578429 1918.7689569344766 0.07228335620774241
0.0553915420051226 258.2944823102437 1918.7729159318558 0.012877121271621966
0.03727434501509544 258.29474774995657 1918.7627133125363 0.04782118458693296
0.02657220034320034 258.2770219649713 1918.7744665925413 0.02233576667957248
0.01709027302436413 258.2469043714458 1918.7701427351085 0.024395821607397904
0.028019837422651402 258.2078709404743 1918.768456277987 0.016777579317552204
0.018878903897176592 258.2108118075768 1918.7620565378515 0.023442664723068017
0.02401114466507004 258.2322703870871 1918.772299497491 0.03443868286005734
0.029584271662922944 258.1964650200224 1918.7741258271803 0.008128601332396705
0.08677691426064281 258.16163961273975 1918.775816376132 
0.13540979084270516 258.1160191428779 1918.766819008913 
0.17738598658329185 258.15035401416674 1918.7714340396603 0.0009015498002274088
0.1831314713997629 258.18208094390627 1918.7752919065385 
0.22269037172411 258.19267277511835 1918.765712700725 0.04455991802599671
0.23309916235785455 258.2076187100414 1918.7674491490461 0.06808595333540808
0.2304935305337634 258.2198630807095 1918.7649501818864 0.06507815906633554
0.22820190680291835 258.2304860411417 1918.7674128351873 0.027081075932744714
-0.0004095312398348025 258.1883628700336 1918.7318412103352 0.040556337402189
0.04532338139839654 258.318094540743 1918.741727675239 0.11079728058262751
0.02067256169215025 258.29273632009887 1918.7437017855177 0.03407054344951922
0.18610521763487323 258.3375644374501 1918.7433989280155 0.062365063337605824
0.23516893378275838 258.2789042518633 1918.7351012482081 0.034682216912549454
0.23650871856474606 258.1836352547012 1918.7309363697668 0.04945614555773978
0.01331072771537142 258.64904006355175 1917.8075704095068 0.11105759553947633
0.05139785921877009 258.65799040879705 1917.7922159751013 0.11198695000821425
0.02303113765093512 258.66882081399456 1917.829388161668 0.0771637896294872
0.03427897193876929 258.6564824655628 1917.8365060100512 0.1456531081081628
0.014802097696165445 258.64962952593964 1917.8255033168957 0.08036430268519856
0.06672832899728925 258.65535466804397 1917.7831212391964 0.02311367302195536
0.05701993649405476 258.66526182989537 1917.8414024596427 0.09679868248945622
0.0394932350144028 258.64901233807706 1917.8395102294198 0.15466807214096678
0.07080316094338171 258.66533661518156 1917.7967252161195 0.025023615968317942
0.08042634972766599 258.67515301176087 1917.805547306596 0.024318479096075
0.07735677842778126 258.6712359435958 1917.8340184739702 0.02198955844494069
0.039055378627796636 258.65736768811104 1917.842770712222 0.14204535598358553
0.07229175253568323 258.6601063283901 1917.7860331031002 0.030387670548968758
0.03023930311703855 258.6623057502675 1917.7946031460394 0.1461031489912236
0.03737810759688044 258.6631990849353 1917.8014602829946 0.11162707155549755
0.045101889074869735 258.6639334999925 1917.7975814546426 0.08839928015208734
0.03901797049288097 258.6651244831145 1917.8116894414225 0.09704289378581607
0.04535720256436256 258.66886313460867 1917.8198409692288 0.06130504761141851
0.04665676806648748 258.6648750986688 1917.828501843197 0.10277179077061982
0.06362285427345259 258.66441284635334 1917.8206884468716 0.06846573724052736
0.043159320879232375 258.66704176795014 1917.8334674532982 0.08984715347679101
0.03311777495642007 258.6613810398427 1917.784034171351 0.10574089380237958
0.026061975170086158 258.6693335789822 1917.787264550745 0.08140179951777145
0.061237993138952264 258.6656548567526 1917.8065503675498 0.028023269869796103
0.01942600498059237 258.6552892314209 1917.7879854022744 0.15071582946886933
0.11836108341599517 258.65844154661056 1917.8103982544305 0.01879525567150225
0.14613043731529066 258.65869239043786 1917.8145763232346 0.012959119241304627
0.14350491941919202 258.6522353224047 1917.7744879371025 0.018061223114697395
0.023982453372943083 258.6597228554898 1917.8153752187632 0.11578389302567961
0.042952241026925964 258.6444679244747 1917.8447755686977 0.16396921206580448
0.0369751774782702 258.6363604801148 1917.8325450100015 0.12303084530218633
0.026282797961156835 258.65198601050037 1917.8315929487244 0.1150228430535426
0.024101393439704147 258.63407134380617 1917.8184290124616 0.10132073790907371
0.02068862989923305 258.6372162449522 1917.7945823986302 0.12665913381935498
0.0341101730053913 258.6290837236543 1917.7907993441158 0.09659839750749628
0.11915809431740143 258.64084201086484 1917.7610976949618 0.0106246586454616
0.10750582564853842 258.65577861456705 1917.8193612587322 0.06119057547207154
0.12228416319091047 258.6576222355758 1917.8251815554593 0.02471751316007505
0.1312286127440461 258.6529039498912 1917.8273833505311 0.030527371338245922
0.13369114901248266 258.65361406587243 1917.7899808717286 0.020036863040225457
0.10661724459949516 258.6569791526071 1917.791569708858 0.04433993211231569
0.11294850745527187 258.65813040650744 1917.809123298077 0.04160928211817468
0.08879393526469198 258.65539990625587 1917.818056063952 0.03635898135608971
0.08975352495675239 258.65066769331884 1917.834668173563 0.07196586261034102
0.12178370027728483 258.66041854444853 1917.8368359244057 0.008856391178310085
0.15492868017118544 258.6582006024441 1917.8330701733387 0.01868765553030326
0.15033582679020585 258.655048082888 1917.7947014628046 0.017414282578503405
0.13687542296044555 258.66095101069084 1917.7832735969203 0.017162028855871623
0.1046223521768277 258.6489930265949 1917.7809902965503 0.01822537591690098
0.09759072824678963 258.65022361902317 1917.7787511100619 0.00478841561619547
0.10484130120464015 258.60457958513473 1917.8466778741522 0.030923332864124044
