x y z curv
0.18087226472800902 0.5415492025176345 1323.14904429763 0.022164303455348644
0.43022147693732876 0.5414503142366092 1322.423358030874 0.02711008376316957
0.46146281393922595 0.5413117767054713 1322.43068462768 0.014892481778149396
0.49044584616101855 0.5315254053494362 1322.468899188113 0.0677026050514921
0.456610894865195 0.5325080367876405 1322.5096209900303 0.05515915425932083
0.4881624074895573 0.5442870012751114 1322.4789607403027 0.06229960249976055
0.45444818309047347 0.5494622780344606 1322.4949614434477 0.0730915703511067
0.4685882057438059 0.5491293566970172 1322.4440111991996 0.04410328097192122
0.48168950835948365 0.5486265030786982 1322.4422316674159 0.025836589227297934
0.4473345798748199 0.5474438164500505 1322.4982506177048 0.058848185529036055
0.4574386880756612 0.5514198111384689 1322.4383808701396 0.0210826738256191
0.4522490174585736 0.5508389928000467 1322.4530289985062 0.020872010140756594
0.43402916367114364 0.558266845152649 1322.4625016013406 0.009283308549100831
0.4468978647832253 0.5405004105270758 1322.4274866044875 0.014613060130171874
0.43123297735741867 0.5483434583737815 1322.430957853367 0.012536993375340054
0.43919086757940945 0.5489675878149443 1322.4726455751074 0.056282217639094745
0.4498567763330952 0.5508880046849445 1322.4823538239675 0.06501333591116816
0.4290365040583227 0.5505385394792678 1322.495445700913 0.04951757077162605
0.4563541422495986 0.5585063852674146 1322.4706027915493 0.013628644370778483
0.41761949918913416 0.5529426953436113 1322.470347912645 0.025643465730803984
0.42451090195091556 0.5491628640318295 1322.440247523109 0.0285084604598152
0.47449354982748077 0.5556393681487891 1322.4836830065021 0.06180798439761683
0.48798315642244644 0.5445717954564774 1322.4683741966544 0.06403294034135872
0.4670683323374633 0.5513288105957883 1322.4991586596486 0.0342884887270952
0.43131247148281276 0.5467680480148256 1322.4984139689818 0.05414116527379162
0.4136445573041444 0.547325633193798 1322.482088067567 0.0773976321018932
0.4716053704241379 0.5308993441517409 1322.497166260007 0.105186413478457
0.43370854082852467 0.5226728961925935 1322.495911124555 0.06684153069909332
0.4383100536802061 0.5424846950978918 1322.5010106974817 0.07398712400315008
0.4104686840701745 0.5339030968487779 1322.4945975874525 0.09952003312443691
0.4012580199689531 0.5431228764531597 1322.4588219711434 0.026353265343782857
0.4523082892219339 0.5340863071782167 1322.4221772466499 0.010879175840225772
0.48402214699374724 0.5413908371441326 1322.4928180895977 0.06678801317607273
0.17129837620406002 0.5051023703098871 1322.0813042347156 -2.9952430557179034e-08
0.14090857498955942 0.5076545227301446 1322.0645102894396 -7.435937615300983e-07
0.06903082747789412 0.497548621247182 1322.0861149616492 0.004089111427054001
0.2510588870416951 0.4329544509206156 1322.061042378432 0.038473623230205624
0.043018795820066666 0.4988442925486856 1322.0819976022863 0.028851186223101975
0.14772636254631455 0.43721974398390995 1322.0354434830567 
0.14276315184000782 0.4758212962724929 1321.9790609205088 1.6140601170143521e-06
0.1471189684033067 0.4567568395983859 1321.9454116791098 -4.7683216532489446e-08
0.1580206459881264 0.46158919339766014 1321.9466508690718 -2.545101004826932e-07
0.1527329890124138 0.4634538353323805 1321.9502510647478 5.7060784671557646e-08
0.15540639679240748 0.34304807971190926 1321.984028986476 0.21487009420605344
0.13708662516461226 0.3432587295603305 1321.9824491076145 0.19868897940121205
0.1473262412374564 0.31621744088397613 1322.0130033278926 0.12197708534158629
0.14905397456703046 0.3191194604606928 1322.0115643663776 0.2654985084159187
0.13195004633336915 0.3650114099470202 1322.011556102437 0.11085029260218543
0.12752611617979034 0.35453523413802557 1322.0084837303864 0.1396040466116974
0.13998071824113129 0.3321019604444667 1322.0062224687163 0.18197709736304216
0.13924463657212893 0.380887645232331 1322.0179765575533 0.026287242187094544
0.13245899163211 0.3301130540073751 1321.998203619382 0.1481365865807678
0.16407539755756795 0.32743849440122946 1321.9962912277367 0.1123585006944024
0.15999953146946935 0.3451572809069425 1322.0089296208716 0.17946498129358526
0.16047167125053136 0.3776118325336082 1322.0194247302072 0.04130047602340915
0.15136223902929907 0.3416095641339807 1322.0172805350246 0.17059237375434622
0.14161891324708864 0.35107362225124245 1322.021179043693 0.07682662500827178
0.14366182317951534 0.33385320296025883 1322.0131703993502 0.17093881156116458
0.13895637429341817 0.37350381303386176 1322.014569565089 0.036161332667476925
0.16308759982332155 0.37205889059239755 1322.015838523437 0.0448911894080711
0.14947105007106107 0.47901729798500253 1322.2330955253271 0.17900517107690733
0.15647299618756835 0.47888868144255115 1322.1163517165828 0.23248761787034733
0.15341880780058031 0.4769687229179617 1322.330635861271 0.19279187658715863
0.14962174220311697 0.4781537677779086 1322.1479333498487 0.15028272463695763
0.13842988052620944 0.46815071668300084 1322.1188687364404 0.18111956208363994
0.1346162565268004 0.47082248256046083 1322.2651705284586 0.16945571974084322
0.14318021176732998 0.48204897752909964 1322.173988526649 0.22582017640911226
0.1489109332113122 0.4773427843320521 1322.19987303599 0.20688938737382837
0.15171849194060982 0.48206482599676626 1322.343013169118 0.23356708203743246
0.1437787261004002 0.479266185652683 1322.1175436905855 0.14760140510376554
0.14102462404294966 0.47125509172939956 1322.35333790831 0.1886517856704906
0.1394537877965462 0.4700098615154095 1322.1831492663473 0.15399507871063253
0.127177996699678 0.4724908718885028 1322.1613797041168 0.056852163524863567
0.13791178405655177 0.47223285253661046 1322.2341093583327 0.154791605698617
0.1644808615288513 0.4496762037550503 1322.328893734698 0.19225513355412222
0.16149905204996182 0.4410290091824607 1322.3515711076277 0.07568096012720377
0.15886261912817698 0.4385221846016366 1322.4016269964893 0.045592898898312445
0.15694198485190217 0.4411877593675995 1322.36286265459 0.07481786346300999
0.17037955876208302 0.44750419019087145 1322.3767558199406 0.0324731854415416
0.15665572304162306 0.44167361703345687 1322.2603996489963 0.20082527213758963
0.15931111916461013 0.4455634927264315 1322.2909265546455 0.17228279060266774
0.16420922024961399 0.4386038357180193 1322.43571412856 0.03805080554112541
0.1621091820479228 0.439976817181691 1322.195110887253 0.19454372968104217
0.16194905316028244 0.44696762767147247 1322.1350192662285 0.1523065636434036
0.16808104425568282 0.448939339927491 1322.3354180099054 0.16818829861247905
0.164366695247316 0.44920982767393236 1322.1082742632934 0.1587248450472622
0.16779576072699762 0.44653641891445456 1322.2105065659498 0.21370840155875917
0.17643801665735745 0.4553422979177901 1322.292959061068 0.05248806072686415
0.16432002186953198 0.449203552825453 1322.1691474727222 0.18499602495996964
0.17003306263879653 0.45561559828935694 1322.2416437286965 0.16100712182268978
0.1703911923084909 0.4674045980959405 1322.257511362951 0.19280815985038208
0.1665380990942231 0.46862011804455755 1322.28879934762 0.1722677882939839
0.1672543732021499 0.468130704874293 1322.2709075232997 0.20140922652074586
0.15290769583208344 0.4478671886477304 1322.128610459229 0.20088444021493598
0.1493272093459913 0.4463358704553143 1322.163851058771 0.14578584540966125
0.15485117165169973 0.4465408027046661 1322.2677965962491 0.17089767372188006
0.15068814053681642 0.4311399089268514 1322.3916448508808 0.03891899129321738
0.15983723093017252 0.44081974368464477 1322.236073510485 0.20725587103279666
0.168218405280427 0.45814995131669217 1322.1396444878699 0.18813682570436488
0.17110271649675746 0.45701709844388344 1322.1156109076856 0.27963935590341676
0.17130660906609557 0.46343724539417164 1322.1331051038655 0.21079504082409456
0.17159368160287344 0.47115287979501097 1322.1593578280913 0.15831091956972065
0.16673374069327596 0.45234644713649236 1322.2242767461832 0.1843485262237128
0.17639530259253378 0.462450922557254 1322.1967920173397 0.1423938064521375
0.16278452313896144 0.47147661062284096 1322.1965346876516 0.1945154064336647
0.16258641849732386 0.4493545008337651 1322.1239315619807 0.23335357102997173
0.15347565057664928 0.47343117504945287 1322.2422464486121 0.2197090356978806
0.16153908269369582 0.47081080233394623 1322.2152851694043 0.1865088992947005
0.14997492316705374 0.4855439960143416 1322.3519624003334 0.06212015487046558
0.15018280865938585 0.4779452310549096 1322.263918390947 0.21867434777830738
0.1582368343961401 0.4769628816005452 1322.3259866394403 0.1973009828312539
0.15651192223022373 0.4738614229319475 1322.1263110839493 0.17059396543347136
0.1564823270217538 0.48072208900986413 1322.2966678263283 0.1932005294717239
0.14601744271777048 0.4841609790121979 1322.160412292045 0.1474378398900535
0.1487939000301762 0.4807870806675903 1322.191374105066 0.10518992456407587
0.15232372980817668 0.4422784890944926 1322.763795032071 0.24136313715952748
0.15362325416146488 0.43776172758446763 1322.9441081475475 0.2022116622933577
0.15518023385326438 0.4397871448482736 1322.801891712173 0.06060400975930755
0.15055711899619714 0.4424932055221668 1322.3067195636186 0.13467358564191959
0.15543200811537464 0.4399278622330776 1322.7111964702801 0.1863155590169505
0.15348897076465995 0.4438815267454468 1322.298279516567 0.15272026941793407
0.15466576102377988 0.4400655750067179 1322.1729378031052 0.12294412977634689
0.12920121449429744 0.48193073164983735 1323.1102132575522 0.02535341450567798
0.13362104861414073 0.4932930321482382 1323.1199376568993 0.0683342979658499
0.13642839823291514 0.5067090741517669 1322.4591039267302 1.5723983831324747e-10
0.1343764975709957 0.4989409395485873 1322.4707179281713 1.9188689935780385e-07
0.22849357758338973 0.47826365070870686 1322.4758578505484 0.019341026029361233
0.36718576609734194 0.4740517596378278 1322.4786110064786 0.0819285519197194
0.21012087968150217 0.4697685924015375 1322.4801884766323 0.08001166470360424
0.2845003871168478 0.472068927550358 1322.476000187441 0.22609781025171427
0.39841637347685804 0.4567417775116417 1322.480590484109 0.08591546623494457
0.333730919263045 0.46206875313129275 1322.4812204125574 0.13049569924655982
0.3686260005288353 0.46452055382101926 1322.4782314444753 0.08145791005070911
0.30862230938763635 0.46558080143996594 1322.4805110104094 0.20163374091829184
0.2859012330444339 0.45398757500338416 1322.4858603176888 0.14710880404929802
0.360020032601379 0.44849486925389875 1322.4812942307829 0.07454343977999497
0.18854131395291562 0.45533690357253687 1322.4838444632605 0.06553811021759652
0.3000989741515834 0.44729808066884447 1322.471800837788 0.18587979004673036
0.4232269134510295 0.4508816883506319 1322.4773742605576 0.04197863363970731
0.4046116813652822 0.43974355365318407 1322.4755625882228 0.034894420584888716
0.33035297668385544 0.4553350448327304 1322.4796690019361 0.14110385883226503
0.45347326383996317 0.4464068030395488 1322.4712415069464 0.04889417762760072
0.3823332594057887 0.4538986098947709 1322.473536517904 0.14206354383524145
0.3860660403663186 0.4478226982952338 1322.4700920679043 0.1314084265365199
0.2418561122152447 0.44746575771920644 1322.4740945478673 0.12291247729265432
0.33794569738868574 0.4489820854942048 1322.4722931662895 0.14507176996658716
0.4539900548537836 0.44556954689379885 1322.4787445247232 0.049706531113915535
0.22738115602069808 0.4447218376650375 1322.4752935766296 0.1315630324947364
0.26394378385052114 0.44307856452184646 1322.466735943497 0.15872013759885203
0.4258968344833173 0.43948907549595034 1322.4715317564248 0.04163344500509769
0.3779390202528698 0.44296214932857847 1322.4668321765455 0.13335776410960776
0.47541303017802616 0.44716791679133105 1322.465395534092 0.04833186625877188
0.28908565485519533 0.441110118931492 1322.4695933306648 0.24435751606611547
0.44116154841860433 0.44199626889439597 1322.4602055323755 0.021873932633285447
0.4520391251298007 0.4460770868155282 1322.4571177857629 0.040697399341528315
0.3948109484559264 0.4397946284603714 1322.4555868407654 0.08429673168401015
0.4078122797068363 0.44405523359117455 1322.456043733497 0.06492683210869286
0.15979860779820168 0.4366083286015172 1322.4703505701427 0.07268092122106444
0.4444021991422462 0.452039453045443 1322.4497357816497 0.024291477329610137
0.2957244634787098 0.44717480044030683 1322.4523350893346 0.1619588506556951
0.3457133158214373 0.4568571839340263 1322.4500126772796 0.10844003196614972
0.3934329527505882 0.4508533958194051 1322.446430549232 0.0801194148321369
0.31256081214317216 0.4753111530964067 1322.4724991025741 0.19118625874061485
0.2981916777257182 0.46773441655646597 1322.4764033443166 0.20790216272567924
0.2749711358600616 0.4666895139981306 1322.4954529387212 0.05475825455355097
0.3945756801485778 0.4604898369246267 1322.4809116326016 0.11496843571551166
0.44217692491633487 0.4464151838113307 1322.4803730853564 0.04208855829021154
0.24601880671163281 0.46082103189515433 1322.4768774472934 0.13890992626865195
0.21316816433542546 0.4386743021464281 1322.4778582474428 0.05640131813517227
0.3180958577381335 0.44907353461397026 1322.4788056009277 0.183495172071981
0.2598851240050989 0.44446901511252296 1322.4774261140958 0.17017614432450914
0.18516517445732572 0.44504171948700233 1322.468013484386 0.08454095694048044
0.3425225204466081 0.443399115153623 1322.46704367223 0.17062533936560886
0.23088664411217194 0.4347865851230395 1322.4653318055068 0.11204929809189682
0.20714081522312094 0.4436404845249718 1322.4543418869434 0.10107498523283949
0.33084343811440586 0.44231354505254616 1322.4619808448504 0.1900872252580243
0.26059363923823864 0.4443864232955127 1322.4650419144748 0.13777623779012454
0.3050005301610946 0.44287080962077513 1322.4632402769817 0.20048951196836048
0.35793770087983734 0.4464292765955281 1322.4734266767473 0.09368639494916395
0.31558886796797786 0.4387354550331658 1322.4660190599614 0.184109945796591
0.28936300729843584 0.4443300119911408 1322.4544871466264 0.18024679472589852
0.3311952599581492 0.4455758504700232 1322.4571692110137 0.17595755520837092
0.22503599734275903 0.4400094527093364 1322.4485504065706 0.03031816367087965
0.3259856139682267 0.4590940494014653 1322.4467366053739 0.17363861978260997
0.46220280216043913 0.45596002363897603 1322.4477155351035 0.020492185866038595
0.2986084568528021 0.4692625653391096 1322.4517685652766 0.21808187167134416
0.29168672309937005 0.47111783110568956 1322.4459754710565 0.18340575426671293
0.33703604005500254 0.48328191658577796 1322.4640095438726 0.1465684472281619
0.3601731656970049 0.47929831981276283 1322.4685601043288 0.11798925195953702
0.3240266835988817 0.4703031636308066 1322.4519574690148 0.1924462080406514
0.27043357160613446 0.4718999634628494 1322.4530985941783 0.14332310480994126
0.2447474248906535 0.47809112560170824 1322.465174268504 0.09711688258981832
0.3341500718321609 0.47239490693334363 1322.4722952672341 0.147677046815226
0.3509284090448352 0.4756464630092302 1322.4673288293968 0.13657774445446996
0.24614011119220286 0.46951826907721567 1322.471836156387 0.14726210010087978
0.2800244579827774 0.4725343890248963 1322.4653829959093 0.187880593156047
0.2640464442263067 0.4749335536884013 1322.4674206840868 0.19446942320232616
0.32462944676364675 0.4741692264592494 1322.4731687365108 0.17517247528820265
0.36746878934105903 0.4800168341623546 1322.46846288581 0.07915631566342332
0.2501536000627283 0.44490949905807603 1322.4450972915918 0.14512064550923753
0.16308592479936806 0.4615947760171313 1323.2704120069857 0.1648397809702718
0.15156063657809932 0.4708717397997674 1323.2652151144257 0.13558112794194022
0.148141301280947 0.46570166602612384 1323.291877309778 0.16468234173918922
0.14324192189416612 0.4720740822229544 1323.2770406253037 0.10043736553353957
0.13729224316752908 0.44268211443154976 1323.2804667615878 0.15083309493341793
0.13702761599041136 0.43096887642252046 1323.2769949302924 0.08865865738136111
0.15187602708488598 0.47625279824088956 1323.2606761757083 0.11203296141733803
0.14462681713211578 0.36844608047924576 1323.3123247549104 0.046734977219522425
0.14938019313224649 0.23984383824624253 1323.317224938238 0.2274636812434824
0.13422297318164392 0.2911182954959401 1323.3174656588133 0.0415132378426362
0.1391913863049191 0.3546059837460202 1323.3065019882272 0.03607533046331891
0.1369441499510316 0.335849344038352 1323.313872702554 0.05564692023370633
0.13385992740846925 0.37836129696010473 1323.295089157063 0.03478462470624072
0.13553646653830995 0.4090555452202701 1323.3060911252724 0.09331272642258023
0.13659903059703268 0.3021046569261926 1323.3099963642749 0.13249295567921596
0.11984948911113924 0.4035707202161337 1323.2833039488057 0.017264805068433097
0.13098821582951892 0.39533502634912043 1323.2889294821427 0.0587793553154206
0.13902178066451884 0.2426420735279792 1323.2965035186924 0.18669531725950889
0.1382460159522911 0.3252890415298755 1323.2956713333401 0.07251979007235065
0.1407722731006142 0.3697701850915996 1323.2963959098872 0.04492821314750566
0.13275804227089122 0.22674799869803722 1323.3028572661756 0.06552072248699127
0.14256198495120548 0.23592869623346724 1323.2856835013508 0.13160957823247288
0.13897180539935133 0.31009191669896174 1323.2850924088498 0.028039466589380016
0.13902799701438845 0.3880252266960674 1323.2798837258174 0.010273739412296095
0.1428898611668981 0.22663937120141694 1323.2858744928274 0.16051456653920773
0.1364383920205654 0.34249367649486356 1323.2807244493636 0.012425351368411474
0.14303117171865432 0.2724640454050239 1323.2834459604603 0.038417193726751626
0.1276706619516396 0.4347535975659421 1323.2953939927872 0.025599141729841398
0.1401720432411992 0.2941568993762605 1323.2941725948856 0.044675858124780136
0.13216742282534233 0.3988531428229448 1323.2951307621302 0.10391222986079546
0.13423478329983576 0.3198891217700327 1323.2989744703862 0.07598953440274414
0.13496376941158547 0.34495330107925015 1323.2943581167815 0.02388162697954028
0.17154363535167177 0.43421635550075194 1323.294670369335 0.1731636665697856
0.1689599895446616 0.41081845033002945 1323.3015547992438 0.08309184773757648
0.17044303380136047 0.3198927109692121 1323.3117879068823 0.0635589234836116
0.14557748723289382 0.28143814148391055 1323.3167997267858 0.03845847596243106
0.1552796434419947 0.3410095527496019 1323.3178299344977 0.05643214005446062
0.16169397116934411 0.23107531814756588 1323.3193262998284 0.20035079474794687
0.14381061405057496 0.35403627903273793 1323.3094453410986 0.03819047238524499
0.16098243290559705 0.3673398803992202 1323.3190570103195 0.03226192297304722
0.13411004171957172 0.1519434401666969 1323.2794474775756 0.039243189492034716
0.16516307431183797 0.14710195083440455 1323.3084414508335 0.05009182929373925
0.13327510410167653 0.1267096750591392 1323.3024172845328 0.06247963113573155
0.14510491729676264 0.1422601845266936 1323.2653807699448 0.13190049704754417
0.16736657738300043 0.1289101255626502 1323.298670508234 0.0629507146912809
0.13001406942960833 0.1310044572206165 1323.267039958206 0.06753260044735881
0.13327619716645714 0.13357212884976075 1323.2677477994791 0.07270438872125001
0.16359794505713846 0.11618467323928133 1323.2807259332271 0.13448247791825313
0.1441911567052839 0.11126633963657342 1323.2766071756141 0.10867130451025671
0.15548840246417306 0.10586342324763225 1323.2641571934016 0.14238017625408333
0.136268933359879 0.1170567522094849 1323.255615709742 0.18461727541488365
0.13251768119859084 0.11973119540282502 1323.2639096383973 0.09170911989420723
0.14247794279118056 0.1175385772910372 1323.2391005862723 0.21998628035601078
0.13462858321626686 0.12889419446654102 1323.254663865792 0.07768837876123649
0.17443345332196558 0.1230385344470789 1323.2612965893234 0.1549967398836253
0.14036765024962192 0.10726046994706863 1323.244211390798 0.10475173527859061
0.14068017423347204 0.13905695444398739 1323.2373820685123 0.02574013814506803
0.16248786171038546 0.10393776035440716 1323.2436713751943 0.10947879562810225
0.14048000703423236 0.47533183113838834 1322.4678476413296 0.013927787569311918
0.13691818403462158 0.47856185761054204 1322.7667238825204 0.12946134613921395
0.13361247854228792 0.465032760466044 1322.4777932728796 0.04389203083334569
0.13723957101408438 0.47644681499672936 1322.3033235478129 0.18122274518418027
0.13644050968025112 0.4669231293678774 1322.217333120722 0.1638859745969226
0.13723383261130082 0.46577135809585896 1322.6226683800667 0.2517833738057347
0.12439897880687559 0.4590285562984374 1322.2833363604154 0.06172233111503398
0.13631505443262723 0.4596039484813988 1322.1751273565567 0.14312753990069066
0.13644566271295705 0.4707339935214714 1322.5317798436186 0.09318234669613887
0.1308724561721364 0.4673890096050871 1323.1430558576023 0.0354675324172151
0.13552811738326256 0.4553107388319764 1322.5928672229797 0.15803195645545548
0.1362089738125137 0.45639623597519896 1322.456585732936 0.06438992332459963
0.13148886700791615 0.4646139834765815 1322.3215103037196 0.15552619099251624
0.13720630288302246 0.4569818336607344 1322.802578769031 0.1132553771366562
0.1351475661902546 0.4628861465168618 1322.3353087753094 0.1723654051422768
0.1322851052978181 0.4609625302476147 1322.8887653917975 0.16707962440500235
0.13568713815933228 0.45706373251014043 1322.2656154238607 0.18573574636201926
0.14099735155196128 0.45165834656030135 1322.2309318990392 0.13909284442631364
0.1395131190416621 0.4650015676702803 1322.7827243729837 0.09982735653386464
0.13123566464403075 0.45720059492111353 1322.8252151942986 0.10431170202279826
0.14039169631509735 0.45800305191601004 1322.7030286227357 0.1881081552716298
0.1340282614307028 0.4602487946086217 1322.4409723904328 0.037229138460884825
0.14712108213166414 0.4534201628221219 1322.509033779195 0.17372745734950137
0.13213969583311558 0.4526365928767587 1322.5837696565793 0.16505905085565767
0.14220900820151008 0.449046879311025 1323.043450322898 0.05884552621718216
0.1349979128463832 0.452254750928079 1322.329219195605 0.18858897348383977
0.1294918774224541 0.4453743482603933 1322.4897258769277 0.058650933309770996
0.14778745907168997 0.44857289676720413 1322.2740442133809 0.1559461216491002
0.14236722867463078 0.4475646954770392 1322.453859480915 0.06235094802862764
0.13234787841668766 0.4526675312450785 1322.7576950684745 0.09391780499330694
0.1415816175854122 0.45114911464826274 1322.1083975528102 0.15741941275397386
0.1324931226821016 0.46351591215030413 1322.1604326360232 0.18703747453860695
0.1389882282677557 0.45663296258465036 1322.1284882935263 0.16793175862446533
0.1380521507719325 0.45202754782393073 1322.3157126953379 0.2141855476784458
0.13151243342546123 0.45974069671010204 1322.1884237153147 0.11760519067296843
0.13643325756949015 0.4580095550185295 1322.754283635061 0.17531887116842645
0.14063993625569665 0.44761890865187587 1322.1954297136397 0.16658082295521806
0.14433737105873654 0.4547442051761529 1322.66154326034 0.1674982832972063
0.14112083550354584 0.45618887490515564 1323.2088584351118 0.12333215167444586
0.14028578095525598 0.4499268255358518 1322.4138577222245 0.032926681398281234
0.13656902232531853 0.4535441871897721 1322.9923790580428 0.20400285588765268
0.13779653950242704 0.4584041367753311 1323.1719323689842 0.07281101909494478
0.13609736832717123 0.45119171268527264 1322.6531367126133 0.19308611545108542
0.13030416103423084 0.4555658042464572 1322.9539400678493 0.1546313287318014
0.13216975395677671 0.45206086857252936 1323.2585069735524 0.13699821337738774
0.13900708830314396 0.4536339859641895 1323.135750247856 0.014802730287556885
0.14044806695410303 0.4592121275069575 1322.250627928962 0.2088729165060001
0.13834236387528145 0.45583827528306803 1323.0722821832617 0.027495955742944066
0.1314491461573339 0.4551552491753478 1323.00795636323 0.19121714768061887
0.13392838092536274 0.4417899413367764 1322.63159426669 0.1046766829187994
0.14588151886568057 0.44851090804051547 1322.3405604608633 0.18870785608098173
0.14124949199319495 0.4527321494966606 1322.7094718387661 0.19657514851207436
0.1349060446308637 0.44554028224125697 1322.5596009186056 0.19272447520568772
0.14239473594401866 0.44551072020555854 1322.9969162685718 0.23465181477447536
0.1398468243807263 0.4539520492112902 1322.2258409281103 0.17847830672848905
0.13942244410560029 0.4476710213178158 1322.3104092083704 0.180639639933467
0.14358650775682133 0.4488770982914708 1322.1457988431546 0.16610844856838022
0.13390740547011534 0.4469851080948339 1322.3575433862845 0.06590312197060014
0.1341619206718074 0.4432308683360536 1322.6469734397863 0.1597408139297277
0.1434122042792078 0.442157714826546 1322.4173646449221 0.028477686051041375
0.14636587310684243 0.44424713081993716 1322.6804813611407 0.1605039133962971
0.14153169842412291 0.44663207549318157 1322.7055171142347 0.24267492645456057
0.1440857429951233 0.44258135191911224 1322.0880915844284 0.017353727613846973
0.13785195171102274 0.4427968918696905 1322.2614975230292 0.1604845981052353
0.1545161944148088 0.443231129710836 1322.7655786948717 0.17690468419276875
0.144117931586792 0.4459957680670877 1322.5422764576065 0.14032458111029592
0.14156661122390377 0.4382299307049329 1322.7564377682081 0.18883693628349968
0.15123145299250704 0.438699646114577 1322.610929047834 0.22390515585855345
0.15029827678938668 0.44529368028732536 1322.5076212192546 0.1490128782771139
0.14507336824816372 0.4487638502335942 1322.1087920836546 0.14183633812116153
0.14975393836978712 0.4424610552376705 1322.2184027422732 0.1868161731723283
0.14183971098518156 0.4393178067912416 1322.6762269506353 0.10625944836047078
0.15269288039600146 0.4389144160778941 1323.1432211631866 0.020840215233314367
0.13948414395392048 0.4466293820219881 1323.2354208230952 0.18325837388466637
0.14618631278873534 0.4407607995644567 1322.8752629681255 0.15969234895102863
0.14492872928222642 0.43638490689223464 1322.4835921069416 0.0488089599235276
0.15419139173464563 0.4382719754023796 1322.8990612177117 0.24477518916689175
0.15402962684174867 0.4413599916926904 1323.0232164017805 0.13759157891366994
0.14152574381151775 0.4414129883404205 1323.0582227207735 0.050018302875313884
0.15376232958404762 0.4323700578300671 1322.9294920104817 0.15202286796916567
0.1496678653030248 0.4413763106713544 1322.5954207102304 0.19474087542808124
0.1364454209327944 0.4646419570073878 1322.4939451187036 0.08700205627709966
0.14527314444787617 0.4659887830505031 1322.6917182823656 0.1897452087113049
0.13371003916707228 0.47656205354193065 1322.6173010571351 0.10542338666693578
0.13497424736226016 0.4713666273843283 1322.8214546796648 0.16366125672957776
0.141991598146261 0.46789439000666344 1322.5720946250306 0.21742808617701398
0.14911423031998894 0.47814472837959543 1322.669440100909 0.13818002182993636
0.14099014333164203 0.4608420279658462 1322.5184816349595 0.07068346823633118
0.13705938508690607 0.4862740474487839 1322.5386339256402 0.026595768251637016
0.13571775665732866 0.4764537438023012 1322.6319643870238 0.08729270964504181
0.13724162767738074 0.4734008585105499 1322.5557966694523 0.24607309363660027
0.13266039234331994 0.47120152491202927 1322.5964180191881 0.16528027942328866
0.13188907054758223 0.46804212770595877 1322.4388197135765 0.013164202062696475
0.1422623713943015 0.4728363928766378 1322.9145092923777 0.16102685276571396
0.1578313049100796 0.44215000459077497 1322.8246219540733 0.17293682813105582
0.15103685746224035 0.44114672095806357 1322.651442272792 0.14572875657818482
0.14867908070857908 0.4336405598519246 1323.2019144670758 0.08735951928913521
0.15847718209335154 0.4480084555811128 1322.9921268644687 0.21372123686202407
0.1443769222503548 0.44158532540118955 1322.6903638051201 0.1569008074726045
0.1597420176938149 0.45331106374555946 1322.6685114654608 0.17418609697724638
0.15933290787858967 0.4378179946224366 1322.8918567065612 0.24925776142422207
0.15763905240212922 0.44732117127321597 1322.5578334899346 0.19422758654166225
0.1716615225767842 0.47208184043312934 1322.828997302663 0.16655651040352198
0.15433521765630964 0.4776472126361973 1322.5687219604065 0.18049466826871477
0.1586018173081171 0.47302584464890524 1322.5443167754843 0.1569465869564422
0.16166009225679787 0.4689304347216762 1322.6445275526178 0.19601112352993771
0.15631085045784993 0.4734705716537226 1322.9334416087927 0.18385309941769046
0.16110010791376064 0.4747724699526002 1322.6325599652835 0.12420801179080876
0.1573102512230563 0.4726932335102901 1322.6644044297984 0.1905402188989072
0.1663923930668636 0.47122708877807773 1322.728951956631 0.18883187579020122
0.1549398022852902 0.4748181068715545 1322.86270850433 0.2037753007101995
0.14267979207337939 0.4708239185559793 1322.7220869077044 0.13747766970572228
0.1462138697612859 0.47669323385459184 1322.5136448982519 0.1280393319712597
0.13549592393281853 0.4732809913127536 1322.8582983454544 0.17052289168104307
0.14531271306713267 0.4742014174427453 1322.7033800744139 0.15434396476177362
0.14717848340488743 0.4746895243946919 1322.8656075071062 0.15621166952647098
0.1461792665825251 0.4748821527058055 1322.8906653815334 0.21136046326060395
0.1518858727873864 0.4745402034239784 1322.828511667318 0.2010965230469369
0.146443924166385 0.47554986335790783 1323.040097719813 0.059108776799947124
0.15023713580004605 0.48313123129958957 1322.9464031686393 0.115145614763364
0.14093720841038876 0.48101729704653595 1322.7749202023692 0.08548172978157903
0.14905050079745946 0.4765525512924969 1323.0237604353842 0.11471705486784116
0.14225564050110032 0.4696521805347316 1323.0069162724694 0.21267405398166678
0.13747818843248433 0.4692078633304762 1322.9978472150726 0.19348883714282558
0.145826317696771 0.47262295943289445 1322.9677614274465 0.16736162240310187
0.14299682827402746 0.4786909443915301 1322.8841978549256 0.16822919236793812
0.14342873735480982 0.4718662083692911 1322.7586545774159 0.16344952427516077
0.14580964703944999 0.4734264971278149 1322.9362522606975 0.15001207343454498
0.1436061210689296 0.472812928977159 1323.1484917461066 0.051124633903282
0.14373059003105648 0.4692650981371577 1323.1981533711441 0.11614869797952707
0.13806031516660516 0.469323521383841 1323.0684106686845 0.028758801801974807
0.13837474395219568 0.47924914917101985 1322.8113200584141 0.12725516244700497
0.1370399917780228 0.47100338134932684 1322.7874755716653 0.09416843237920422
0.13424187130186113 0.4666744231956214 1322.6447668706 0.15482424438244413
0.13542950286415278 0.46704926731806057 1323.179208515452 0.08607673237243783
0.1418974948255964 0.4691494249581888 1323.0771257709914 0.016988519342501614
0.1412450854600123 0.47533524487541706 1322.7841994758053 0.1762867260126501
0.1349005648368899 0.4629988413403104 1322.838441731848 0.22616625824045025
0.13758826537326735 0.4694593277452881 1322.3665864171503 0.09833396164155941
0.14067740882665491 0.4531248968042331 1323.0971000086406 0.011555681714848968
0.13678194251788747 0.4686483440625744 1323.251829109506 0.15012645725540086
0.13930686497802175 0.4639797139576732 1323.1725630031976 0.07164047590264357
0.1412848935441408 0.4741103003368408 1323.2183811310258 0.1504131403479321
0.13626229300817713 0.4711553809792473 1323.211914617885 0.1349584518859071
0.15267673581655553 0.43983879241953827 1322.805722620262 0.09965914146667003
0.1526671731218817 0.4402369322830416 1322.6410413855913 0.15109577738945706
0.16665797528838527 0.44232259860351664 1323.0016069531537 0.19415832441508685
0.16036977954894832 0.44636082457735865 1322.6062666052371 0.21636570326890217
0.1624567861445714 0.4434502199689306 1322.878047148735 0.17977432773148241
0.16126924650974478 0.4472341590875112 1322.8392409450014 0.18764115342927562
0.16967007881376506 0.45592120736315567 1323.26373123806 0.16885249693375404
0.1657385344375647 0.4509542419372807 1322.7235400219267 0.21505569861967408
0.16774416278400162 0.446213427295207 1322.9595248987946 0.20850251028126612
0.1577975499667167 0.439949431855789 1322.5263839377042 0.16254468068878808
0.16922377659802865 0.4436602817832212 1322.4898454150386 0.11008179683190934
0.1597815357867624 0.44500612336520323 1322.9199455462904 0.17113813798040553
0.16210396302942684 0.4436375041201279 1322.8954636685198 0.25518381336691326
0.17056844329129914 0.4490563997940104 1322.82600132636 0.10704418187782905
0.164719865758981 0.4550793088277436 1322.583007398669 0.2133594097892394
0.16628509485013665 0.45196751254775924 1322.8007465305923 0.17104178045802007
0.16422955433762734 0.4459784209320105 1322.649378739566 0.11824497513888733
0.160298653145635 0.4459780211164101 1322.973339042695 0.21655493396049888
0.16972089691147488 0.4537246113318071 1322.9895466040834 0.18166891305234867
0.17674942502385774 0.4464409721109275 1322.6955392759924 0.14099651565165716
0.16970801555000128 0.4637086060062638 1322.7063929180558 0.21130267558824134
0.1634377352995709 0.4477195873265848 1322.5458581031617 0.19524592693174167
0.1606258489038791 0.46387843075729535 1322.8601599550097 0.18565999168572708
0.17337658727585153 0.47082018209603754 1322.5499779343616 0.11181804306372249
0.1678275924523339 0.47300094896922845 1322.6234330155662 0.09599348766027865
0.17467841245504712 0.4663938676676515 1322.7493260179438 0.11573797970833553
0.16824841174887845 0.45182225788702834 1322.8845348981638 0.19990130186702135
0.1798137051173753 0.465768523114405 1322.5088189809944 0.06654593501036324
0.17345980425944355 0.4710732983069634 1322.5885587143928 0.10886892600665314
0.16629667473595763 0.4514518017235473 1322.5665168120943 0.20553161011238802
0.17284071253120084 0.4646379260950706 1322.9557495898753 0.1221186115728434
0.17024085922360163 0.4657819720455015 1322.9149314949186 0.18000416068098166
0.18012389048078584 0.46294304066748027 1322.6777354583048 0.11815970587383474
0.16621656280380342 0.4615210108918704 1322.6357041321555 0.20311779466333027
0.16500400914365357 0.46174330059479973 1323.2199151905988 0.184144710883829
0.1662469653426321 0.45455076698333563 1322.867090430089 0.12914739370433423
0.1654402399322066 0.448175610156324 1322.654862959862 0.16715942756710145
0.1712476205481039 0.4625227724938776 1322.6162699525007 0.16904544364294494
0.16605801129220743 0.4644550154130307 1322.6619106779788 0.17792386634096355
0.16793278366178177 0.45276695449200927 1322.852932511008 0.1977762911121264
0.1738922602973983 0.454291262851689 1323.2484042211179 0.13737833779768469
0.15200571001780663 0.47501685132952415 1322.9951936002371 0.21631198049358835
0.15685431909804326 0.4708416601390161 1322.7614525607958 0.14113223537111397
0.1587267452065205 0.4850764204962062 1322.9653601233558 0.11736943904832192
0.14783336252249896 0.4743151337414878 1322.9666092697664 0.17994983967946981
0.16143084768472807 0.4717412066263279 1322.8915424365418 0.19585363999774008
0.14811551307424273 0.4738406779971228 1323.0475246867131 0.02820476604463589
0.15199845439021722 0.4792899263796857 1322.7938073230769 0.1706435480354655
0.16059858467517507 0.47652043984276066 1322.6803028484323 0.19859175380170066
0.1520719507463716 0.4759583732059919 1322.6070207735645 0.16305434079430245
0.15307204637842425 0.47519481349306053 1322.6014696113616 0.17844377181618334
0.150569086048889 0.4757415362454687 1322.5792117542758 0.1655151691277484
0.16488851279902017 0.47326361127394606 1323.0062008264013 0.22314898075034323
0.16408724836364075 0.4781307120694136 1322.917395629637 0.14767895004104992
0.16002001570864233 0.47965160312530924 1322.699551815492 0.13639834929488806
0.17116832515899977 0.4612210635455176 1322.9524479096672 0.1757786844438102
0.1638221840835807 0.4853709609715274 1322.8300922309381 0.1095031309787456
0.17480373976754826 0.47559805530901483 1322.8019515726821 0.06785147026802849
0.16684864927682572 0.4662221315167244 1322.9050531587943 0.17604304274684143
0.15854366657198052 0.43996670746701655 1322.7471632352172 0.16745494319828544
0.16708642483792435 0.44855393210756417 1322.7671686792717 0.2106069820646088
0.16546298382271524 0.4534760615934958 1322.6007365156813 0.1977896097914623
0.17201435936224252 0.4522759422103128 1322.623726005076 0.10996986904049595
0.16296263108997955 0.476617109053159 1322.7328582946216 0.13038874629956115
0.16840284114981732 0.4648820608467037 1323.252346127017 0.1454685021386827
0.16604313501126794 0.4748726849965262 1322.983963739772 0.1484011979535927
0.17397963521658957 0.46552109793295887 1322.6967549052754 0.17594457657308557
0.1631333457049537 0.4703556534077417 1322.925805079578 0.19922604350745277
0.16658802546804813 0.4585435580092197 1323.2367565543527 0.12139096719056028
0.15772104062984296 0.46536628540761515 1323.2109282151844 0.1645626939908795
0.1635097238275919 0.4580524602782104 1323.200517983637 0.09887783850776805
0.1604691088063223 0.46728769564363853 1323.2516771706382 0.14445620146327426
0.15451627889115055 0.4721002286077339 1323.2354671993971 0.10592341614958108
0.15414473148357066 0.4785158824415162 1323.1675037620441 0.06738048683725409
0.15032975559255007 0.4814682736397178 1323.1926833390908 0.08499148550818343
0.1453570873954273 0.5096302556606316 1323.0985818459876 0.02874570900583671
0.1814779867431182 0.4843260473014606 1322.085009233533 7.103148813406608e-07
0.2102482568084727 0.46168919409240744 1322.0890490937918 0.053897350719346475
0.25634821522099394 0.4775953544214567 1322.086046295327 0.03336314012515852
0.14546762476087566 0.5097021950570485 1322.084633297874 2.6067367264516784e-07
0.04671626114847904 0.4831295394353735 1322.0829428389413 0.0022954110939075057
0.08198001441388308 0.46906767684493506 1322.0914904982442 0.007991587673006773
0.05269364679896368 0.46633641242555884 1322.0857807250459 0.022544049801147135
0.07602326035422392 0.48063367524695577 1322.087611965283 0.0029016993581279047
0.08453431865948147 0.4639638100453055 1322.0901644147677 0.028815703780556444
0.12425048332147076 0.48896232140232626 1322.090579716355 0.006784385771620937
0.24207506110928734 0.4604438739399532 1322.0944592514388 0.04351293507408894
0.1822188077742065 0.4670536386332227 1322.0958723217211 0.17585636072008726
0.22700508222474478 0.4521741970195474 1322.0863754946809 0.043662001980671813
0.23932678407818242 0.4545964939249019 1322.0913547705563 0.055382332698334105
0.1075563743212739 0.46259588299589177 1322.090379745364 0.0200679782076219
0.05512550871470799 0.44483425535057947 1322.08957543309 0.02786996757908714
0.09676051361504459 0.4514075818948939 1322.088275593945 0.02725054463225176
0.0690154628652739 0.4486113351861993 1322.0898558871431 0.026746022460751157
0.18903790725993744 0.44167591576779075 1322.0643514256358 0.03331032269686097
0.21051486948030926 0.4404007778806199 1322.0844990532526 0.016481406634733804
0.0844985374536762 0.4300659296854825 1322.0830563525349 0.046505075771113145
0.16150764438747425 0.442230887217089 1322.0774311756802 0.03012038726811052
0.25149974706636613 0.43410752538160674 1322.0700679064228 0.04060075752077396
0.13674877572729732 0.4369942918275363 1322.08025655363 0.020201039661890335
0.231916302584202 0.44429487640152154 1322.0732071617806 0.0595065529329231
0.1645163952810924 0.43866760732348875 1322.0666214484934 0.005671379434805842
0.11341622283084084 0.42577053298200435 1322.058805328239 0.010663592352297269
0.14280832637454413 0.4407788943074974 1322.0568945494213 0.019913937189311524
0.2313560557596177 0.4328924218725522 1322.0631859465695 0.05005298947470933
0.22366041241459325 0.44176692857511035 1322.0459640504232 0.031089263585567854
0.2044721648538044 0.4349111181614047 1322.0495690804858 0.0219060274668208
0.06839641059806743 0.4319707977966253 1322.0725374300264 0.08000227118724597
0.12642153776778445 0.43508187815411503 1322.0697153742924 0.0517354906774229
0.1982273308384119 0.4388915904491067 1322.060106227462 0.045218403531683056
0.24384039863306345 0.44709325520738474 1322.0435237931692 0.043914642597132465
0.07637414708790002 0.4344477260809319 1322.051961346553 0.0002768840228653496
0.18973737844220956 0.43976816683732073 1322.060263817863 0.008064544405523824
0.19423749484820668 0.4442261360962709 1322.083939073547 0.035708387418680626
0.15183319019516175 0.4392230412805698 1322.0913877306616 0.01306303624543477
0.1300444947527443 0.4438205507566344 1322.083020689557 0.04626975860184208
0.16527219402892793 0.46278053820558773 1323.2817873175823 0.06663295112061716
0.15369107683438915 0.46253494832051095 1323.2984804721598 0.1317844876053277
0.14175580526230622 0.4569053283690015 1323.309715089913 0.05984196781473324
0.13671395791779592 0.4385769827012638 1323.303366678612 0.18113653213730496
0.15289663425456104 0.44387144422044944 1323.3119987175103 0.10737164567811315
0.14143166042030544 0.42401554250590734 1323.3148189544586 0.1745094963001448
0.14846735097333902 0.17820103234445994 1323.3168894726666 0.13180077409013027
0.14251855190848758 0.31241532330311683 1323.3097394726974 0.09897560865081599
0.13600894549791495 0.18907002290873193 1323.3166716960623 0.09487288650564125
0.1412980430423796 0.22673823167348733 1323.3115099431295 0.1430510887253228
0.1294955833048125 0.26183140990407516 1323.3036669320961 0.042495927344324745
0.13064454760518932 0.27998551579640685 1323.3135028212507 0.047019427099262455
0.1390596777302755 0.25477347542140905 1323.3146016551266 0.07138818942692658
0.13886100227724593 0.17418110242573623 1323.3022432563484 0.15160121642286775
0.13508393680701491 0.20082707704872277 1323.3020516906704 0.11025773299812906
0.13827640971883184 0.2189421172191903 1323.3088565259984 0.058539688052342
0.13629891407869568 0.18544043058531143 1323.3024961676424 0.13272145040942196
0.1402187325628229 0.21251183285781633 1323.2882520407832 0.04013126268396371
0.13836147903695775 0.35441105781257826 1323.2804176982963 0.012899403880515744
0.12747563641693913 0.26489295914844685 1323.28843290748 0.03744797705547371
0.13604267586961463 0.15559408277816977 1323.2902645567865 0.12984691789471137
0.14033129174025735 0.19144914801069357 1323.2890225579447 0.11637701727133028
0.13825602288162478 0.3076458561096795 1323.2946460279056 0.09903070874745408
0.13848643394920765 0.2903792411903826 1323.2942376625401 0.042844003920573144
0.13629201033142405 0.19908969640747282 1323.2946564735678 0.11470381936332369
0.14457437570804996 0.1749052922709651 1323.2798594525593 0.12219849682874623
0.17719205656850398 0.23798776353952927 1323.3011702739605 0.08760900343802495
0.17174711358376016 0.19469732776913762 1323.3122165288994 0.12960755494162501
0.17278256396299943 0.17970624900396345 1323.3100899881915 0.062263916097175596
0.14699327706113727 0.3824555141278509 1323.311933890049 0.07573972969412772
0.15271742827796655 0.19165376124115255 1323.317063043561 0.13647624760992444
0.15059458384315458 0.32270182697538174 1323.3192569728028 0.09983497219170354
0.13463893815084038 0.15375041255808472 1323.3100245207015 0.17073772132925435
0.14503814773388746 0.13466832862088143 1323.3034122020294 0.15297815442511215
0.13265440125887562 0.14660317928209476 1323.3028897467352 0.09532479421519907
0.17188167227244405 0.15350133825464246 1323.2974506399855 0.12095388096576357
0.14450149124675646 0.11845357051946086 1323.279924718184 0.13133617892246155
0.15659821952638817 0.11782628820859962 1323.2945892077785 0.14724610250553594
0.1416014988121849 0.10800065527571975 1323.2744622036466 0.10770356710407993
0.175561675804067 0.11686109107754554 1323.2508932579444 0.08719100662192848
0.1459261239726631 0.4687982313380053 1323.0509573332763 0.03621227086540753
0.1311826877666827 0.4658639604638681 1322.8518682358804 0.17423955458655963
0.1382550279749402 0.46156841419511696 1322.9807424067285 0.16288564618235615
0.1397685649619069 0.46099779334175367 1322.9006337134858 0.19325838052030003
0.1303886349035077 0.47205307254271317 1322.4104023764824 0.0011841807658964207
0.13628354164979106 0.4694062416693501 1322.6114266957684 0.21731583818654557
0.13586089629110393 0.4640301335705126 1322.9344312959029 0.16497133296886524
0.1411625964289624 0.4762652672185884 1323.2388202985626 0.10006517298997095
0.13479527454246085 0.4559737719135466 1322.944905328767 0.18210683132841288
0.1351806681155898 0.46335684948575906 1323.0334433852718 0.04649378123198467
0.1335274701533143 0.45872120007345873 1322.412632113988 0.02183780092593029
0.13185748060703417 0.46216790497592325 1322.5682803884495 0.16957513229839796
0.14020459741773544 0.46315449248747537 1323.2353987979739 0.13292783846362677
0.13776374193360125 0.46910675609419616 1323.2685356950785 0.12133614852204735
0.13445181074265974 0.4603838048915971 1322.7208011226267 0.12592935190159854
0.14063674300952653 0.46126288313435493 1322.685787465772 0.12141914109096293
0.1413214942060249 0.46893146232084976 1322.5096998198132 0.14690158377101362
0.1347819817612012 0.45510050633014687 1323.220719547154 0.14509422728409704
0.13405901028149883 0.46088987989869173 1322.8546256511236 0.17104930011574968
0.13495633861450917 0.459577129971012 1322.9231242731296 0.16868853432632144
0.14063240450987397 0.4570611109116852 1323.123097966464 0.023995125282570882
0.13660357968337233 0.45869581536771437 1322.3406108446618 0.2033696546905547
0.1301682386692798 0.45554585214324333 1322.557254048842 0.1699592891024534
0.13875318119384306 0.45704579339908435 1323.0591589311737 0.025501216315567277
0.13016552445863264 0.46303006096039334 1323.1006162124643 0.006819396048433407
0.13349179576799072 0.4538521564179933 1322.8162945816252 0.10796065402122045
0.14746940072528436 0.4404449634793141 1322.8439638473208 0.13316640850579745
0.13900251254403095 0.4460703176348545 1322.9469387572954 0.22578996003677984
0.14626979795775172 0.4400021198882324 1323.1602608427816 0.06426541625522715
0.13408940547993412 0.44738817718926116 1323.016362318716 0.12640385074763583
0.14625499637620215 0.44558741745030633 1322.7871792835938 0.09936452174051336
0.1445528806316315 0.44508540295810867 1323.1376950070903 0.026861781397565378
0.14042223501456347 0.44152752020329944 1323.1847527548957 0.1229544960937164
0.1430267893719579 0.4404708083175486 1322.4331507401698 0.0216555082883411
0.13690232032144822 0.44831690428799986 1322.8477959163208 0.1401447055036283
0.13864737587514836 0.44376645921860813 1323.1806619804308 0.09729767618848273
0.13688672497555635 0.44951322339842137 1322.9671786728652 0.12885835676165103
0.1370571418045106 0.4417747329737686 1322.7357926103864 0.07273240055390452
0.13825004291447485 0.4530487394212278 1322.3713905844274 0.11890747907446686
0.14012328297638368 0.4465639400636709 1323.2437433808584 0.1436808801435844
0.14721265016319446 0.44318725901081185 1322.8156595894493 0.17094318170524195
0.14035857870244856 0.451183754068955 1323.2185088655483 0.1465645797352762
0.14711414484209473 0.4317668236381116 1322.579679966486 0.08232038684283789
0.15578917057920552 0.44321565204064334 1322.5203561358287 0.15357351744747905
0.14684325931806008 0.44311320016571515 1322.8908036427038 0.18283324481085514
0.14839545650348776 0.4438370402113118 1322.8038750340095 0.14869464008477284
0.14252721223209736 0.4402751994688516 1323.1047355286644 0.016697735445566735
0.14646016705122458 0.4448306884108163 1322.2569405791592 0.18218911638703078
0.14260174675773685 0.44556046324554316 1323.1235912671357 0.023345632273770858
0.12690609529198693 0.44448927051063836 1322.8299777260343 0.10212006129861034
0.14009380991664996 0.4525885372281882 1323.1134644182182 0.02006934762836761
0.14015772471295196 0.44513844998501123 1322.3832000163711 0.05738448418678896
0.13451508367347464 0.454250273386234 1322.4750594826276 0.06766692835991168
0.14098070141152932 0.4506801702817958 1322.2038533819193 0.1871896485322941
0.1293866507677343 0.4510061667683118 1323.2365089453644 0.16171623319809386
0.13088822765539795 0.4475099412797975 1322.895198851765 0.15239768163622394
0.14178400901787333 0.45152285336355036 1322.9054070445509 0.19870402405550658
0.07427513196985344 0.5161874699391373 1322.0876560657453 0.07000363590739489
0.23882562445151312 0.5048335763566159 1322.0889595524404 0.00061623536103732
