x y z curv
0.1401030656700971 0.06048407753229534 0.37742653326504194 0.13032606167912628
0.13632621338133466 0.06389764274922796 0.4093832588514438 0.13249454234990726
0.12726487501012776 0.05988434135446839 0.4685203193995483 0.1844979169697953
0.12677669864780633 0.062166404163121754 0.41789596042058136 0.11869763682185497
0.13095608127058686 0.06143923697412517 0.4307246831596588 0.1727848951673909
0.14117432549160402 0.06747144522736453 0.45237192353204997 0.13303966281220414
0.11390285325837142 0.06778179507010565 0.4479214313151952 0.16651039658996142
0.11674249946534551 0.06408905850396503 0.474537895562122 0.14855875117038717
0.1389105611453272 0.06890004537854671 0.47688308896487147 0.21179174651862762
0.13716267021689485 0.06461334144461142 0.5035089287893612 0.1386177026325524
0.13683992931284475 0.0654202338945505 0.42913456463833494 0.20717270777941968
0.15295868096224696 0.03658298741153016 0.5464916808797939 0.0004023833391042202
0.09297644507813199 0.019354010121473794 0.5968283144549573 0.04469908662921211
0.11710645374947497 -0.007655990220250366 0.6055572115599697 0.03317594453378121
0.17412202103620603 0.02292368532141662 0.5924098822445591 0.04364810800834219
0.16002330960009076 0.009135237664190027 0.607952940971364 0.053051694600810814
0.16857863736801645 0.04508599124050424 0.5631173123900464 0.03383145125801282
0.1677405324896403 0.03175706353630245 0.5998903619687856 0.06292689508017674
0.1435459913778559 0.008829096473877363 0.6147787852562904 0.09636666338554362
0.07806958920437093 0.03073702476914534 0.5660822945583355 -3.4849913588029923e-15
0.09119757448218259 0.014926076277897077 0.5823785114748238 0.008584283567229251
0.0915219544475083 0.020452682157944147 0.6111496567924168 0.05184267110024612
0.10420301993351526 0.018164984660710495 0.6187662939850259 0.1928378050490734
0.11716149455086844 0.009953078154246913 0.6264375212887087 0.06060902494949809
0.12046212311993744 0.09364004518941307 0.45082607646301737 0.17883958378696546
0.1335113066943931 0.10166721321363446 0.4350708712125285 0.06625476528037459
0.12398488353395293 0.09441279552615801 0.4601074911569437 0.18832129346629736
0.14159451864362466 0.08498800765403183 0.46796042825169015 0.1996272908039243
0.14421010749934654 0.0748139847974087 0.45862361686238584 0.15317750883708978
0.1228931329807687 0.09754832719855461 0.47396746625444613 0.2276007385374287
0.1402602351187665 0.0872959178278697 0.48627470481014584 0.10223873817501355
0.11999430845927567 0.0899604155001432 0.49832571757479394 0.12038716760042618
0.12353657280812338 0.0889602425265599 0.5225713839418211 0.04239107223702526
0.14269232241873647 0.07107689900270418 0.5200344416108899 0.04001014377467331
0.13295924140077328 0.07857841437070061 0.5550403391541865 0.0041295640051849745
0.13911117303057058 0.06297701062459388 0.5821798476343257 0.014295299235817809
0.13028935371304065 0.06250173923829669 0.5893424233457486 0.014058796291781658
0.13814412306791016 0.051720672700508105 0.5983914539603128 0.003848561939198273
0.13344165257326757 0.04218852089387072 0.606735512303819 0.016732518841493734
0.14972265089250356 0.02858341517592257 0.6066821436413804 0.1048881070177011
0.12262303508951886 0.09754485360658825 0.4300434495285522 0.2142219084021006
0.14116974538146324 0.08226853293030155 0.47639483643932345 0.1496936470082139
0.15683203797465886 0.05700003656427362 0.5620805355053426 0.06793200718470488
0.10168800260082883 0.012497917795336877 0.6151757166195457 0.06712951390237243
0.11411772491116712 0.02656874492357237 0.6192314274922767 0.1707990982354287
0.16138921699630515 0.04633239339267885 0.5907448836630222 0.07893150814363564
0.14747897132152532 0.08150409235918041 0.4469479653395362 0.13248271299430583
0.13124500539586262 0.012280674115474878 0.6185265077854546 0.14183411289952502
0.03162605235225858 0.08663720370864302 0.4126526600851 0.09703010450797285
0.0007321968416709552 0.08124689917101613 0.4068979293379439 0.09015145459559654
0.13209810422080165 0.05969649758203782 0.4022897644491277 0.11412438761790598
0.13294673509963525 0.09291120393353117 0.3817566126228782 0.06472060417060778
0.05549930927782283 0.10472517367553476 0.39799748468318763 0.036861333469233946
0.07633510886203072 0.10309402107769002 0.39015989195626977 0.025454761760361388
0.05341122922338186 0.09724644181206635 0.3693640383589907 0.032451295438809445
0.03694617855528967 0.10168103850316984 0.38216500394916375 0.10871197978478338
0.02352565150599869 0.10478740521416885 0.3811142957230104 0.10626898699013607
0.036882477963124605 0.10425523344188274 0.394551709033183 0.04029248556671105
0.03530002100315109 0.09495192316482842 0.40712789199043575 0.06499659702693474
0.028895119886100534 0.059516611198181475 0.40533507779539774 0.1371685152142621
0.032932809424701656 0.06399900843962937 0.4126684627478884 0.09213040281827946
0.023747125876969193 0.10001120917785952 0.4010273963758718 0.09087865030279951
0.02722373564901667 0.06896895328065362 0.41574838177771906 0.0968821863809362
0.015057622536629631 0.05921733028584462 0.4044164173103708 0.13466680100929654
0.006783838340785845 0.10134879557773242 0.3916972003273351 0.13087495467902838
0.005308042333681802 0.07856863624532218 0.38406085432384124 0.14888590789417755
0.01675479972162317 0.06160847363769706 0.3856220475741915 0.11010804040717616
0.06031521709908764 0.10289137035323251 0.4069666763587484 0.07929185075770531
0.114203114223733 0.06522186685400473 0.37524555889658007 0.0483043491745478
0.14596381016503812 0.08040953425422831 0.4192321604812496 0.07987099228094068
0.14463256887813167 0.06029510336958201 0.3891454197244584 0.15013398324119676
0.14867718356291476 0.06490434123095756 0.38818820342701166 0.14546669719569208
0.14187079958092844 0.07948443916406363 0.38730577691655693 0.17723099939936635
0.14984616445736682 0.07971318294463407 0.402533084478674 0.0800013473448823
0.14437821571313564 0.1086058550795653 0.4101039064035717 0.035766682935113724
0.12202373409275254 0.10741029346839975 0.4027499014435799 0.0709440483699219
0.12647138081906614 0.10313289905362907 0.39706704313392627 0.07234292545594526
0.14229864479919677 0.09840605264118349 0.3958548199357449 0.10106085331312782
0.018953275695564067 0.10843811962633385 0.3961484445702808 0.09026349418134955
0.10794572219919848 0.10028292836551463 0.37561159066006344 0.04077989423245921
0.08996738939556645 0.10982593112387758 0.3959099820080892 0.014575965550696549
0.10161388601224257 0.10310104355299432 0.4106202692520516 0.13255199455906536
0.10062115782338618 0.05872550422268404 0.40474989654861715 0.028830435607335936
0.08592951788915983 0.05438001938157231 0.4036987424273154 0.01191139591946624
0.11304586500751958 0.058024347222001234 0.3925176469808287 0.04062907316187991
0.10500756117875397 0.06641305744168069 0.4172163049896344 0.14225158050144046
0.057286292368903355 0.05539949211952118 0.3807551866842306 0.0002471979688982425
0.05409370719232774 0.06658292957663584 0.41981088804406475 0.20669902970360773
0.06538135566361407 0.05488991843033758 0.4066582675463828 0.008480069005132705
0.08967646972404067 0.05797496180843093 0.39540050457436304 0.03479858742217306
-0.0007399797914101579 0.08882985847696702 0.39541437209856184 0.15099838465341628
0.0047804905882320526 0.06308984091300975 0.4084980649979497 0.0739568192266984
0.006950606954279397 0.10029466443703602 0.40772106259638863 0.08919205590394418
0.1613274844599942 0.021013151492673774 0.5609304579597418 0.0787960358414623
0.10171136657917608 0.015419662116191205 0.5657118933566444 0.023840648767708472
0.10964102572184536 0.004251784075703084 0.5870379034779059 0.07296516165798367
0.1473154498178558 0.006136661350349144 0.6054680077204867 0.09841100485028396
0.06961863451891782 0.12732615945607414 0.7388270730291573 0.12671489248881596
0.08286338648218716 0.13907589721137967 0.7176909518253739 0.07734441666442558
0.07073642574598142 0.13810190468552713 0.6966659845022269 0.11758446150717726
0.08373200543673061 0.13296389248778417 0.7253717770909013 0.1045257851577471
0.074130364172738 0.13926748809472234 0.7184496612979488 0.10343577523051965
0.09027443051988261 0.1404996207894437 0.6929634043327639 0.06426820144601021
0.06468385717938145 0.13496354684528653 0.6680851759342 0.058339087456663254
0.08381561106580256 0.13232760917688755 0.6653334192702004 0.12650350774147712
0.05976257671818724 0.14029799983767077 0.7088452013724832 0.09143222283360439
0.07301131684229296 0.13416370825009527 0.6808663662806345 0.12527762001372963
0.059489147690698276 0.12530660692716009 0.6522696659536433 0.021531131693651496
0.05297320798660204 0.08418870427422843 0.6552346322734748 0.20602546372675756
0.08518456882867392 0.13737324665728293 0.7182864178817212 0.07666913126256347
0.07499184308868077 0.13409861979430776 0.7361228349120875 0.11924324415618823
0.0848863713921287 0.10054824612245794 0.7394853033709291 0.042479585772436865
0.07029194344141802 0.11002264703119512 0.743917613887252 0.10993201488087398
0.09422991012539488 0.10875517993710523 0.7184288774851744 0.056759474854778474
0.052103473913942294 0.10319689879238877 0.7353918235500028 0.03647926946602902
0.06981946478137797 0.09948508117884194 0.7336991239749056 0.07466804747464713
0.08402473500215657 0.08843419298240131 0.7135862327817449 0.035984822902852646
0.06362407178505602 0.09013099485505563 0.7239188772717093 0.13787665013607997
0.054917670781795415 0.08412557666023913 0.7066549517293141 0.08108727189299149
0.08727684924942067 0.09440710814361301 0.7058354974734843 0.08523272452496433
0.05507274820667407 0.07817078410746241 0.6991131288009664 0.10554588078576124
0.08165646401426903 0.07368803125411813 0.6880453031146165 0.05144074349323954
0.059515183248707006 0.0689209403048333 0.671542372084419 0.0589702822350452
0.09423059718981652 0.10543481915220033 0.7033282559163273 0.04717580908081928
0.073686132170599 0.12610276349199 0.7470222987130023 0.09855005525249821
0.06968370144295094 0.0754860443519167 0.7056772453891821 0.03163423775371386
0.07221875858581737 0.07028016272450915 0.6753903466203022 0.15239814894646878
0.08518137245718103 0.06813316861723491 0.665071364733049 0.2026350446502631
0.052895722408470514 0.07751707628728838 0.6834628659030685 0.10157330612165402
0.07228375214818546 0.0601366968073753 0.6516394450877745 0.08949723799449882
0.0902727484986169 0.095647677973605 0.6514928376801697 0.10724476199900247
0.08700538164766528 0.07961698163214397 0.6748524574017308 0.15277492586221564
0.08804789552764625 0.10050989493822897 0.6742384101825118 0.0478745623548462
0.09262212404578257 0.09771619203899395 0.6949156783839279 0.029457509177496087
0.09002701050559521 0.11898401162558384 0.6781608764691546 0.06952106992692138
0.08901978800748307 0.1274276239695714 0.6953237900115633 0.08814153120833187
0.09175494874407743 0.13552385258118715 0.654199122356232 0.03305688733268065
0.09118836819459113 0.11166945096056576 0.7064196349551207 0.09217633217116146
0.0492904764298314 0.08983248788746477 0.6683741257745649 0.10015189566557418
0.048432553014738214 0.12156130649949992 0.6646128670808761 0.0795052510121322
0.05017025459545441 0.11246482782253964 0.6999207092121067 0.04165131913702606
0.054759625539417954 0.1280038862399705 0.6606715177482718 0.12684335314985962
0.05316397410404456 0.14035878606463353 0.7045364000846328 0.07667760258953989
0.05671314374219556 0.13579374785535525 0.7138435096387606 0.09186614365065127
0.09092469575183708 0.11215800799195336 0.724523430174703 0.05647115157526794
0.06184073612759755 0.11049931202511433 0.7398430512982175 0.19273013083309104
0.0913374643407775 0.07548562959566192 0.6604033615810891 0.18691755530859588
0.0687299011529949 0.1404051521750792 0.06797356361086038 0.03492610716245646
0.0651192070011969 0.14193411481001647 0.05026393324837333 0.045497827511278385
0.08836815671968551 0.13858855823344232 0.0423992443685688 0.028682962153149593
0.08609955837620965 0.13555851758506388 0.05609900685791092 0.05413716948345948
0.06704985756953193 0.1363579330137086 0.08683773338315524 0.023681328811128863
0.05499423860232169 0.12709663605350638 0.08995156774808323 0.04426085027639145
0.0892025948488629 0.08005305454118926 0.08774515325322038 0.11015765662614697
0.07943186025489714 0.13430663747608726 -0.0009703841734855674 
0.09489515775924952 0.1199257385052272 0.00010060984689604438 
0.09428733528639048 0.0977543478032351 0.03447618388133007 0.00016150948338523578
0.07473324555640878 0.09229671986586041 0.024206276199199836 0.06197190663884843
0.05677456321288614 0.07921238640033562 0.036592686146361866 0.015731773308051228
0.07058023324684921 0.06219103564828577 0.06479565739793937 0.026812492530736774
0.08204922083770862 0.06891029615978 0.08892915870753403 0.10608122580049384
0.05970949500018514 0.1342823006155455 0.007946443518131358 2.6037237457887183e-15
0.09321083933443168 0.10312047753994362 0.09619939991109464 0.017462932578816655
0.09718098468279925 0.13102339966354515 0.08518160894686067 0.011357132282017872
0.08586800226490562 0.12055392363089161 0.08874556854875164 0.09603687148365556
0.10151574889837157 0.10589148254376185 0.057325236495590015 0.026534005940391125
0.09827273064520993 0.11405739270664421 0.043430817675695815 0.035144306899676146
0.04360763882237313 0.09320078879484613 0.09083844082139243 6.561990099753129e-16
0.04861546619335083 0.09654519611577456 0.04680888272785976 0.05981192775664876
0.048485039163425135 0.09498660343803515 0.049596175080678914 0.059860485748242064
0.046064201285053064 0.1291684393315718 0.04876669914523091 0.021030175647803892
0.045140882857557185 0.1121506227466609 0.05182336762923203 0.06135884553023594
0.07888764683409553 0.07232074819418984 0.04732576797201991 0.10211457248062622
0.05046467912431374 0.10860293114154569 0.031247052482772115 0.023379348394157326
0.15875390602499762 0.008304293981805034 0.5825024330782963 0.1049785815370398
0.13747624070363013 0.0030114017762151307 0.5872515099378434 0.06642543021319063
0.1267715430860508 0.013418218283519995 0.5603583783480207 0.0027364283453523656
0.07979077556828958 0.07908240186721983 0.23216873282309977 0.08836528144812893
0.09108027950357625 0.08662384692207606 0.6202309421059662 
0.08072068070022285 0.08832615546662267 0.13340794002758052 0.07181489890160224
0.07930160079907606 0.07670975880549595 0.2503189388041111 0.10714527047647968
0.07951985270723942 0.08713675479751748 0.580218608927736 0.06805552272852265
0.08585266305678622 0.07549943833798765 0.2951428938047493 0.06040437979690292
0.08583112541527584 0.0700627763357955 0.19075631675547405 0.08469618401636785
0.0874473590413241 0.07033263417515256 0.12520775950083293 0.03454421265740175
0.0853991574440956 0.07290947147966846 0.32748270357477793 0.06908870064091578
0.07898325854872416 0.07165309750970832 0.1481305814236618 0.09126584655689443
0.07549886705127899 0.06752179720660666 0.3071234693118921 0.06167291336194272
0.07828871230221504 0.07653452440379777 0.15992529754545964 0.08137397102013215
0.06605425260773003 0.07131336112629558 0.5030824747617698 0.07831085002720944
0.08141907125274203 0.07102242961003195 0.29031962763898944 0.03324800036811302
0.07904987472147045 0.0672207966958973 0.27142567744784074 0.06107928902632219
0.07655656491310792 0.07262148100860488 0.35227146308486024 0.040410430670514266
0.07815506864932152 0.07249034632416625 0.32236282942113986 0.07755176928832574
0.07981121996002814 0.0715282522709545 0.31219684571758716 0.10594648921211824
0.07018565710981169 0.07048225126238541 0.14568213857241932 0.09545506473092791
0.08016792790784023 0.06591433064710714 0.2187568567374239 0.06658303955495457
0.07397896075033679 0.07091768318400167 0.2511778495043716 0.10596609682140835
0.07628966094342123 0.06416990650351873 0.4755228084802437 0.06109320273489995
0.06601678935094177 0.07174059671387771 0.46341184334661745 0.07449884673296675
0.07080742275017346 0.0724456061865134 0.42669886543007823 0.14824734852423613
0.07360377985532393 0.06983115797494037 0.15594125165411424 0.10998982711818982
0.06921654252038575 0.0704644059990892 0.49853638457157484 0.07677943430152925
0.058425573568775147 0.06303140623197015 0.1656708542536609 0.017366779191271085
0.07057395796259516 0.0716610929246575 0.10239358840648978 0.10059263465261781
0.0697565450446353 0.07219494254907151 0.26989105475565556 0.06359742861303468
0.05802844863913988 0.08046135549500145 0.07701095614125855 0.059752854731716355
0.06405397942683953 0.07408599867640023 0.45304678044531577 0.09629776736598024
0.052101618942787795 0.07596502890820471 0.47539207039210607 0.06537209649556316
0.06590411563226596 0.07643109858577232 0.6227442653040792 0.06689123007293125
0.06767439524192129 0.06718235328597062 0.29384073332737964 0.04483602974007651
0.059462975039502326 0.07379188715464764 0.5738448400799958 0.03181801567576285
0.0631960831802817 0.07496612772008616 0.23956381244869526 0.08856197349611042
0.05617731914860259 0.07567090550102883 0.4505996806864788 0.08925855510633106
0.06469042596302188 0.07447932417699801 0.24175386686460523 0.0934329261412865
0.060921563154894436 0.07773867572879256 0.5229839294325428 0.10018080632789221
0.06404539910140701 0.09369321802356058 0.3487803966787095 0.06431388611234096
0.06769892153077621 0.08864485365395028 0.13838203397239343 0.07089022412732211
0.06488362591838304 0.09252456180694872 0.4539241243445284 0.08340089454335434
0.061136943350407265 0.08350182979347942 0.5498117748838417 0.060743625583702554
0.0696362969217962 0.09024078183679703 0.4906481693936891 0.06355902862319102
0.061091714669457745 0.08996869323664937 0.5930753056548663 0.04950080796421979
0.06490517969048257 0.09588062332789535 0.25442913500290776 0.05959224959343832
0.06031097910396359 0.09583467538615187 0.19147499536816384 0.005295769690976134
0.0645552804286072 0.09399077196493785 0.5182542227924217 0.07283513165212394
0.07327798389635343 0.0925322109792059 0.4373567214188792 0.06890495051350583
0.07271250162200343 0.0950198252357487 0.21731026823881044 0.04825356453730675
0.07258725565477248 0.08869391006883089 0.47237904337861975 0.08670503982594678
0.06749868867132558 0.09263015539064078 0.3242759806541143 0.08208843278903055
0.07484957045704506 0.08859260973742465 0.1502203298761341 0.09688476928457221
0.07978883893301392 0.08596651339609808 0.23949914654278914 0.10633487615766504
0.08028304264452052 0.09873910165147816 0.5261135545120638 0.09016322142096625
0.06484117845995666 0.09422655629347305 0.572051930009874 0.03958869244389694
0.0790971656775621 0.0930020343394168 0.12104103144343949 0.059557077004443036
0.07818210258070973 0.09278463607350897 0.42743401338459014 0.13600049077964868
0.08091703951619177 0.08584626561000809 0.19787154266369938 0.019297817131068453
0.0771901302046532 0.08653662278195468 0.45499927666119455 0.08903997136589138
0.08461562995528109 0.09123306015146426 0.33525562164262207 0.03586629775061813
0.07691978543246761 0.0918985898809192 0.13508131784253258 0.07882831390665887
0.07767917351763474 0.0891616834870822 0.2697260075914201 0.07805879755718202
0.08828624689868897 0.08514328644024952 0.5437864374546416 0.03626274891738033
0.07992410513264175 0.08231469658767243 0.1811073068686332 0.08134669631849549
0.07923852804861947 0.09243209151200277 0.2988104377527862 0.06028033982383132
0.08794463092293976 0.08757689941934318 0.2649593930374744 0.05970126163243105
0.08531182004022428 0.07845547349866017 0.07312731926151128 0.08068167461888606
