x y z curv
0.14432250470812513 0.42051691353818726 916.4054194072882 0.12045388933499587
0.14602360407642867 0.42397488588802124 916.917786714074 0.11633085539632282
0.1417519840522842 0.4137573142364462 916.5532266655314 0.14724980491358694
0.14725438351206585 0.41616699921964834 916.631373254869 0.13145812963476386
0.1471211607679762 0.41950889803248614 916.7183480045525 0.19282762082778757
0.1457963936943112 0.41836780706383947 916.9142034217493 0.10336568685977753
0.1473067357883204 0.4267723852220591 916.5797094474905 0.1537625498178312
0.1427024670092061 0.4115753695746598 916.3753689925694 0.202092728357327
0.14771251742661534 0.4111312458689881 916.2825885385998 0.11843380704387026
0.14084846714885996 0.4155820494040788 916.3019929592722 0.10424707850347996
0.132665285711366 0.404771453013828 916.9089168516032 0.1074968991646761
0.14415257342134083 0.41405981491898136 916.3342796903145 0.1765363657027473
0.13557949011257547 0.40924695831346153 916.6947689675401 0.14663702676208248
0.14231509886824967 0.404019206127985 916.3248330945908 0.15729999799950448
0.13677812744116613 0.4121136604347751 916.4907174663671 0.1735669115262968
0.1446661809280777 0.4087208426719876 916.5817657926509 0.12277653629194696
0.1379464749949456 0.4131602160364775 916.9684049776372 0.15138185488494943
0.13909559533909846 0.4146645086957339 916.8971098788014 0.1171094697522541
0.13878361001400094 0.4107625623386456 916.5489199397456 0.14978733105949757
0.14285300023879002 0.4107373040671516 916.5071656345043 0.1361180921600029
0.13091816051105673 0.40650243434040456 916.3778633462164 0.15911213988791273
0.13483719378620718 0.41261857478117836 916.654236345357 0.1862125456461099
0.1377538668123886 0.4099230990979079 916.3174861482789 0.1638657608019852
0.1417597865186407 0.40960145387015584 916.8624154566014 0.09589350398398618
0.1270247418571841 0.4055906426439732 916.6253894583238 0.07719890927468545
0.13892904579045975 0.40757963191935254 916.6750565138498 0.17221618327111657
0.14560389139052918 0.4128580086966831 916.6439265289558 0.1774212057487624
0.13175926771881136 0.4162869524767802 916.465506027812 0.14882283572972882
0.14132912184524535 0.40517245317780803 916.446614171642 0.0950479374268679
0.14460339753870005 0.4190886039770095 916.4311163554303 0.13640757260666306
0.14822335718137997 0.4283519967776346 916.6643735821386 0.11628048271058744
0.14540877138163297 0.42833881170893806 916.4476008805244 0.13950406981564492
0.14935225623664025 0.42973902360496435 916.4388265141295 0.13056702119405933
0.1458997759429162 0.42844675035546276 916.5714370620799 0.1307573286137366
0.14173684047446802 0.41026507971282283 916.7342299081593 0.06806267860522482
0.1451411800943772 0.41967127008810523 916.9419204627309 0.15482664116692188
0.14163466317413226 0.41309768702071364 916.6076739129637 0.16157438581595615
0.14419872855441274 0.41879218135849194 916.8705502923012 0.10764075320135956
0.15735042238994373 0.42149866261993485 916.9709292217588 0.1331655939991372
0.14440518579053438 0.41551400682717277 916.5148116094429 0.12905079716811416
0.14589613536541657 0.4135164931581021 916.3453846672473 0.17604526449046928
0.151798899669744 0.4261627435158436 916.3805402339598 0.16946421757810487
0.1466150455763681 0.42593985128682366 916.4892106898633 0.19290273925508616
0.13000253287316513 0.4438707984807281 916.682598503945 0.18390626380390487
0.13886233399706382 0.44203270730623506 916.3872613046703 0.1714930776534228
0.13832044985736142 0.43468159059667527 916.9055753993603 0.09481096198422476
0.14465198185028647 0.4318201537339717 916.8918934944696 0.1392520969433864
0.1376912830974504 0.4380737951080104 916.3310295099764 0.13773298254092714
0.1339724409688295 0.43796158082526127 916.4241808333261 0.1133656426005269
0.13308811354399458 0.43579877679180634 916.2483331937822 0.10978189446107373
0.13792186186056174 0.4309450393718422 916.2605721660694 0.11717692050818107
0.14047689402970642 0.4444201006223176 916.5056667460531 0.14795124278628902
0.1302647697594553 0.43499486348029676 916.7663138526337 0.03531853783421039
0.1440698160550061 0.4318336965191772 916.3961842867012 0.13398774803049204
0.1296581226321355 0.4354616873721361 916.3667451865659 0.16877458784507585
0.1390073506114814 0.441301109885557 916.4868158744033 0.1787262064729057
0.13943261115184272 0.43844947021047664 916.3094723499169 0.15061106598241888
0.13476966465742882 0.43299397794456046 916.7559478303822 0.09664802878464583
0.14333819789381755 0.4386545661503883 916.8683335682713 0.09901477853237445
0.14024896366278855 0.42813559419100533 917.2249213358889 0.0598101065351613
0.14223735840007393 0.4241253587511871 917.1626412487668 0.07026346015436234
0.14803896399724464 0.424158477156903 917.1898734790786 0.07424332137655855
0.14335368012381547 0.4170842400111349 917.1139830058838 0.14121587402449273
0.1499793373733707 0.4143276261869236 917.0973176098908 0.09498341781764592
0.1462008780886843 0.41995534819249325 917.1421269504457 0.11487404804651698
0.14637777113286773 0.41045970270847315 917.2131288572957 0.0684060803777732
0.1416421298412167 0.42185744265838426 917.2379520166716 0.05745599932852845
0.1432287299199446 0.4256442121180037 917.4300685851854 0.07483433619427056
0.13540312525507836 0.4169070613776111 917.3829069624791 0.08857070512979534
0.14004658830853126 0.41571942902417797 917.4875328076673 0.10404617899962272
0.14729124213832911 0.42275338413437197 917.4083999854921 0.035900256378911664
0.13672308738949793 0.4196329479557313 917.3781355126562 0.10094337646320241
0.14143156811319318 0.42778568511184506 917.296689728624 0.07142537391457043
0.13964283863763918 0.4149021184502908 917.308221347436 0.11923411128979004
0.14304183341166482 0.41622296438743805 917.4525257927787 0.08037054489328196
0.14031860175281477 0.40947759223008057 917.2283980011097 0.061508054668574216
0.1401085321816696 0.4027016711527119 917.1301881697724 0.14580383596904342
0.13464071074969297 0.4122934032901763 917.0477780324055 0.11511551455079849
0.14188532835932532 0.406125824781021 917.3454227810761 0.08908885412773027
0.14310063571532178 0.41466452882057214 917.3523541867346 0.09684852602742888
0.1306111160562277 0.41337457631798913 917.0009311997663 0.17131092496110747
0.14416119627502136 0.41457387612044666 917.1745103123449 0.07598664576710103
0.128930493508977 0.42066621914302643 917.0918615893804 0.07026271655157859
0.13438160327083554 0.4131119346882019 917.2643045407436 0.07521789177167176
0.13957796979004092 0.41427310306573895 917.2668169522284 0.09620434944557038
0.12421547353036988 0.4141595214784353 917.303200308729 0.08421645620747663
0.1332007941503086 0.4166165481582168 917.2121819679307 0.07177499808733057
0.12255992966896703 0.4220276576275671 917.0331237469322 0.07519531656426376
0.12341710524345544 0.41356509095451743 917.3386747431043 0.09197593277920063
0.12759304002570657 0.41779127673098 917.2349577129762 0.050216192742099694
0.12702107498686738 0.4151002170196158 917.393760482416 0.05502274955709668
0.12118364907912481 0.40371876595968065 917.1337494301531 0.1115637466886285
0.13147235377029376 0.4240073478296095 917.4342121017075 0.07830403769475752
0.12612201253593097 0.4303705345387324 917.3303519439665 0.09211797234456433
0.1285200035487382 0.4220764509466863 917.2158626212623 0.08301496395856468
0.12648034980943346 0.420602122465138 917.3672731678525 0.08988308337260828
0.13254676380779606 0.41608473533072343 917.1918738928214 0.05836278366374056
0.12415813222424958 0.42513447274278354 917.170733855482 0.08655603905700175
0.13022267452545175 0.41790050026188735 917.0135661575824 0.16085095603433078
0.1210984210971239 0.43132842948255024 917.4562542514368 0.07712199693095606
0.12392819619610398 0.42465138336812713 917.2984460912043 0.07708375348721332
0.12094447159704398 0.429789744061225 917.2978246146708 0.07470495451767334
0.13197694663210074 0.4331153855013614 917.3965803420168 0.03343795563756578
0.12544682319420067 0.4245377489892525 917.2606330384131 0.0619253033378533
0.12510606011858227 0.43433969515453125 917.3238157713595 0.10237588353258173
0.1317567287588819 0.4285959345568841 917.3629093870973 0.0893766560430257
0.14262578042128143 0.43345008024431625 917.3918592784104 0.04195547955458097
0.1244946501733448 0.4298639587547086 917.3328372989505 0.09257195272699514
0.12703842570166768 0.4394719052404302 917.129168613462 0.1373067092000548
0.13019893013072795 0.4358275585428879 917.2462809052132 0.06996563501678388
0.12137663154651059 0.42780181183618315 917.1194334471355 0.11144518026801359
0.12356199380858453 0.43021335659130405 917.078120150015 0.1734891503742447
0.12643405896317672 0.4281283656196848 917.3820894365077 0.06600539039082308
0.11391866160154367 0.42159673989169705 917.0684856708075 0.049483865628532527
0.12713010336016226 0.4301981512735646 917.1483882702898 0.11799890534846649
0.12033379646482659 0.4105357155891767 917.4714356643384 0.10435624843523027
0.13077100458883342 0.4146376600703566 917.4510355889521 0.08733364533295918
0.13342989212074005 0.42623736582344307 917.4134969160671 0.03828289515770941
0.12351394297649347 0.4169882665941174 917.3866285434372 0.07878568284114916
0.12806976404735204 0.4120543731276089 917.4302813967723 0.0774815449892905
0.1324019265172439 0.4092565813512633 917.3614121133619 0.09417138079914197
0.12990204058599825 0.4164338549550289 917.3142148527003 0.13134470095248316
0.12050901175341555 0.4284818875320471 917.3198959520477 0.09655588345680692
0.12790606316638026 0.42793223330886276 917.4736574299421 0.10251128366929407
0.12820539905443276 0.43171019495075336 917.2694566168896 0.0911459957466702
0.12257189407640993 0.419652642866591 917.4207548342811 0.05369821220818777
0.126005936433268 0.4289711527557646 917.2568398925467 0.0685157368031701
0.13683043598761066 0.44251268004603467 917.0107144258042 0.13485956563246831
0.1394573933876248 0.4457252165607287 916.999302297411 0.1245410514854196
0.1454896338665293 0.43645501779274476 917.2146021575415 0.07673459165859127
0.15196836032619784 0.43783492123801654 917.0702157765621 0.1510900220032549
0.1477377883130027 0.42789883783166666 917.1995756227476 0.0714296203518474
0.14051318279942834 0.4339257931875466 917.4530059005616 0.08824812841796888
0.14260371219043128 0.4269822446660379 917.1371622501975 0.12220616215913184
0.14086096400514847 0.4363668721333764 917.3707602481844 0.08655518413518246
0.14164214778803824 0.4314899174646345 917.4179632448456 0.04165032674765715
0.1411213127891019 0.43319845157497117 917.3345494341926 0.09337207762059255
0.1486998255497965 0.4294565522189173 917.392447238284 0.039345715559622754
0.14529370774490785 0.4226243908604676 917.2476821974024 0.05560104401088393
0.13686905610025 0.4254341042943316 917.3347225062444 0.10242854162067949
0.14730435730186825 0.4215846737803666 917.475591833856 0.09299475878507191
0.15238323498558018 0.42228790853902426 917.084762991941 0.1336135450132325
0.1372431572489125 0.42961094321651716 917.1556440121772 0.0925687680704496
0.14116208204587397 0.4294776898229602 917.353701889951 0.09217936463425747
0.1339453391573566 0.4052109240144264 917.46431583641 0.11408417201816688
0.14225452711115072 0.4288154025572973 917.2738758875463 0.08766604776850172
0.15016644961641987 0.4243407752125401 917.3030945927931 0.09087117274207256
0.14604473370500673 0.42187581240607774 917.1678053374028 0.09666174377540947
0.1382468947245047 0.4306515554951263 917.4378436070128 0.08638487297054379
0.15011676715382774 0.42308346895339916 917.5135104311206 0.118809287582745
0.1508329359110677 0.42002228618035664 917.5004663426045 0.113952521421791
0.15362574990620573 0.40473730579980033 917.5141048548047 0.114538101860114
0.14435894199478494 0.43316624476655075 917.4974763022032 0.12203403762515315
0.1376307381267846 0.3659307394910843 917.5216676699531 0.09080409608521843
0.14047380463213316 0.2921000234911595 917.5135537842662 0.09876701440192683
0.1461954944050726 0.3372660203199933 917.5138005462696 0.09613678548206127
0.14507597975439745 0.38427561153366285 917.5249232937433 0.1065173625403129
0.1349276362122518 0.17908868125000185 917.5250822423583 0.12712893848616336
0.13745973769030878 0.2528219962633965 917.5063752203748 0.07942232929450513
0.13025810687837802 0.29076468235807335 917.5213826654561 0.09995852992290805
0.1263138300500013 0.3622563341599911 917.5202940607703 0.09342225593823165
0.1370921860692485 0.3280883121491451 917.507800210074 0.09302677382645919
0.1389660962644276 0.31256148730767 917.5173189005556 0.11974411040486262
0.12577474601886834 0.3059337144580273 917.5199721028877 0.10253225752807459
0.126078617573002 0.3565273290926001 917.5246022592829 0.10707156144681987
0.1300245469571762 0.3272901041186556 917.5157089782903 0.09866782926118033
0.1219108935119945 0.3250691492947962 917.5264247836142 0.09564750029845957
0.11705303116426165 0.26944439793256203 917.5397177376483 0.08861492199169474
0.12349375011898489 0.37624274293452903 917.5310915296038 0.0675349589114549
0.12192047359122414 0.3307542081068868 917.5240567944803 0.09406019527718197
0.13040506385713216 0.30709041677596843 917.5438916711073 0.12377821041248892
0.12486733494912261 0.36863064463725953 917.5300397873955 0.06719391239984933
0.12635792299422424 0.25733375797020347 917.5308804078761 0.09895924115735331
0.13381208487676433 0.2899055255240954 917.535355198677 0.09505828724325932
0.12445900158654102 0.34543873647865686 917.5304968232496 0.10474701703476239
0.14539558203187036 0.23996558500512988 917.531431806102 0.10932772225438533
0.13990419636581877 0.34006572206681285 917.5394648071766 0.11894632064486621
0.1415923549829912 0.2997394242792169 917.538269864769 0.08638128713159342
0.12988019964086547 0.23237588364380737 917.5431249961629 0.07136697874799501
0.14000028022614316 0.369214785035402 917.5376526244784 0.06958104587387944
0.11892577050288083 0.20933682769476256 917.5434208098086 0.1538173575936431
0.12516299954949336 0.2844466490149882 917.532216434797 0.09998621435516471
0.13396319031774978 0.2750791822062671 917.5384599009328 0.1213465563841567
0.1374920865736141 0.3895786666972491 917.5317734328255 0.08369496721688781
0.14205312916121213 0.3195445658660533 917.5372332621165 0.10215836904742209
0.14321551295540108 0.3649744371243395 917.5275370328759 0.10332802097436057
0.13862452781054402 0.19338036456949673 917.5270592328832 0.12181146381436275
0.14801716903007275 0.1578624767683197 917.526418256017 0.1230297804767762
0.14597517282923403 0.23462718107038036 917.5297346674266 0.08782042216219899
0.1412052833414728 0.27122525171487954 917.5207595905084 0.11522528585926783
0.1451928136161061 0.3038500721557524 917.5228444749325 0.10305930416394737
0.14422859061859142 0.2411445794035155 917.5180911193364 0.10375584498657349
0.14728652016879532 0.13976909660920311 917.5316859125445 0.08554114188221479
0.1412758751054839 0.3534401472721831 917.5306556157442 0.09854733842137275
0.13408742550817723 0.3635719257319955 917.5354946449398 0.08813855178071568
0.15109701857076804 0.22441741722254888 917.5241463883309 0.10075868710551647
0.15065645068559638 0.11590747902227994 917.5318980159045 0.10340165755343855
0.1409857836450973 0.11127214857436309 917.5063905323076 0.08258411577924692
0.1337885270389666 0.11631242655450974 917.5033650562963 0.08238357983205957
0.1380114649913224 0.09437954287190423 917.5063613245096 0.1152267011229326
0.12443177494576008 0.11011734187642108 917.5012039480596 0.13085961171200836
0.12188106545566554 0.0830365860622161 917.4970307050697 0.07029001956058376
0.1371565325371609 0.10500461813448846 917.4954353128422 0.12146388633179216
0.14387708043919156 0.11209017271347624 917.4775408859721 0.1933622983581759
0.12946056668607558 0.10188335585070495 917.4755396672739 0.16336337617336086
0.11958738700235898 0.09915888076368623 917.4651792488843 0.12208989650815824
0.13355844292147248 0.4076117321917156 917.525322709774 0.11636922651372637
0.13064288162800616 0.39689805819047247 917.5303331848464 0.06993325758393266
0.13441989910094243 0.10500025664902823 917.5221243690751 0.09721100102854313
0.12875396710752057 0.10624629396842561 917.5289164959078 0.1285616072251672
0.11514464817438044 0.1113878010867272 917.5225996808563 0.10510956070585065
0.13620212998780698 0.4129563998317018 917.1531748813984 0.10724710225696552
0.14289832474903177 0.41000388290879053 917.4633530911124 0.09357801648845646
0.131289619805639 0.40816031498230665 917.1601401853534 0.0968124843516147
0.12527071389435507 0.431763170560286 917.1372083845018 0.13382019554941502
0.13116779603056386 0.43145502695624927 917.2167102896746 0.07747889348493749
0.12852048950601574 0.4248310750890059 917.1762878764977 0.08075400585381672
0.1433333103255462 0.42162946371658416 917.1265080996232 0.10118994918911715
0.13684677617895635 0.4315724054056906 917.2871257520288 0.09368865659854553
0.13440293347358703 0.4363597811317381 917.178649794267 0.07920965717916623
0.14088060547805412 0.42698783944346774 917.3484582245632 0.08137418719329595
0.12677091864358847 0.44305804525692666 917.5050809607864 0.0808343465284663
0.13165658342563066 0.4001063093787276 917.5097671304562 0.08301997769420734
0.1303821005178709 0.3999289253236872 917.5159522402671 0.11704630303166089
0.139476228463867 0.4239557043755043 917.5241458042159 0.10677984192438573
0.1368391481515266 0.4311300233754564 917.4891192687227 0.1256811173309864
0.1236140055661053 0.38692264864447923 917.5252373965396 0.07213997754555226
0.14514842567473102 0.12910523761483764 917.532526171844 0.13727260628355997
0.1301830238402972 0.095258259468671 917.4860123247448 0.13383024799403645
0.14749672794669805 0.09860047132718941 917.4803330533994 0.12946675059087784
0.1294012153314211 0.40890964967656623 917.2812086067453 0.08622500564070933
0.1375076686003705 0.41192925126149516 917.324151179577 0.1152650742481026
0.13831049537664505 0.4120805179334424 917.1962427412744 0.08189505298592026
0.12674604024797867 0.4192703084446257 917.3990832934763 0.041035542627905236
0.13385437377128273 0.4137357187932119 917.4396534119154 0.10411713621913206
0.11830523035853584 0.4311818415571117 917.354508164615 0.09741681384138184
0.13986773325098265 0.43914697876354947 917.205262778793 0.09026786757816399
0.12960451342423504 0.43230158245123446 917.259197445906 0.07090899118552445
0.1332883079662042 0.4357677760030607 917.2676888217712 0.0870727744814843
0.1299530877931572 0.4286299186946527 917.4844426708472 0.13175275624472613
0.13644634056081203 0.43766074200803434 917.4733973525314 0.11240700924975777
0.1396589244246792 0.4314525785296344 917.2763773967048 0.08717529824227004
0.13318964137052486 0.4306908221798865 917.3106172130335 0.09551120581468811
0.14383500589793435 0.43223877764394497 917.0945314743162 0.08535406678273982
0.13381496184028102 0.4381560544467915 917.1602220127081 0.08119603304654778
0.14344064009149574 0.4370070462402214 917.4011395264065 0.042098264906178455
0.13753503650949964 0.4345253190683366 917.4340009798892 0.08071636090927889
0.13719597306811465 0.4303455071594484 917.2286325429047 0.052367612124982206
0.1446662912733349 0.4274732744696256 917.1914608344747 0.0705992720557351
0.14313076080804002 0.43478077258681236 917.3777388654077 0.09151461755076241
0.13974791498478523 0.4306087384408377 917.3181241653743 0.10974709504904581
0.12259577413153536 0.42138829100156777 917.5093195579134 0.1024876174626777
0.1260131032957553 0.3812870467525625 917.5138258598741 0.07247272790246363
0.14435025249386002 0.3196958598585666 917.5196226554488 0.11853271933649545
0.14224442212904467 0.16442903058920114 917.5264378813675 0.11419076673492876
0.1453475226460723 0.15228628163558547 917.5236605486505 0.10910630083128078
0.13966635934207566 0.22807506894539564 917.5133075542668 0.12920527051385663
0.14838444885373647 0.20892876579029002 917.5281333396266 0.1262252573773439
0.11874536129102176 0.20533457560604618 917.5078241048637 0.09134886541264679
0.119844646778578 0.25676775452348927 917.5151710417947 0.07761932799234009
0.14276587398902338 0.21272879698872138 917.5160326512832 0.136511133102382
0.13091939299261224 0.1724710737108287 917.522289818162 0.119030793848254
0.12536469996534366 0.2759085165553525 917.5187570522234 0.09363649780078023
0.13829435802087883 0.20363025111602795 917.5148509973297 0.1206170254109268
0.13079041525104546 0.15845200213807012 917.5144981935763 0.10768144620847231
0.1356434014875545 0.14278397897483594 917.5215932627411 0.09629188846877015
0.13411957960435372 0.1717175109624458 917.5428657201589 0.11451747895642025
0.1242672191227295 0.14767342934705804 917.5435734428828 0.09664003420911757
0.12845028032874162 0.19267548762270684 917.5369223904373 0.1554597188742831
0.11869483328641257 0.2221430186411581 917.533730844037 0.1631436424212979
0.14400183913216183 0.26311796552964506 917.5258906420154 0.08347871457107124
0.147786193916483 0.3371205680608217 917.5273193127717 0.0969213954183317
0.1312544448580003 0.17311427376527827 917.5420323982648 0.10159186248434944
0.14663843400212642 0.19840698135783572 917.5348001525266 0.10274743323277835
0.14395904716708638 0.14023777704515877 917.5331828885177 0.09005151137632995
0.12682970274281263 0.2976172802899082 917.5310437313362 0.0965676796759732
0.12607950346971017 0.1796582864069673 917.5269884449812 0.12402056410178361
0.12600405898419006 0.1270055056051096 917.5231800428202 0.12263590745926882
0.11717956509522076 0.16889400411791916 917.5221990928765 0.10542966941545448
0.13176663021463403 0.22893307331157192 917.525168495474 0.1257417812976965
0.1257663182481794 0.26629987551195705 917.5273977566394 0.09702080213346817
0.12861624963637602 0.1532904096421137 917.5267613619944 0.14908702845955588
0.1260285207950748 0.34801621054750215 917.532767327216 0.10271213683076204
0.14509707928614096 0.09367423155568692 917.4876548820176 0.10061573838017666
0.11024180327083893 0.4348334187937281 916.2123471779864 0.16682546988794594
0.006054251185231193 0.44504801048330317 916.1685901656767 0.0563465731266603
0.017778901508748314 0.43383543060018304 916.1954893612916 0.024081605945876022
0.0213286936430128 0.393335301698441 916.1808765120136 0.052936734066675026
0.012366663087519807 0.3944338813221876 916.1821545187053 0.10881650249545215
0.00753982537856946 0.41755629147706985 916.149343052639 0.03824936383169152
-0.0008595154863802576 0.40582869155364737 916.1654943603503 0.09558867216059708
0.00015698677502518858 0.4037582062741317 916.1749203567449 0.08350524801548918
0.004440629276233958 0.4216845751044516 916.1561065375337 0.06253153569084331
0.01067174308876691 0.38813857731242757 916.166396458664 0.050110854902292536
-0.00892813231019988 0.4203951629708716 916.1799329476647 0.08362690933263135
0.2601245298746273 0.41338744412512507 916.2021621456084 0.08519912985965816
0.252681744821507 0.4183231194478969 916.2013583838261 0.10106416270203812
0.24639079383747062 0.4097121994612959 916.2007733295866 0.057099014611582774
0.12671220868329586 0.25255581430089424 916.9791906595207 0.09946042362492533
0.11981211083079489 0.2431802220720868 916.9933894199687 0.09427073120702718
0.12769328942964195 0.25428004463759274 916.9727923525736 0.14691786552439517
0.11291533920958391 0.24202187773142497 916.991579176262 0.11212929076254996
0.08140368842457182 0.2427098693797474 916.9875799576776 0.0852439204664346
0.051446494727675166 0.25560442717546583 916.9795059183377 0.0713218629574345
0.049606192765204206 0.2594377787260857 916.9662453897208 0.09604587758661816
0.04627792765166481 0.2754331070227896 916.9568959869961 0.0806723528500493
0.060502515240698454 0.3108010206343743 916.9266327793293 0.05134959513196318
0.034743937963347474 0.28001534792388905 916.9321244628417 0.021102081913684134
0.11859259110616009 0.31790537287333887 916.9365262952191 0.024412352349845515
0.1379239911284345 0.2859162827789291 916.9351720999213 0.08933041136325634
0.0468248869948926 0.3040480122890601 916.9375417255675 0.017271628694490174
0.12567466110018488 0.3071929241524602 916.9352526241722 0.15491504995642771
0.07357811854195104 0.3798481034788162 916.8607446886788 0.15553726311067906
0.07156846716515589 0.39828032624898696 916.8470873201151 0.11066336116086967
0.08050926362435974 0.3881155705775828 916.8769871221338 0.23137160021953565
0.09378278387233341 0.40228564226758784 916.8756098856364 0.127890257735936
0.0780775493437862 0.4056055016022906 916.8131149773521 0.055917422187521354
0.08147676220986658 0.38760776208618436 916.829246683934 0.11112407879646895
0.10273190576836731 0.33753106693023066 916.8905690394996 0.15108160900540887
0.07970054129597862 0.33495012873438 916.896705621134 0.14492497259177778
0.07795142073674127 0.33738281123198577 916.8921225738675 0.19469847822017583
0.0819098584557983 0.4086560504459968 916.8592782623233 0.1353358242418105
0.07919858118286106 0.4139221314610694 916.844061122304 0.05225094932060666
0.06982468088542186 0.3795286876041515 916.8876714602628 0.20569702404030693
0.0866947500258988 0.3486893747089295 916.9193694225584 0.1944596361829189
0.07699051229184964 0.3823205214798162 916.8887354699244 0.16112534993742011
0.07857848719088215 0.3564286895198834 916.8772335413644 0.15085262790011877
0.0831621910543197 0.3957366311755657 916.864503606753 0.17147373531914287
0.07102828930598645 0.34362149962552796 916.9171790301517 0.19044451793005623
0.0790655627814559 0.35882289660843264 916.9060479338442 0.24297312879552943
0.08391151901788842 0.36977482584566795 916.9162961410141 0.050744248535819644
0.10680520488884282 0.38181371566976996 916.8820330278133 0.18175538418199552
0.10154122302377222 0.3677353812488183 916.8511678001472 0.1570957568069715
0.10119397400009816 0.37991264633071775 916.8447817445225 0.14914142547214304
0.09378900674117607 0.41848485428079646 916.8456079336382 0.13117136738665022
0.09363643761223518 0.41262818053342654 916.8564544782346 0.10308172476208557
0.09819277166602652 0.3548763919940399 916.9182425504498 0.1591122296809375
0.10911862760053147 0.376627952349433 916.8990650358031 0.18610414023043126
0.09799644937516178 0.34568588990397825 916.9062473464936 0.1796772890774272
0.10111097067082235 0.3639423405766228 916.8726288316849 0.1717979126226965
0.10262037670061544 0.3471468019755442 916.9010953438949 0.1711818231162934
0.10641622211377286 0.37493266038964046 916.8859896288068 0.13888050168546734
0.11068776134652232 0.35700603137380055 916.8885289265537 0.09961052451085477
0.08805572995278561 0.32543901659089586 916.9345081631618 0.10114707574043412
0.09115176208393318 0.3422144621768563 916.923594717424 0.18218770212244484
0.09627496120890734 0.30631735932810605 916.9546567368362 0.02052188332284708
0.1006193865320485 0.3253617557063947 916.9111264816993 0.10261261271867664
0.05281720489106879 0.26568500368806264 916.9767892809441 0.0955239468538628
0.08870481925944591 0.29454247820702845 916.9636525111998 0.002442700956697408
0.05055526794599732 0.29002460107684624 916.9655571252904 0.04586574618683913
0.041150338508214285 0.2799257725468974 916.9667423205598 0.059632311835080457
0.0631690006831694 0.25146984660950883 916.9889242610186 0.10324053714734432
0.06473037819929159 0.26261016778707996 916.9827913304376 0.09094111107814588
0.07630015596444031 0.2752771811150995 916.9774350318916 0.04642134648834458
0.06769418289628445 0.3258720332068923 916.9318808330315 0.09109354959971779
0.05206045765632074 0.3059332230142263 916.9475360720933 0.022494128096977668
0.13012132286746234 0.2793564936999749 916.9690754905341 0.11982626118180371
0.1167551164607431 0.29402349723047977 916.9594246979304 0.08059415133642776
0.10544735043103981 0.27411767283168276 916.9725047371725 0.09357413393797319
0.1090275248337384 0.28090001755093974 916.9700455954697 0.10125930328418295
0.08919178185349994 0.25275339046478623 916.9912704923364 0.09186209647521501
0.13147032526531238 0.298427684588465 916.9487052936887 0.08028883434197828
0.1377064211448425 0.2820813608129506 916.9623849133527 0.08379078452298842
0.10404018075484701 0.3176697526411744 916.9409482862645 0.03700013673473807
0.13070400754049186 0.2622477332591142 916.9623629332442 0.09596574327117226
0.1335508948993154 0.26285536510965907 916.9494856048617 0.14021580272030806
0.1334760071034633 0.2994836063480185 916.9238328368916 0.18440182963659593
0.0786970131493414 0.2332743501606233 916.9706002488626 0.03324602130089054
0.1461558325953662 0.47089451274231503 917.0261894672045 0.10736601493373756
0.1705797676541485 0.42365090919187703 917.0259800713393 0.015066648559758299
0.18105546125344205 0.4343704563374237 917.0359904926837 0.006943299433256647
0.18587646279072484 0.4314133997843177 917.0469796221986 0.01788994839376943
0.16199051501428782 0.41787481114973896 917.0239303128071 0.10807042792800038
0.1313230386214098 0.4124845317964424 917.0339468667227 0.08866376531425305
0.14837538861049615 0.41456788180144866 917.0206812203766 0.14894244257505673
0.14390867825018774 0.4047562967522503 917.0420724841299 0.02131913452629406
0.14067579965541507 0.44310788727347705 916.9848684846002 0.16472379541531948
0.12165237953567691 0.4558155157645561 917.053072792714 0.08841116450235006
0.12398886565363401 0.46025455473343013 917.0407021328934 0.04765919884180651
0.1296423636098064 0.4541076022375661 917.0312799560606 0.04499107643331157
0.12857307274885324 0.43231626605915896 916.9944488513574 0.15206997806650832
0.14184810031739006 0.4125626237275365 916.9903312905304 0.18979614782870388
0.12778434480449963 0.4168345339266471 917.0610366097903 0.08508027765799586
0.14010192678773764 0.414578558263405 917.0662483262555 0.06604987831073199
0.13176222246683428 0.44081058928394307 917.0288996569728 0.14268420392780273
0.12380623172959185 0.43133318183658403 917.0198291605902 0.09124749979385638
0.12432617647441559 0.4233175681876799 917.0059187621512 0.13352677055544
0.12324466066060907 0.4241380609335587 917.0245136671601 0.13027057397209282
0.13636810393504087 0.4114454756907975 916.9867110753185 0.22177443512087316
0.11973064048067891 0.42197170354524616 916.9948959495797 0.13756240943634754
0.12597371575352312 0.4211903577949003 917.004297040726 0.1189147211403385
0.1180931622926508 0.42118855930763893 917.0635526525163 0.13868120558376326
0.1729513577798148 0.4247978313016479 917.0200671126803 0.008871887928213881
0.17554295086685898 0.41628255030070416 917.0512974000334 0.02803688278118657
0.14201907566704247 0.4683481758656511 917.0400471366502 0.06254723985538783
0.1815001151755581 0.4327880675065556 917.0226889507235 0.021196274092578387
0.15010734440092255 0.4221706053602244 916.9891620763588 0.1758138648448819
0.2261309686723307 0.06145031249670337 917.4169950877797 0.11818901604215143
0.21791822632143593 0.13359484032584273 917.4118861720173 0.042141229482632
0.23092561384941768 0.15315298092876686 917.4227897425893 0.030189768448207203
0.20864708994670797 0.16726667047932342 917.4192654036524 0.056706578701262056
0.21560985486919787 0.1591452239899319 917.4254897562564 0.04543804557752459
0.1168506162259745 0.19704187052715746 917.4203636392303 0.0037114362869395995
0.0920232267822669 0.19286094066413806 917.4305305026664 0.014081041985461706
0.03568380868743991 0.08904384494284016 917.4276766868201 0.060003552704974567
0.0474762255953135 0.056781458852698155 917.4246320810099 0.04223340732826055
0.09615309303120625 0.011285861980661399 917.4093129168882 0.025255846920043373
0.19468773544392212 0.009776613829252717 917.4304886779479 7.387071642031387e-07
0.2127723577164307 0.03970593876532372 917.4211615589428 0.1034112625448437
0.20362150367822365 0.019867423455470705 917.4257474340858 0.007696615029677128
0.23593050470230847 0.07874455325291081 917.4118826916808 0.010526334942687773
0.22243667860722574 0.08565834688947385 917.4205940299526 0.1291464587647955
0.23072906046216204 0.10236873450492066 917.4068015267574 0.034111440838438645
0.22227017524503237 0.12848689767560445 917.415225808216 0.05522645297204765
0.18306421525631458 0.16399375450773704 917.4116220505866 0.013063102080818054
0.19765066135058224 0.17740960877537218 917.4228944312989 0.006380778981491464
0.1865775023686992 0.17859812315199278 917.413560034349 0.014809258376689729
0.17262238382833178 0.1967095564554472 917.4040929599962 0.014272212289673576
0.10085357201092823 0.1919967818355437 917.418435793151 0.011634680047580127
0.10770993766591319 0.18515805754051345 917.4134055905787 0.016098541482628195
0.08178441637317016 0.17525487063744824 917.4138316630417 0.016660213952443534
0.08549768201883631 0.18870780472549903 917.4211283928387 0.006982370231453425
0.05642891612743925 0.1433221145492231 917.4260575012808 0.01984331848230472
0.048057177842575995 0.1304885718816343 917.4200620849346 0.002242909910429496
0.0427864005057128 0.11537341700941828 917.4145601125983 0.02201029654880039
0.051174625480872704 0.07348904922969636 917.4164575066964 0.053765761367479376
0.06709791030388977 0.04648611814050422 917.4082148756632 0.061947860960671626
0.07560563805533425 0.025620958069777607 917.4183971878101 0.08307796048932425
0.06369781263573498 0.034626042445712886 917.4144812380838 0.08421538791832676
0.09026893003315056 0.016392797275167518 917.4058515467561 0.062454175964235685
0.15419130216526247 0.009334283918545494 917.4079970846573 -2.2713327393578764e-07
0.1981598048817557 0.06271941322341375 917.4048913915362 0.0142107653569881
0.22583170160228738 0.04455916914446452 917.4092661212691 0.07435175842170588
0.21500696301138317 0.07045947634289555 917.4314075052916 0.07688943505879012
0.22303254399199882 0.09620837728814585 917.429065717115 0.020872437131211972
0.21486558561830504 0.12787475610704463 917.4227230507133 0.05563207667575994
0.23303275578599567 0.10759684323964615 917.4206304876703 0.014342352370301717
0.22282809338733198 0.11345983865670085 917.4258589784805 0.0216725923505512
0.2061394535139628 0.14438721244257288 917.4294548200068 0.03163113870845411
0.1540995003913445 0.20032528898326746 917.4240050259323 
0.0742087638725989 0.18243644389156913 917.4329533963363 0.01939409160348886
0.0669104926658628 0.172200228688004 917.4212550248644 0.01482489640035743
0.05537809747091514 0.15523065479740752 917.4277190417525 0.012284115005486825
0.05685551134549181 0.16541578343723237 917.4288016446683 0.00870537983399888
0.05106467918699442 0.1377834780094441 917.424352505705 0.01900022072766269
0.04631843507220077 0.11749947113107691 917.4212680294241 0.03567633232349158
0.037700308576570106 0.0885045587316072 917.4353195925651 0.05006149756095057
0.05915253242405063 0.10578384427774189 917.4279157985178 0.024269109296756703
0.03793459909292627 0.07540596443535126 917.4303233705655 0.028363860792660636
0.05759177799603963 0.04701299723030922 917.419610471725 0.06019882599978651
0.07751422637521244 0.05397788662611186 917.4316866841982 0.04930439035288162
0.08549599407365086 0.026449194347264678 917.4274820360175 0.09207859335975382
0.0787403927810426 0.017656306770809448 917.4256798005283 0.05638243220291389
0.12399253460761878 -0.0019275463762913432 917.4184978737165 0.03444877923749067
0.1417059700621577 -0.00038322936982274894 917.4156139199071 2.9637795720467294e-08
0.14603190819624884 0.012135235811974704 917.4294925966142 1.8590974823175956e-07
0.19606986723624392 0.03219470449668445 917.4254764610552 0.01161987375723005
0.07863652976932173 0.44280662283933503 916.8107817495561 0.14645872576074356
0.11068231367969558 0.4476730696590198 916.7950985125378 0.04602584522343488
0.08461779674770803 0.4456314991395843 916.8046876713871 0.11554613981288497
0.08502864021660923 0.4459873803896402 916.7889694796761 0.07527948250608549
0.08696182450787801 0.39832544954035054 916.7988223913711 0.038652244548296924
0.10808808065190481 0.4332090679071364 916.817372065272 0.023103753956265065
0.08989515044449989 0.44600875353853425 916.8161906264037 0.10642391088711102
0.07287016350114425 0.43065719023025134 916.8236170582121 0.08387913353668074
0.08044448414775388 0.4049532635999575 916.7850578184302 0.02383295325396453
0.07059554652922055 0.4119618496486893 916.8084026943745 0.025585196973455765
0.08981911755669537 0.42935558298354726 916.7801168239275 0.10075945186687917
0.08017028326562581 0.43579083444184685 916.8065524791376 0.19982175818940898
0.11112993802239775 0.4563973040464865 916.183636258212 0.0019222017359887638
0.13652744536135147 0.44754112623657016 916.1890229498214 0.01094979679899038
0.166427210767861 0.4495716410121785 916.202123785943 0.05357165337076647
0.1345696719682821 0.4589952554059953 916.1658025995107 0.005165718395886537
0.14939627843966383 0.38477219156201575 916.180497850971 4.108994398321807e-08
0.08974664603075898 0.39373903732547383 916.186177901857 0.004205448295915106
0.1996628853541414 0.39482095551258245 916.1818416940949 0.0034457566460265217
0.06854501310360124 0.3933736089900413 916.1809615600491 0.005488300858447839
0.12139550685841148 0.392363900638562 916.1848823969841 0.001516714751073954
0.0886027086341108 0.40097389433113123 916.1913146692709 0.004319304642875888
0.1821831183788222 0.4021704419154647 916.1939661903665 0.01499815159735423
0.048426279641992864 0.3966023504452986 916.1877655062965 0.02460437283605714
0.2304667477450314 0.410241345393667 916.1991561818247 0.0417231914054444
0.18099151369778377 0.41277100164086816 916.2005690662286 0.014320383079734047
0.06965750850565168 0.4129594613990342 916.2008461746431 0.01606576810103954
0.08127068099486974 0.4216476649815236 916.2029801560624 0.04820211888369327
0.14157874651282767 0.4491774046261229 916.1858742289196 0.015745712294151545
0.09806256548643234 0.4463623548722958 916.1946971831776 0.05754794842346582
0.13157951490740039 0.44716804216081235 916.1866380013937 0.009851102974817415
0.19539960962480712 0.4357013348780817 916.2002688903301 0.004531338636811384
0.2276433297947479 0.4456109885427621 916.1995568083028 0.001258560255403658
0.22521643535291566 0.39914281791753004 916.19014309435 0.0186670304430544
0.04861248393713248 0.42545803165833557 916.1986410266311 0.021677354931326574
0.14498590023844946 0.4782601882906395 917.0510216707644 0.1400840732299776
0.1455342207474209 0.49237982295079125 917.0596698867314 0.21752700358653
0.13544327919971125 0.47690269127497936 917.0695886822982 0.11575823564913797
0.12264169178214464 0.47710378715916313 917.0517446377672 0.16436813213879076
0.15925008236965532 0.5156386186114476 917.0340136253134 0.0840035747024416
0.16914638119545988 0.5093428425354308 917.0633968906494 0.11212139969181825
0.1432843174956659 0.5042996805484917 917.0620888690611 0.191517066221186
0.11068606861429946 0.5000308052437004 917.0624763777091 0.17208150214156248
0.09449816698542957 0.5113480592939724 917.0447078519428 0.06825206322845127
0.1096315217340377 0.4997999132523105 917.0471977590922 0.15497757030680556
0.1114291318209406 0.5171006517236392 917.0677575787265 0.05254090326640323
0.13345404452913726 0.5057201960969503 917.0470821976648 0.18067339389694276
0.14263711490486194 0.5122858955539826 917.0329114585489 0.10547380116989462
0.13868253304491182 0.5096748388526995 917.0221197233595 0.24820478141760283
0.13436744575809512 0.49452789139556 917.0658151126357 0.2494389920926301
0.13552375165217834 0.5076495698620265 917.0586943149626 0.16064115511895724
0.12878296091324906 0.5192229822226256 917.0138124311791 0.07765730549163864
0.1560976477250503 0.5115456616940469 917.0386027977537 0.1212536900920333
0.15131033539118358 0.5122469589274904 917.0076703906434 0.13894611777622298
0.15579635123666988 0.5075978389064463 917.0729600968267 0.1401166686335527
0.12321688565154705 0.5063827110192042 917.0269415260934 0.13068639819758052
0.12533772317259465 0.4999860696411897 917.0112624968442 0.12620454156612793
0.17304008490860603 0.5033559587240726 917.0420820945657 0.18042462193570205
0.15957149014162586 0.5035827885663539 917.063500826272 0.17525663182204348
0.11629569681503972 0.5024176624811599 917.029051158501 0.17202978357647
0.12524368244895256 0.5046530736715072 917.035459136634 0.14081017077192465
0.13043215844233447 0.4913475493445778 917.0673072001923 0.1671103999940644
0.13122574977346058 0.48743684712880814 917.0343046737647 0.2149259954425046
0.1606861216117465 0.4952325499349265 917.0289695021773 0.17224141561990933
0.14565431838353282 0.11826122836136553 917.4682771953538 0.11951189390693148
0.18542289578862564 0.49710618595896333 916.1881673980174 0.09680334502656111
0.19330959241660214 0.5051659472632615 916.1648850533254 0.07453707798878176
0.20147319592376128 0.5057080390897393 916.172586088601 0.06396558516146966
0.20243307030944818 0.5125670727445193 916.1866799279728 0.03336524421174762
0.08529214357227938 0.443158848117643 916.7814699062219 0.10032984486243489
0.0856534736804323 0.4495870261298699 916.7643104584947 0.0699548961578808
0.0860543186300947 0.45223977565900497 916.7438003699377 0.05056234211333506
0.08429800227440863 0.4499371203542515 916.7551659544607 0.06946010044864577
0.07725128103821521 0.464699256779017 916.7366379606389 0.05565175282058303
0.08890445905061864 0.43605949181044695 916.762090874598 0.08141986125406747
0.08680153470242614 0.45481590239374575 916.7401763989519 0.06827638203950971
0.08074079822724278 0.4703591505691403 916.7264712926655 0.05962183640165947
0.09783925478736541 0.47181880228970063 916.732257361648 0.05101048111673569
0.0751374234122314 0.4744042624595457 916.723627999781 0.07999376446095019
0.09035102472741068 0.4549630894694252 916.7704888813322 0.08052412024510901
0.09477907037526014 0.4609851812214094 916.7457081271601 0.05763258930274935
0.08959383195454167 0.47122886607080794 916.7408630459638 0.046315648168212396
0.10565629812678765 0.43987024040250616 916.7733590670791 0.08477959488861268
0.08338570189476366 0.48862638595587554 916.709331158649 0.031608209460691025
0.1011210109137286 0.472239925967338 916.7093474788322 0.03442609879977071
0.08415349753172327 0.43286005264014804 916.7940585956779 0.1219504108502944
0.1757323543876724 0.4146074724373702 916.8337070581674 0.03093907630713226
0.06377565900774819 0.5014118671212979 916.1795408956712 0.09151438630463658
0.0905960238248385 0.5004580435988316 916.1813816223045 0.06971628222878092
0.0842526826435812 0.5045867444319861 916.1683199970926 0.13591029649323103
0.07058979484511127 0.5153794549277078 916.1718686339547 0.11756288445665543
0.07602419916440632 0.5190537346253389 916.1671179867674 0.09132887619561877
0.26761325894325155 0.41538734388739357 916.1642928477345 0.0447926598550803
0.269451151922568 0.42730182573180897 916.1944952441859 0.07571001075033272
0.2718178085469366 0.4199414573245091 916.171884480397 0.06949425504196843
0.27497277167357953 0.41333512616580337 916.1840440751414 0.04785168756845618
0.1774857040411266 0.40303857817111405 916.7969648110941 0.05918615656553657
0.1531432337377717 0.44382201791846454 916.8182270569031 0.07335332328604895
0.12538271241416035 0.44646291832000085 916.7958098466382 0.03483138816688499
0.17401924415888229 0.43839152091233735 916.7868350729145 0.10347402305522356
0.147076837932761 0.4483552633520236 916.8036021807297 0.019345823430875764
0.15012605789920488 0.44577833143663725 916.8015025963431 0.025304715102862974
0.12586614338433505 0.4447542683453076 916.8076413384223 0.020405419952038577
0.13889146971143926 0.43631521550655006 916.8204475174298 0.019206557547377188
0.18128371676709848 0.4436957188163703 916.8230788382632 0.112772472836883
0.172002208408233 0.4386408348058268 916.8282119746327 0.1289072160223762
0.18539813819181772 0.40676711615799543 916.7916868775243 0.04233145196783843
0.1782862047217865 0.4164127764971812 916.8113735649931 0.09050194810678533
0.1852725450147863 0.4365501166830469 916.8133081389421 0.09909897114675123
0.1756167710246005 0.4378163704330842 916.8241695948885 0.1425512344164468
0.1818827844332256 0.4390099387412143 916.803783236642 0.11445208763046963
0.17776715346835437 0.4155682798329151 916.8243496009968 0.108610094367762
0.1176489783079753 0.43806054000384637 916.8160291726867 0.01338079219639379
0.1764875842455955 0.40449861693420947 916.819651819049 0.021151148138667017
0.17147141212657235 0.4479369450855329 916.8055484249206 0.11989546539827546
0.16517468378513317 0.43701395748757693 916.7857927668509 0.12194777858181761
0.17824744306743184 0.430618236523415 916.7819956085677 0.08780281508934858
0.12730909560434914 0.4023332057945447 916.2039193642674 0.03507784820828453
0.14266674922761424 0.4393934973638957 916.2118628961275 0.08224617608449675
0.12358415202893464 0.4425062206998514 916.2022997651874 0.02292279235643014
0.2700957459475826 0.42752975637426915 916.1723681076512 0.0655310116852206
0.26012119709921644 0.3942041532244153 916.1828312439748 0.05251224255045726
0.25471581383287356 0.4057298169617807 916.1530293014443 0.06302788237313177
0.26475357235891417 0.4099870450511538 916.1608846907042 0.03802219702160513
0.25018125371969374 0.39555835917158344 916.1652472588177 0.09322843116654127
0.2545976045882494 0.39238706785459965 916.1753084284426 0.06881636061436883
0.052418535945013243 0.49832277612666415 916.1490851669598 0.06407719384654326
0.07676273337918457 0.4969717665666035 916.1915466955794 0.05636740981466264
0.09195627895249278 0.4932535226777881 916.1884648498913 0.05537862494704281
0.07236225884339431 0.4957818535822024 916.1992621897722 0.04062252605415555
0.06330704694253862 0.4832826512836388 916.2053682859836 0.06923247346870703
0.044993156330320506 0.4964065935992465 916.1976333093126 0.08210349565608376
0.04186602958698682 0.4819656443589662 916.2075676183321 0.04178823242601427
0.02501034079318683 0.49607102583607066 916.17922696706 0.0664484161417495
0.025594752302777333 0.48461470985613286 916.1802537476995 0.08231759701807922
0.028020247605191957 0.49488672853731663 916.1561540233483 4.342734576172802e-05
0.03447079467568247 0.47346262520491394 916.1956225384858 0.042017825810190396
0.06835866405155408 0.4861126648808785 916.1385706389153 2.1185797112747503e-07
0.09172652755352195 0.4919433900927222 916.1646627795243 0.15935612628553372
0.07463927271180565 0.4765823739717343 916.1981592236572 0.04945580243133376
0.05682431567108648 0.47557089242091294 916.2011060029819 0.11580820387905895
0.052697462817419105 0.46027646948818535 916.1958984752551 0.062378735488015
0.029834663942133886 0.46749637337454936 916.1794387334377 0.058961465683172606
0.17394349490626626 0.49520669607621515 916.1805268633982 0.057358981695810315
0.19538221168370512 0.487968566570737 916.1426068920806 0.021487203111700034
0.22299405027106645 0.4928886192502006 916.1868589625983 0.09522572087573808
0.19594321618307883 0.49179782041016423 916.1930987765428 0.07536393437097302
0.23359387805985607 0.4920851747900805 916.1693363878067 0.02629901676533708
0.22912464248049108 0.49095080366443344 916.20398560944 0.08489154215642854
0.18528239121208986 0.49064098673179546 916.1995282584988 0.0909090692507229
0.1788183147346787 0.4919669715992136 916.1646474538607 0.0756353672760933
0.19292768702583807 0.4782665657995994 916.2017315473789 0.032661974495251773
0.21554483268795555 0.4830979549312245 916.1333448633995 0.028001704251989536
0.228281762917383 0.4836868709170711 916.145203207485 0.034383483006152835
0.23647211092268455 0.4772880804845217 916.1567806057237 0.01691058352937993
0.24208009893203475 0.49050484401751043 916.1908369927849 0.042902740183326155
0.24903946867337728 0.4798206823288253 916.1895069724784 0.059435509049543936
0.22650056590563375 0.4896291376898705 916.1507564992133 0.01965616677208369
0.21926368082189313 0.48927809375664455 916.2051592412413 0.0680291764333595
0.2256997636775897 0.48322937367622976 916.2029137385852 0.11276572308194314
0.2066929884544114 0.4715278217225497 916.1984873747716 0.041664144953071296
0.12422063504156308 0.30618468036032354 916.9271665467686 0.19950353136689816
0.044338117225185575 0.27996276942605025 916.9407289404852 0.06799735490757605
0.05077364208802819 0.29577581598168884 916.9282716473349 0.02757790930324158
0.10426290956809886 0.2792737621992166 916.9232737176713 0.05277248681624336
