x y z curv
127.16304371994529 147.87424948728037 2234.9787522684014 0.050080233147001836
127.15941510691522 147.87924513508025 2236.116513634478 0.06747802823824167
127.15451540909423 147.8456627747231 2235.894857849707 0.18847066705851853
127.15221084956049 147.86443473351477 2235.2424870895734 0.035230105865151774
127.15440648529079 147.87210772282876 2235.685286859986 0.06433336216072132
127.1569905857301 147.87487026628799 2235.9995805748836 0.15398500312313126
127.16205196784615 147.87871804005442 2236.1960037070044 0.14755652340844433
127.14990768675302 147.85632474610944 2235.9993581045364 0.09665106917890436
127.15367003294487 147.876697129163 2234.9412934600855 0.02714314053654477
127.15908000513285 147.87843711897995 2235.9081219603427 0.1340923399410276
127.16267201154548 147.87895508345764 2235.909015672308 0.1202833985293801
127.15937171704375 147.8652091375505 2234.9861417912834 0.07752332413872196
127.16649757741784 147.87715736227688 2235.5128489755384 0.03551331886953198
127.16307533091161 147.87611354824895 2235.501692010719 0.04480881969718712
127.16924603647747 147.88063568135 2235.717963512423 0.026523012218840753
127.16905553199926 147.87336397764167 2236.0652145348095 0.1344961693187913
127.1534837642181 147.85854874540416 2235.563095016515 0.07621520416591743
127.15226181485878 147.83489472934045 2235.917822300856 0.13896865962151322
127.15985416406201 147.88163075053555 2234.8425567313393 0.061965275259880825
127.16030061645476 147.86663545753692 2236.0583874340464 0.13735831174646757
127.15900859020543 147.86856767949627 2235.641750219975 0.09506823516443451
127.15790840969372 147.87253456203703 2235.504282821314 0.03971294049971727
127.16550525027672 147.87553617722577 2235.869352862017 0.0959859545917055
127.15453062150716 147.87945344836584 2235.180965392601 0.044760503414700635
127.15932184651751 147.87605044932445 2235.225333822792 0.02265884051059863
127.15979309644075 147.86713997457173 2235.558129024782 0.042575980524576736
127.16301714130513 147.8800538863777 2235.141067461285 0.018621782954455292
127.16845735770248 147.87731176501302 2235.413437254816 0.04232474626483588
127.14999774878395 147.83454707902246 2236.03302778308 0.00017437588831908924
127.1629375281814 147.87757653286283 2235.2581648310356 0.03967860369734826
127.16964684637983 147.8745172158476 2236.073166262765 0.14119677434232622
127.15908861574223 147.86651264605592 2235.0096627105922 0.013081914181044327
127.15643741158108 147.8553523896246 2235.9684457048484 0.13761129355925508
127.15876871230546 147.8775162602079 2236.0982890071214 0.10751867212760415
127.15828195664372 147.87706009868683 2235.671101891615 0.0833614872284022
127.15786555872316 147.8654034151987 2235.933316237186 0.23077595999459155
127.15354854050925 147.8759530610063 2235.8321418408464 0.11143905934455091
127.15829828002605 147.8888211147595 2235.4631291461933 0.017351369153867115
127.16042221163625 147.8750012319292 2235.2885489043647 0.0971956813762955
127.1604881307665 147.88298591272263 2236.031936561559 0.11397977276683584
127.15498939646105 147.8659759814933 2235.259513941292 0.028188694130974228
127.15782965713231 147.86350355310054 2235.9453661629873 0.11582512753963384
127.15963267327452 147.87734931382303 2236.015459773808 0.10685067156426606
127.15389656580064 147.86778437025887 2235.4981097441705 0.04941540560241912
127.15974931600718 147.87397664087678 2235.6616942281316 0.06652665247989077
127.16067655840246 147.8798480287673 2235.33415224174 0.016340447388714183
127.15693088934673 147.86837019158682 2235.7584453535633 0.06899632617480425
127.15918791921284 147.8718946758905 2235.774080823702 0.04194517807547295
127.1586836142783 147.87961396414113 2235.1276269006253 0.025207052823485974
127.15404022389843 147.87406132660422 2235.80861622611 0.15605774932254945
127.15931442576257 147.8730277889552 2235.3984457883357 0.023995933076299162
127.15808974138552 147.84185016826984 2236.203789301662 0.12285084791483653
127.15337140398876 147.8683263307414 2236.1942226838682 0.16085938907982045
127.18142802627393 147.80833750401547 2235.887201433313 0.0824971669817928
127.17757527506552 147.79863844632993 2235.725538181912 0.044373655251515945
127.18238527630047 147.79341262991753 2235.223828270451 0.01698372917949205
127.182242426524 147.78653013054367 2235.13224285805 0.030798111177932276
127.18728824361317 147.80531838930435 2235.0861777133905 0.04297101782577226
127.18131893755043 147.8120252545478 2235.95032533019 0.08167230774063962
127.19001132791463 147.81293034091405 2236.0670273850756 0.025339448298616788
127.18304197365224 147.79926130653996 2235.427878653274 0.056360659425564244
127.17626062834816 147.79334292258648 2235.1478484467725 0.04968092049011466
127.18274617095545 147.79831357254295 2235.668841296925 0.06274023993955814
127.19054541163602 147.79490691506115 2235.839839494589 0.0855449446854355
127.17849339068563 147.79830553572629 2236.0153759128016 0.0731259473366069
127.18073603933534 147.7899847291035 2235.6815864254118 0.06621280488835864
127.18633380356023 147.8028200418456 2235.1895845828185 0.0530516974922453
127.18484569807009 147.7989637040144 2235.5653820212137 0.020779890838503838
127.18562897561871 147.8123039282248 2235.9998643205117 0.09703173342878187
127.19049560287449 147.78931471760146 2235.7935453611194 0.045279220288142595
127.18667361475829 147.79813852443255 2235.3389491931057 0.024402662542060607
127.18534850267939 147.79481257927287 2235.638896527125 0.04507290147592217
127.17978058913884 147.7962784319724 2235.763090179037 0.040664595827044125
127.18697952928501 147.7983041634658 2235.464116234679 0.030723678526238796
127.18777001961877 147.8005901561915 2235.861053176635 0.1281108050638857
127.17646867230795 147.80318786024588 2235.9096501388917 0.12848231129559876
127.18956500747464 147.7990884653663 2235.8445278209274 0.1320491724195295
127.19154536271836 147.79283720385985 2235.303373657182 0.009451605524527089
127.1859440765027 147.80362908682758 2236.04867115523 0.017466691406822887
127.18323614892132 147.78688339382023 2235.307233459451 0.014890970228349483
127.18333747032399 147.80987822510951 2236.0527546654507 0.01337166721259463
127.18524539346247 147.80142169830455 2235.445218455007 0.04220580305130383
127.18680118409131 147.81818235591703 2235.9628792277977 0.05750442195415467
127.18874154914069 147.80676151518884 2235.6199274466235 0.05526104268775739
127.1795069588869 147.80898801608782 2235.87144311989 0.12359783587140034
127.19202436975054 147.82110182651124 2235.831038195638 0.037760880752387815
127.18655451091936 147.82439343522248 2235.8581995031454 0.14814497103611038
127.18957639906152 147.81634882863952 2236.027137425006 0.06045775360998908
127.18748306633964 147.80646036032383 2235.3481969518866 0.03705956056235284
127.17979496082211 147.81094820559727 2235.9128286378545 0.18763555318102088
127.18395549783199 147.80863440124284 2235.9870260198577 0.109572875236769
127.18661057801815 147.8166741230579 2235.9304194216447 0.10548465500352974
127.18078301473375 147.79887373149535 2236.196054078304 0.044266288948706656
127.18648611298636 147.81198544133193 2236.0091126298066 0.10242583463361296
127.18982417873958 147.7975391863848 2234.8750716941904 0.04049450648860891
127.18779837489689 147.82032376055056 2235.9530278774755 0.06164062751530811
127.18538126656536 147.7880586071464 2235.060592484192 0.04385621433914859
127.1839660863164 147.80125238476856 2235.891621157184 0.08508234553810391
127.1874659260878 147.81214256119227 2235.976424674721 0.10771098785167876
127.18676820716932 147.81230712395939 2235.9258824125313 0.10094808327517449
127.18372436071925 147.80426473713473 2235.367457825708 0.04542854471279534
127.18564966418316 147.8153549257732 2235.8624185315944 0.11975416582699436
127.19615089687636 147.86535684133145 2235.043482446478 0.02559939596795967
127.1893294122339 147.80197232292835 2235.218256180358 0.01592771505465019
127.19485397083457 147.86893349563118 2234.975279966661 0.04409246166259221
127.18722269295363 147.8038955514564 2235.204630773644 0.01922195193708671
127.19919689631332 147.8135945431552 2235.092779709521 1.164263566038907e-08
127.17132569232375 147.79749065715365 2234.9770152694596 0.05741392668252603
127.19177331294243 147.82631017316317 2235.90670428429 0.054332162075138815
127.18492219865904 147.79304003382924 2234.9070761269795 0.03092388328107626
127.19228290240576 147.80798960168744 2234.995086720314 0.02278381298217854
127.19097744749345 147.82682988298504 2235.892303522541 0.022535413517902107
127.18606523057935 147.83249400749966 2235.950034639874 0.055099154920617906
127.18788858984007 147.82276442903415 2235.9365444488026 0.08792525577794676
127.1874942431256 147.83061924046265 2235.979333946964 0.04929975690929427
127.19067167691811 147.80358451805114 2234.813818429704 0.026839122822569728
127.18668962989697 147.870258748207 2234.9542456173485 0.019818338061173658
127.18833108018217 147.83028012900724 2235.8437127317047 0.0926111035336825
127.19127555873588 147.8567126921139 2235.2989395402524 0.05382299003707913
127.19406763048293 147.86816054752214 2234.8660240905742 0.01815179375013346
127.18656185216854 147.87605685611152 2234.8304654491335 0.04648710033800242
127.18980190470538 147.8076087678046 2235.3944641228563 0.12470915894840852
127.18563316085621 147.8247325744086 2236.0444699732257 0.08944458683541955
127.186662217839 147.8194047938335 2235.8668225260885 0.11556220175527505
127.1818812258572 147.8268468152125 2235.874970034642 0.14307063127764144
127.18238168743319 147.8189348694414 2235.8538300543137 0.1871688616939767
127.18532181021628 147.81637761463122 2236.031706379167 0.12557624870079706
127.18227469260377 147.8803023770559 2234.91814484997 0.036468883842675826
127.18818872633318 147.81864649051178 2236.078209737459 0.034939784825824306
127.18863530664463 147.84176353215793 2235.863508898923 0.015993510665202625
127.18434004552293 147.80783620633923 2235.2524261274734 0.02460256444193909
127.18918781036604 147.82617975219222 2236.1379399327475 0.01737124096983953
127.18973453498205 147.86650152888677 2235.4917461370187 0.028485049495998633
127.19156962329711 147.8466283052988 2235.9353532501846 0.07688492779709374
127.18715426073345 147.8556491318683 2235.878446331614 0.14754806126876588
127.18347294014185 147.87442069915278 2235.515692285345 0.036790201291449914
127.18591545987809 147.8457397234454 2235.9545901921397 0.08733532857904815
127.18669278261412 147.86277937373816 2236.001674535716 0.13765456760158185
127.19076197099587 147.8828149819859 2235.10218216461 0.0026198335468087166
127.18784485508912 147.87380204908882 2235.6165950228465 0.02080988747897149
127.1866228149416 147.86930841431342 2235.2862423864617 0.0574960076405535
127.17872316186968 147.8678753128559 2236.14247020952 0.060939770620577385
127.18307747319312 147.88379598123953 2235.4218112484155 0.03137944295819136
127.18801771672129 147.861792773737 2235.1987009988497 0.02908262084287774
127.18398504498164 147.8343947483072 2235.998191207052 0.011522834606852857
127.17632592737466 147.876433853767 2235.555572828355 0.039619580573179485
127.19083408347107 147.86543748419967 2236.108378131078 0.06704712741355898
127.18664641990702 147.8614248543717 2236.0104840261492 0.14932590488834163
127.18454053384875 147.87497252814936 2235.4940130507052 0.03533918851856269
127.18653289818793 147.8661852501707 2235.915316435237 0.09887145151153211
127.17430161110036 147.87247642607326 2235.4598522691426 0.01734317250141861
127.1900656539105 147.87360755974044 2235.3251355786642 0.04195989866725009
127.18838450293333 147.85341992374188 2236.0656232389074 0.12331759731109425
127.18213503636869 147.8744078746665 2235.594989320737 0.02364102346790278
127.18768391115263 147.84009580728937 2235.834422460716 0.011270052682430792
127.18506939545165 147.8350161221051 2236.061521718792 0.01173757627849301
127.18790661962822 147.86787843088374 2235.42521602174 0.023159267887309442
127.18940952499196 147.85761813176032 2235.8787562293405 0.07139177132338755
127.18748312904029 147.86128768648476 2235.8046406584926 0.17867089961565097
127.18934153304978 147.84487138254804 2235.814533065454 0.12707017038621893
127.17750757331393 147.87468347654263 2235.924678772149 0.10449381060039714
127.19420407061799 147.8365357511725 2236.0214874128405 0.011275043125024954
127.18788183787221 147.86136869627668 2235.8241391671263 0.14953348533994634
127.19024926168662 147.87006646542176 2235.581328187187 0.03555604116573551
127.18086007416346 147.8836470897493 2235.754935606113 0.06952865776999934
127.18367817476748 147.84426196682176 2236.054652411869 0.06470803671732503
127.18599362623114 147.87549947906217 2235.1813336663954 0.04904045915968937
127.1885680558715 147.87345343788547 2235.983335769244 0.1293416080211162
127.19335140884705 147.86551995478885 2235.3665275471885 0.036337738856037055
127.18780468421346 147.87107087694773 2235.170265483645 0.045453587714864796
127.18814301938772 147.8431416445182 2236.002443206051 0.015055423993826773
127.18956619148517 147.8548096985879 2236.1155678383816 0.0508062956775672
127.19300564260857 147.86559699450535 2235.595640519288 0.013277221366854322
127.19004056966848 147.84682141325888 2235.9402848121317 0.08440480008665292
127.18772282143922 147.85319950811456 2235.899125393604 0.10445338541869338
127.18517122147765 147.86575046427262 2235.9420661166105 0.11215439783273794
127.18432908508495 147.8750751024624 2236.18468700679 0.06591289372293063
127.18133665760178 147.84256957687532 2236.111017064137 0.016836766260428147
127.1842607404341 147.86179966973535 2235.841220409819 0.08688888499566733
127.19770222250847 147.8601757454218 2235.779287923295 0.008838233103827491
127.18863040221535 147.87899823317687 2235.6597984339387 0.02546340428214924
127.18564406609089 147.87125848644402 2235.25047944383 0.03931039510030538
127.18282021007997 147.85846582457162 2235.9910690168367 0.1352758362927127
127.18360417635408 147.88392922305314 2235.911812049238 0.1364817601684105
127.18231460470726 147.88020198593938 2236.1695638975543 0.06357811530941604
127.19375990597624 147.87086006814147 2236.0999292124975 0.07030867051884833
127.18948663643866 147.87550036465638 2235.6676964698254 0.019843464699666313
127.18178524592935 147.8677843529957 2235.809063975696 0.15171314236320502
127.193639877254 147.84886671097777 2236.080291495382 0.04167319828529284
127.18732062088462 147.87208189804733 2235.5392437646688 0.04740006858004355
127.18603615999696 147.8391112036456 2236.091204286344 0.015134114170276295
127.1790662751951 147.87652168164553 2235.4384118883654 0.056120550052780126
127.17788138840483 147.88150470275318 2235.825267100338 0.1271204957141225
127.18345290101325 147.8384353130314 2236.0451616491723 0.11670831147325665
127.18465220319763 147.87230855154792 2235.387306580765 0.055614919834134344
127.18711444563141 147.87387694906457 2235.7435044071285 0.05148589444466697
127.19461889093633 147.8728531897186 2235.634561273758 0.021605283377060126
127.17961970371861 147.87509741300283 2235.9794476875095 0.11400067849387902
127.18257156048475 147.85433797828998 2235.844143727864 0.08879209543933492
127.17860539891372 147.86534365841217 2236.1425693561846 0.06112806706353735
127.18168095312225 147.84968367092154 2236.036632662318 0.11167560414702125
127.18678473635946 147.868211373653 2235.4700117785787 0.011211631158607436
127.18123523279667 147.8813184610582 2236.0981893712574 0.06604001635249493
127.18548703903124 147.83256130785668 2235.9442397392713 0.04964817038215634
127.180042843111 147.8791946146467 2235.224139796972 0.04840965961429094
127.18683462081937 147.84591810279224 2236.1266565829105 0.03135459572025287
127.18008215781998 147.8770959181928 2235.127277666971 0.008419317618481253
127.17950712685253 147.85757454639008 2236.1257697239857 0.07160231679639847
127.19076563491693 147.868047633823 2235.854624866425 0.050633379863101846
127.18416397708708 147.8344303779296 2235.918280137455 0.14304457799838238
127.18834033610472 147.87628609197625 2235.144954251372 0.014677948774379473
127.18506041561463 147.88069347198316 2235.677797434463 0.014495625936028577
127.18567168886018 147.85100522498516 2236.062135569094 0.10148646695941595
127.18718324069224 147.8766768626446 2235.6126014780157 0.015147845961532265
127.19293421257368 147.87243714400816 2235.963156118905 0.06816430002586575
127.1786658709052 147.88506920703213 2236.036558933874 0.09128481190018044
127.18349318711594 147.87573841677798 2236.118170638026 0.07660133898427002
127.18585437001738 147.86250919851423 2235.9596176959135 0.12880246972482032
127.19068667777513 147.84853902857827 2235.9614305435452 0.08792726608384394
127.186993602601 147.86330359494232 2236.154276760929 0.04144852019336393
127.18489145250928 147.87863535328609 2235.266584206163 0.06828899786537267
127.19203575437066 147.87473595676158 2236.0329161203467 0.06913356026845244
127.18870758893134 147.83923912368635 2236.010912091432 0.014878507387305511
127.1803106251318 147.88088944116953 2234.8203745671935 0.03314392406005087
127.18239418878672 147.8641423258554 2235.874314161139 0.13257365174743282
127.18090902057196 147.86073193776758 2236.0482165794488 0.10787274576726524
127.1876099447635 147.87701099950132 2235.0592551640802 0.03514207814788234
127.18319115219188 147.83655591944975 2235.95514755272 0.13612492835586848
127.18616344537344 147.8772609594887 2235.602450503715 0.014640538639044883
127.18941506864269 147.83868195890818 2236.1526523881216 0.022786703996868447
127.18723157630738 147.85223750847814 2236.1734397167306 0.03728651981727041
127.18784985036311 147.81339487491107 2236.142429909371 0.013421397625289929
127.18455143903833 147.84952925963327 2236.184985558573 0.08144244234498325
127.18590343723106 147.8260564115736 2236.1592189857847 0.014052326288991385
127.18679685937113 147.81946763259117 2236.187453124765 0.0454158384086513
127.17909538096133 147.8122717152012 2236.161599954932 0.03169856657870273
127.1780286309272 147.80137796275778 2236.199821832122 0.05661095792104958
127.17979561626206 147.80718540975067 2236.1949557309727 0.03464232583101289
127.18687158078896 147.8470837831884 2236.208577982737 0.08303420202760686
127.17629475919249 147.8144275770059 2236.1761429859425 0.03281665828644578
127.1844544584496 147.85908350181117 2236.187269329211 0.08204508813241251
127.19362143657618 147.83026634931994 2236.183158596862 0.008336871379598034
127.18902381867645 147.84502618452228 2236.194182700298 0.06932969380236077
127.16493297558394 147.7953104307139 2236.2077105848457 0.0977303387680611
127.17909339869284 147.79695549545602 2236.1566478383943 0.03721950216557771
127.17969181654419 147.79827092481352 2236.1630184943547 0.03927536293967106
127.15836594674762 147.7879126149793 2236.1768500929684 0.03917871485825789
127.1813005050406 147.797302836267 2236.186398662896 0.040605562316931396
127.18052524468705 147.79846131763776 2236.1726401575966 0.03242863732505728
127.17197874677217 147.794863617915 2236.2047590219217 0.09567429256712899
127.19942632516478 147.7979264335643 2235.7722949728955 0.09547943131209677
127.2489781505882 147.83224283216083 2235.6174411794595 0.2136622001487655
127.19480258327167 147.78780622273 2235.753569701763 0.018185205938722446
127.27699030732205 147.81937544804038 2235.6628025125106 0.1692374260794529
127.2347974860575 147.81021185567127 2235.6729285201814 0.20071417745002515
127.23595829332449 147.81358010018874 2235.660213293964 0.17954267808728813
127.31824638800963 147.80095913390548 2235.7515523306733 0.19539566131292135
127.23932676266489 147.81249662140823 2235.6299702511396 0.18187689098961984
127.25035460707228 147.812363907914 2235.582455448109 0.18127845553468805
127.24943194571331 147.80693502028856 2235.6051301455345 0.17927168383405814
127.24745761876679 147.8119775356094 2235.6448523020676 0.20269597059306105
127.26483939377026 147.81809906419227 2235.5909473636193 0.17635998087562746
127.25737690286476 147.81458370293225 2235.620873117249 0.17687523368799168
127.26959736377107 147.81521915677425 2235.62505232291 0.16021647694265986
127.27018495298903 147.81853239855712 2235.5977789914564 0.1625768582287251
127.2646677470437 147.82131923051298 2235.576312792934 0.17077846658107818
127.26044964414716 147.80986722818164 2235.609720401469 0.17478737259159727
127.26776652264743 147.81966483071912 2235.6288338583527 0.15897565445557302
127.30749715475625 147.8124239054213 2235.7058414132284 0.17692314880979634
127.23313260979432 147.8379246458671 2235.6963177071466 0.1801529895197523
127.2437941174672 147.83807224488598 2235.579180798502 0.17130179048902885
127.28008336267983 147.82227948954954 2235.6767230637824 0.1767858319622947
127.28820388027302 147.8086270214264 2235.693845555035 0.1205949517447309
127.30872945535573 147.83107638710118 2235.6968078253517 0.06885061788688043
127.27185748508828 147.81645271866103 2235.660707196306 0.22776444930958847
127.30964795091413 147.8310824644563 2235.7124993193174 0.20089942906877514
127.23075436801177 147.83025427098747 2235.65761069481 0.1196024224000213
127.2304733949803 147.8339243802596 2235.67668307286 0.14212688906173776
127.21108214274517 147.81649536660024 2235.694058273404 0.12778402236311762
127.22839511700512 147.81264021659783 2235.673382899735 0.18820989096887453
127.27131222853438 147.78172387054508 2235.8113354166617 0.10982852483204535
127.29207460903874 147.78817249729005 2235.803905084668 0.0529986564156572
127.2987757302786 147.8045351412264 2235.795053209612 0.0822849659149636
127.31505591551016 147.80541307238212 2235.7713036074792 0.16612972812163881
127.30743329327149 147.79890725563797 2235.7861122925297 0.12239712918577797
127.23806001526016 147.78485347227547 2235.806661911944 0.1622585711822641
127.21999957540399 147.7951109832032 2235.7977528266065 0.18489225309072815
127.25162473129531 147.79082742134753 2235.814598969227 0.12141180102381416
127.27485590602305 147.82715639188677 2235.607532037698 0.14062471145571445
127.26779298977037 147.82695792051285 2235.5898546927333 0.15336357769537534
127.26805640464032 147.83462502026896 2235.611565971355 0.1466147896942132
127.23554137088672 147.81539356657467 2235.5938431624395 0.12250786029204216
127.24038281304905 147.83215171343574 2235.625280689612 0.18824998925630193
127.24200718196128 147.83041197692143 2235.609693122682 0.21088913744867635
127.26731961870155 147.8412322833764 2235.6384390625562 0.1277139568807999
127.28079542848732 147.84589543381793 2235.683489896012 0.0934855083781386
127.26067170541583 147.83703337157976 2235.6149905599 0.20492766281814126
127.27745305736447 147.8283676242924 2235.668840458581 0.17649965276105076
127.2557445468037 147.84381247485967 2235.6377798497692 0.1708460690870011
127.25976524810415 147.84076561027754 2235.596031463015 0.16023244887182758
127.26899658979136 147.8413261062552 2235.631187518531 0.1293348267609581
127.2559543351194 147.83900115094733 2235.6110584245757 0.18259484778177476
127.24667852066983 147.83868401273733 2235.600891831771 0.1495048867808423
127.26609450834381 147.83302873164075 2235.575622990205 0.1383711931834018
127.26693176419262 147.84497507630977 2235.659508727723 0.11347886296495585
127.24877993170013 147.8461735376392 2235.659762671385 0.17859079885921395
127.26747217675558 147.8433070056427 2235.664009974475 0.10164223483934913
127.24247741896019 147.8412703616234 2235.6650605458626 0.1752975645280471
127.24896074145397 147.83604191188414 2235.681917795069 0.15775966439439834
127.23865965059254 147.8386976611291 2235.648638984655 0.12428333515778524
127.24006537792422 147.80122157146087 2235.8089259360677 0.13293128262726564
127.21569386009924 147.83747296516668 2235.698121486981 0.1375736685334219
127.32329122930139 147.8306247656374 2235.733923086083 0.08963405114733866
127.31315453521287 147.80757591382766 2235.78173553346 0.11799237439608343
127.24817591102848 147.82951348468384 2235.7347498226627 0.18678843564555106
127.28978019547132 147.83553131233788 2235.7246542489675 0.1720486644358368
127.27013496221707 147.84379789639544 2235.7100618444706 0.1380477972243115
127.29880910592071 147.8329693259134 2235.724650312671 0.1833921732840331
127.27980431888422 147.8212738144026 2235.7409169907137 0.24502171892678812
127.2916450408758 147.83229572316372 2235.7032974687 0.2034283612508691
127.25244318576532 147.83271443404703 2235.731549398682 0.13744458717550348
127.29632695932604 147.82792726700544 2235.7384525099174 0.15441603982519697
127.2782423196861 147.8308060008202 2235.72812441827 0.17749710785063638
127.21318284887879 147.83011203804736 2235.745510420018 0.1259282907757735
127.23628328875193 147.8412472817772 2235.7160088639953 0.16864648560658396
127.25913258967417 147.82925889912542 2235.748096723638 0.192426755767133
127.23983024931876 147.8192478972865 2235.7522305029843 0.23217630321897256
127.23833671713197 147.84229985788744 2235.696133862962 0.16830888053047843
127.24202430764922 147.8386658289731 2235.70123187667 0.15903343424686853
127.22525368960876 147.83731329011994 2235.709709358932 0.17428818472465082
127.22858036568294 147.82387341337002 2235.740295533289 0.22014987777535522
127.21887351088532 147.82976448396434 2235.723452962432 0.14553643258158275
127.24741316683198 147.8389087437853 2235.724499868294 0.11496069327387558
127.2944711522926 147.82083122275034 2235.756321652677 0.14450296371299307
127.28647226345795 147.821144623967 2235.7635069471926 0.1266370076324156
127.26877382243276 147.80892383063323 2235.7884382769985 0.12155405057634253
127.27034099119935 147.82044355379534 2235.7805611362496 0.011055684404192207
127.26234315839929 147.824377725305 2235.754748086551 0.16060862538566612
127.32376910167858 147.81690870783706 2235.7495350607887 0.12132937714635861
127.30373925086928 147.82739194572864 2235.7702322186633 0.08091782338947479
127.30532727757307 147.82034858882983 2235.7758782629926 0.10874136870420435
127.28089215170985 147.80104560533675 2235.8054065078186 0.04957648072898961
127.31354521724244 147.81279173786433 2235.7672315021664 0.14089415574611042
127.26099382669645 147.81826533051358 2235.7673519074924 0.16991154282936216
127.2466329872098 147.80770956089714 2235.783820743906 0.15014048249485853
127.26271762774276 147.8032100733648 2235.803535634002 0.0855607600371142
127.21654974234713 147.82481794707442 2235.7612453480783 0.1544336782924253
127.2332464165148 147.8142035345663 2235.7810332859976 0.13270656800312536
127.22851318804487 147.80022707354902 2235.805131288072 0.19014259622804738
127.24334079718997 147.8064045396499 2235.801884835349 0.10696618714263775
127.23920690135319 147.8224313372218 2235.7657548733914 0.16582477857090192
127.2385097672316 147.82263006426507 2235.76097364077 0.20551222161908056
127.21949469260203 147.80836017857015 2235.7991205298763 0.14590412168467773
127.2290024667489 147.80934041858004 2235.6959737762204 0.20236760201849646
127.22413706366936 147.8013928131735 2235.7345281023495 0.1653516655467753
127.20813923303504 147.80050977979354 2235.7147677666644 0.06645493473327994
127.23436728540675 147.8067812445964 2235.713807721398 0.19202488464355552
127.27259207364355 147.7993849551405 2235.737366443354 0.2323296033472388
127.22257586542992 147.79941976699732 2235.7577379404333 0.1959776393117373
127.29449663149299 147.8053025630267 2235.738686473597 0.18404142398840398
127.25413062306943 147.81366130739522 2235.690491876087 0.23349580785956792
127.24538058202157 147.80862962118346 2235.7132332466344 0.1761998814905158
127.27563673159004 147.79635456725308 2235.744655685366 0.25849100209207104
127.31570516685406 147.80745920962218 2235.765354635839 0.14314690026742866
127.31520179043949 147.78570253289834 2235.77755105725 0.07123595097094733
127.32083644232156 147.8145115902658 2235.7584435112803 0.13816970435531453
127.24326211436899 147.82425977604643 2235.765029984095 0.1860836512222675
127.26807013660442 147.80162406271458 2235.7966381589354 0.17808930479540488
127.27453260654673 147.82559857267353 2235.642888574354 0.17077112279781767
127.26736517011707 147.81528587905183 2235.633671900976 0.1783460599206329
127.32740442326666 147.8139512324691 2235.721366969618 0.09389702327916394
127.2801728310697 147.8400135158903 2235.697556143311 0.2010062209668458
127.25830321101058 147.8041654096745 2235.78528988942 0.13709943731164348
127.26371549523748 147.84229598733705 2235.697819513083 0.10074965588714317
127.2882369106581 147.8404201297314 2235.695238805615 0.1713555842026482
127.31719500342368 147.80573295299038 2235.741468866271 0.19707482535384782
127.30899243441317 147.79546481396187 2235.780629241842 0.11127008144348252
127.21156475100743 147.79093078029004 2235.791851875604 0.12979181535864837
127.25819518526312 147.84479851468143 2235.6796877524184 0.11615355177682807
127.22789782010312 147.8372406149834 2235.705131112545 0.20683353548105404
127.28608046460553 147.8059352084933 2235.788332473527 0.08483717670044845
127.1705444817564 147.80402967505387 2236.204786437709 0.1510147153278827
127.18578335319502 147.83939385577497 2236.211794799841 0.0727446612287952
126.86431203242063 147.88187259741647 2235.3560163164902 0.09067906240653431
126.85995841588777 147.80304237968343 2235.349202753631 0.10029397043050642
127.1619634453986 147.82689723625518 2234.758837340832 0.033861891465927836
127.16758516149422 147.82367024978498 2234.7607786597805 0.008909930190852745
127.175541295339 147.82902524833793 2234.72340606846 0.07452859101917249
127.18147478508274 147.83743536888318 2234.7214744908497 0.12040496154756536
127.18117705577025 147.84308562559013 2234.7311935833904 0.06382737883557199
127.3262409443355 147.8316198399848 2234.695621670541 0.07704511890482303
127.28582845811421 147.83326580331027 2234.6392158364047 0.09342340619889043
127.33005761902955 147.8221297356915 2234.675343804182 0.09468498975855556
127.25798190826829 147.83833324206583 2234.6383492131667 0.04907506174490215
127.20495104367654 147.8448215869848 2234.6496061386797 0.07120563431692721
127.16123919538263 147.84438965288373 2234.6902927469773 0.10706788235456662
127.29901632662482 147.80884489803591 2234.648934044971 0.12960611191879817
127.30042647057628 147.81872273237502 2234.643536821412 0.12729671071864504
127.26123579384914 147.8246875114335 2234.625095388152 0.08638054625263011
127.19258324136047 147.82170554962667 2234.6579056693986 0.0883724340116956
127.30153892854473 147.8253588954667 2234.6622240475676 0.07399583993069823
127.27623136761075 147.83785701160303 2234.643170275291 0.07215828097370061
127.30113536743215 147.82658912309108 2234.649940990753 0.08895692612420596
127.32942539663001 147.834721558662 2234.668102855659 0.13120303104763836
127.19262242149968 147.83968392742688 2234.6492278264095 0.08465797127529189
127.18898125121494 147.84274488421204 2234.6563325273723 0.09461026351906698
127.3320019373165 147.81098701259072 2234.7187480520665 0.07091319381317869
127.24540074192795 147.82735798206463 2234.630457867562 0.08402731131709788
127.32895373786192 147.81027908577846 2234.692972351322 0.06959593582996723
127.28070918958284 147.81405967012952 2234.6403675613396 0.06216248955065153
127.2933502376613 147.81921300297225 2234.65822142077 0.11807416830625438
127.2600008947502 147.82128304571307 2234.6461256625485 0.06333735256402229
127.21860643196266 147.81883633737928 2234.6493272295297 0.0802115370527329
127.19002778693549 147.8248985120463 2234.6796018080236 0.0781373928889873
127.32271292167229 147.82863275213987 2234.687053697452 0.09097245223772386
127.30798594257782 147.81648108009134 2234.688525403424 0.07837031235319275
127.27452371037569 147.82472167395224 2234.647943523181 0.07456593812479118
127.24756956998377 147.83027043992615 2234.649762316496 0.0788831866640115
127.18573969395072 147.832416788325 2234.686409899373 0.08961320165452664
127.31556667939927 147.82290565542542 2234.700451411933 0.09294683075314286
127.25183039996514 147.83383743259128 2234.6449823268413 0.07331714578012256
127.17928381290287 147.8442595561213 2234.6942621038884 0.07146443183133325
127.26414724779197 147.83136166981103 2235.313803177658 0.07008192309224529
127.28643326322613 147.8260069727606 2235.177245167853 0.07561854873742678
127.25790518500962 147.84070862027284 2235.41728265129 0.03908669138346798
127.28562855728225 147.8263635043347 2235.2543211540333 0.04575215384880375
127.28561936955323 147.8282811411016 2235.3122242841555 0.0804690068200003
127.2867426109425 147.82772462791928 2235.2121852325668 0.05216382500063983
127.2732779184407 147.82849122263082 2235.400054909761 0.0804975183360594
127.2954647403113 147.83091794301168 2235.068175257068 0.07481724071921915
127.26785710390568 147.834789530427 2235.4243419546347 0.08804594359327494
127.28060963273795 147.8313311756524 2235.220634113639 0.06555248089285566
127.25966249020168 147.83480394913653 2235.504168272552 0.045216232691182835
127.27052389853885 147.8307212854397 2235.4413505517928 0.07888861671079396
127.28265169401456 147.82827223395046 2235.301618530704 0.07008489669818711
127.26821319077926 147.83389914014268 2235.365018604465 0.0770050149439723
127.26713392448114 147.82297022155655 2235.4668632441467 0.07324382754530454
127.26562662640039 147.8319012780855 2235.4521731877976 0.08191459785712275
127.27404669955341 147.83466402521586 2235.169481752955 0.08343248897387423
127.31870992293845 147.84261767595396 2234.874226572781 0.10316608139776028
127.31286970674056 147.8285853154213 2235.0031269412266 0.07086828403888966
127.33063874961844 147.82175001612686 2234.7301405227 0.06993999948802616
127.28709206784231 147.82451441240323 2235.274492148901 0.04200771124923739
127.30130512049149 147.83027158260208 2235.010243730095 0.06632246130004801
127.29843339115563 147.8287719166125 2235.1093174796943 0.09642500238431011
127.29954720155392 147.8314215715428 2235.0888329972286 0.0621776579047299
127.32449145523412 147.82996605013915 2234.7563822079455 0.08256262203562727
127.31277499702443 147.828512112843 2234.8525281723296 0.11341567742272078
127.31349812755131 147.82695071825242 2234.9994875310754 0.07555375525026974
127.30358714444874 147.830042372376 2234.9346883055214 0.03715009575928214
127.30052117811267 147.8221671635127 2235.046173759757 0.09266055397172014
127.30973200098838 147.83492513078002 2234.9468788456643 0.04803095295284479
127.31146222308644 147.83608605515758 2234.8218844312673 0.07089837506032523
127.30391374174566 147.83144211175227 2234.972433954929 0.05880419373184195
127.31503393743616 147.83320477181175 2234.899459376912 0.10990426556578577
127.31195106808617 147.8319033601481 2234.9182244984213 0.10011823761857104
127.32758639734692 147.83377558678563 2234.8457127324677 0.11413700591361262
127.26698000283153 147.8216257277047 2235.349297540448 0.06410175436601752
127.32027884220028 147.83161322353828 2234.747879126598 0.08078146149085864
127.28701523213948 147.83205130665314 2235.2419425131507 0.04158709530108474
127.30540342108469 147.82591544710897 2235.0184084375437 0.08270604342589509
127.29385932730173 147.84063037953496 2235.158895687685 0.06204223443874103
127.26906615610693 147.8233893494475 2235.4727235665428 0.08908988844023374
127.27238780697263 147.8224511085886 2235.3897135523057 0.09340118243166162
127.30355174351901 147.81528292863803 2235.0050696351263 0.06480130083698446
127.32526982409463 147.81973635111146 2234.849635565539 0.08803338804327869
127.30079381426143 147.81426638652067 2235.1351206561662 0.10345123464458457
127.27243930307446 147.8223303989488 2235.5193982582923 0.04291389861535381
127.28022811555942 147.8205563444773 2235.367354538897 0.0775740913523898
127.2849233727372 147.8252670926857 2235.246431168426 0.04473331989811171
127.28621363079169 147.82804604964224 2235.2918994612387 0.06524494943763418
127.27065440221303 147.8230207073468 2235.4277598125027 0.07560146073050569
127.26190397960474 147.81790651615879 2235.509287567838 0.05277665901759025
127.29142313269692 147.81560254577477 2235.1554710279242 0.07769584747028914
127.27191367035535 147.81098343215834 2235.462001887842 0.07786670896305643
127.26340637056289 147.8142210775944 2235.4893775998803 0.05420871841253369
127.2999111212327 147.81193012122665 2235.024769665914 0.07812035267796183
127.33330006996924 147.82203006843093 2234.773568219899 0.04166507262794759
127.29056860843254 147.8208527970317 2235.189486676878 0.04848981673203551
127.28905481424346 147.8211498104278 2235.290156546735 0.06351840277047566
127.32694524268896 147.8242142348898 2234.711495508293 0.06029280908800721
127.32274965733407 147.82220179873778 2234.8276276379997 0.08837586955724346
127.301401801336 147.81201704490408 2235.1321195380906 0.10714458652380195
127.3158888522857 147.82319914430744 2234.922624129906 0.07992326985571163
127.28973331284125 147.83090142539197 2235.26596272762 0.04881144843044714
127.2813805324578 147.8267579435242 2235.317407794876 0.07262763523442961
127.31489395499862 147.8105423042427 2234.8085560655113 0.049342378104239526
127.32334440006451 147.81481635695525 2234.7215604831863 0.06516001346380582
127.31473151488939 147.8097687507564 2234.7771713643365 0.07864964843438625
127.30183801633987 147.81232492394446 2234.9997798477043 0.057483542445992034
127.31010316800582 147.81271341540284 2234.8824134407437 0.10102271126294725
127.29960849057905 147.82757777291212 2235.0442802449384 0.09236723871531553
127.3100962398016 147.81462591663163 2235.072810704093 0.03345794434137258
127.32324806124419 147.81069648995333 2234.90532498677 0.07969209249164137
127.31507730555562 147.8164529281214 2234.885080856857 0.08631739351502628
127.27412900989593 147.82026930560625 2235.335001891083 0.06269065776086852
127.27504113529214 147.82580831705098 2235.3987662000195 0.07813044373086352
127.28504237647734 147.81906950363586 2235.223484151274 0.07578164121408346
127.30036006615222 147.81491823015185 2234.971569261725 0.06392482086630259
127.27565299936502 147.81924036612247 2235.312731688189 0.0660335838808983
127.29320389638276 147.81257663031369 2235.206422662894 0.03952949826077203
127.28162833444375 147.8053304906184 2235.184183840071 0.04757948929440063
127.26717550782328 147.8143631903698 2235.3652940987326 0.07001323455647403
127.28234120678712 147.82895800140616 2235.182862094238 0.056327645926860716
127.29438369182579 147.81339377099772 2234.9650279647926 0.0555035579960959
127.27782006358579 147.816697440062 2235.2064902965185 0.049875888900182644
127.28964391757631 147.81633482038183 2235.1235965324936 0.0860477260333265
127.2434489383654 147.82411639112513 2235.474524446021 0.06444321478670922
127.2787000446767 147.82157210595616 2235.133940915051 0.08218505138365426
127.26396618698189 147.8136696530433 2235.3977878182563 0.07770320157189226
127.27207603545645 147.82423857188522 2235.290453499104 0.07498215320069322
127.25396828342963 147.8215185763467 2235.428943175875 0.08781919456970425
127.26724493525462 147.82228117449893 2235.406510893064 0.0845080980841272
127.25242737859058 147.82374419394654 2235.4989394049785 0.06551619960208283
127.25854489710343 147.81894067976256 2235.4493691613025 0.0848941802921943
127.27850615385803 147.81717094555697 2235.269735275244 0.04254655786153374
127.3164372156944 147.811098679396 2234.8375249607725 0.13316426050124228
127.30154016034291 147.81893878202231 2234.9179175640757 0.089834216835236
127.2911962796914 147.81673430135388 2235.1709094745875 0.06781870124030047
127.3134611661382 147.80607324063809 2234.830919122449 0.12277107546946887
127.30212568423309 147.81822170309633 2235.112252395044 0.13372541223017023
127.27574671388437 147.82024731657685 2235.274153834053 0.04701700618140966
127.29043765651562 147.81103357925622 2235.0101747121694 0.0643860277576652
127.29337603997317 147.81273296723379 2235.052465566783 0.08285829081074711
127.28075343193679 147.82096178734577 2235.2376055922928 0.05388823784558302
127.28883520763168 147.80661533846964 2235.113038018687 0.08688140913668384
127.25724783612768 147.81543896187372 2235.3705068972713 0.07843626939982579
127.26845654176958 147.81211783687098 2235.3249588438202 0.08151381149732674
127.30395034776096 147.81186173296598 2234.9437538284647 0.04894526694654266
127.25928590440384 147.81537123969696 2235.481192661379 0.07338940668274813
127.28309980773179 147.81534133247726 2235.098822442731 0.05423553140272251
127.25047411292272 147.82137044818774 2235.3936609433895 0.07715371395938266
127.26217851782978 147.83638344067077 2235.2961191566174 0.07897833690803288
127.26839380577324 147.81839887707883 2235.26242500901 0.05330957936612234
127.25944958247356 147.82673283968884 2235.30033031999 0.08544221832348452
127.25832682504928 147.82400537378894 2235.430894850429 0.07849374871284999
127.28051855683623 147.8246689793567 2235.1210940387127 0.0876739994161595
127.26497650279785 147.8267370636467 2235.286441114522 0.05704482503573788
127.27244729787897 147.8317381821631 2235.116356772596 0.130943706014252
127.28272494107705 147.83103155977258 2235.2226997589746 0.06568536002238624
127.24614361889472 147.82497578150475 2235.457093400913 0.08034041319649173
127.27585233155233 147.83370988703516 2235.2703743507627 0.040841331912163936
127.25288644132084 147.82360473113891 2235.407948273063 0.0774675773075464
127.27197589854293 147.8373660143271 2235.3260438056627 0.071956489104753
127.2539734883293 147.8375918574946 2235.5319876000876 0.062179475562955625
127.26913240488956 147.83656921675998 2235.3788497330575 0.08427796323570141
127.2552596990201 147.82767404393908 2235.4927703521653 0.06900691506805849
127.3022251271746 147.82868332861847 2234.9468757977083 0.05355922232288211
127.28709346546229 147.81750747795044 2235.0733388466037 0.06360766495134387
127.26471270736259 147.8340600358211 2235.429824705213 0.07982066660486171
127.25206143589733 147.8338797905634 2235.5092735751105 0.03618905130753401
127.26927518218139 147.82460852649606 2235.340528187661 0.07610107227202104
127.30400268173523 147.8306562084976 2234.903399577845 0.10147654116115318
127.29792617914252 147.8317221676349 2235.0309582863238 0.06168517213142866
127.25822011221317 147.83449810266043 2235.479823120382 0.06917405521660357
127.28311961751572 147.8308413834424 2235.0887622784608 0.07454433223622661
127.29137333598392 147.8342918709078 2235.0695359840333 0.07032248629327112
127.30398829549014 147.8345256213092 2234.958474174736 0.06802727205821843
127.29692158727808 147.82788145174234 2235.058937055161 0.0665080003989715
127.28052385771427 147.83226695605927 2235.157332095329 0.07772485702565196
127.29780129740323 147.8278343228265 2234.8617749264836 0.09021398109795448
127.29551679765011 147.82663928823862 2235.03799432194 0.07924807907797622
127.2855443178993 147.82160704111897 2235.030221521919 0.08226162583174555
127.30590030817798 147.81989504843665 2234.9021970538765 0.08506803236288223
127.28027307222648 147.8136435059773 2235.1610296336653 0.06795875875909467
127.26420061733273 147.81562848951805 2235.3257517535076 0.07197742035078653
127.31613343133145 147.8266944355646 2234.7964320892925 0.059578095326620444
127.32338991494991 147.8307128562838 2234.7716637576905 0.09043604335478131
127.29726905904515 147.8302456722619 2235.1363509491784 0.092095757415601
127.31063248739778 147.81632855455345 2234.96399708096 0.0511729141112247
127.30744899193472 147.81837479152506 2234.9315769604314 0.075874284258957
127.33202639932449 147.81246518227874 2234.7478024519723 0.09051645919611055
127.32899761123481 147.82559033782022 2234.8104792713916 0.03661050256416512
127.27607666545971 147.82815467714707 2235.201134750376 0.044394206096091245
127.30396356746931 147.81611048332002 2235.0347905593135 0.07563087952390414
127.32191760973755 147.8191169279081 2234.8334119568676 0.10930201229785481
127.27064739352487 147.81299619177625 2235.4503506951355 0.08000077345766406
127.27435108703386 147.82894797694325 2235.4123688957493 0.09428745859356852
127.29368921618946 147.8137129702259 2235.1688845769386 0.0672406542913179
127.30984154301765 147.82523389198687 2234.985184403763 0.05534762701367674
127.28265095948285 147.82433624125326 2235.34068599911 0.06709855252966317
127.27933577826879 147.8168591420741 2235.3700265867637 0.06535120152780455
127.27617741173387 147.8139889811618 2235.236794567693 0.05571766347749348
127.27233485166515 147.81408555566435 2235.317585396613 0.06343095303616557
127.28633449914805 147.82013585388125 2235.031223551039 0.07058501004780034
127.31703930524706 147.81727459503617 2234.7211646367114 0.06378573068329683
127.31462991923996 147.81109113332516 2234.8660436512587 0.08694630383414505
127.31789598881343 147.81304180968772 2234.791637942948 0.05859876691719436
127.25567349725014 147.81230067890195 2235.466696020801 0.06844429230428406
127.29755069992352 147.81823170014147 2234.9262054582146 0.07087960660081022
127.30505150381852 147.81837747287807 2235.0392907449486 0.077603215840054
127.29482253437698 147.8136768566713 2234.9734822969895 0.06634042659160799
127.31387539013248 147.81187019402464 2234.8534717704847 0.11483849502151865
127.27204561776401 147.81954040061495 2235.350226996319 0.0567137464838483
127.29771377895605 147.8137766072484 2234.9585400382184 0.0684724258453642
127.3214253824399 147.8101994888902 2234.7397458479927 0.08006565484787063
127.2887798097665 147.82459834162415 2234.9813181148998 0.05982985266050721
127.28646296812182 147.83407728018517 2235.1559878624494 0.07069257416315824
127.27657696299369 147.82194779131174 2235.1901551277138 0.037442427983755536
127.29522342266839 147.82420855764377 2234.9249445424985 0.07588086564658461
127.29941601912724 147.82501924877275 2234.8540401957366 0.08145566190455193
127.29793583097435 147.81836225570646 2234.8911174660225 0.1001311863586006
127.26679115563189 147.84024256682244 2235.3760716547613 0.05957742172958992
127.26735456524182 147.81989393928168 2235.248808502271 0.06336024924810393
127.29077535992845 147.82812904373893 2235.0043963957055 0.061232186296371796
127.31307743422676 147.82418793239427 2234.7309310416454 0.08702357882010192
127.27151586050934 147.83196050607887 2235.2303804600388 0.05756854191342881
127.30530072434496 147.82344462025003 2234.744214994663 0.0672094079602142
127.2873659238002 147.8294417369536 2235.2072418263588 0.046604701826855145
127.21729991651391 147.8167440686147 2234.6343304511734 0.1189724565235954
127.28424714951691 147.83167263240023 2234.627645083062 0.09615339831088225
127.17435339360954 147.8198790512176 2234.6604000698444 0.06705569542238471
127.2252422830956 147.83903713045572 2234.63840161921 0.07987891950991988
127.29549815366492 147.83073983137075 2234.632203795456 0.1199197280910491
127.21212200969595 147.81965314409337 2234.63276477551 0.0592972874537407
127.18116314902908 147.84567898091584 2234.676796324605 0.09356811856735758
127.16206900598037 147.82862063997803 2234.7109701793856 0.08058464128318221
127.21821407702954 147.8373263828187 2234.6365618440295 0.07331402447267522
127.16801167035118 147.83132266006527 2234.6853598773814 0.09144954128435136
127.23449561619525 147.83328925807754 2234.6283547906028 0.09429068635589961
127.30241620259629 147.81138710356947 2234.6679506165788 0.0736496192700028
127.17439861704024 147.82859836555164 2234.6979877104627 0.09027703184634013
127.17765358082536 147.84239913006138 2234.7064371547594 0.10121936152447655
127.25926431756977 147.83154362071085 2234.6302778635363 0.0814877430239947
127.31487261723173 147.81743658422974 2234.6960542018114 0.08518894396655068
127.16783533527303 147.84791431789984 2234.7283721304657 0.07627807938430779
127.16175471918639 147.84269020617756 2234.7221486658095 0.07411115176686858
127.32690495471833 147.81014257218294 2234.6834567854544 0.0687050747383681
127.22030865406731 147.83183376119882 2234.6496254210365 0.08053384547491131
127.19812939811429 147.8380353659041 2234.6625314146067 0.08364160203426765
127.31258512695425 147.8341227541743 2234.6684163427253 0.08459072765109073
127.1787958970268 147.86113900643633 2236.2056594881424 0.124031277287162
