x y z curv
37.97903784550114 0.48093846341422236 959.4911454020275 0.08869378581193121
37.93842984379043 0.4784161471780254 959.4901131613467 0.05610541795666128
37.92146797512414 0.5036645439070622 959.4981400726892 0.1099997730740959
37.94353324355829 0.5189221571964884 959.4998415492121 0.10364711785420329
37.9174220299043 0.4891754438274117 959.4866851671926 0.05645145053709469
37.90902717650193 0.4985688090295256 959.4719374928416 0.04362067953807673
37.911173508398306 0.5181189045492487 959.4749224737332 0.058920447048924546
37.915665707207296 0.4933993239773132 959.4951660876777 0.08895886404605921
38.246857196148504 0.49278072311518484 959.5278354567199 0.057780184481106354
38.243203666086146 0.4737033571794268 959.5254625192018 
38.214827308239634 0.49440787138180026 959.5062627704935 0.04806131489974065
38.229992756198385 0.5163466540593519 959.5120079067847 0.09494451376203267
38.24615647652655 0.5295419716963269 959.4963999591669 0.012954967746905811
38.24559358484511 0.5327925683713834 959.4757267512381 0.04044925572678055
38.25826774568641 0.5236447098383646 959.4539303150339 0.02144887985933589
38.237775809678475 0.474404202836845 959.4802081016302 0.014985512031168087
38.249578435939746 0.4843574414017754 959.4821777608955 0.05637763559976057
38.20381421808351 0.47161307889995596 959.4881924840016 0.0227907159926304
38.25350046499655 0.5045017355926318 959.4518216915448 0.06330878043510674
38.25239096744261 0.48645891827849097 959.4649733995633 0.05709597532501032
38.204315404931954 0.47573496826941986 959.471260635254 0.041626860611496105
38.208089676055494 0.47745243353732325 959.4650958448676 0.049546273839695024
38.246863414651784 0.48173888554385563 959.4575461015419 0.10118559134932055
38.246275650145314 0.4914964701811824 959.4505777976145 0.055751971312696366
38.20143724209474 0.4914121630312893 959.4965422689996 0.047916822341691576
38.2611038273496 0.489096024284019 959.4906083844172 0.051236961592288986
38.26328338682639 0.4916585447624696 959.4726634568599 0.026930194196378925
38.25634821214432 0.5160031318874384 959.4758649719743 0.04734900235961942
38.25846965800547 0.5109088567084525 959.4988881457446 0.0378339784457931
38.255160644110745 0.5230969173651651 959.4711964158963 0.04665272938708358
38.251644148803955 0.49594934831091125 959.5068679980146 0.15910389565739524
38.1767301421608 0.5944954703285323 959.5093486979986 0.00520759174485907
38.175253099062715 0.5875563865576302 959.5196806881781 0.005909978068149642
38.16490838050629 0.5955259362795423 959.5172919756247 0.011580631374646164
38.13443564538589 0.5982020232293241 959.499537452555 
38.20407005175586 0.5768563792374399 959.4588762369661 0.059468912110732304
38.18406959106715 0.5978694480319429 959.4360871921912 
38.209833535073145 0.5787199752674079 959.4818649758759 0.03136769918268776
38.210343774592424 0.5928971568044278 959.4840927802045 0.02118200663412875
38.195719152344054 0.5830858306501766 959.5129161862911 0.008596096132525023
38.200206786054366 0.5811184934370545 959.496821213107 0.05644664535580007
38.142659067821114 0.6053749813515409 959.4713425599509 
38.20430663303028 0.5991119575940135 959.4727533066829 0.03858397052569333
38.20583722605201 0.5944995877903864 959.4737962347654 0.040477526382967366
38.2065170429972 0.5735705778778855 959.4677855537442 0.03779632270540599
38.20495179592513 0.5715402167954644 959.4911287168467 0.03276939159919553
38.0970542688876 0.1066664886136009 960.7569645068249 0.19189094174199506
38.07890655956084 0.11219873586722212 960.7629515647119 0.18678636561330889
38.14905305830235 0.2054692516870268 960.705826925252 0.06848424839945336
38.06257055093119 0.22642647998871043 960.6987754136999 0.03553302581437444
38.12290835457195 0.2206781792228505 960.7002866086199 0.056817837104801566
38.09583753091912 0.2279472044972269 960.6963300934073 0.034540752941025904
37.97901206604573 0.15577538966434434 960.7029098887277 0.021951268843500724
37.98018650494741 0.07232049155158289 960.6982208247587 0.1034402543936068
37.963729671970576 0.1178865362488967 960.7077235649703 0.164070363275573
37.978271563068155 0.12831007476761366 960.713132569039 0.0815397418392663
37.97489574167648 0.14245445703958468 960.7040263275521 0.061674774253376766
38.011494508240176 0.201126977244692 960.7126276807211 0.03437395150463187
37.994959392091786 0.19005151126836725 960.7000895041311 0.012127518306989509
37.9928604524922 0.0383165387314238 960.695975649537 0.09964431793746989
38.10253509321115 -0.0020856731505276994 960.7044600774815 0.04831801763627502
38.0698582895287 0.0064099369525150935 960.7027258291818 0.05461480268789841
38.07936711167307 0.00556598390291191 960.697891975688 0.07085515910647262
38.17645237080268 0.03312360308930565 960.6991876710058 0.04612232258548832
38.137419000290144 0.015637893930850494 960.6968780921164 0.027055949889405434
38.197830197235525 0.10170870474720502 960.7064483971958 0.025607726785973884
38.1754749236284 0.19011011629742974 960.7089502166089 0.03151326446561535
38.16096024653606 0.1981564453405195 960.7152406095882 0.07695921822449746
38.170891123870824 0.1786772834001726 960.704578895539 0.03746412227106479
38.18207628799991 0.16456576861783495 960.7142354590886 0.04985732892963283
38.20568895014718 0.13862467266298498 960.7078857348614 0.02523014438199977
38.189059794282585 0.06768636428669428 960.7035592857418 0.019209065356637627
38.182713663962964 0.050440180853039945 960.702307488576 0.07232254568244081
38.02163214414047 0.011029891436233907 960.7110183983468 0.11680197210877159
38.03827158956824 0.010361668087952415 960.701628993415 0.05841768354341814
38.12124600109622 0.04446856099052414 960.6958427782293 0.022165443254393194
38.08984698974276 0.02030819280724074 960.696243081395 0.059246760507506865
38.1130749499051 0.005097365923918045 960.6999766893903 0.0621736350977828
38.03243940442759 0.03841069806022163 960.694163874486 0.04164684917360557
38.00480320772571 0.02606301786633792 960.7001872061891 0.05738136484508483
38.05059929658374 0.07389026612893823 960.6916320624194 
38.00637420541186 0.07435306013204354 960.6953438707733 0.07116837502122213
37.9779277781941 0.05395783231002553 960.6953043128034 0.0945608249808004
38.152927822610856 0.18742955461987207 960.6979330282069 0.07274382262094287
38.17255492364418 0.1576132508257196 960.6937809359374 0.024368249819214562
37.98425810377334 0.12974729717627786 960.6992781333322 0.07809941295324202
38.00738950204889 0.1887946021642751 960.6963758084947 0.0402476393485853
37.98838992697881 0.08531650882672472 960.7016995626715 0.0851879037469408
37.99068420555038 0.06986069412592168 960.7137344432588 0.08880659617515436
37.99773354130408 0.10019683296815536 960.7002185106124 0.08656966104964252
38.00989728129563 0.1021609697864073 960.697641686221 0.07114417779633622
37.978472677702364 0.10681352836939924 960.7073004101649 0.06811790264815784
38.14720052788776 0.02381974127056856 960.7041672418301 0.045365855609512694
38.08473760667077 0.044410101778027386 960.6932956503191 0.06324707160566506
38.17542714714997 0.14735650632356978 960.6902013782654 0.016981924655872244
38.189577936674965 0.14381246581855775 960.6984429719807 0.062390190999841576
38.14474857319542 0.10459097315293232 960.6908750046102 
38.00456042838013 0.08864967813896603 960.6977258106904 0.14885245659800392
38.114594207146396 0.19665147686463189 960.695343316933 0.03845005417509091
38.15100576821975 0.19519195089829042 960.6982940130306 0.06584862260688482
38.01805631813797 0.20375412407889307 960.6973466614843 0.027473721518984563
38.02712605982896 0.2038595734273469 960.6925773197892 0.02065252446403124
38.02822109071443 0.21153983512834426 960.7037300954076 0.021141616044096236
37.98665659706835 0.1556519185626226 960.6925856031579 0.03383722978070802
38.080281795063726 0.23152482721593184 960.7024810319904 0.007445308136123889
38.06701344308162 0.2177230309734803 960.6946749662275 0.019196911411844146
38.06978442954322 0.18650536485471503 960.6902183388518 
38.19616411487512 0.11526959139059395 960.6951239828014 0.041244079668074626
38.18792887943907 0.09429117399501082 960.6974472291425 0.024690932439293028
38.15446869981196 0.04870552527345949 960.6928932694638 0.05498805734718772
38.190742482747076 0.11115514138135635 960.7066092849509 0.05925384886540216
37.98901913471385 0.06285818172658006 960.7126349449618 0.09521121185335507
37.99806303255281 0.04633390797346537 960.7155982429821 0.08774898686823338
37.99235904011208 0.04649006628723877 960.7041384508018 0.09137244365361723
38.05074441976583 0.032062423858077976 960.7183964711425 0.049881211303996364
38.06936583387524 0.018345821625492826 960.713881366406 0.09834380855313539
38.18196002713131 0.03933243404946156 960.7066285370828 0.07354087217383996
38.093779930551925 0.014426471714705538 960.7143611500078 0.06996109407099099
38.11937577721669 0.010237367962407845 960.7137946949389 0.06261279911163277
38.10640683058625 0.006735020955675836 960.712077829958 0.07449866778234895
38.16515552676044 0.029526375531959605 960.7154872386423 0.06916771108429846
38.178316364311534 0.06439551493021585 960.7118776303502 0.05868975219479725
38.18976552145804 0.08074840882841866 960.703517992038 0.021958079892376463
38.00288858317404 0.1837082606233102 960.7127935914153 0.03065235400450369
38.18113825169477 0.08976666536710223 960.712958835212 0.02654005495822002
38.15640694188064 0.18114955700871405 960.7224950274313 0.028961168393336664
38.17051626589628 0.17909094021218497 960.7123356228328 0.039407812570121485
38.186499203686886 0.15691824400239915 960.716418651658 0.05932264690118067
38.11779953431494 0.22107559826928921 960.7215600734868 0.011934343718092277
38.077658920176965 0.23382508474534588 960.7100790074664 0.004542684591594608
38.145017725518926 0.2072082161353029 960.7126040099452 0.07259069399995687
38.129056321235744 0.2280812053136402 960.708413562797 0.06928250058887563
38.06312389776896 0.006074116934676627 960.7081175347219 0.05533928970935552
38.15084123227125 0.020700618208929464 960.7141181381809 0.04611656331070752
38.00916217752264 0.03274872372625329 960.7082962035348 0.07647210539412003
38.00764801297413 0.07673987465505716 960.7173509992969 0.05871859534218722
37.970950526504886 0.1157531035563701 960.7107345894011 0.10199969184153243
37.99478830507218 0.11636810700929771 960.7206689115138 0.02296235611710448
37.97578355830616 0.12187648392787837 960.700045551849 0.06252318614669547
38.192797209399096 0.11354237835202685 960.7163837022458 0.05712522631339625
38.191506701116964 0.15345050962639104 960.7117579043306 0.015100975069380664
38.04549770748464 0.2250916024681001 960.7059168740691 0.014312314752926813
38.039115513718336 0.21064293207359364 960.7224805220375 0.00829086706233739
37.99536085630809 0.16484933132759724 960.7116092967234 0.038063299907119104
38.096496647214074 0.10978044807288498 960.7660383500973 0.18374622134852664
38.079759275708895 0.12114999763846956 960.7604630498956 0.196245855178295
38.08619571249436 0.30621196426933756 960.8091371227234 0.10915977679611572
38.09017513126471 0.2804428605998681 960.8006910834297 0.14310969941591528
38.09566226071725 0.28549771638821714 960.8200468247995 0.09821728845526465
38.104040535503096 0.404805900853589 960.830149374818 0.12767258619218733
38.094596676422995 0.1852778386359598 960.8356940908874 0.10164335889478038
38.08720015643849 0.263556065357383 960.8346214032213 0.11770598142595859
38.088862299801555 0.3405330686540333 960.8362209383138 0.09908286981731339
38.08965043922724 0.23095570693728942 960.8456690124526 0.14421172979859795
38.093205912473564 0.1858543204195164 960.8370768866922 0.09976413196944933
38.08372422543889 0.4021427411763354 960.8396217863633 0.10158377376876293
38.07071956218143 0.3445128977860125 960.8448122655826 0.14476596667314937
38.08537162968999 0.21381227077481246 960.8372896381552 0.11504389800374869
38.07799495833866 0.200336239653391 960.8316657468725 0.13669527696041106
38.0763321972836 0.35138278064238665 960.8338662736141 0.10946847456106192
38.073883870585824 0.2223848209656417 960.8329367668903 0.13420151977796502
38.075812016437354 0.2776870369796643 960.8243299472553 0.09656052850658758
38.061765036600136 0.18285497680205026 960.8308080422627 0.09990126077871647
38.07849105228006 0.2930051383787861 960.8300262256173 0.09485956816659201
38.07122787173847 0.2195654752247052 960.8169750963099 0.13696211655396842
38.087660293645364 0.3219155444130327 960.814075509134 0.07779270947471408
38.091882210046464 0.18838080872908056 960.8115306140115 0.09296976082383716
38.102333672590795 0.4263621585738482 960.8264393438276 0.18930107266314647
38.085273672987896 0.3025163180848346 960.8401803917875 0.08760985962527156
38.08489022144724 0.25304023734255027 960.8429491198864 0.13611472179938008
38.083018255085115 0.38189113675476505 960.8306359669156 0.14364021375715902
38.07908961056413 0.4497770754808975 960.8377784536818 0.15724725062814954
38.07967309087591 0.4091662404806389 960.8353841043504 0.15150043549273454
38.0769869301031 0.32074836267225293 960.8398635708721 0.09829662343616255
38.06913628278787 0.4276569584340949 960.838484082096 0.1570984938377178
38.074701300241365 0.36567180167695673 960.8214635911003 0.12404197199261413
38.07895533165295 0.37164047955639906 960.8093044687954 0.14384002311945457
38.0830401247203 0.45694642238676614 960.8106837831016 0.15115262523828563
38.08849374347384 0.2938123342258178 960.8173326093068 0.09770576704904488
38.08546140093036 0.28666796135732703 960.8117436295115 0.10584347071371907
38.09474619186502 0.42346849152343075 960.8066305532359 0.12097634358838544
38.09126016258282 0.44351198453955476 960.8173452074436 0.16408180329194264
38.07816823423992 0.38175037855382443 960.8046978895892 0.13902559347996815
38.08415957174537 0.25190739490055675 960.8183977535496 0.13000612905785372
38.09556966891031 0.34906135321857024 960.8113231253102 0.09712106204006866
38.09951699600126 0.4111481369728525 960.8211256383107 0.15649671845245863
38.0960954951231 0.38347088797384 960.8138084191966 0.1449486754973114
38.09615929465038 0.442536535076201 960.8315719722483 0.14861626039951648
38.09347932170691 0.45248150987538954 960.8220787570143 0.19355257770417456
38.076590027181474 0.36313522034611306 960.8297070049096 0.11582456169290672
38.07560575304936 0.47617063171595325 960.8168133249796 0.14196371321392218
38.07049965756554 0.48820349212632524 960.821173110201 0.17412752438119494
38.085074603550574 0.4946091597778147 960.8341038466365 0.15460886741603638
38.08096661292812 0.4953062219529257 960.807909294289 0.12471746204738093
38.10098042256616 0.4988697016188369 960.8186853581235 0.1755614009093946
38.09501173293181 0.5176522082110205 960.8118763779644 0.11135194119667076
38.07954723353483 0.508923898513343 960.827780428695 0.13458534202053274
38.07185576687115 0.4999609729480261 960.8257460183091 0.15223423619491758
38.068546244314355 0.5054793306057451 960.8152579201661 0.13578164162248363
38.10200921959447 0.505760238846314 960.8132377699014 0.14358886759770284
38.099913255729476 0.5286872468075279 960.7951414841493 0.14526021919045906
38.08809598925162 0.5291323914258576 960.825457470632 0.08523091238660427
38.08680025202227 0.5051721479553225 960.7943953380599 0.17510584945765167
38.098286308040294 0.5345714020135629 960.7903795237305 0.15222044403157017
38.07780042299536 0.5157249402778784 960.7836811132287 0.1400053289189844
38.10615089897691 0.527757815657655 960.7883151882631 0.1365421372242925
38.07072595885512 0.5170453118484883 960.7901384414587 0.10404966145087018
38.09046859977462 0.49388913763102743 960.8342864257218 0.15300364698689484
38.09213309041336 0.1399069375726148 960.7820026271256 0.10457230630128365
38.096932336407576 0.12188929888201369 960.8162264535804 0.16947645009777457
38.09109738871034 0.13612364264410867 960.806396606961 0.13707179449442733
38.07270262133406 0.12979459482928676 960.8104395353779 0.13587195294339605
38.077527596912795 0.1390716879970896 960.8062842343863 0.12692705925451478
38.087350165895664 0.12492086885179876 960.8200822913684 0.13796352796130082
38.07482812814554 0.1365238952885835 960.817125682317 0.11537727286500997
38.097929113646714 0.15358669294686123 960.8124379197031 0.08410207892346647
38.09234204039112 0.15522329027421222 960.826725775439 0.07412360179207161
38.078744862388334 0.1653609654130705 960.8090986029122 0.13348168402589658
38.085697639943454 0.13216101078230358 960.779178535733 0.1181974330598303
38.09479888198072 0.11837660977791344 960.7747419764929 0.18033541152820534
38.07903239492328 0.11953965369297126 960.767242912163 0.18977088322573682
38.099461273743856 0.5124474297291297 960.4053162614092 0.02470696943349859
38.11165860395552 0.5131391847451042 960.4092090319762 0.02192414559957361
38.08217017709061 0.5026812544120656 960.4004656757792 0.0867639055482423
38.0618704958421 0.5366703601030953 960.4024103661219 0.03586630119155384
38.0664075363195 0.5170453818669911 960.4016773999336 0.0683424791637503
38.07000407926524 0.5056150522337086 960.4153455664155 0.07682048363824827
38.070766948510695 0.5120187502494491 960.3947910122262 0.0790317364454837
38.07321351482528 0.5194437531373792 960.4168167197201 0.13209125532258836
38.087244060990294 0.5071982897426377 960.4157193355613 0.04182608078372354
38.08640865903067 0.5163772090182277 960.648879829955 0.14921480929662997
38.09132990410623 0.5105373259053863 960.4840244762037 0.12110031676059467
38.08022759589822 0.5155164405881354 960.5912938015879 0.0979294789431084
38.09093553799177 0.5136110390680713 960.7032980996852 0.14207560753485768
38.09312599713469 0.5206354796397604 960.6689844042555 0.15889763436519797
38.09061159911508 0.5144145096264385 960.516640197377 0.18210037622237854
38.10670342898028 0.5305166431299458 960.5464906496899 0.1602182000116708
38.086533980925445 0.5332766786535027 960.5756392783703 0.10248263318551717
38.086787711191825 0.5296186244145494 960.6169165113364 0.09663696466634182
38.10368559302292 0.5346516980523258 960.6693357167869 0.16068684983956874
38.10131307455563 0.52895638723633 960.6895052398388 0.13216725456163753
38.10097998468907 0.5263146916832969 960.6933188397052 0.11731091826300091
38.08883744402597 0.5417240346099496 960.726256426235 0.16411553075848426
38.0774261783936 0.5436851202836065 960.6024173948077 0.08081589992659097
38.07788054658148 0.5457648641485228 960.5552340744972 0.10561925904852644
38.07746469388699 0.532804335679553 960.6599834690711 0.15235572111902906
38.084645700675786 0.5462819921792608 960.725751769975 0.18691368661641147
38.08627197308058 0.5429827090341149 960.5362513022806 0.1500561063627266
38.0829881396846 0.5474774500209613 960.6839749781426 0.15479465698435557
38.07570265271056 0.5435292332453023 960.4802839960732 0.1817749845389241
38.077522197429694 0.544181408571009 960.4339315415713 0.15385692963881023
38.077192314592125 0.5437520151414023 960.5819166445381 0.08721556020965388
38.077081049917325 0.5477048967153444 960.6626074105603 0.17844613200238818
38.07839003107452 0.5382728393734723 960.5252235414713 0.1474019959659886
38.07392823548458 0.5285169544934128 960.5999563512116 0.09697889066098263
38.07174016963639 0.5230856665974831 960.6653598194251 0.14932810403476654
38.071420294080355 0.5161893457239229 960.7455131104616 0.14652272159472018
38.08089517907484 0.5228325743243937 960.7088467765426 0.1506328306663414
38.07383961570088 0.5224708572371461 960.6874394618874 0.14562285794346505
38.09053197471211 0.5089420457182315 960.6277698553235 0.11789129244898283
38.07837519995488 0.5140364047199169 960.4831573392198 0.09618559569903148
38.07499106817959 0.5253057536775733 960.5747370607198 0.09671136282163158
38.06885565422519 0.5206535316069473 960.4410088442029 0.15159674293834327
38.088189604626024 0.5432162719058312 960.6274050452176 0.1105096996099093
38.0889573362168 0.5429381060245209 960.5183134135226 0.19971339337729174
38.089239524527564 0.5458191582769948 960.4469027815554 0.16519421982134383
38.10129788770807 0.5277827365889084 960.7419996105182 0.21168482128439708
38.10017975958822 0.5140114192607801 960.626209093768 0.12409502808930951
38.099350895752394 0.5149504607108518 960.726395789824 0.14890600401454138
38.0964167755326 0.5367879728376789 960.7309634334049 0.15711539298688987
38.0932861916862 0.5232941060667727 960.6552886241604 0.12041570758398708
38.094073043594015 0.5280413555141568 960.7502531001734 0.15264903954064724
38.09615079127816 0.5336056367991597 960.5977449674951 0.09623412919094866
38.09722865648594 0.5447580185289392 960.6400180840569 0.10808646879850164
38.0950529094724 0.5402050825892338 960.5476317834543 0.16776964185115667
38.09050622697387 0.5271816855426935 960.5632524677417 0.1086923843990148
38.09109758818798 0.517188762214793 960.6895953712475 0.13266874943731907
38.09343736249976 0.5224705079202915 960.6431256964461 0.14662280161800761
38.08972869704741 0.5142710049972151 960.7457753428823 0.15810216786338846
38.08749449617279 0.5182359155380241 960.5586335367078 0.09554027682545242
38.09472448388523 0.5140930196785375 960.5399025987016 0.17867942096855333
38.09716193809141 0.5218691718888265 960.4319193104934 0.12256557204599704
38.09102986676393 0.5117111092846041 960.4454560091351 0.1406863209050307
38.07065399614496 0.5237095685412955 960.7562763556392 0.12392937388572182
38.07693929431127 0.5207839319977646 960.5001717436345 0.11208088872204122
38.07324237405281 0.5227232025442229 960.5952621427134 0.09402624708702342
38.06996507427141 0.531351587827007 960.7381633814734 0.15842813548670162
38.0758640002745 0.5218675687672075 960.5663808164409 0.10082311497780436
38.081642345377816 0.5130313851261453 960.65205550791 0.12531803700001606
38.082480884546115 0.5114027853687464 960.5114538268648 0.16459116199352145
38.086840116086854 0.5162173224857168 960.6850923179386 0.14623617677840064
38.085521479835194 0.5154098064846807 960.5428147956399 0.15284237702859585
38.08160561659345 0.5151289650423679 960.4706841718988 0.17536321083390577
38.08032662220214 0.5121466155699068 960.6164649287757 0.13207319604532824
38.07035640371807 0.5336829481106093 960.7228404572068 0.15215479895807418
38.07258512578239 0.5494393289946821 960.3585925337931 0.08794665913990117
38.05951373007324 0.5433383311150539 960.3776626765595 0.05675292870629744
38.06098514430928 0.533440625786078 960.3810805639756 0.07424522912436216
38.06192075135211 0.5284249360981708 960.3615830849698 0.05699404152024307
38.06267044180917 0.5037485438578198 960.3617064308951 0.054014313005504376
38.072800179374944 0.49693410609039823 960.3530713360788 0.08121784737884041
38.088438548920585 0.5005177155039913 960.3727186011686 0.03700348477264325
38.10736913547351 0.5030188619694779 960.3777116382155 0.01832791727632931
38.084100341696846 0.503495646258959 960.3564808865715 0.11402065565205098
38.083003716063196 0.5016908822285363 960.3891821427309 0.06869931762967543
38.05139590016399 0.5237239192937141 960.3764329445293 0.03143078093016233
38.07358711350119 0.5466123485297898 960.3530076790689 0.07979097349720667
38.09182200102724 0.5730922889772785 960.4016142061148 0.012892131530811951
38.072414433487985 0.5632788905555606 960.4089325507714 0.09127972866831889
38.05499937806484 0.5629494361773362 960.3880858984392 0.034872348278677516
38.056747674691884 0.5684287702980031 960.3599152214106 0.054402271030325286
38.0986854795195 0.5713551715892672 960.3608337831062 0.12400354189647858
38.112574069462006 0.5618697740834183 960.3570714573814 0.005615396247235102
38.08791115988151 0.5714563378368755 960.3515484128833 0.08294415020223524
38.1097551496801 0.5753447710783653 960.3785195145621 0.010163176884816499
38.06535006875428 0.5799574981755308 960.3559696301885 0.0705196132820631
38.066551726428116 0.574382169294884 960.3897907937154 0.086267892044117
38.1137276165075 0.5651460228582069 960.3677150145465 0.005644947167361395
38.09327360427985 0.5779623763842426 960.3798946519091 0.056380414557917265
38.07522763994879 0.5695933632596567 960.4045649757043 0.08829725375019387
38.072302962314204 0.5801469136649973 960.3916477488877 0.04269296395665372
38.066342942367704 0.5581941652293942 960.3734568657476 0.09897712406643304
38.0861727638168 0.5501326411325815 960.0567012763815 0.09757605198475264
38.08215077885363 0.5490028136796651 959.8069863835935 0.11452244973602806
38.09170595559743 0.55089884960388 959.9714771302015 0.1032856067657168
38.08523074311678 0.5479957943569514 960.1288278857718 0.15067469409589013
38.08724443967964 0.54949070480648 959.8594811343058 0.1548388625042301
38.08183627837587 0.5446681279315452 959.6023646801749 0.15391025321702098
38.07989225629713 0.5516395243665863 959.8856879238933 0.07494613909083221
38.08660223682089 0.548531268755159 959.8263621685354 0.12008225441287883
38.10214335685183 0.5232740290237042 959.6284418633504 0.15865434038841342
38.10806761927882 0.5249703086245582 959.683771362205 0.09709892239182695
38.103062868158766 0.5215268051734545 959.5649331597614 0.13715794746637577
38.10862783447155 0.5254248463665581 959.6532149318704 0.2094027583133594
38.10817202993593 0.5245793639945803 960.2131489042287 0.01605672940278893
38.09624804755853 0.5184613201747482 960.1563353639698 0.09220248884718175
38.10321360321353 0.5206744913247183 959.5401401409922 0.12328390280992334
38.10708583408554 0.5195272073851427 959.6075285527776 0.11962270706274396
38.10145191230691 0.5175557969304712 959.9268692174454 0.07218900631294263
38.10323304146137 0.5146655690250687 959.8652316722599 0.142354428362435
38.096417752346355 0.5211367325050719 959.7832275519023 0.09631692178044836
38.10396132940536 0.5089436158406142 959.9486235576452 0.11991824216959415
38.096391423217426 0.5149088852901705 959.6425478397233 0.17799951263285327
38.09972919347579 0.509648136401705 959.8383071284477 0.027603720247123174
38.09370278695767 0.515053654928996 960.025162833744 0.055189292612404926
38.09326220042817 0.5203322506125488 960.1864593581365 0.08810369774573037
38.09604938694683 0.5187312601491219 959.9665307017665 0.16230300785213625
38.094095590658384 0.5172221294860861 959.5276793683511 0.10881616531544548
38.09428065234844 0.5108822333313535 959.5568888209195 0.14054492918952613
38.09127871744769 0.5174910981011568 959.7746026636355 0.10760039893744544
38.10120910003714 0.5172407251628811 959.8881078817943 0.09975348810022235
38.093497076997934 0.5149159630677564 959.9409902338715 0.09783310507747284
38.0968870430989 0.519283227773085 959.7400827106079 0.1387831605056188
38.10505186633658 0.504206066957682 960.0452686168384 0.007896720240144654
38.09023184693448 0.5112120237823723 960.109335137665 0.10829397631016416
38.082727860197394 0.5123569777078602 960.1865289689698 0.0878583555972227
38.08294596958709 0.5152725948306848 960.157903406966 0.07758072139757896
38.09233069913842 0.5156973227512172 959.5705168766686 0.17331660348571695
38.08429662824564 0.5134966858049568 959.8813764300784 0.16117477030227365
38.079444621133895 0.5118992741527665 959.9593061019021 0.0856887193468763
38.087064427919486 0.5102461503931263 959.9797292638256 0.09331538950365653
38.083570382124975 0.5076082975808798 959.5421223478039 0.15166968070944886
38.0785329417554 0.5118474403969573 959.7097635232917 0.11721559921019593
38.082347393934946 0.5075003385801343 959.8524906768502 0.0604491107031925
38.087783615372224 0.5159293200892027 959.7617658935598 0.14291631729437546
38.08225333172612 0.5141500268965209 959.6565741446205 0.13613236213086402
38.08004183794699 0.5099389886683496 959.9502255544759 0.0757477897293766
38.07628809731393 0.5145390732018194 959.8766321819805 0.13797499825746165
38.077717472392735 0.519276308547246 960.1713125265162 0.1044069544236537
38.07130109684046 0.5259757665093231 960.0859488341351 0.09412261574051048
38.07100363962181 0.51198168350083 960.013588285391 0.04994354290433571
38.0682821493036 0.5285424180943725 960.0771172212222 0.11950964407189187
38.07370786538241 0.5212219602684602 959.7553542784146 0.1079243730298928
38.070995503886024 0.5139107641957776 959.6706022377783 0.07935070424446676
38.0782578319379 0.5195056321499335 959.591587402594 0.10824535326826923
38.07752009328625 0.516681178193344 959.6273895639582 0.13171690265004352
38.07077446001905 0.5100511971128241 959.9120659905177 0.044207429267646495
38.08159548016006 0.5167182032952546 959.5556903557045 0.1631847663931249
38.07015516256092 0.5183122235502863 959.5352715124994 0.19090219895784555
38.07228264890067 0.5157906528015955 959.7184617796257 0.1175360044105306
38.07253666902894 0.5263831681372199 960.1704215551534 0.1070798506369918
38.07958524308736 0.5117540326908744 960.0998858951758 0.055949438998861435
38.064591131322906 0.5156665438474765 960.134705134891 0.08676011185836602
38.071223304309285 0.5159571358286904 959.8430699300733 0.0873325632731256
38.07845606981326 0.5147552326022939 960.0473020116298 0.10549052659276992
38.06855926889551 0.5186983570833107 959.9389408745311 0.09364637812688847
38.074926548718544 0.5165013206074729 960.1986820470905 0.07831914068947105
38.073067520852845 0.5166809882428152 959.8880176688006 0.1542109146703136
38.071405330676804 0.5225894049891903 959.8187808175929 0.13809965272813454
38.06133002083727 0.5254207148106166 959.9670823083011 0.17392631154955265
38.06271780635081 0.524344544452488 960.064941990745 0.13141052456417127
38.06918284536611 0.535133687391146 959.7778417650076 0.11620759891541596
38.06636576808937 0.5263050226149188 959.6741777386161 0.048205183443737636
38.0663616063893 0.5204674912353551 959.6327723983036 0.17795129061850645
38.07029697163428 0.5320044576779224 959.5458619394985 0.1915084875742708
38.07278630611386 0.5374557445792013 959.88024311063 0.16634684379521283
38.058937692333664 0.5209163752154864 959.9267171532716 0.07904485629284995
38.069621712091035 0.5259155588210087 959.7013729312157 0.16757725162106926
38.06796364994028 0.5267715917553467 959.7064288093876 0.13888613191439406
38.062001332148895 0.5308934235622014 960.1186610049115 0.10949983446729326
38.074982466657964 0.532465520685997 959.6067279500242 0.1661828696786726
38.07309474450256 0.5276405007632651 959.764108734826 0.11805029693316889
38.06904475973248 0.5360282511671237 959.6599171100041 0.11575956724199674
38.06801214059804 0.5249736194007363 959.5636457300526 0.14975445796620424
38.07349790414289 0.5295513255867418 960.1732119619146 0.09654325271367914
38.06904943773547 0.5343530791751131 960.0712572895727 0.12948124267859848
38.07168091371313 0.5367917741506909 959.9773541746968 0.16025529773963545
38.07121170956262 0.5453777516319135 959.7776647404366 0.12200134031371845
38.06928498219706 0.5337267112924429 959.9047207806274 0.15415152712696023
38.06514189269785 0.535151881424218 959.5343375303864 0.1616738455703302
38.08035627154878 0.5441723021740384 959.6613171780823 0.2408124242697634
38.07483386030793 0.5408647836654423 959.7518877313204 0.09431913867131772
38.07182229821944 0.5428090502692475 959.8504756855207 0.06446197939208777
38.068381021589296 0.5448602087556383 959.7368704545521 0.09861506920312957
38.07550516162669 0.5413347961507533 960.058970382985 0.12335217791694807
38.07628237186703 0.5406426204356478 959.7064556059873 0.16393854289144108
38.07472289250852 0.5425083641429557 959.6752267029195 0.17540126792862204
38.07423811782224 0.537509571028098 959.6375878984245 0.15503713585565573
38.078853446607376 0.5431382462226607 959.9741877492509 0.17858295200050406
38.068521891030976 0.5472292805977691 960.0847148225749 0.10798845885379334
38.07836499972096 0.5531827243522361 960.0316868801726 0.04149231919039292
38.135471533629484 0.5150147962800187 960.2904489062805 0.09410072891637591
38.15269489045987 0.5434282202602106 960.3679972176596 0.10138166432109859
38.142930140080104 0.53939231362426 960.3108725478322 0.1471094055623429
38.143559343906496 0.5278547418509629 960.3175338763467 0.18864019465542464
38.16002580742746 0.5323372108005845 960.3538114683489 0.10931115698310438
38.1522394562195 0.5386606071598008 960.3806699069205 0.0998975067130471
38.14571949279621 0.5394212379695384 960.4130804001303 0.10650992611674902
38.15233153388419 0.5182045594800426 960.3732030109312 0.03799165876585482
38.14095628284155 0.5243792556413777 960.436611053337 0.10348536628231313
38.14781865037206 0.5195235360109942 960.494916319946 0.14046583503126422
38.14812550206348 0.5366509443092425 960.4576815615688 0.13379176854522845
38.15051820357612 0.5250380963922596 960.3555965121034 0.13481141819194273
38.1512902537145 0.5232067714863295 960.2967973178096 0.09706380073573997
38.13986565163934 0.5129216714897099 960.4180407962197 0.0947198542076069
38.14216530917733 0.5131679120888751 960.3268294759722 0.13258668203905535
38.125978208817735 0.5479730834214014 960.3113795475464 0.1278567166507404
38.142831047115 0.546906304947982 960.5090513278258 0.1946861186993736
38.136043412953654 0.553140493366908 960.4013909506749 0.017097272895059395
38.12851979378424 0.545298550458019 960.3427623230486 0.18833812878977985
38.133930244395835 0.5429009876025421 960.3149326110463 0.19405972271172314
38.144380529337475 0.5109107021959683 960.3853055264224 0.04419472920310706
38.15223624803432 0.5220276778503505 960.3053649680861 0.11565899608720058
38.155278126157306 0.5252848366431517 960.4623925870465 0.11886319770064814
38.14561874208692 0.5280273123179725 960.3268885082651 0.181479268861581
38.14499123580415 0.5393788486988285 960.4637804905711 0.12189478199220904
38.14472188668248 0.5415652528000137 960.4948653984762 0.13714359945449037
38.145232707020256 0.5344053019499234 960.4539685650182 0.1632407664590605
38.15241723285279 0.54272430996565 960.5154113193374 0.11807698031883841
38.14879825900235 0.5254219677110681 960.4028536164572 0.09896275845719078
38.14969806832636 0.5227516284982281 960.5049265112112 0.14235230250527853
38.15490671375524 0.5195823605204739 960.5204503099699 0.10349937728890318
38.15211781853977 0.5274458220859909 960.3996408238297 0.057070714485504846
38.142432892808905 0.5172871704907299 960.4804466082181 0.13872139927776128
38.140798194436535 0.5180865954663497 960.4036726947273 0.1143260056017572
38.14521600451303 0.5056841339665371 960.4424509530778 0.06749109518766476
38.14388502216842 0.5125261876171723 960.4845990034727 0.1413417183734283
38.13967641783332 0.5200026939710445 960.3508030033165 0.13599862117569508
38.135198228282924 0.5147505859564744 960.4569605816088 0.16494049364587196
38.121212725295315 0.5184986060335643 960.4276192866115 0.08109682490035508
38.125126600706686 0.5204668497150047 960.4877384173127 0.16954266645764607
38.11954993119121 0.5211967058283622 960.5095000064942 0.1463267621972015
38.12025358038493 0.5205333270672545 960.3367680873796 0.18277866230685264
38.1189087451842 0.5205762336503226 960.4496877420671 0.1534893641335086
38.12300005577381 0.5173471306242731 960.5292263402217 0.07261801783969549
38.13187673641472 0.5331670076560251 960.53117610312 0.1585182148099357
38.14713606854259 0.5626477951816574 960.2561583743372 0.019761119670671876
38.15750496696563 0.555578806377138 960.2490219456545 0.034272101368853176
38.15787105104678 0.550563902003988 960.2719367837931 0.010832995046354738
38.10250949116889 0.507879064497818 960.2740604239917 0.020911702228179174
38.16344581598343 0.5101427099099481 960.263836558088 0.1147914974557285
38.13846498006099 0.5027888301018812 960.2697263932912 0.03763496747804917
38.13558178765442 0.5115257324821881 960.2363457730445 0.05774437592312082
38.10790913501584 0.5134157650345623 960.2398893489643 0.01676887457834378
38.155287502198355 0.5078138577551735 960.2470682210363 0.09832174116467769
38.11855570240926 0.5158465941209912 960.2914922336032 0.07532297758890051
38.16247752796372 0.5111856552834639 960.2497892052827 0.08440831112615418
38.1622774375355 0.5201258951301913 960.2673550100754 0.08668496987580102
38.16104886606724 0.5286863686193709 960.2474739791902 0.08216654966861033
38.155745942986776 0.5096892014444389 960.2806748957861 0.11067615063220897
38.15605319733362 0.5229101557029319 960.2769628101314 0.086463375650204
38.16860826411449 0.533754416052765 960.2394212145625 0.057942326268968794
38.15852553135069 0.5463126766078412 960.2661893270872 0.014278229779050026
38.157431114552715 0.5468083633672671 960.2499064558901 0.043946821232419955
38.07697707350624 0.5105996841850733 960.2584801669548 0.014523570006254531
38.044751657203676 0.5106191875145877 960.2579421541554 0.08367657524483642
38.14905900369482 0.4979342736792301 960.2646690133428 0.06353109769918718
38.11537167359613 0.5037893434974275 960.2602984868143 0.019471524967415024
38.064479725104306 0.5017033084960459 960.2652264706222 0.024552483684231727
38.04038508294426 0.5096574853056298 960.2663002628378 0.087373221823274
38.09110984876313 0.5094810781888484 960.2541006729218 0.01642925363822926
38.12234231135846 0.505070106380795 960.2533377508718 0.028723660247449424
38.075160266365884 0.5121468310238583 960.2454581292837 0.013014169453887248
38.04263226383153 0.5437093392673562 960.2354573274297 0.06483826697703683
38.024909195087766 0.5473764415646917 960.2569721507474 0.12054727389102435
38.05429054644083 0.5501063935465035 960.2852805775747 0.06863978087222365
38.03492594009127 0.5188237014961651 960.2837745552413 0.11759707709314204
38.038434361597076 0.5269430520913401 960.2853784053889 0.09616118699973611
38.062538146667634 0.5162324652685555 960.282722975778 0.12006758915257401
38.08465424867246 0.5069153784028971 960.2767461277119 0.02357951700202235
38.12660678587723 0.5083046395780505 960.2676855802592 0.04020060963586926
38.10696165854156 0.5137112217068028 960.2822285243446 0.013746386688266046
38.03031118859333 0.5252110617393521 960.2396782718969 0.07126617605658461
38.062994616316786 0.5149061488038374 960.2492560410086 0.06430326894703979
38.04464148379879 0.513086683878594 960.2457834457083 0.10233546542324587
38.03052022554009 0.5477166417464331 960.2520935503927 0.15528343793388275
38.03072618553603 0.5231237676821705 960.2560034265368 0.1035629849645565
38.026592346699694 0.5019071351985053 960.2588918077412 0.04129991974112242
38.026226679483834 0.517839453750787 960.2848608016287 0.08424584397335223
38.021304896136456 0.5319043102150611 960.2766328372857 0.1539226677003817
38.01363882187349 0.5378681266911797 960.2600639483595 0.07678550730992421
38.01974179607957 0.544703530021033 960.2726962630117 0.1369914757362334
38.02468861383115 0.5302880497313581 960.2805357998141 0.16239670350992952
38.099603842091355 0.5186658288605898 960.3000355369174 0.04082654248420297
38.10548697173287 0.5172059553751132 960.3226625766109 0.14083289702063173
38.08457565696608 0.5119943192331804 960.3132557453462 0.0727983415902942
38.08325556477411 0.5078707726836408 960.2833248713478 0.02394621472284597
38.09172880178462 0.509698335521456 960.3387983045202 0.12850490310555227
38.08676229691445 0.5110084083750376 960.3093959089156 0.06591778710397053
38.069671689555115 0.524603310647447 960.3238970194316 0.08967048807052237
38.06641623800824 0.5200569191414289 960.2989422696126 0.10801978904596564
38.068608169970275 0.5344604535538917 960.3468486574584 0.068362393720061
38.06866549911663 0.534170107354099 960.3099111125578 0.11729956235963698
38.07090037551111 0.5461188561848218 960.2952172792866 0.1653463052472036
38.091275317188895 0.5131726119073129 960.296558281979 0.09719427392640675
38.02099858048931 0.4783072033733106 959.4956173597647 0.015194070074123043
37.97640965257629 0.48826564388547056 959.4998169460131 0.0342109441321492
38.18733920803866 0.48741125381503514 959.4949809697354 0.06768009256820662
38.07402836574986 0.4860426089083514 959.5024052817398 0.013329447616278623
38.1043275156112 0.48185810271933815 959.4837704616854 0.0522804317954052
38.06547668469801 0.48404226690893765 959.4934901109742 0.07121295983335399
38.04073617692092 0.4805853012312199 959.4835487486604 0.04281950240298446
37.99642657756186 0.47995388288047225 959.4819278421196 0.10664023011129314
38.00874862845721 0.48218211839141367 959.4936031205602 0.025947218491289774
38.15978515965717 0.48502915255325196 959.4982274699672 0.07823654022223865
38.08128136472284 0.48269941796618926 959.4925660917124 0.06209219991659711
38.06005351246945 0.47858438925626834 959.4796451521815 0.09017957054442592
38.12702262190927 0.47784986259443596 959.4716203027638 0.09060423531119909
37.98394469393532 0.47738062638091705 959.4770357614748 0.08266916262076543
38.13511719382428 0.47065287650821636 959.4934386421475 0.03935423365577104
38.09220377581408 0.47086381426053747 959.4785825306905 0.012619909615827752
38.154952135735776 0.46940760535510195 959.4926471728478 0.041439497107415374
38.132030730303725 0.48080568170335 959.4700198895995 0.07459440594341853
38.01962735441307 0.4605208354728349 959.4744669001058 0.005123466490235549
38.054833394470606 0.47888548147519777 959.4670112170623 0.04125226399237255
38.189645520589536 0.47331457695097395 959.4817452155816 0.07952795382545712
38.1123311894944 0.4771798858407986 959.4661151696222 0.049814701869052194
38.07319165909171 0.4776357983968669 959.4802977025488 0.06333112604157495
38.08253531192221 0.4848334857294851 959.4585339557248 0.03199341381592757
38.17929331437212 0.4766718769806831 959.4669661339129 0.07716402985028843
38.16727297291594 0.47921555549921746 959.4694235823647 0.0557266496901176
38.140961324656054 0.4849605733991831 959.4529730122787 0.002696292296759909
38.102662555540554 0.4791361787670498 959.4649903345736 0.03909215572415275
38.06545163239177 0.4885675396717716 959.4531122734452 0.0035177016399673255
38.15721638834999 0.4867307576240525 959.4538303994057 0.003673990639473353
38.171875319784384 0.48843681021900504 959.4495876059216 0.004091247412653645
38.17228630108947 0.4919744229747259 959.5024345755943 0.07074201720023032
38.139512467475015 0.4938155289354556 959.4999505392522 0.05961956577646061
38.123277587464045 0.4972942893710305 959.5035855764032 0.0683842359499794
38.09662531539885 0.48955330653420315 959.4998533318719 0.017922147203128274
38.05405400062155 0.5043285999796853 959.5021771555027 0.009300451669344777
37.99401013926846 0.4986774361698946 959.5056563008226 0.034693451896935686
37.97671014970483 0.5605717939308662 959.4366677080076 0.0005997547332448828
38.13899297577929 0.530984778685018 959.5104127610002 0.008766726017107448
38.04329845861067 0.5438473496567412 959.5087508363313 1.8323228354906103e-07
38.14604884686297 0.5201233044941198 959.5056704045992 0.004271054340122508
38.165681799949155 0.5110474300341183 959.5084200116012 0.004543950860560569
37.97599354336994 0.5047511123889475 959.5063093982078 0.018466925596770163
38.002519851219006 0.5546004032624262 959.509472496283 0.041358531510939336
37.98804027438738 0.5362939581441865 959.5110073867056 0.033514033550474026
38.026011648071986 0.5092088326267497 959.5036764791699 0.015414923823497228
38.1552264088699 0.5167861263359008 959.5055159106802 0.004647970623021718
38.01505047208348 0.49807959840402555 959.5017611461055 0.01685606410893247
38.024126937428555 0.5398843431025818 959.5064178902268 0.0026405664998275812
37.98087694213676 0.5510921398197461 959.4943551056477 0.026719841080526188
38.06843935658173 0.524513315528359 959.3990693475816 -1.5635941964178173e-09
38.08347492993574 0.5110491420575506 959.356553353842 0.0029951898155941184
38.086345194710226 0.5232532879328748 959.325737942742 0.055977475360690185
38.076817615368064 0.5225947225386202 959.3887609714366 0.0025137753059209394
38.07534841005873 0.5196554197837809 959.3226822632467 0.048409216663981576
38.071649456957424 0.5228793778426278 959.3564815088628 0.02081317237389361
38.092496537440454 0.5295988430093754 959.3025270155894 0.0800742420944405
38.067882239708034 0.522199154348294 959.2999949343224 0.047993287499694615
38.073997397504186 0.5191089945455845 959.2940673303564 0.036128578008590734
38.08344365626677 0.5189097384943537 959.2913727318396 0.05592651944901898
38.061694252835025 0.5139999684895726 959.2719311596835 0.07654577905178979
38.06495095857592 0.518625755706919 959.2655853672642 0.07897535584171081
38.09803686800548 0.5170499370480216 959.2585762146763 0.05156890222643572
38.082158808269725 0.5216975797843006 959.2415004870875 0.035393591602364646
38.06958376040466 0.5159945130478103 959.2558404801238 0.06191858005533127
38.085581958380416 0.5348915115095 959.2292109713992 0.02652176173145918
38.0968391549023 0.5246747421724545 959.2206696680012 0.0569389465704109
38.12385775631 0.5317779877417598 959.2172181798214 0.042643489447487117
38.10762510178989 0.5239708051988818 959.2269653039773 0.04550795229148986
38.10175460441017 0.5221549625359743 959.2137561483976 0.06755658797339327
38.110728430292994 0.5170470328554986 959.2167508545195 0.04534027738652037
38.13463399622619 0.5221088394317369 959.2054111674191 0.03816642767325239
38.13352144650604 0.523185502290407 959.1804667999744 0.05138321587086421
38.13088242223699 0.5160756043286046 959.1858376411642 0.06375395632258336
38.151327165927746 0.5320479229875447 959.2073842659355 0.038956006783989965
38.153103703614356 0.5217677823766758 959.178333984588 0.028530957844597454
38.144629717899974 0.514526754740659 959.1883851460145 0.03679484366059464
38.17229248750768 0.5205665153990835 959.2019347393638 0.02084120169155327
38.18874785502379 0.5254303799789447 959.1771989698376 0.02280657235397912
38.20246623061295 0.5410092921551802 959.1821076012504 0.01035178711625167
38.18837557471233 0.5234165939042997 959.1873383131077 0.025746779787215082
38.2267239945622 0.5452999819594737 959.2007207723009 0.03416120284041375
38.19653385188936 0.5272941547738633 959.2042018480181 0.02201380055502945
38.214789162043694 0.532355988947021 959.2379339538943 0.023368919168432912
38.21492709416694 0.5275643460065538 959.2186882185348 0.04222881174397783
38.22791654662913 0.5328082375441439 959.212658740658 0.031639091701979975
38.23656878954035 0.5456014191719903 959.2320307126072 0.05160299658047425
38.23259114675132 0.5296469941934246 959.2465101164881 0.04051825976760594
38.247694831161176 0.5349833333223317 959.2771601174704 0.046769673323842686
38.22580051459633 0.5338920422952455 959.2683358278377 0.04682666105370724
38.24747699646829 0.5324531678452468 959.2919727377855 0.07288309346457675
38.24811169719136 0.5410953234442833 959.3012017995464 0.0655033749345417
38.23354828288754 0.5230913923619834 959.286861527546 0.07089651018643432
38.22900624712553 0.5276912368899042 959.3089856934357 0.06100104105000814
38.235601511710925 0.5259172282929486 959.3054087467259 0.0993110268647988
38.23726824790121 0.5603651415424242 959.322399469979 0.0907958380295757
38.25135019487417 0.5406856253262141 959.346277958232 0.10001893976410436
38.249004595659365 0.522546827334532 959.3474019800148 0.06889537654380319
38.245274424399184 0.5294053432129278 959.3312332631887 0.12353014878058467
38.248294669994344 0.5368297941361763 959.3542146097047 0.09181078837542934
38.246050069940715 0.5423486973440445 959.4046618210087 0.011078479198852484
38.242250192670205 0.5510543491444199 959.3822213988444 0.019085308973337246
38.23066716627407 0.5300360977780797 959.4026079215131 0.03268132878651401
38.23381975083327 0.5449144628079137 959.4373990739284 0.06058190343236295
38.19591680737986 0.5316308430175132 959.568878000585 0.059022298341380126
38.195141562788706 0.5286867704860254 959.5530134078582 0.022277903962309328
38.22273485584856 0.5383184808276543 959.5005356527264 0.044557065328445285
38.202310215382745 0.5264533021815433 959.5279252020316 0.040127031860697444
38.1822029224192 0.5504832333752673 959.5925619631724 0.04845171824293712
38.21017626177687 0.5484537791884599 959.5325018590773 0.036988382497988
38.2065104938562 0.5549337293504004 959.5395526902274 0.02549646935995975
38.1998993185907 0.528571047977426 959.5546493872234 0.021869398593162295
38.19415399582101 0.5334045138030054 959.6161083731345 0.05847845510533606
