x y z curv
0.08134207994686361 0.486106660051422 707.1430309389852 0.01579980662598049
0.07222160238971438 0.46990573295934407 707.1698430536169 0.07637802305666622
0.08092148652331548 0.4651743712296634 707.1569912441614 0.07679076001452619
0.09000997419007296 0.47663205768992667 707.1423925762982 0.0650127333843939
0.07220416919804704 0.48384172307111434 707.135574786849 0.006952329800108793
0.1201000011675277 0.43559296332362984 706.714217236385 0.1350245469067908
0.12159278470200557 0.43816310110969403 707.3092872182698 0.0773703873117674
0.11933970467169144 0.4333881954648529 707.0794081122024 0.12857538368408344
0.1202057926361562 0.4416709056497462 707.4126618758048 0.042320438477582455
0.12284742486485402 0.4307152796721643 707.0458415686752 0.11201269222875176
0.13320851930040228 0.4379848181906654 706.6687630548158 0.1957711756339468
0.12444385028629765 0.43870820880199235 706.8334510232564 0.18585024140867362
0.12100370036588633 0.43764417868041194 706.9487497436763 0.11854484430392126
0.11156833714034668 0.44264825196473595 706.7188375225228 0.1462117582267962
0.11697624435508497 0.4328376925534238 706.8992331978892 0.14996198352134388
0.10946470516064921 0.4419781823704189 707.121306737263 0.11418211406526672
0.1200565208741067 0.43748989795509946 707.3806722595006 0.1068534128657351
0.11797525379132182 0.44115880302337 707.0589227515962 0.07383876794214433
0.11389780664972475 0.4447562959488908 706.7509805773395 0.14568098287319814
0.10964072830830023 0.4389532638120695 707.008148830937 0.15355423486363487
0.1084247111778008 0.44735860592722376 706.7402312784031 0.14609880021495558
0.12613547410214293 0.44511856552394774 706.9832300064628 0.11015581971266082
0.12136683081351633 0.4380437702230101 707.0267798445544 0.2020232625164702
0.1192171303567328 0.43814194290044056 706.9155057326467 0.13271528085891543
0.11391785010606403 0.4402441717345637 707.1719092105681 0.24120616364967395
0.1285738585357084 0.4428903981831129 706.755341114312 0.16114911000766452
0.11445169766246967 0.4381709218823867 706.7750555568512 0.15696895913453188
0.11555308079565187 0.4471030387804915 706.6835655229185 0.14395905682138313
0.11003632875999605 0.4420969734459813 706.9858377491682 0.07575881882760843
0.10020337376124733 0.455300566716568 706.8899836101814 0.13846510264600131
0.11746033181262451 0.4587539854079474 707.2736759538946 0.06963080792320168
0.11198022073899701 0.4353474978606858 706.8616620901481 0.11300478656453769
0.1118555935995531 0.4477867381307619 706.7859342047169 0.09836558800592242
0.1074907122287217 0.4587910469323125 706.9725970345681 0.11975706795951653
0.10989729486951774 0.4568479742864773 706.7680665784783 0.1252271073279354
0.11405922125357013 0.4513510700459772 707.0789920436206 0.07596714238326915
0.11590605101038297 0.45886694285251944 707.3044120741843 0.0772323307685719
0.11512312129299566 0.45857893345310474 707.2532059251854 0.06283336021142906
0.10608787466618799 0.45307065194033913 707.2824661690502 0.1302667260256676
0.11297727133059624 0.46694024680609814 707.1855578240893 0.1574004911142797
0.11282386489617131 0.4561810453804949 706.8378562822846 0.15736024747993452
0.11502490932553956 0.46117539724191164 707.1416826079804 0.1310921563366588
0.11995027069056348 0.46127510656908455 706.7321337399495 0.14174369290349326
0.10841676580302291 0.4552271071187402 706.9370463174945 0.1203656947420489
0.11864233176533635 0.47348750455257016 706.7727283670175 0.10221198302430369
0.11114880650716451 0.46806432527916214 706.9657257181385 0.14001021762058943
0.12698772400838912 0.45752545834623376 707.0704261972267 0.10338829380892292
0.12757115057596913 0.47052039434420634 706.8017077765724 0.15200111129624133
0.10774323334327619 0.4629009609507126 706.90160274133 0.13119451900347942
0.12111370868078876 0.46224471608742757 706.6942118557191 0.13178767378880635
0.10966209631491108 0.46035678585102696 707.0120786287907 0.09076203033385638
0.10787091031522748 0.4617435803412253 707.2224030407833 0.062386329522754615
0.11427018209677914 0.4554418218878498 706.9214419184075 0.1336089707251841
0.09888691078704367 0.45455830631708327 707.1230964408823 0.09187874943953164
0.11932329538748426 0.45626068312212315 707.0955115909393 0.1409271345934303
0.10584364176952958 0.4510282927606827 707.299141060129 0.15180223655932734
0.11285322319387185 0.4627102198189024 707.371879973001 0.08613328977841454
0.10957892424379814 0.4590126511510099 707.3361467148366 0.1151228170708032
0.11558994870162939 0.45998117481239886 707.0184904976945 0.14582759674819654
0.11693190129209709 0.46431519239866753 706.6626997573045 0.18897103236307078
0.10594813870943853 0.4621667528745503 707.155259234716 0.13641099627952305
0.11847246810969185 0.4607950920978701 707.0020341227925 0.16535824739599586
0.11464042585338474 0.45863089841886895 707.0442205356193 0.11830325790343904
0.10901658332293616 0.4529528869646272 706.9586386222154 0.1134641063890486
0.10377791484892658 0.44439369190390215 707.3585953574585 0.09212836738278923
0.11058463483690827 0.45093669862838026 707.0399939897009 0.1069230163065645
0.09972466612213116 0.44521835777301966 706.7058786379475 0.11571372930976961
0.11042061891848115 0.4511758497732404 706.6795141159796 0.18917419583997097
0.11370673802116435 0.4478018137312364 706.8252376773514 0.16415832463903898
0.12263539578718806 0.4669652771430794 707.383643174156 0.07967176935652161
0.11979079632876634 0.4623764893867878 707.2696150547649 0.06557497143420524
0.12180503993076794 0.45681608601539053 707.2194695332156 0.14453451411864363
0.12564819941404823 0.46234876931631597 707.162065245209 0.1520307798135697
0.12487500282362586 0.4613126292295031 707.0833631364271 0.11143410155195242
0.12496892389209763 0.4520391724760374 707.2996288785871 0.09446151998425927
0.1302206343399883 0.4582909006520226 706.8862009904122 0.17303648548184566
0.12912195585231193 0.4550892563724977 707.2387480783775 0.07906261312333246
0.11947963750839363 0.46214593527582587 706.9536429669565 0.1062463109604383
0.13063021188256851 0.46196055460208135 706.9299495674875 0.142378076829495
0.1260920339495915 0.45982363930095765 707.153691591605 0.0865083807193033
0.13726622029593147 0.45783214397353666 707.2733568043819 0.06037032173349138
0.12706977820139004 0.4652473091981073 707.3258552259606 0.08670184062397535
0.1266016757195341 0.4560510243385285 706.9719081922333 0.10969751028485751
0.14594950823215147 0.4520093971588726 707.0976636968263 0.09402129898471348
0.13614692223977787 0.46860174037892455 706.9543300858438 0.08266316226131001
0.122133535267938 0.4642472961952244 706.826379342193 0.20793440602489854
0.1211871238290294 0.45706541183399624 707.0679348161166 0.12199485672803152
0.13560860603546732 0.47128169104244866 706.7595125302671 0.15251129198451618
0.12985092598893716 0.46223197678199146 706.6772560059054 0.20365017149901207
0.13414701183964506 0.4613031758944875 706.8253349348275 0.1617671191889176
0.1271053594054759 0.4526980229703647 707.288972700579 0.10315001003911975
0.13595241256874213 0.45665717088212077 707.2417456713796 0.08072236173387308
0.1387982717952759 0.4537132677014508 706.8943368989242 0.13792222503101484
0.14017041052775028 0.4475244019387879 706.7397965636148 0.131509582516812
0.13755827444514412 0.44474737199794834 707.0470684989692 0.08224389921098876
0.13307480131228275 0.45783155380714746 707.1390249643524 0.1768594371193438
0.14083106758306072 0.46419992889380557 706.7283086735479 0.12869635227510703
0.13511961244128343 0.4577603308753399 706.8830650333917 0.20954769085737485
0.13404776398769502 0.44896654303746786 706.9505653091787 0.11438848085811452
0.13148141026831345 0.4615252750508852 706.6924000142112 0.15513429402052684
0.12366049643186108 0.45932183382473696 707.0473791551494 0.11544499380179964
0.14068148623560073 0.4527254359799091 707.3010994182313 0.07461473161339059
0.13588840731866947 0.45939182157670444 707.2261547207156 0.17521086208175743
0.13503355148083243 0.46077668309925535 706.7841538422981 0.16813138766474872
0.1345610887441086 0.4661384194635992 707.107273515425 0.08252220666867749
0.12918303958411864 0.45277156668578505 707.4124111609858 0.04148699479359687
0.13735935429340534 0.4579297198421427 707.4000327677079 0.07287713751201597
0.1389333775447922 0.4633234000965432 707.3619711810389 0.1105501308617218
0.1265963421691261 0.4579297691080016 707.2185588259255 0.14182624756602125
0.131993248241895 0.4598663081810671 707.3806127930172 0.09742734951864554
0.12632632843382777 0.4658967234576094 706.6643731434935 0.1951718018512556
0.14257308984232442 0.4699481287654892 707.0269722329509 0.14477719276464038
0.13576968912047083 0.45594452290990484 706.9938037183211 0.12769162997511543
0.1300663964422473 0.4555809846878907 706.932366007319 0.13272586892811178
0.14106822924871215 0.45197649498179465 707.1150276132145 0.09591810879392716
0.13565801703090002 0.4448539763719406 706.972622711007 0.1425871165244152
0.13877798800280336 0.4480976783861699 706.9653420156344 0.10463062834281636
0.1301949454914519 0.448901467351939 707.3520699265698 0.16809169628428522
0.13418755329712928 0.4462855739900766 707.392396534504 0.09238413012418364
0.13645996592423343 0.4428310032870836 707.3073346920294 0.0861393688570071
0.14174594665420426 0.4385519301056656 707.0014346376557 0.10073907842898391
0.13429202300326235 0.44263207888035977 706.9269564872451 0.10139263978451367
0.13998601819018075 0.44452103329641257 707.290811288846 0.10829719236198958
0.12907442667328997 0.44158296131992575 707.1367983583892 0.14034168819726697
0.14235332779173715 0.44831350429223915 706.8866764107901 0.09150224811972704
0.1328378885561522 0.4418191205788995 706.7182803057201 0.12124301271762813
0.1320226477855491 0.4429945959872447 706.7777986202339 0.17484108053960865
0.13346493973001636 0.4381922049132598 707.0939341431534 0.15450506958388238
0.12121078270224862 0.4418931906614076 706.8287561484409 0.1762056355247548
0.13208777602117905 0.4378786596348402 707.12744294469 0.14703242714858306
0.13195606472341886 0.43307536606820995 707.0827888034391 0.11062957569039371
0.1268513700182274 0.44149501478997905 707.3970163609929 0.08221555555240542
0.12270250064667401 0.43498599894390816 707.3464739012705 0.14421627355474634
0.12280673657995574 0.4398209561528358 707.1499846722465 0.14109930594315373
0.12758958924911262 0.4422824839077005 706.8756736924178 0.21728914470425534
0.125831897999626 0.4376491452553656 706.6956376482657 0.18638550869979031
0.13441180729683863 0.44621398650709193 706.8916184351986 0.15767806258284764
0.12586338660532134 0.4335390765521366 707.2626992779243 0.142963066919337
0.12349010415878922 0.4351795875333319 706.796690899151 0.1306100498567855
0.13253827146961378 0.4395513233200748 706.9627481184391 0.1169861585263978
0.1296259164456317 0.4395367574275419 707.3679827044343 0.14551240791389908
0.13361787888757645 0.4410038069938838 707.2380984033302 0.18805838197966357
0.12365014652271063 0.43385175729959924 706.9252048096988 0.12555425402753106
0.1263937123696632 0.44049473509287584 707.1416988005352 0.11461252277228653
0.14113227289473296 0.43833753509301765 707.1165003756187 0.10164089437902855
0.13034909214729962 0.4436115985687432 706.9807044553831 0.1372311282716644
0.13361642380382796 0.43917211654942206 707.1757165593236 0.26851179312133255
0.12173347984278152 0.438207490851827 707.0225084027502 0.14924849789626354
0.12842142475356352 0.4402152488872428 706.7480586148371 0.1387624841602052
0.14372012751985716 0.4403204983110079 706.7412890566968 0.10909221162996577
0.1352763288582479 0.43706454704608605 706.8543610339468 0.1225108170507978
0.13144324582742992 0.43514315830972994 706.677551656958 0.14497595225690968
0.14668135150396922 0.4496156130383672 706.841253376746 0.14818556007388575
0.14686898113954555 0.44901758077458376 707.336729866745 0.11048102701679657
0.1350662615652299 0.45745118594669143 707.0176115305313 0.15200434551590816
0.13782523701021207 0.45381082353239843 707.2750096827243 0.06458283027146952
0.13251368998605317 0.45883565589991354 707.4046314189519 0.09299177681962793
0.13676063535537114 0.44444021779873033 707.0847403092677 0.12414381087534644
0.14148360728823903 0.45082809690353326 706.7047569192381 0.11129516511153925
0.1416456155805908 0.4491779206824385 706.6832852590277 0.18944178628625127
0.1374904250942857 0.43965205135497293 706.8341695080395 0.1938340444801834
0.14004234845693117 0.4490434504256312 707.0760447038442 0.10010249664611606
0.13385285215125103 0.4478769697875382 706.7615780483054 0.17067952070742062
0.13796314711417754 0.44701545300959794 707.2445030875266 0.10890796704550833
0.13086763518257583 0.4596687991409442 706.8655890662277 0.1164163522013743
0.13627112948948905 0.448810010938167 707.3188679501627 0.09903196421515918
0.14895440242904848 0.44316955429008065 706.8136531925729 0.12490377603606528
0.13253474586004932 0.46308746574908954 707.0264766911636 0.2001548035817362
0.12515242260744366 0.46287977571771133 707.1224265309475 0.11040884046947051
0.12900829119242763 0.46173544364764424 707.257421622505 0.07725517342330913
0.11449973528582238 0.4626135846738962 706.9921662187544 0.10178939343336227
0.11569425150511711 0.4616894229379005 706.8721662486763 0.18074173534340773
0.12553896770288078 0.46258218280902363 707.3449173101735 0.14878032204921474
0.12472236896527991 0.47101966694491676 706.8516705736051 0.13882459475709089
0.12473717176363812 0.4686316022548716 706.9140922661459 0.1448607780822399
0.12877813670110383 0.4654100680459181 706.6667788603253 0.2193341970848058
0.12668846396810093 0.4721650708319036 706.7188772587273 0.15747641970936857
0.13413086226218793 0.45288940103726333 706.8711930423684 0.15433277761654857
0.13515807477193914 0.4693868079723451 706.7093279768135 0.14567336938741032
0.11978556929367172 0.46608601880997347 706.8102012175561 0.14535477248632206
0.13484498514119356 0.44254364740396274 707.580190631445 0.08834533466243077
0.13801865546399905 0.4484634369114783 707.8507135689762 0.1047277303515129
0.13322593646448094 0.44749193464921005 707.748621806293 0.13493389775645023
0.13174378063126105 0.442197752592639 707.5975964257383 0.08316375019073505
0.12838810080490273 0.44707907989340273 707.5356195259424 0.07003647232441901
0.13037714025199826 0.45241028776148856 707.635257802036 0.11534136064304297
0.12839027019286553 0.43304644308192347 707.9059561015013 0.06489079873342707
0.13403869100004756 0.43970122693279023 707.8368001524619 0.10870762415570646
0.1349479167316955 0.45011963268232147 707.7574947389513 0.0955424270796105
0.1308821666963187 0.4501795732324507 707.8252780620378 0.09921036806882241
0.135339435374787 0.45288860714963336 707.6084088757913 0.14132043473201486
0.12993644604004637 0.4448405794390116 707.6903745819418 0.09080504974005567
0.12741921935505535 0.45081680098054466 707.8842941306507 0.0747768012695425
0.12685636198244912 0.4413740004427903 707.5447241785778 0.07324230716716426
0.12560058435174512 0.43754848474790775 707.6673994973944 0.1209103492089239
0.1396912958995731 0.4382730731313633 707.5696465497219 0.08609398948283456
0.13342530868025956 0.44624976262000376 707.7384334607251 0.1456162446622003
0.118465711215228 0.4407777086340619 707.5913210229149 0.08419121336026078
0.11861836242022747 0.44417756572790756 707.6150028374736 0.14061411113532665
0.12184447568175374 0.43701883459721697 707.6018343463359 0.0895261820822682
0.12231835539489509 0.4340555341481448 707.823754331392 0.09000157793268504
0.12034248218647906 0.43828182460750803 707.5243314288953 0.07084675967327712
0.12588584446278095 0.4408346139740226 707.6517264956976 0.12352450797320297
0.12573011838705267 0.44389391401501715 707.5724434876478 0.09155743743598514
0.12024877683663335 0.4384404820137618 707.679107564424 0.1226599055343059
0.11000671195473163 0.44259292547119133 707.6577791020102 0.09194331104042648
0.10981891611679215 0.44509035890325793 707.8823016413662 0.09756959366380455
0.11231585151157512 0.4443313484269224 707.9121422534652 0.0821764452881276
0.1073452754705856 0.442787268832259 707.746579869159 0.13364152375400132
0.09930800566551355 0.45191011785059676 707.7149191615008 0.1197232719504198
0.11087455121056321 0.43659111643950915 707.6968640325811 0.09753277971954785
0.11378165343049404 0.45378202437826815 707.6093456403469 0.1677902166656521
0.113161248272125 0.4477856096829273 707.7925012577679 0.08476338966924271
0.1173072562141123 0.44570989762683105 707.5610535339908 0.07119586798263858
0.11838326595661333 0.4630800152206185 707.7992763857849 0.09280922900527398
0.11259839339392166 0.4517015090996783 707.8165493939481 0.09042398111621305
0.11871821865057103 0.452952560074575 707.8350096286072 0.12829401256793727
0.11961002491153357 0.4625682952396442 707.756862017902 0.11356904687003237
0.12072201470347577 0.46048350723232784 707.8670713813866 0.06562753286047525
0.11967358749035606 0.4658331593289913 707.6586115014164 0.11440924686266518
0.12037297422161576 0.4624207942026634 707.6149774618968 0.15434253120585303
0.12372675645040065 0.4585660495205775 707.529694860783 0.05500862833681749
0.12046086674423354 0.4611120382203174 707.5649422298836 0.09899376308568063
0.1138601651277855 0.4562134756302139 707.88449420403 0.08119087738457942
0.1170640404009791 0.45826680090187444 707.9165706301783 0.08277303720093855
0.1279863087030099 0.46466609797611735 707.6764237576176 0.1292308256545999
0.1250186523985184 0.4611347665477985 707.5871719559312 0.0940526995157569
0.1077641177021938 0.45169068180201566 707.6321628578798 0.12978971445224352
0.10762113080432334 0.44704051035711195 707.8574152940768 0.09509785552308389
0.1173413159572177 0.4405552368664884 707.8556722189041 0.08827696155074438
0.12178618433235221 0.4347001902278814 707.7334758583665 0.12554970580347583
0.12250134428084657 0.46159251459225037 707.7232421237603 0.12126263909229212
0.11850880701080498 0.4701828817025754 707.7452424419836 0.14957038863335256
0.12527454023488452 0.46354259675260273 707.6116792175452 0.13064560167755945
0.14305546091113647 0.46160777253765123 707.6744110042789 0.13155312852633458
0.1276541529284431 0.45923787952044015 707.853369581568 0.08593319087971911
0.135584538295013 0.4488938325382879 707.8924962832091 0.12732999915728432
0.13279763599400934 0.46392308728219134 707.8202088016612 0.09546560068426826
0.14007246669563703 0.45317906934844965 707.5519981325928 0.04741750187139361
0.13183778770315546 0.4543876895907751 707.9369933419836 0.10986232025625607
0.13169804688372652 0.45653981958336426 707.9017991674353 0.07294697198819904
0.1372873323195733 0.4409483630301619 707.6225954999131 0.1259740090137434
0.13477097079418132 0.4507038843276789 707.7915078135605 0.0895736828404035
0.14542840319744232 0.4533857332260677 707.7128645117299 0.09918800077099867
0.1429862621711612 0.45269375871056955 707.8523265451383 0.1038748513028366
0.13346715782329177 0.45523017670443494 707.6581459673525 0.13315608442766336
0.1335786715750837 0.4521733710151343 707.7674017225193 0.1142779158933333
0.1328491135434287 0.4436059184493267 707.8176915008911 0.08724906486623357
0.13566671987932719 0.4562173311142568 707.7309636573973 0.1578468850465907
0.1364117236473904 0.44410095879154904 707.7771571690055 0.11583910095630578
0.13167637462509862 0.44199911580454126 707.8711018920699 0.08801817169793165
0.11150211267428058 0.4483657603050443 707.9420723657493 0.13058130831379047
0.11834311314372035 0.4629904467170678 707.9543950503759 0.08680682619842663
0.12646158634717275 0.4586498033558867 707.9332326854393 0.0965077207065437
0.13389537832327927 0.4342026248454876 707.9421420701402 0.13595155250150343
0.1217623008538898 0.41075760107644094 707.954862340326 0.08563068864875187
0.1165988689480008 0.45127219975343735 707.933035847566 0.12585986432496177
0.12180342904229656 0.4161791932700416 707.983399720593 0.1340155572458447
0.12692799297326152 0.4288068248251335 707.9613308756287 0.12078627791766992
0.13711873107921338 0.40404126308884014 707.968787702509 0.08412587870974571
0.12439272482327055 0.3540850004684956 707.955681951742 0.02308721798570708
0.1340909077782186 0.3672181800959147 707.9649397499236 0.017756020273033347
0.12344904147674421 0.33635623671967124 707.9592852889679 0.027203128522153744
0.1309056911241202 0.3283601224995026 707.9726528381284 0.01776546469307946
0.10961800618370748 0.4020454699077163 707.9718896106184 0.04880801715997123
0.11811381721909779 0.25683320470402654 707.9785194881383 0.03526420047962658
0.12566210993998997 0.18117056159082245 707.9839325014045 0.04334954962097629
0.13514429706591793 0.21664388170072507 707.9741929879028 0.03042431478304694
0.13548980683166942 0.37970592149188503 707.9700857088466 0.10888664044233524
0.12475248443983641 0.3574445199256128 707.9797387318612 0.016493339446401255
0.13361559086695726 0.2917392592742574 707.9800962434947 0.0267536922782894
0.1236850680174812 0.4030671992709949 707.9908428307069 0.10013142237247055
0.12615443790538639 0.24180629663239275 707.9796320393697 0.07181246661386242
0.13334357363284743 0.32901275591363177 707.9839936762899 0.007659312780078305
0.13548675272158736 0.29914796685220735 707.9809474401989 0.010510028743930358
0.12682303447728105 0.3392073136561275 707.9829338631514 0.03458253254498695
0.12990243822242312 0.3370267425809132 707.9722415503797 0.025963201357299105
0.13229589383822316 0.22616618323067142 707.9561669826676 0.03806533877525504
0.13445365097164205 0.2159876672348934 707.9657245916484 0.039803434522718804
0.12924990360469818 0.27370854656997506 707.9681907622869 0.04682696925362117
0.1354373678027821 0.2551039932803622 707.9641587877123 0.04159920133762227
0.13929900679914015 0.3896061469802896 707.9608505275745 0.09661906385242061
0.12858047960387084 0.2797942661449635 707.9639289326124 0.05562356987461491
0.11853437063997631 0.1476125752686676 707.9668933544705 0.03983368432220761
0.14361382746641707 0.15335193030192076 707.9703584315397 0.04191143787415859
0.1260197209781725 0.136828106907288 707.9644806306582 0.04790336476922555
0.11339807940880021 0.12024201681017785 707.9477491433407 0.09176591077255314
0.1427531301213597 0.13402982472550573 707.9487856416954 0.09804111297958167
0.14538965260102144 0.12014352398384122 707.9425127364685 0.11271867224496877
0.12532182399223663 0.13840613373929517 707.923219324093 0.09882649726109283
0.13300462417132508 0.11920484841494451 707.9294116751413 0.12961211524846591
0.11224208719973756 0.12521807396427656 707.9253209062798 0.13146583861022063
0.12360295870032982 0.4406794226303264 707.9743458623684 0.13886384314995498
0.11498844274384153 0.4263673050695903 707.9784589856542 0.18961509854611572
0.13274166823042663 0.1439005111620276 707.9513091379737 0.10470871328560237
0.1104245355518873 0.13473619778627333 707.9609682079539 0.06791214260938497
0.12744204265456302 0.1205357534908885 707.9524630666477 0.07852148542610166
0.12272990819487412 0.11492005100823668 707.9299347916256 0.12436661409590315
0.13024039930191236 0.44051289723960224 707.6236216767811 0.12475769758158231
0.12980834100542246 0.4410090816573948 707.5247205909002 0.06458594595471112
0.11969692233310332 0.4392448772329802 707.7656821823772 0.12814687888130666
0.12198412935873472 0.437158013238816 707.5082130871785 0.07264629112824897
0.11356211832364502 0.4461636591759294 707.583800503057 0.09875892871236759
0.11742039474056139 0.4467892623225994 707.5369101788186 0.05706843211562936
0.11050465561292536 0.45271110233407447 707.6651391450145 0.10934602970618111
0.11573258176541777 0.46271278921978715 707.6050061901608 0.11683256794417375
0.11717501287549485 0.4590951779526829 707.7304676591485 0.15325980522279617
0.11929002899667483 0.4532931647360212 707.7098274190979 0.1527754460827993
0.12401681455115496 0.4588981021450753 707.7834746667195 0.10448785451450589
0.13055231393980288 0.45658869777583355 707.5182014307638 0.052010636490146846
0.1344206123298628 0.44977999013967 707.7254467868197 0.13290948374942238
0.14180651855318988 0.4622730020198233 707.6357110336643 0.09515134943304077
0.1251799348775863 0.45490550653483425 707.5671221752605 0.07910476244839297
0.13295426823668455 0.45891419799962613 707.5893127426413 0.08479109039889011
0.14050745404047932 0.4468966133577009 707.9509213695327 0.12924937428219846
0.14183849364508272 0.4408447656065644 707.9631667105607 0.08112352528828327
0.1102471624619426 0.4270791086787273 707.9710795705143 0.16114330788530445
0.12896975001917407 0.4432946204864563 707.9347661164388 0.13479986941674882
0.11085914637818725 0.12094799019944087 707.934167322492 0.11610504547302748
0.13290527137673944 0.11648665793564406 707.9185902769239 0.1282788582025549
0.1208233128011874 0.43651301801091097 707.7191097836717 0.10506407331401228
0.1392490468428369 0.44608014520291994 707.9106076266587 0.08736338632464119
0.12340868779369574 0.4357818937759728 707.7915517448295 0.10973344131337957
0.12005262306531825 0.46679394742732244 707.6482878250409 0.11638419791888553
0.1298286287197324 0.4655524052741868 707.8124669713748 0.11480285446073557
0.122473747428815 0.46766883413982885 707.769956419403 0.14330776824800676
0.12653322417836216 0.4629289667205865 707.5481092484758 0.07082545491676853
0.11840911628187713 0.45665845576247116 707.6922488709034 0.09027296620068231
0.1378557200768053 0.4567644747711566 707.8718651946502 0.08266915362355438
0.12906054689272115 0.45829078648930766 707.8325312060093 0.12321583295084376
0.14074108712911912 0.4607712443232938 707.8017245791226 0.09430649821637166
0.12657838361556123 0.4563583978090133 707.849558454886 0.0895707675629867
0.13351232217411452 0.1897284474861651 707.9657171329908 0.030846873043833857
0.13897981942719498 0.25036454943306835 707.9728381468555 0.03627016650625744
0.12898367675661276 0.3207535038258577 707.9620796968767 0.010775298956773345
0.1311998083982529 0.17000677234092287 707.9624110572616 0.07866227041020546
0.13018852346799634 0.29664991816739206 707.9580283849762 0.01729755035740687
0.12832599520322382 0.2273078539187803 707.9632240788058 0.05792192324602129
0.12422338965685685 0.24666400727900117 707.9538018885211 0.04095895317133696
0.13663730719220438 0.30520072352291894 707.9629593688027 0.003886923129874915
0.11546879235350596 0.17111745389083102 707.9804588067991 0.09180510806540351
0.13278071006477313 0.16589070343575277 707.9754174526081 0.07503804028990632
0.1309167694293239 0.17287512939440916 707.9705124472642 0.08670352019924404
0.12707832552668644 0.15284110119816643 707.9702242694742 0.05164935232370364
0.12137478105802232 0.11773984725963817 707.9143254294646 0.1331108439731935
0.21400260277937608 0.48168477021880807 706.5611485119404 0.011467421946675741
0.11776351754124798 0.4647077360162905 706.6258743511859 0.1111529218066032
0.11507828476502496 0.4602147694017484 706.6090682097376 0.0628194096769206
0.10743028443256815 0.43905453575852976 706.6375430503813 0.1653933564168508
0.1405386244192184 0.46379178737003374 706.6368392944979 0.12449359615601027
0.22661356580393738 0.4825644937009276 706.5441298592133 0.053314597775459924
0.09885842556760303 0.4412659681874842 706.6496412017491 0.1448914200899676
0.09216710304741765 0.4636763415620994 706.6271859729503 0.07366741854359252
0.061810437363501655 0.5148963022326024 706.5422198062079 0.0539756381830012
0.037017221390571314 0.5225774352439918 706.5373932156704 0.07315037085342406
0.05909077121766533 0.5316814222619628 706.5280245470027 0.10421264771626128
0.04010881911141478 0.52676347471119 706.5307120805642 0.09914489349457846
0.05067820045969182 0.5330300017794265 706.541372878316 0.07733829078258019
0.1333659649974748 0.43313158133565316 706.6445972701872 0.24480616738333413
0.11582660543923044 0.4613471543893762 706.6547540359452 0.19429310030815858
0.10721864472806401 0.45357539360686644 706.6588367187106 0.1385381382270484
0.12473805685142557 0.43410968009457657 706.6558047023638 0.21183627697752114
0.09072802294731497 0.45638771108698284 706.6378397557525 0.10048866661557247
0.07378196192612523 0.4573310033911619 706.6253959060675 0.0071230558007944825
0.06955348262355138 0.443067027344917 706.6377114714129 0.06859743349229418
0.1360302863546059 0.39426303142833663 706.5313898288655 0.09642230483265742
0.13669609998041912 0.3797166389826535 706.6061100902109 0.0351924774677641
0.13601755293648063 0.37982614393188646 706.6258008550677 0.04198186594556457
0.1427763252473354 0.38553540400774194 706.5660782939302 0.06595502958193677
0.10571509550663576 0.37915664227253304 706.5892537385074 0.03368837500754163
0.10679530468781406 0.3825949801927747 706.5643202264612 0.042281047948238885
0.12191206822434367 0.37178604761833295 706.6193947907889 0.03970565859096542
0.11421188185291395 0.3982718155108555 706.5259773703991 0.10836538523094592
0.14571691897844613 0.39579909065000907 706.5455029488357 0.07554959019942434
0.14357578337542848 0.3904263400646266 706.5568207493624 0.06657814267739925
0.10248220334500893 0.3891132608908059 706.5471910123389 0.012274637913652485
0.12498390052364938 0.38284321463960796 706.5432233907666 0.050572006281725396
0.13752053818610888 0.3816688804389844 706.5455243130201 0.044104299856494895
0.1310216210185382 0.37306386234698785 706.5749800302623 0.04405046375543947
0.125171138224402 0.37454260674247397 706.5765880798132 0.02142651608761409
0.13841487965522042 0.380780576661788 706.5918702374786 0.02971701308518889
0.12042048547727877 0.3680144121430726 706.6106004455327 0.01970601229389865
0.10547636478999775 0.37687122227025305 706.6106222940203 0.03714541753639389
0.1583754041999514 0.4537303687062222 706.6522828061758 0.10875344851005564
0.17251685839948558 0.4478354267883612 706.6484808251071 0.11532674560482989
0.10290864881032794 0.4727835041855698 706.5684646430599 0.011039654208045192
0.168797550616199 0.4569256236386464 706.5567074674655 -3.622342452464543e-08
0.20436005044707387 0.46100105812359554 706.5505400122838 0.12344778690717453
0.1945414409404483 0.46955121546379475 706.5628266777752 0.03445984893335437
0.11920043046647044 0.47541006431826016 706.5627053607133 0.009770777500883716
0.08984954697637278 0.48030501090700767 706.5680970867406 0.013331612523050833
0.12629148478798835 0.478769102371208 706.5356991762251 2.7052507622019352e-08
0.1263432193771028 0.47318789069657163 706.5581248865765 0.07160541731216725
0.10661257185933021 0.4844662768261437 706.5500101160337 0.007154117550329992
0.14605692318651844 0.4387816676817969 706.5538429759921 -1.1546841356147179e-07
0.037353201223403826 0.46159798185838136 706.5357631248489 0.04347583833862984
0.03150193235808267 0.45272175463340064 706.5536045332203 0.004175078733503594
0.054139756857271154 0.44571658649308854 706.5387586633248 0.12789897862441543
0.05037850361273934 0.44751712859514187 706.5476834431174 0.09836474816777414
0.1930850895501926 0.4677969005826418 706.520742116884 1.6760211644797875e-07
0.20854558076196614 0.447329857835549 706.5466103644809 0.05725488984770095
0.22417181868511848 0.4746608196730725 706.5436240705602 0.07634284725921024
0.04418828330829019 0.4589268767164781 706.5617133100425 0.01045922462356957
0.011858674838089044 0.17049212660533775 707.8711571200715 0.0011825585919637875
0.03469321214173356 0.2091796131148907 707.864759157952 
0.07609303924235922 0.011851542709061861 707.8592434199516 0.03940503245838296
0.04259823712426932 0.05544283165370092 707.8693704513263 0.06002045261357029
0.014267137241946231 0.07841539801736615 707.8688670585402 0.03895028261044204
0.025328127801642404 0.0721098056001001 707.8754669334908 0.042108633627968926
0.05041043855312675 0.06743372232253539 707.8700359086017 0.015886762021750586
0.08003327455876827 0.009155130590076731 707.8579836035667 0.07477036221032084
0.08824282338106214 0.04915565283271215 707.8741108971861 5.840298705839037e-07
0.09713555082571206 0.01460576914016965 707.8679304946813 0.05632651756079951
0.059734949849707494 0.0367160000199617 707.8660516978895 0.04512696030035769
0.2138811275059919 0.21666889637367573 707.8739526234818 0.0007340470465754563
0.2370395971327017 0.11127797506763316 707.8690147452853 0.1325492670739453
0.24359691616197046 0.09582730817689414 707.8653183496709 0.1809369892772608
0.23142193361630373 0.1432147278794695 707.8763227567846 0.08215639990941202
0.23536188392507232 0.16222589526890824 707.8665190326062 0.09429462455810261
0.23530816781070113 0.12493504039324548 707.8726302045527 0.08572183331270335
0.19997883854488224 0.021853187731302404 707.8715336027379 0.029732088812496806
0.21172773041873313 0.04463447519242517 707.868096370079 0.06921447171739292
0.13773091758553602 8.906779878644841e-05 707.8669166155197 0.03594977896836768
0.1514453053526004 0.006363732319168362 707.8696834707731 0.043725354593497925
0.1720943840771078 0.02268212677619235 707.8689631164734 0.04610646874437738
0.24316602018433567 0.07353386564927435 707.8708518299485 0.17562874017355998
0.2089698191892437 0.10382167435599528 707.8746515160527 9.51844619196888e-07
0.13761876912568147 0.02044348782792898 707.873967256934 0.05536999645904053
0.24791622534621008 0.12053595133215665 707.8589614998093 0.05572231979964267
0.16319748181680696 0.2500768870120877 707.8577707210186 1.1529864030736553e-05
0.20169310495900597 0.2157999691518319 707.8483780791307 0.005686560990268298
0.21698932860762937 0.2059811922000213 707.8660578927195 0.0369486825030363
0.18865123111690335 0.23425660795993372 707.8644527484574 0.00612811936872386
0.1799693159283295 0.22934176001311993 707.8513186272972 0.005006880790393695
0.22420879817194472 0.19505591214318135 707.8640773202739 0.05344805649925142
0.24222789214693952 0.1830478086963938 707.8599474159008 0.037018312799955426
0.2367731607189993 0.17638433459939126 707.870670964515 0.08615416037994678
0.24717259905293656 0.15298051877226343 707.8602283507029 0.09566674064665115
0.25458967894849255 0.07613252986721318 707.8565911235825 0.01943371206749377
0.21491265093252349 0.039831674804695134 707.8571907369063 0.07936992256214491
0.19331759349524463 0.024955813771976993 707.8539791814087 0.04544323674124269
0.16745629982541438 0.01737995905103382 707.8621504947982 0.03579229748327225
0.21575950982926906 0.029124829636380183 707.8626941797328 0.029610782607139702
0.2105975965936188 0.03538759419070839 707.8519110094529 0.07992000295986743
0.2224266126602289 0.05615288949600939 707.8658557827864 0.04625789272705846
0.1342646486333822 0.0009336579116620356 707.8553587004554 0.0454080065207939
0.15976206677816798 0.0017631151632767814 707.8528433283547 0.03413612051121828
0.16261362684229624 0.0066744084027916505 707.8550953733628 0.028439052221403933
0.2517625214024357 0.11969243144390551 707.8657343808744 0.03134031440448734
0.0019313113564311622 0.1528731094360378 707.8587593412966 0.0020448734229816393
0.004245429922547256 0.16987753345333645 707.8513858529576 0.00019652182155170263
0.12151446071976739 0.2565352081610841 707.848502260424 
0.17153950883556776 0.24476047065529366 707.8554928723487 0.000145787911846382
0.1738308390745804 0.22979289514563295 707.8450961103327 0.006162802800863088
0.21206252510444204 0.18845153667322476 707.8454732883272 0.040902422461475976
0.22780880752378016 0.18930310654127375 707.8491310934301 0.029271833563842557
0.23467366866182784 0.15738223676881194 707.8502697344236 0.10288101964988663
0.22215045922745286 0.15461592456365833 707.8466429246179 0.09602428489181013
0.21483878626091008 0.16787695940320135 707.8450802966751 0.048815548706090076
-0.003091882874115973 0.1404682619458244 707.8529842608716 0.009328051345995824
0.05519337352801151 0.027783896987200185 707.8483597693725 0.04739912010030214
0.07468090361357835 0.017024841712467074 707.8479861734556 0.03664091460984152
0.015566483040714178 0.06818141792907925 707.85033296307 0.031015597884729632
0.03723133641774534 0.04081632551969325 707.8466930971261 0.06795307513335355
0.07190008814213988 0.013327950731186613 707.8554520081539 0.051229293237925605
0.22590312506581597 0.08589896762666566 707.8420962734702 0.13097273472558998
0.2349622764367325 0.08834182470795654 707.8448827541895 0.09735293315996273
0.11839973244120201 0.005610930883340773 707.8480477474653 0.0237092295139325
0.10039610403109821 -0.003098484007563191 707.8555505697035 0.029065950912886936
0.2467512567118228 0.1254726003281784 707.8432703973918 0.0661922670758056
0.24230992927077394 0.14140756528549991 707.8525753031544 0.08794383635820308
0.24151259822985816 0.11583857757713845 707.8457113033053 0.07229872887692355
0.12061842733489721 -0.0036134108163583156 707.8560509660981 0.055155902238819235
0.07956887770966922 0.01589418424525566 707.8635959325914 0.043979116736878515
0.04800426405285048 0.032950933133102746 707.8657177064318 0.050757119552454905
0.030496108525623115 0.03352086351473101 707.8613803221552 0.031931948325742227
0.028164638012572466 0.03914735982380123 707.8491119386507 0.08736878939667563
0.062054049268967175 0.01178508174220166 707.8610306490601 0.03639105580329028
0.10682398817165993 -0.004341822964035485 707.8655384711599 0.026485174421666022
0.005258877189785751 0.1051410923931747 707.8613281552227 0.004118403000611776
0.005688762785521189 0.08457355729794173 707.8528677974301 0.011105812816561991
0.026366504992615253 0.20435983502543245 707.8474769574553 
0.01678259184959213 0.18952014075328713 707.861058458897 0.0033837933286886136
0.00394893880996591 0.1300179067602711 707.8743651141248 2.360584448626071e-07
0.15927904961716413 0.45073033225351766 707.4544144048314 0.04857042211503016
0.16571021695538182 0.4419660805529374 707.475182503865 0.003955764266704495
0.1625555185671257 0.4585699883716918 707.4688245849782 0.04095020768386162
0.12320282360233366 0.44105177040816923 707.4663824014485 0.02562745504166959
0.1261099324916865 0.43916236424712873 707.4833804168289 0.049811796750552265
0.13782112521294715 0.4320678810587584 707.4526564445955 0.02840816593029456
0.12536933224265173 0.4742523519096284 707.4293786192951 0.0043843925564136564
0.11959730254565991 0.44057182140835854 707.422660172802 0.07749816507135754
0.13145881523631767 0.4324844097826855 707.5041714181473 0.044755896915978706
0.12082425286014786 0.4329817138925259 707.4348468476683 0.031223251766351795
0.11161908042811325 0.4348747689878042 707.4995708564436 0.04496931679860586
0.11489449978153451 0.43709655991427454 707.4885843979773 0.0453567569105537
0.11862682450362338 0.44222498064556787 707.4653850434316 0.01714710009349085
0.1151944215447351 0.438658590418485 707.442175211442 0.10826508377977445
0.16070175676553097 0.44958368595920895 707.4983332314408 0.06039616671651388
0.16764161508747924 0.46139161198677014 707.4810443055684 0.0754966489428297
0.14812863823856046 0.44242264078448623 707.4642077049277 0.048282232719327564
0.07896767824966108 0.4206073622282644 707.2187178068349 0.1389063409497359
0.09191683959181261 0.43331414258291634 707.1966443705475 0.127996988174911
0.10280041844472078 0.47375501342718307 707.2099715163008 0.02248353165110098
0.08609970065550553 0.436804164901827 707.1763956947041 0.037073597930812364
0.07081945209216793 0.47330386666459073 707.1906987885407 0.02419576980174905
0.08642436623442643 0.45984389808328074 707.2101269354312 0.19527570672086125
0.0949115093377918 0.46549686434866927 707.221445464707 0.04971726144296126
0.06446312782168173 0.42886100475499755 707.1941953343502 0.008917641822805767
0.08573552315509819 0.4322063059347266 707.1998935318796 0.16318031154374601
0.0895606710831658 0.4621387058066511 707.1786081336646 0.23876772851770933
0.05866259181182229 0.46645617406385326 707.2132625239379 0.016927212236939326
0.13652460470722547 0.4675943592484264 706.5891214045336 0.010732024108507888
0.1226543280552833 0.47058598849977235 706.5925205199987 0.010554465766863131
0.11624921400272809 0.46125685442137243 706.6019376927919 0.009722726524133795
0.1711208567364669 0.44981190314996 706.6345046394722 0.22721084038094091
0.17021348709131598 0.43877410428042934 706.621977583417 0.1236634027348799
0.1496803625278211 0.4288904246689603 706.6180601158525 0.03688193740141138
0.15705904566667808 0.4717725903906277 706.6253474860945 0.07538500555782225
0.16591932554528402 0.46533136721228074 706.6276027208444 0.09024690771863444
0.16655182213577246 0.45637979051294875 706.6364205113314 0.22837055808190868
0.16830694631380286 0.4522700890574053 706.6218039420877 0.20530480767401693
0.14019012467791236 0.40334172102257615 706.5522239431873 0.07772970875368648
0.13670696865890314 0.5085717989499678 707.490184898201 0.15984950637660597
0.11590707458791756 0.5102225633841087 707.5088673366326 0.10358156830274828
0.14884900941388807 0.5260532499717433 707.5075172698746 0.08186618863386408
0.13915918471083819 0.5325840633139473 707.5089348680054 0.1648085260644498
0.1297517477488034 0.5384535834713474 707.5194238266514 0.09668366026220264
0.10125769560503696 0.5244447889222292 707.5056246334298 0.1479582892863747
0.10268634366679105 0.5317591461363894 707.5114853205098 0.11675071149609632
0.09497174360549121 0.5468326311749733 707.466650984337 0.029122379357402427
0.10405468569393789 0.5351452331280354 707.4884733115659 0.12581407776403244
0.10934782566967667 0.5403540850411755 707.5061878985019 0.1303500726583776
0.11852157313940441 0.5383008068760387 707.4798793620929 0.14496440493790724
0.12350796847091033 0.5293712942722106 707.4590696029488 0.20977360459695946
0.13409101017785396 0.5355428722016375 707.4823848331724 0.14082122858002225
0.12368704203013609 0.5481800412963532 707.4937454719574 0.03857567744052117
0.14182749065307448 0.5332441355254927 707.4812508533007 0.2068989887583012
0.15377768728512242 0.5388226739284798 707.4850863978678 0.1476874527594166
0.14225075156714267 0.5334580828967409 707.4876511354893 0.1602072211610543
0.10780784109830538 0.5303443501462628 707.457087284064 0.17438223948970522
0.13807417290765242 0.5337316638658955 707.4594564981871 0.1860047870192362
0.156186168291276 0.5370145119727312 707.4713529358828 0.17941202578708892
0.14902935769478365 0.5229870409581712 707.4699329176615 0.14666098089375257
0.11811092635975944 0.5287319571100205 707.4607812107823 0.16767952638726516
0.14118840723612822 0.5313401727180187 707.4930228611568 0.2642814789837786
0.09602925674519038 0.5198708675511601 707.4833511857802 0.04885903945813698
0.12929120275920694 0.502975579662695 707.4730983001995 0.12502317085192233
0.132473605090632 0.4936901941544239 707.4994845280793 0.059199827292764476
0.1175817747655006 0.11764416854281133 707.9149753024084 0.13231289953251993
0.1513494861760511 0.45050875615019453 707.224799189706 0.16402967833091825
0.07013311213791408 0.33393063176090604 707.3863507201626 0.25231648918589916
0.0951186508614748 0.3415780271746016 707.3840864249901 0.1258599698868464
0.09371422071853733 0.3445058880398725 707.3944159863074 0.1489809376415218
0.08867923623172844 0.3380869101436301 707.3886511575297 0.1564923187311459
0.0726701391155675 0.3407949369959363 707.3939552055072 0.23220623722325365
0.060829311115099226 0.3400554692348939 707.388381909362 0.2108764899989891
0.061799993519685514 0.5024834727868449 706.5742082400575 0.051068850612578806
0.014099144652800585 0.5078139359756617 706.5483626795016 0.03089472861303375
0.025392476244646293 0.5050560581345886 706.566072627904 0.05212134881592818
0.0312549410578982 0.5106932658086584 706.5232022227952 0.07510531959209049
0.020840427406343457 0.49651470334247266 706.5359304834958 0.05463713585376639
0.05017466684057418 0.5109014350957191 706.5691521423204 0.030835560733669328
0.0735129581722467 0.5065422010868003 706.5709743835214 0.021173231358228826
0.04354143539889255 0.5029251358041869 706.5728672426031 0.017173656630984354
0.07833650825592096 0.5137676334024882 706.5424018094035 0.025386189713953882
0.03295656993624471 0.5125146437018341 706.545769054125 0.057585424625901334
0.06390916372310201 0.4969096308660599 706.5775761832415 0.05701536505301729
0.02147937317712721 0.49375116810235165 706.5709693244577 0.06488202632850176
0.17105609772720054 0.508613394827982 706.5186364183913 0.03841695182890488
0.17515404623189823 0.5125663696846664 706.5593427672908 0.09935339348738959
0.18790930503676467 0.5141572492438965 706.5161921374928 0.04367424763182734
0.19241409645269225 0.5180607355291151 706.5765664727905 0.004353311495035091
0.2279949867371155 0.5119489328193195 706.5498730678062 0.060244441247676785
0.21816303527742847 0.5092840642446098 706.5566069969765 0.09482708645858318
0.21659138285246898 0.5057224623224088 706.5189966450387 0.05941256343889782
0.20672608269934187 0.5061899784204422 706.5118728754829 0.08521797730059057
0.22370465046050905 0.5149130328053142 706.5414362100053 0.08909960069338546
0.22253827568267703 0.51182100465286 706.5474748871771 0.12610866340701293
0.16974706888151353 0.5126756145172827 706.5617392396275 0.10887440303846846
0.21126129901231738 0.5053065379412572 706.5643673484641 0.0784302506256253
0.22437243437790932 0.49910765303566884 706.543319798843 0.13215960615846675
0.17591567454996543 0.5012795206083857 706.5700771005421 0.10307965574369948
0.1969601264528223 0.49204666934835095 706.5710027925544 0.07644656607696335
0.21999252085453583 0.5039205129241465 706.5242114039442 0.05559022985675791
0.22366220114160215 0.501875286852911 706.5497865737079 0.11079453672745003
0.1874176922752857 0.4881646012198402 706.5799364288742 0.052250228638930835
0.08672653670435032 0.3394709940021406 707.3908749095957 0.2028390960921215
0.0867429188082345 0.36141020079575936 707.3783326842802 0.176055842024015
0.08715007634332955 0.41964368509487476 707.286416340124 0.12350566375028037
0.08611572320071464 0.37357308884584634 707.3616954637204 0.21792898889998144
0.0973962675619749 0.37189752517567876 707.334215892143 0.1648363331806155
0.09410812187231403 0.38860549423457524 707.2974587202038 0.1454675921176089
0.09323111485794891 0.37631982730242286 707.3195986676873 0.18245200204511988
0.0829838144714335 0.41017214564921406 707.3105195607355 0.18528457081374902
0.07867247881325452 0.38869931736710533 707.3464519417877 0.09788933656999137
0.0898014266340707 0.3997092744470131 707.2729204809095 0.1345021757208587
0.10586096483866415 0.42034971543249255 707.240110497807 0.17879151917038655
0.0923168690659464 0.38276978747269896 707.307478294497 0.15569550384403336
0.09160236906403016 0.4186836905552046 707.2195364599999 0.11250760649915947
0.08902601883716339 0.37846222602599655 707.2713087034556 0.052417321201655986
0.08913040057767085 0.3986966390161758 707.2604477483967 0.17893955943177012
0.09333285283030064 0.4050163244349021 707.2419593493707 0.11032063218202084
0.0912459249870046 0.4221846970674451 707.2150952740511 0.15760290530288892
0.08645128859828112 0.3646652466871753 707.3106967153374 0.1255922562296291
0.07759486869330795 0.3756118759055635 707.2967133237013 0.20469343497298492
0.09985741387517703 0.3497106128898258 707.3543907392768 0.05284239621307228
0.08269406649973776 0.3230139451084688 707.3726095030107 0.07698878269145527
0.07207816921312413 0.4183966269735338 707.2257960395369 0.12023904841600469
0.07254926514413922 0.3858902736643489 707.279153497484 0.13691633690783983
0.06568692685081626 0.410262854393041 707.2425574072339 0.08530081557392048
0.06613005483557904 0.37739858928091197 707.2972339739568 0.17610462705576554
0.06089222453598849 0.35650655025419103 707.3609909193502 0.1394372888946549
0.06872155759872574 0.36995309652514446 707.3098882698424 0.17446375548404586
0.06174200417521876 0.42676422116048485 707.2177229452719 0.13683172222027098
0.06299587670265551 0.4276904568171003 707.2501697172856 0.12132797984345933
0.06353254784997371 0.3957014671448289 707.3031723429176 0.09161744656405206
0.06222762344281502 0.3709859198162612 707.3394374294227 0.13566572442367258
0.05899110845786305 0.4088888610965991 707.2720032534909 0.13318921293893052
0.06296731160401287 0.35877767325879817 707.3390873778987 0.21867237458435027
0.08035697118198092 0.40360451078987664 707.3213809284744 0.16311453550742383
0.0728138141667637 0.4298378862045493 707.2591600067715 0.1376358835467806
