x y z curv
84.54606802596753 0.13860901471050074 1590.3706230939422 0.17619693243054008
84.5453751614656 0.1412781565349324 1590.3622644530503 0.1733861129736689
84.57461491104903 0.1856627629458384 1590.1372155978836 0.12597498230339907
84.60386465816593 0.15006420990698371 1590.1071761076914 0.007998059441873545
84.6069742723809 0.14270324756581393 1590.1145474878963 0.013316850166817508
84.6119661221754 0.18593156392443372 1590.1266786354279 0.0472895422250926
84.60815351013615 0.1699005181678421 1590.1398940739548 0.10500202616196357
84.60732581231854 0.15298154715390783 1590.1295406147035 0.014228162520705665
84.60487999871404 0.17058084611243543 1590.1162706126927 0.0998241579518245
84.60571066307273 0.18512078770852478 1590.0961932308983 0.15645032269808604
84.60870005449301 0.14097344656049077 1590.0965217784005 0.011624575789192453
84.60675423591896 0.16388205846054046 1590.1007846856144 0.008163727637499748
84.60271885600649 0.18868489542371267 1590.0944488344255 0.1427717213728366
84.58135331391827 0.19193856672671086 1590.1157048091304 0.07121054569355306
84.60685073312023 0.12944789135957632 1590.135549676396 0.01998591853187009
84.60160068621767 0.1195272576501386 1590.1138526387815 0.011735563653713695
84.6011375503265 0.13097879027799672 1590.1010753309145 0.011285783232706709
84.60616714689881 0.1332303944233526 1590.1224568566795 0.01488011617181002
84.53744770894384 0.13412136176570685 1590.2485801753774 0.07744147593017277
84.50535939699668 0.2311638819586099 1589.601413876788 0.07111042792859146
84.41918700092641 0.19418516633635072 1589.854549202017 0.05109486188156049
84.41286260688872 0.19002919731402607 1589.8357482284846 0.05804357516580501
84.39889498750016 0.20301729480855327 1589.791220545726 0.031872928238331565
84.38934209880121 0.2059127651693618 1589.7641939923312 0.039864038383959
84.36720621549988 0.23387121894029092 1589.6084533919225 0.06402864538661945
84.50650737775686 0.2374363066318209 1589.5138880526054 0.054771523806918326
84.53806404450512 0.14046697734368224 1590.2586450134172 0.0814084499874595
84.51658712898325 0.14868896020424927 1590.2162994164191 0.048329612336914386
84.48696523806217 0.16000569885090035 1590.0964039999578 0.12003712120168766
84.4309032143936 0.1882873950863987 1589.8992621874847 0.05407770534408976
84.34944306618276 0.242178214334424 1589.4962406468567 0.03285371885166226
84.37186082222416 0.24854893157693875 1589.4744922299453 0.05051366167405863
84.44066470467116 0.17795639699499669 1589.9334948679136 0.08405727949164267
84.4338236795835 0.18874610307432027 1589.9171526157152 0.07309244991623726
84.38261094935568 0.21692182430373183 1589.6958796287563 0.04626464460320701
84.344965594279 0.2335379263112748 1589.5896429522422 0.058779626563927934
84.47620016755793 0.24696355058953195 1589.45968554957 0.06706518003763236
84.51434125326965 0.22625227661126374 1589.5809110789628 0.05068002903358651
84.51960836587442 0.13754110038493939 1590.2478862057496 0.052509736009718665
84.43367070135044 0.18514142820686774 1589.9189582306326 0.07130921842537234
84.34997847531729 0.2255581803420868 1589.6169486922627 0.05859986847580644
84.50269798483689 0.24002387278633738 1589.4751716727374 0.0931526949214829
84.51525356081261 0.2404792492357898 1589.522959026112 0.06254179353710203
84.4488331174407 0.17761746875856455 1589.9917050529632 0.06403156817722253
84.3785451079749 0.20687248632385818 1589.7716118347755 0.046708433096959066
84.36577300480111 0.21379110952622304 1589.6851012270074 0.02156887487015057
84.50175686745037 0.15494549310070743 1590.1668041348885 0.031718030940423504
84.34452848380403 0.2383310183420901 1589.5195024900759 0.04311832192894905
84.36821114814735 0.2462950012861048 1589.4549333134555 0.05338438007490546
84.51683651851083 0.24850203834090165 1589.4886690921594 0.05143195417725391
84.52964757612166 0.23141190724175664 1589.5707156179533 0.022878800716997407
84.53145829638419 0.14379547058669373 1590.2347216407456 0.0244067094026248
84.50324377886764 0.1538202775045158 1590.0968415688621 0.04778965268794448
84.44968602041455 0.19653831117873516 1589.9220084247615 0.06174659087748255
84.46742739016453 0.17453178793233037 1590.0228999063975 0.05363488892621271
84.41071327926494 0.20060641079646366 1589.8172798645987 0.034235928279803374
84.53441354115228 0.1339547111457628 1590.3045914456022 0.06554850987686597
84.53721982084329 0.1398040679867435 1590.3351531505234 0.06546420626732131
84.51927870067362 0.15021861997478114 1590.2272827448064 0.0630834479387782
84.4137549958962 0.19334440440714332 1589.8516268099331 0.05298054177582422
84.51715688051964 0.15342576818356032 1590.2187942254404 0.04646805989179094
84.48797571455049 0.15609167144890712 1590.138904876642 0.016028462159034345
84.46321501894738 0.17791501252168365 1590.0280867940166 0.05509166146652079
84.4655344137973 0.17338524593181504 1590.0509122871772 0.02391195956052246
84.43823863790159 0.18958809246319516 1589.9569081622021 0.04249279206684831
84.38719257923886 0.2233159224020124 1589.7243516228168 0.06336833997050217
84.45140133951074 0.19785316701903782 1589.9364495650295 0.06682806555448023
84.43430464702337 0.20567141907000933 1589.8918478943012 0.0424497918502485
84.48062565853752 0.17116173794960246 1590.0572294671078 0.023802927318712332
84.50906109266064 0.25647033722589907 1589.4788569925904 0.07339748046880859
84.45579029748767 0.26490134373580815 1589.4651978785134 0.029077623921199565
84.36245337327604 0.23881134023179668 1589.5542610218217 0.057510659461965735
84.42018649210988 0.20285625911349403 1589.8482969636982 0.04478367494836236
84.46768212293419 0.19038505026411467 1589.9948602460643 0.07454150013435817
84.53532721544404 0.15906479392219236 1590.2579386205898 0.06755728881291571
84.5091161768346 0.258586251584158 1589.5072418183486 0.02719356513505649
84.48878889983257 0.262383963584271 1589.4643661552232 0.03526668648485597
84.37084906407969 0.26125934232450765 1589.4661664633836 0.003676923015870008
84.34768863045414 0.25448004072986313 1589.4900842911768 0.0446313917679838
84.35301059493538 0.23254745597688195 1589.6657962020495 0.11898141168176866
84.35396030265056 0.24806687472368455 1589.620182457122 0.06804916501027661
84.40399239976259 0.21460636595924124 1589.8120145544347 0.04598252000622337
84.40511148239042 0.21014741860978406 1589.82636833009 0.027770103945247822
84.41504120348708 0.20519921849296 1589.8618971056596 0.043504759396946674
84.42752336998097 0.20253489796810736 1589.8996940880954 0.04093946399376006
84.49631306389503 0.17337335043019927 1590.1388177523481 0.015539345064751593
84.46575599674436 0.1735544895491449 1590.0559967941222 0.02580716315452369
84.35040137595593 0.23739556962889263 1589.6519723918416 0.07399913939337827
84.35261852621856 0.2547113994670873 1589.5157488739328 0.013522342616689317
84.38293842012035 0.226992082737782 1589.672846276848 0.06144521469937679
84.36719816492354 0.2253465764885663 1589.6512279514245 0.09366012899209794
84.38603977483852 0.22370113349038082 1589.6784670654138 0.05224378591564136
84.38365795003214 0.25288373455433605 1589.4887669491977 0.05646698502930264
84.39879133242341 0.21520844587760352 1589.7531655160217 0.03789773044994555
84.44357026156807 0.18327452146498222 1589.9171580370346 0.06690894487606364
84.52370609706816 0.14910337917630942 1590.1915742870578 0.00769205152514725
84.4038225909691 0.2139240950431183 1589.8044688056907 0.043784173990506894
84.51633764572321 0.24838530633074773 1589.5897135975824 0.04396531932797211
84.5279796131267 0.2411108694637849 1589.5325942226405 0.054012330604410845
84.36550494543309 0.2300570991942334 1589.6715651784 0.1011282264113719
84.37692460867106 0.22349858655968372 1589.7270130394404 0.10042387078970669
84.48978529113204 0.25319039537342064 1589.454541326399 0.05130081694390802
84.34704582875861 0.24360767168365224 1589.5839163680812 0.06780981002316984
84.39526661039683 0.20569114043077497 1589.789572692346 0.034265644217825686
84.39323212862432 0.21274146157849988 1589.8084559975518 0.06327989851249151
84.34059806245877 0.24093956551466125 1589.5323746493173 0.041807224973683145
84.43457891120464 0.18144848785115886 1589.9506553623453 0.05866744856022363
84.40969703667585 0.19614886255675196 1589.8660449394695 0.02982343743086621
84.48452130578356 0.1745572098565161 1590.115592724994 0.07954966741549388
84.47657340532082 0.16795620819841503 1590.0816207747976 0.06539109915164572
84.5048068583773 0.15534901197205037 1590.1818175579967 0.03445145860965181
84.49654135018562 0.16593498369871876 1590.1548651047194 0.014241355235311538
84.52011508814645 0.14699176864547067 1590.275905906631 0.05090315509595474
84.41818741477177 0.19850791434429885 1589.8370083901239 0.03735849671752758
84.38731164698568 0.22821998362927456 1589.7075806545706 0.048588648273869155
84.393508914024 0.20867541021759822 1589.7314504743422 0.0666256839442062
84.50548740611151 0.23955903984297783 1589.5084987365344 0.053857668705382215
84.46481773824789 0.17973166876672828 1589.9964231379292 0.05808789520815999
84.40232408501062 0.21263856374290185 1589.7297922724658 0.06936856222679638
84.35029119153181 0.22959921471618164 1589.5623749766107 0.0866673501514164
84.53559172358071 0.13616155654440673 1590.2802154432213 0.07457588147405446
84.45468611050096 0.17406106624740175 1589.962086339376 0.029917214281759707
84.46783190945261 0.17335136591935923 1590.0322466744522 0.05226079691652083
84.39334115028159 0.2028046119814487 1589.7571531920248 0.03475342787341621
84.38353701491519 0.25206841445091516 1589.4684909588607 0.05229330944323675
84.54052699654939 0.1400517032015554 1590.2714679959706 0.0681419965663425
84.50409894499012 0.1458884455750549 1590.2005355320364 0.007397860776310647
84.49430268892993 0.15757185300893173 1590.1573855588722 0.012787317931290771
84.35499143722458 0.21423148755766241 1589.6413270342214 0.09603680902083446
84.50265136535604 0.23836939853909994 1589.4579725429012 0.04111087709203656
84.48903066342629 0.15394917973412914 1590.1180689307466 0.05278920682326646
84.46024609741718 0.16225983552890724 1590.0153241121106 0.031467524845179416
84.52419819471243 0.24408664688751347 1589.5524092017247 0.04327513984446537
84.39930650305526 0.20190036374124196 1589.8264924494886 0.019356145584471258
84.37476334617857 0.20698157952722337 1589.740350447831 0.038613992606465405
84.37674664538234 0.21971878592792662 1589.7164771954453 0.08611709992292789
84.35881269399964 0.22657673517239 1589.66794522986 0.10551671578973303
84.47302187654246 0.1642360917568858 1590.0747870975324 0.05742294129130548
84.4462425699667 0.1799530777252019 1589.9889533469213 0.08670711063534539
84.41504065757225 0.1950223791299886 1589.8855634860347 0.02791144543966698
84.42090736531178 0.18425172590302047 1589.874577665774 0.053248178313892995
84.34450469547826 0.24448389383200564 1589.5586309471396 0.08752949366071473
84.3562687906943 0.25126005948132046 1589.4700840225528 0.06205303394572496
84.52297244593316 0.24584950672265324 1589.5124826504236 0.043880292252404265
84.5536029302656 0.1206187512453987 1590.3322599468095 0.08467826785127382
84.53322300025252 0.13087215812510733 1590.2897206394362 0.05308588875128539
84.53367680308011 0.13779203152567435 1590.3022668523904 0.06939850460930745
84.36772436890622 0.24054843261014222 1589.6480310017146 0.09227315672477414
84.50346464348638 0.16944881718547267 1590.1642965539754 0.02642001054836909
84.42001747091892 0.26465167635921516 1589.453165760726 0.0578933508803945
84.35623233860501 0.24401672553458323 1589.6017648664692 0.09365633600173105
84.37885821404547 0.23175935279805904 1589.7183730719833 0.07463228536091993
84.37290891806836 0.22760829678120129 1589.6872610811201 0.039128951640812426
84.40608528368757 0.20657611222798605 1589.7859794194287 0.043855383987960156
84.46016898379838 0.1931372991441101 1589.9768012995119 0.05926482268694814
84.4222609542452 0.20799292348309503 1589.8688158773864 0.0426773717282636
84.49098108870749 0.18596720065116407 1590.0895948446782 0.04037114524266017
84.46001635193237 0.1835730218312041 1590.0356303681158 0.0452454905210446
84.5260634102529 0.1602753382610645 1590.2358387303248 0.04232123836598969
84.34187680701605 0.2502639630916725 1589.5783064091509 0.08774144219111231
84.45531054841778 0.1808967842787687 1590.0156275519714 0.06609690458003656
84.4353124550156 0.2034104668425564 1589.925248747354 0.06341712836909004
84.45045396226021 0.1893542573942472 1589.9749064118707 0.04461042206026474
84.48227139011871 0.16542924312273025 1590.122079491345 0.03987684331690292
84.50940614823202 0.15384375118373703 1590.2086731748427 0.049139643783184334
84.50887453644482 0.1582463665697928 1590.180316859715 0.03456389103003035
84.35337160571916 0.25473072332505803 1589.553893596837 0.07382771797219764
84.47711294502155 0.17931454114624093 1590.0792169497688 0.04508128535423505
84.37192953906643 0.227061583876155 1589.71444209508 0.08495117045889772
84.38211092749081 0.22295496491638678 1589.7452804320185 0.04070828132819022
84.44738985341488 0.17818263403825432 1590.008111247989 0.054203325482744105
84.517181679059 0.2491575016283533 1589.5599180678971 0.06252068539760908
84.51686504808595 0.24798237403664142 1589.5807710548945 0.04725795727689289
84.5447844631875 0.14111144109200027 1590.3000294508631 0.053124838148839774
84.54833662866173 0.1479686341659419 1590.3104585548156 0.029087359631308485
84.54407418347833 0.1350666637736639 1590.3443981529965 0.09325006035088913
84.38349478876404 0.24513292325991007 1589.4465308056663 0.03881977803933423
84.39995843780876 0.2486462738529031 1589.463715976099 0.034492415207477305
84.43722406048542 0.24809995272482127 1589.443976592805 0.030657754563052562
84.41995002829945 0.25321381887167055 1589.4434765422031 0.0650380263219846
84.47998051604132 0.23472295843933808 1589.4395773488898 0.019282745511785045
84.45159447125917 0.24560437253987213 1589.4577198007196 0.015873337427262293
84.43297323808528 0.2557064849138922 1589.461123008484 0.0971267598529922
84.4419738351911 0.19634381761640346 1589.9023856789515 0.04853493763639649
84.35736072949831 0.22337652291688606 1589.6009235668773 0.08115671272610053
84.36780711342612 0.22899654473935363 1589.6421070283423 0.1075749240759645
84.3617353776436 0.23178302597143433 1589.5701245627129 0.0847475767492886
84.50890457149265 0.2343487428423682 1589.5622946659296 0.036360678930469494
84.34459818358077 0.22897374840191193 1589.5483843468242 0.07019444554872137
84.51987236926995 0.24869533477838354 1589.5340394787795 0.06699611986927814
84.55288009562254 0.08050939046832203 1590.5325598855957 0.09180036282515097
84.55475406909845 0.05953447261800501 1590.5611264987124 0.007015372548821216
84.5556404692427 0.05068387509299522 1590.572116683066 0.010075240343978338
84.51818522597468 0.0383555905797958 1590.5821795858556 0.05250374366056014
84.5397969524014 0.05372801286498109 1590.5690180815345 0.00893976103094394
84.54346665741289 0.03657031468559802 1590.6083498768373 0.04645762414769446
84.52092058150528 0.03776675717039384 1590.596117074942 0.0737499437905698
84.51541686841371 0.05946091644940557 1590.558548896199 0.08143485504584348
84.52131879666621 0.05967706177579843 1590.5526443574659 0.04845139840636481
84.53502057414786 0.07162557861029316 1590.5413828314072 0.06059106955871054
84.51463870094125 0.07682178638149156 1590.5406614345636 0.0558960924597252
84.50447944607922 0.04050420013576089 1590.6069195551281 0.10930651214230977
84.5046570547796 0.035823947015606566 1590.5920975710856 0.10200217500514996
84.53113641910323 0.04481321626003679 1590.58015604426 0.06311486319236544
84.53972051577696 0.05878154745215893 1590.5608488647126 0.008337970631394931
84.5499330325789 0.04026654443108444 1590.578994784408 0.01147684798360847
84.57121169305051 0.05432758937273021 1590.5736568396223 0.051540966084154746
84.56383638275192 0.044459257856658184 1590.5838213121492 0.0152671066982559
84.58947784556938 0.05688715310102854 1590.5749912735762 0.07066791347294094
84.58408293828397 0.0737178804870985 1590.5499414210349 0.03846279559776016
84.58721448066986 0.06346814312309887 1590.5601836783758 0.047806432253861775
84.60264602256638 0.047068618898474725 1590.5807194888048 0.0757194993076507
84.59797225383555 0.031180427429060725 1590.5943075266798 0.04929602366875683
84.57689880608228 0.03259029741295584 1590.596877602408 0.05338036156167692
84.56484661728237 0.0654770032136045 1590.5434078314995 0.008979087863621931
84.54967007441522 0.031158893828712435 1590.6043049891493 0.050480449546207076
84.60585383774328 0.07111824839728147 1590.5542209410764 0.09129992388659199
84.61068514594724 0.07059974954342713 1590.5661993724516 0.09579912679839239
84.56274613578697 0.030148338851621534 1590.6188222064445 0.10895762981664649
84.56432961801292 0.033429108600293 1590.6087894760756 0.07641398468957467
84.51408156962252 0.2289881444979575 1589.6141457060558 0.0768108027923047
84.5083466085816 0.247499358771837 1589.616100389249 0.08148288852363704
84.50635863892323 0.22987054609365606 1589.607665702049 0.08553187988061912
84.50180500632071 0.23035281788121517 1589.6182405531454 0.10457825143510706
84.49583581182625 0.23025053655259817 1589.6212363801487 0.14407426273667553
84.5124163260586 0.22586222062915903 1589.6432599275458 0.21645328510263673
84.51195178906484 0.24596643212011218 1589.6186405748242 0.09217561110216446
84.51122376903437 0.23878865496306553 1589.6327338714564 0.21148573254341405
84.49501044698921 0.23545078463365515 1589.623914908983 0.12565636621292386
84.51291162314284 0.22672989165914578 1589.6192940031963 0.0980421656261319
84.4966650192418 0.05954722621077644 1590.5778599969976 0.06379607161115051
84.51538679208586 0.04064269050594223 1590.619179084972 0.11746222427656292
84.51381861879698 0.03766882723921306 1590.6171733903764 0.0844667613241042
84.52102394662869 0.040182297340863454 1590.6100555008434 0.1144688194412402
84.54357065883227 0.030060752466782126 1590.6254670255266 0.06076386108145629
84.55392172838837 0.034511260673953825 1590.6246642711433 0.06857477798160135
84.58426591866413 0.022147757621306968 1590.615067349243 0.05319504344451777
84.60015353799203 0.03911653416618754 1590.6280428314008 0.0750019370013782
84.61534907247331 0.061056485965164 1590.5859143090338 0.07660209338978566
84.55547359938764 0.03796933859315184 1590.6378374909011 0.10797992123823114
84.50680755476198 0.08677292344128211 1590.5581605862278 0.08184719449103345
84.51548676772046 0.08875960479542652 1590.5472327414273 0.09015569423872073
84.49793766419499 0.07211808438434901 1590.56121945405 0.06124295512516751
84.5108864760882 0.08471857056780001 1590.539184704931 0.038926172429509145
84.53404613901922 0.10759257031535314 1590.532335944813 0.10763698579760998
84.60804058547802 0.08111990397768236 1590.5486680440754 0.09972386883573768
84.59277015303881 0.0872170784019336 1590.5354038053183 0.03412387848036461
84.54107477193654 0.12149474596357548 1590.4676978726523 0.10576214327724259
84.53340046176889 0.11201923321947876 1590.493739156527 0.07390067073815328
84.53711307515673 0.11288366669577753 1590.4700106488822 0.10473353334406975
84.53512528346127 0.11575554260640732 1590.4427268253469 0.05477677211655124
84.53893372656624 0.11148214481734196 1590.4533573231572 0.08934712102370479
84.529526128204 0.13513005170313536 1590.3995545557455 0.08866333469284969
84.5355550733493 0.11821620311985542 1590.42539364387 0.054323146668853996
84.53470949652667 0.1191580790694562 1590.396799625441 0.11432927137511015
84.53628935793132 0.11930663520782792 1590.3820108808986 0.15913347673932418
84.57478158209636 0.09987167216889077 1590.5126666686208 0.0510059217203209
84.566183240114 0.11129050233680507 1590.450546503707 0.1102264475034972
84.55676363238052 0.10006747592184806 1590.474043712091 0.10443940902154192
84.57041376026689 0.09698479918938874 1590.4845390734347 0.08942470637095026
84.56642726761905 0.11305696122899353 1590.415425368395 0.044981989274639936
84.56282435993009 0.08368524596431874 1590.512781070605 0.04009184956443802
84.55159915819478 0.10680862713440858 1590.4407393348542 0.06880399521593061
84.56181393825828 0.11055430602106066 1590.425105769663 0.0524686585898779
84.55262770970819 0.09370724853692566 1590.5092356988669 0.0631280084066614
84.55573528883242 0.09177610791617201 1590.4984822309145 0.06369508629210377
84.55211861467471 0.09850594440046521 1590.4743017569524 0.09191732059083177
84.55896675306808 0.11193974930793102 1590.3801908314108 0.11723945311505045
84.54830365084216 0.10916088261247851 1590.413722909167 0.06583512069039572
84.5397039502831 0.11522859637428493 1590.4162302327677 0.05709902333609981
84.56167022246376 0.11274190245219552 1590.4106705443403 0.04310728245761938
84.56028699207016 0.1159098590454191 1590.3944773435967 0.08632487934378137
84.54781441659361 0.109888036876063 1590.4087640146472 0.05477287598210659
84.53817250111302 0.11438047506055636 1590.4383683545166 0.05561094852635239
84.575116615643 0.021990217437925022 1590.627915437498 0.033200325410731014
84.49335601311859 0.07312111761714783 1590.5788240565323 0.05749098768154079
84.50514311118626 0.06900025177059997 1590.5947969759657 0.07837849045085979
84.549457493912 0.056924534011933973 1590.623464488104 0.017729157532942956
84.59891760470414 0.07315180801716967 1590.5899896493743 0.07005098700383175
84.60974360943514 0.06813250906670593 1590.5862114720032 0.08580722689524728
84.4957178491367 0.04606636483696222 1590.6056933871216 0.06201842920073438
84.54738967692134 0.031947301481373105 1590.6344570262536 0.07202675625780285
84.52636125132635 0.0408163839530201 1590.6358498383563 0.0721794840289081
84.57866942882681 0.03644415826913834 1590.6421736020297 0.09160777778013993
84.61083286297286 0.04177176199962117 1590.6173122601726 0.013526300848524115
84.5079189308359 0.05852051366708015 1590.6085113720517 0.09823211084743548
84.61352490253356 0.05859195451271124 1590.6051111371125 0.08713074580073743
84.60134039560837 0.052887843706064884 1590.6183529802588 0.0906468262320025
84.53506248547447 0.10540564620222262 1590.5440409084715 0.06423831512337065
84.51872591534547 0.09205213725832892 1590.5481721546914 0.08784130447365218
84.50109325545613 0.08747387209775066 1590.5654171656959 0.07706221726496042
84.59946631294592 0.08334719054348998 1590.5730812255165 0.14934350405096228
84.62080101061268 0.08474033126512838 1590.56046251562 0.09620324990806021
84.50706229863172 0.08969079910146657 1590.578970083933 0.08434531478782771
84.55763595921873 0.12878284576626448 1590.4783406044182 0.12796810465137468
84.5367563128078 0.12361679694720257 1590.44394067303 0.06198658853333653
84.55402391062897 0.14510755264262767 1590.3881726242928 0.20549539153415686
84.55099194760699 0.1448369846055842 1590.382276852432 0.19514846327366728
84.53624839207005 0.13623990519278198 1590.422499958852 0.07761458254430624
84.53333477786278 0.1218421894482174 1590.4309956144155 0.05697096617073235
84.60355017818874 0.14229943806258952 1590.664386531593 0.08951623918242185
84.59974286892708 0.13559838918454417 1590.7766293546756 0.08439079644822617
84.60257229666801 0.14272559851805738 1590.785459245847 0.11170832558934517
84.59439939568671 0.14051568885528357 1590.6301366871514 0.09994463929174824
84.59882557013633 0.1421425445212554 1590.4468463425007 0.11092305768059335
84.59806412596265 0.13945433710882468 1590.850092256761 0.13961826710530648
84.59948081581835 0.13962648362348098 1590.7498667071618 0.09930896787248962
84.60107765969775 0.13560775101469058 1590.8666880244934 0.12188463988188002
84.60127844086959 0.1457893830212882 1590.5366608333172 0.07712736332298817
84.60854375748478 0.1401617251195957 1590.19209886844 0.10253903762847978
84.5888769887715 0.14347248956519784 1590.2587608898568 0.10266556395109147
84.58800333730075 0.13466213248642628 1590.2333155081426 0.08328907237807207
84.59683822245154 0.14063158120730246 1590.151349304478 0.056097776523426186
84.59624679343098 0.14429495996672811 1590.7120786303922 0.08398297012481398
84.59905560645919 0.14267102814419488 1590.4121881247277 0.11877852740266835
84.60315303350303 0.13798082401284656 1590.574675647272 0.05862908255774571
84.60526634753022 0.1393878579970295 1590.6471713858868 0.10578460544338143
84.59856565813345 0.1347377055859274 1590.7315701092803 0.11345759027699749
84.60313553253533 0.13299119771871667 1590.6824948207877 0.11592053572759485
84.59889811986575 0.14022718025552677 1590.6660850389383 0.08377471970343782
84.60435891312981 0.13315329301923062 1590.2462367216312 0.07419545141688604
84.60654356759704 0.13518853415375284 1590.488721587987 0.07353706161065474
84.59871311763922 0.13808952873101116 1590.2137410111911 0.10817192381858312
84.60050346298574 0.13347088198771115 1590.6043208891233 0.0857460347596786
84.60805646576063 0.12932509095054662 1590.7132982466048 0.10585610014860908
84.60365227702036 0.13859333610795316 1590.4355666000292 0.12749336526225433
84.60774588876133 0.13510102955722783 1590.4772113734234 0.0641068687285054
84.60417295374474 0.12944072482634308 1590.8583559058468 0.11205725768291355
84.60547424997338 0.13951216534283947 1590.519806938343 0.061172601910786426
84.60905064634636 0.13392238993168487 1590.1985003477264 0.10480232527545012
84.60763142839629 0.13223608315777127 1590.4273829611768 0.11159798885248934
84.60688933852663 0.1289628192363543 1590.8002987626421 0.12886247825766026
84.60038782571715 0.11792777494391794 1590.2653104357921 0.10039780960983245
84.6035060404261 0.12530507309132088 1590.3953987347 0.14250568075318057
84.60319621143151 0.12410238098321098 1590.6608451628067 0.08246421273117645
84.60684800586999 0.11529050679521212 1590.233240183468 0.08155584759662189
84.60476864521502 0.1224975127191538 1590.3030873800242 0.09033809873829847
84.61069870442294 0.11870492839413857 1590.556296712126 0.06360554135306494
84.60413214777971 0.12372455641918796 1590.763851937701 0.08055274366358882
84.60247251342903 0.12139592191284616 1590.607726533787 0.11572845047933744
84.60286572458293 0.13047529175537462 1590.7622815992659 0.08161646431176023
84.60774876488807 0.13894081353205862 1590.7035336280508 0.09967960350903804
84.59975096002731 0.12023309967009664 1590.7925369967659 0.09004734323594929
84.60276512819365 0.1329720966027704 1590.513769742383 0.08704678650902986
84.60591892877977 0.13439621252739423 1590.2782544212857 0.08926853639451723
84.61033566367101 0.1332265193107224 1590.5804399627687 0.03253933626616613
84.61050915305373 0.13366553443895618 1590.071760579453 0.01867874618395065
84.59387846232552 0.12479976621367968 1590.719107330097 0.10290948787154605
84.60176819132793 0.13201192694344807 1590.4978881899206 0.07553041935795349
84.60657451665992 0.12686049056764206 1590.4477891879721 0.0927646057732696
84.61183099834965 0.1288606548095628 1590.7434042756684 0.1005760762672857
84.59808518433792 0.11179375617134199 1590.8566170682325 0.14443497437909525
84.60758736740914 0.1272985836166221 1590.5427739334186 0.07587797860605407
84.60360564902348 0.12381734469659457 1590.0882209251313 0.019261812517565133
84.5935869222567 0.12511960210990597 1590.245734151469 0.0913380295709358
84.60504952134374 0.12708425453754615 1590.5896940955724 0.09349140229771938
84.6038643970557 0.12283269136258754 1590.2845900872117 0.089053243853196
84.60361872756388 0.12824065825499875 1590.6380845874583 0.10026810483753629
84.60302740620718 0.13601141576298487 1590.4051826113573 0.14003738867368148
84.59785161694008 0.11190014723540812 1590.6842386719557 0.09449854808188991
84.60113234884749 0.12236531527568542 1590.6999625186484 0.09235336028550056
84.5901173178924 0.11217343583180801 1590.3907371676182 0.1051723873879188
84.59291180935674 0.12182266020522257 1590.7341936641074 0.11061386071220067
84.599841931263 0.12034572603087157 1590.7797708244732 0.08690988347732362
84.59678395336157 0.12068376593570689 1590.6752545735055 0.09481442631605165
84.5978259438294 0.12014206128177843 1590.2096433989036 0.10971928590420887
84.59256111168825 0.11918146587661738 1590.7459927051202 0.1138377386986863
84.60461536162288 0.12360403255950184 1590.7119553539833 0.10108203636760726
84.59313773172447 0.1278741953608114 1590.45846927468 0.09872012190052173
84.59977200145241 0.11240026406386047 1590.6047172894114 0.09283900781675238
84.59131761427267 0.11675870077922812 1590.3245722821061 0.0807582066712233
84.59840388017308 0.12069378484804073 1590.5828227864158 0.13548765709268443
84.60353770472777 0.11950133629268181 1590.5231572338732 0.08693175499069121
84.60152388329139 0.12448020581351799 1590.4743393463657 0.09829642319323169
84.60634656504931 0.12630510561038422 1590.2234250728065 0.09730172900914087
84.59598477005177 0.12228932053896391 1590.252571982355 0.1024508061085346
84.59973968505356 0.11612029306968588 1590.3505758629994 0.02375693929446305
84.59926019149006 0.11838595684993496 1590.3158046297733 0.10134917574267614
84.5991759233676 0.11664774002243314 1590.2944712856597 0.09001262813152237
84.597547707807 0.11746466030923705 1590.440713934543 0.11934901495584255
84.58132069050647 0.11487811307068058 1590.7588677479853 0.09718186467149027
84.58244218213285 0.12064801795976805 1590.4269559336724 0.08014866092945477
84.59205925617965 0.12427654646171182 1590.484297911599 0.11528519063664068
84.59578789053512 0.11695878180728282 1590.6892859792035 0.12238078629903397
84.59229247100437 0.11902017584104163 1590.6381151716444 0.0895428359064466
84.59211007727619 0.12186732216713564 1590.8721737068092 0.17563754022242134
84.60529995409523 0.12432803476195703 1590.4695541987562 0.07935497099843732
84.59692876640243 0.11091918950122087 1590.4214774201341 0.07515736397502114
84.59986338187923 0.12040841921211422 1590.2274287830685 0.07990131992202758
84.60702886895776 0.1062804928527699 1590.201427135978 0.10834149023588487
84.59268003606473 0.12419023677428692 1590.8481934409258 0.10833486508125241
84.58239930257892 0.13143826195490943 1590.720309775311 0.11218513991415789
84.57967590987009 0.12423320715283866 1590.2951724652987 0.193761752404375
84.58751661904311 0.11702707628138544 1590.7315347697436 0.11541309715397997
84.57694613139695 0.1323750382011451 1590.2472767814058 0.12136000812356317
84.57743989827622 0.12691518703285046 1590.7054378215685 0.10731619546373272
84.58377502128353 0.12059804662849535 1590.67583266241 0.12482002030135526
84.58536379068819 0.11996354410682822 1590.2685368913733 0.11625326854404514
84.57249727550463 0.11976902277471772 1590.3994918987255 0.16756442469617197
84.58417732434937 0.12145980459872342 1590.2946271102396 0.09210370767906736
84.58905249660698 0.13126768911645248 1590.7925396646026 0.1321966514013594
84.58035651599221 0.1179712734859201 1590.4480127400345 0.09218666890502149
84.58573146531666 0.13609721580767317 1590.765921096793 0.07004874747125309
84.58275480837466 0.14349186013835624 1590.440896980348 0.10759614708454439
84.59614636735358 0.13613591923174237 1590.2596389279684 0.09908570724993457
84.58898389469411 0.12950369065701559 1590.790563585912 0.12413200687169662
84.57369365811651 0.1252949084432299 1590.602561903998 0.07796803325906174
84.5836327216808 0.13330332924174182 1590.20250607961 0.10437639901289669
84.59142440313235 0.13750307340455134 1590.5901819657145 0.09591493143033496
84.57568637134374 0.12101468848851409 1590.635849957456 0.11833979288381812
84.58354581058127 0.13178228319934202 1590.1923733200483 0.162585234489223
84.58103706238792 0.12679282731645763 1590.6846650193809 0.13326911202902508
84.58933079913824 0.13589758344461852 1590.5276450518481 0.07073492362431963
84.5822405696185 0.1339346001004895 1590.2101876162926 0.09808172004643895
84.59033252950469 0.13901474265708688 1590.8552968026245 0.12514701901048123
84.58567057620103 0.1353595510834138 1590.4961886777528 0.07590976287584929
84.58085734841384 0.13350584503249222 1590.6666662237647 0.08491820204622876
84.59006819265795 0.1394491535436696 1590.726382167364 0.09992020065741988
84.582199787434 0.13592532911985356 1590.6277561647025 0.14139813990478883
84.59630911140687 0.1385866749601875 1590.66984646087 0.08264541115186053
84.58420755502763 0.1544485377615171 1590.1744904134785 0.04605979132601456
84.59248622787209 0.13671255318332118 1590.6404445177195 0.10301102308579456
84.58716185225778 0.13941670274327492 1590.7508096539566 0.09082536168520242
84.57970103277357 0.13700302550308288 1590.553316440003 0.0555758421915386
84.58641628565967 0.1351966234261558 1590.74342161331 0.1104624816759841
84.59476913829329 0.14343140425052767 1590.4476301336138 0.10562864398651726
84.59574247732826 0.14078907065453145 1590.6393801606273 0.11034781830320713
84.6022472888429 0.1454162724320683 1590.4680063223448 0.07329366794499444
84.60070694113483 0.14152036239842455 1590.743503123585 0.1266028155575601
84.60280510532657 0.1419268638633534 1590.3121867728512 0.1683500864194129
84.59065188676098 0.14590952106369384 1590.4211519085336 0.13525010410279567
84.58649012240899 0.1421616309123741 1590.5753499411364 0.11474088897236166
84.60014572191366 0.14517576849798566 1590.5565304089444 0.048917268718572576
84.59080146294185 0.1359539487207695 1590.5246471993487 0.07286681337119548
84.58961936708539 0.15076618199727365 1590.23079271392 0.06925512308014438
84.60299205279215 0.14161102862556307 1590.3058850887899 0.16231343511566398
84.59434255753469 0.15435580811206845 1590.2802401157087 0.11129384513369524
84.59419921507745 0.14534247542041598 1590.4930096318728 0.048905477613653665
84.58352968603575 0.1464170452552901 1590.609482107051 0.11124518190915984
84.59094247684025 0.14695023651187758 1590.1926849047993 0.18598752509121344
84.58850398830332 0.13615355671724816 1590.692798454294 0.12214800454841812
84.60266851173668 0.1340598417101088 1590.0664710568901 0.023069900445208055
84.59834941174759 0.12382912970212193 1590.069769507567 0.03424926709902624
84.58473280953066 0.14013654523458055 1590.8733775401925 0.07245483053906972
84.60547670368183 0.12280778715550097 1590.8685140166072 0.15140198615818304
84.60765382552972 0.11827416632336644 1590.1693464548032 0.13237212755007752
84.58048999879172 0.10911742638934734 1590.1688425365867 0.08848217950148263
84.58666549440456 0.11254473420567163 1590.3605807237 0.029088045687063614
84.59006498107838 0.15040822389959896 1590.3823677698122 0.07080277642302851
84.60889849737123 0.12278119629729005 1590.3736306664773 0.09446229980297606
84.59562754454974 0.11083533999245741 1590.3689068376955 0.030487260983424108
84.61018380653165 0.12284915825481948 1590.3863333735476 0.1146182434779341
84.58290041886241 0.1192196442627315 1590.3750632931149 0.11894774025705628
84.59513605678994 0.11663096928743487 1590.3825993585951 0.10887223392480017
84.63537441616167 0.09697335469661399 1590.3575231360269 0.19395083069224006
84.65658840995755 0.1078698530370235 1590.3616670904487 0.07535234475186389
84.64890643771737 0.12457347894973098 1590.375964546077 0.17676279655740315
84.65673156707406 0.1426564212043215 1590.3742424173145 0.1459980665801951
84.6466158228006 0.11977623904742768 1590.3758237671545 0.15702129752585411
84.64249676602041 0.11246578026919296 1590.3792170127886 0.14153064625828485
84.64574468727574 0.1405160273665929 1590.3811691494839 0.1705772094616174
84.62979632760808 0.1328065495238926 1590.3842877606362 0.10890432424327658
84.63005740479012 0.12108053954145466 1590.3829748322096 0.09275681946348992
84.64965474021373 0.14628956781747315 1590.3680724712879 0.19685913116269063
84.63821352513537 0.13365061177861862 1590.3519682953076 0.12792948021452952
84.62520092183182 0.11050816497859331 1590.3478327063744 0.13914172969441366
84.64612642618201 0.06234937732782731 1590.1302005137263 0.031756914602096654
84.54714556772976 0.030463981521667974 1590.1398328177536 0.03305106408328704
84.54387779569328 0.0777830584898072 1590.146063409879 0.0030543579801045936
84.63569230272603 0.07808881520884639 1590.1726280962694 0.040353965496397505
84.63652877813873 0.09191790582117991 1590.1710275235168 0.03612593754045522
84.65088088301653 0.05363513051439869 1590.1672862959545 0.009943630692390243
84.61338584874137 0.01680079773476055 1590.1687824740866 0.052626357740800135
84.56880196606772 0.10154449650667544 1590.1675608868577 0.012936121174772105
84.55784499551622 0.09181825141807215 1590.1683039682632 0.017101539717768777
84.54659116895769 0.06755381465847785 1590.1651758489743 0.03289138247626206
84.57526984178614 0.007864657210314131 1590.16265855201 0.05470957541870746
84.54856256683017 0.03337983930634625 1590.163523917549 0.0685212776234786
84.63731724209627 0.06524430879227103 1590.1697027542582 0.026877543445128278
84.63752636622641 0.07019948527152785 1590.159048195604 0.02552286667258202
84.64576127762925 0.0851977047417059 1590.1469420304568 0.021855907044770646
84.53463686621349 0.04599700026971026 1590.1722034330517 0.03710534036431807
84.56349416126777 0.010848859645584887 1590.1577143299594 0.028198679655113523
84.58062203284435 0.0044694878438617195 1590.1540390666344 0.06870909105897527
84.64170224007425 0.03040522194285657 1590.1699568091947 0.045891470301247676
84.64094497424439 0.0747478066549569 1590.141051680968 0.03032050171422907
84.63857210695552 0.024917820667735072 1590.167592092008 0.030692026669815804
84.62642862370996 0.00884341503341906 1590.165010786322 0.03392902182566778
84.6361074407804 0.10216037152361879 1590.1546153813213 0.04726849929067782
84.65181899171944 0.030243670705147097 1590.1451521822744 0.009094182974669431
84.63124562674754 0.00641165611770801 1590.140404808103 0.04400899405399389
84.62070789463921 -0.0026550933737352093 1590.1610849211688 0.018365384109030984
84.60648777222632 -0.0050354941940088105 1590.1515331376872 0.04719590382383291
84.58758442906849 -0.0027999592055878157 1590.168025360174 0.020442556166533003
84.557000393431 0.02775892253052121 1590.162722212848 0.03859001663497644
84.55338562730604 0.01133090859212894 1590.1599232913934 0.007728375379296692
84.54448191391845 0.04289503191548377 1590.1664286820662 0.07180913074484468
84.5507225219916 0.08071210881740176 1590.1627307114047 0.02201448472382581
84.55287420199237 0.09941475243342537 1590.154758614872 0.012980430188109696
84.5752914667299 -0.001350896134467739 1590.1335886764357 0.007030056926792503
84.55343840865817 0.02659443264643393 1590.156035671566 0.04002852457877966
84.53838578095363 0.05282514640990775 1590.1459404636585 0.05653023289717003
84.53524559463897 0.10918596393447964 1590.3571300482024 0.08380000785353178
84.56391652913864 0.12612615512079628 1590.3507071138802 0.10134642319886869
84.57813729676168 0.11939674044855936 1590.3803078069282 0.1527083681020875
84.54971270603897 0.14810686862482894 1590.366622361834 0.12242578486510255
84.57527633284803 0.11848273628351637 1590.3750139480521 0.14169539972663162
84.57755960129484 0.11616161200655001 1590.3656112143624 0.05893511075056831
84.55009189997773 0.12075562253472244 1590.3588545363878 0.14727955120097969
84.59961183015699 0.14287171911546467 1590.8009796528484 0.11708023302030611
84.59987839877775 0.18381443721501875 1590.799774115389 0.14653875966986324
84.61146518523239 0.16448883951709262 1590.8044355851312 0.05579466291649036
84.59577346104547 0.17391310876641253 1590.7936647326362 0.0956324619150543
84.59057896827424 0.19017858495550588 1590.8036613434615 0.151250248731664
84.58989572884086 0.17295676961068568 1590.8204704578063 0.10428536500416948
84.58764170524579 0.1353213660297017 1590.7994166737174 0.14602134389546087
84.58769186052145 0.16180711337576212 1590.8058888679075 0.10464868599104207
84.58960636141 0.17951587825308507 1590.8356519931137 0.10901699975193159
84.59122500960497 0.1610915031191511 1590.8353550614406 0.09077875342508093
84.58679493465155 0.18066243767872137 1590.8456168618068 0.09564714186906854
84.58710064061145 0.146331637403299 1590.8311426735438 0.08928801019501263
84.60401631659508 0.16184536999964932 1590.831801697018 0.09281879203182053
84.60420681037309 0.1845337708242346 1590.8084961609004 0.12036206602274459
84.61295730540736 0.14561710307484568 1590.8183507271617 0.10962385155863712
84.60271369114128 0.1517366093351092 1590.8381565262032 0.10075527501502038
84.61182962386587 0.12403907837850918 1590.8413962600825 0.0996457197175738
84.59909393194931 0.18098434244715897 1590.8413484112968 0.12558655183289305
84.59041453355593 0.1609554963928259 1590.8413373908797 0.08836500828028235
84.60408201643129 0.16260188564975736 1590.8433513382363 0.07759380174759985
84.59694736975159 0.18846361030504996 1590.7971058229314 0.1693363818509387
84.5795127740692 0.19413940109009842 1590.8106873999302 0.048471255028004395
84.60371398438512 0.18399763559929916 1590.8169069834435 0.08685040082165509
84.59585310853676 0.19379611930227758 1590.8342593038865 0.09561189336180259
84.59962681079082 0.19121773318349472 1590.8309880089264 0.08148244654628778
84.60413176136069 0.1211918365934682 1590.8320627039589 0.10759957097613528
84.59928983195313 0.12105813343410844 1590.810016639678 0.12788959908627226
84.60646493278209 0.13688425671698135 1590.8261596065531 0.11792832179789572
84.60454704631778 0.13434671414659796 1590.8046741816229 0.13583284067671259
84.59200921800307 0.11758203089554839 1590.8059701189452 0.14489577750877775
84.58778470664286 0.11608446367903752 1590.8356598504943 0.10498852302372434
84.5816997504792 0.11853055358944393 1590.806671405381 0.1372236438761049
84.58156384811639 0.13023648220644654 1590.8069324048415 0.15395119329725315
84.5816025675922 0.13052894822646632 1590.823746111036 0.11864830612432399
84.58530761556771 0.13898942027811104 1590.8226115025027 0.11104122702614677
