x y z curv
10.149574709241078 0.42589631039214215 871.813156604982 0.11440700884352645
10.152428939271962 0.4353093264920454 871.7698986842743 0.1017022637574923
10.141645891014688 0.4292447230034909 871.7888390304912 0.08250877802443513
10.150803478235886 0.4409776536595859 871.9444593043323 0.16903433338407184
10.1530112196713 0.42652382365636704 871.4811766404072 0.12230327972824058
10.15621605996066 0.42746056523247805 871.7413925430425 0.07847715805293758
10.150320484376794 0.42671694085678136 871.4052485450129 0.10608323413276026
10.145593438020958 0.4360704021233839 871.6354674695375 0.07744686115597745
10.148841611796254 0.4282723131188864 871.5077620891756 0.17159024169893894
10.145185096667388 0.43110506955389216 872.0513401160067 0.01443873675370106
10.153168539460035 0.4145449468881007 871.3768037127652 0.13819344796117186
10.15313615103546 0.43708269661590954 871.5373538945777 0.1148643929439759
10.146908184810355 0.41622724590689986 871.8680270304767 0.1262112904563793
10.148581844197688 0.4296644426924551 871.4419583633658 0.127520582433229
10.141244447051271 0.4223570365149105 871.8872069821612 0.07504752370950854
10.147971599293184 0.4154173563153515 871.745335088122 0.10674739332340981
10.153208324223455 0.43706470587171575 872.0340562206036 0.02040378300240299
10.155215366317332 0.43712940465517286 872.0480461610691 0.04118783200175182
10.151870890317701 0.4384785662932266 871.9149847393221 0.14504157454994407
10.15024080856826 0.43413154222594363 871.5650610956095 0.11572769653052732
10.152078763361766 0.44212143103557017 871.4956343842075 0.13667047773995997
10.154371107261712 0.43185707218639235 871.622211949187 0.13590941747133437
10.152445897275012 0.4387639559681119 871.6367671436695 0.12533519703607107
10.159616017208576 0.43907013641696563 871.8078761510163 0.15865888212037935
10.157845484073027 0.4374471339060547 871.5749026045202 0.11976390999139802
10.160644011979693 0.43713111886496 871.6587635146444 0.11079870834207389
10.167916022744423 0.438108259228483 871.9562874509894 0.23166789209848695
10.163541072506018 0.43402286104901633 872.0215612730144 0.13235176158924367
10.167301328105589 0.44214911249297656 872.083135986519 0.08142188139136675
10.169855606066013 0.43676851353838103 871.5262459048225 0.11172030547395834
10.159883268114761 0.43640668840252383 871.932084515484 0.13541410590189362
10.176830631647755 0.442995161036148 871.8895578225839 0.0322851302109436
10.157159868295711 0.43798541663438595 871.4382208843922 0.13561363232795168
10.1687761734674 0.4445344182745802 871.7437168759642 0.10317846654730972
10.17298635358871 0.4369683996776842 871.6040770174644 0.06274687090479841
10.157122038523289 0.43175821836021716 871.6683105756774 0.11370928433754114
10.176475287254025 0.42714808642430474 871.6992031684648 0.1481439002718468
10.157620669922569 0.4353863459639264 871.3820354547703 0.13675442736117452
10.177490949053336 0.4289200778844129 872.0859222344341 0.09446798595363427
10.173594949710642 0.42830646615688145 871.58790168003 0.09480578032331992
10.17414940891099 0.43629752018422796 871.7084975752663 0.10271224277439557
10.186569818674482 0.42273920276743804 871.5039997074799 0.15701157073025676
10.177433328684396 0.41808859879074545 871.5731428956781 0.11929733316370482
10.160634725170487 0.4321055331138637 871.9153259714594 0.1437353449563949
10.171051173323912 0.4402591492919122 871.8425312356018 0.08238373854899861
10.171063793842904 0.43101650110160317 871.5539494368236 0.09180225957758158
10.170379653901046 0.43192156073163346 871.6436029958944 0.13695004329388355
10.169659337692583 0.4275418999801242 871.5668983187066 0.09906406580799093
10.174064919161298 0.42784262836902054 872.0423646094904 0.02876633068024191
10.177137744319102 0.43332694688747553 871.4846214925478 0.11676176474438242
10.179101041897187 0.4346072029244196 871.6799428369657 0.1534265205178444
10.168097948540561 0.436631498519319 872.0179007938564 0.12977466445592797
10.181270133474575 0.4175459940808455 871.9029208959765 0.09170899486136268
10.172217592105362 0.43749627505950833 871.8242539043738 0.09225293633773042
10.179568608707426 0.43312233521155347 871.3824164753261 0.12844052747128532
10.18318302819707 0.4329204858728689 871.7978057316111 0.08526943115447902
10.169705712029458 0.4097568242389234 871.9113847788645 0.097905397360641
10.176073499782502 0.42347486721168015 871.7000704598813 0.13064065802696537
10.171446814410995 0.4240258776173859 871.7447139686403 0.08546715902352688
10.172490672470104 0.41643473488938865 871.8765596341673 0.1349046120612227
10.179906861426003 0.4108996850956025 871.6774850382993 0.12229193456484196
10.179282113389922 0.41059157989840495 871.7911690219588 0.12468411917202443
10.17068409357779 0.41812652811677414 871.6234862944979 0.09959931387587467
10.169800935895774 0.4132288177193653 871.4796860258974 0.1240895319018573
10.170576827294656 0.414508927898683 871.4276781764491 0.16011569030215458
10.180095634166628 0.41427496788120405 871.9401670376031 0.17604999095485233
10.1747031490506 0.41627365422837065 871.6057869680039 0.14709098477803442
10.1719221168565 0.4171176061525132 871.3680674705462 0.1558804452817751
10.170908912966052 0.4151219149203965 871.389244499994 0.13495940066222764
10.171661002910788 0.41325357481102765 871.5892942512191 0.12230247099165814
10.159438696518396 0.4096495814498724 871.6521493540336 0.09760964527639661
10.165062850044079 0.40990404706745664 872.0018584163114 0.179067086386658
10.171207652921007 0.40413903797789424 871.8548348669462 0.17505606371639054
10.161617511372585 0.41623129119470254 871.3879994636832 0.15443547029967014
10.167134977444363 0.40414576372644934 871.7765574563256 0.17283900316873652
10.166311395662968 0.4118780331791344 871.3839558973018 0.14370553100439315
10.170023903465427 0.4137784326210484 871.5078152805017 0.16985725314834568
10.160708829974999 0.41673215962749327 871.5657382228019 0.12694976301915598
10.164524054523149 0.412963777633607 871.9513022427087 0.17028639428175918
10.169202404155365 0.413289755505455 871.8721380788343 0.13826034128953515
10.178467748830863 0.41448147180200984 871.5341222644446 0.1375560067686282
10.164103792112046 0.40798734387336466 871.8230189446488 0.15606540158523544
10.176141330686237 0.4237201572614624 872.0346207129193 0.07111084476779413
10.16374523849394 0.408033933609719 872.1198905486644 0.038682370686439475
10.168854572581115 0.40782040092002614 871.4578785834201 0.12793926081158594
10.171870772241993 0.4184393934253734 871.725505929834 0.08283219678738368
10.169418203604144 0.4137156518877206 871.5798698788763 0.1408158415673115
10.163587760550255 0.41168304132322475 871.736415792763 0.09164156174951928
10.172597899741962 0.41710686777142214 871.410891449318 0.11197766677614786
10.179202131818936 0.4236550203306988 872.0509293913152 0.030564064938022512
10.170642476509853 0.41868288855405533 871.7300299033341 0.09227033191851194
10.169499355443943 0.4112708865362152 871.5869750206116 0.11224748918602877
10.177680148902578 0.41433991482336946 871.5151949738198 0.16340997227860582
10.163121286437674 0.4368763204931735 871.942260602437 0.2207309742139326
10.153573461885031 0.4348848469555377 871.8169575510998 0.11600902371601354
10.162775427021298 0.4375668952480803 871.7123791383888 0.08725638609760807
10.153083488898366 0.4306668875261863 871.597155063755 0.09993034791463654
10.163539005881438 0.4363786837053455 872.066260846637 0.09005208278374108
10.159510190519793 0.44107079417495176 871.7663459653952 0.14357202201548716
10.165458407040067 0.44017430205390895 871.9000806220969 0.16824376346155953
10.172431544397536 0.43636397914971947 871.7908093370578 0.18255928855681608
10.157833954773919 0.43992286872499764 871.8768938578955 0.11372673405426567
10.16901228166251 0.4307286622915213 871.4120212050503 0.12559163002052948
10.171591908674397 0.4361474512274303 871.4549182809395 0.16018848586649653
10.159769857391606 0.43371491368548354 871.525483622985 0.12053526016339876
10.172717350274345 0.43770650039513176 871.4281626741175 0.15426565412668988
10.16926302071913 0.4178851259120786 872.3064201611656 0.09664817599665598
10.175496817781797 0.43132242626509204 872.4813481949072 0.08615557680008586
10.171303605129966 0.414328787510421 872.3845219285565 0.1294602065485841
10.171612121800747 0.41581005246691904 872.2091638732384 0.19370825468362027
10.16895210723218 0.422915208850252 872.5603736171702 0.06304876996351615
10.17445199144616 0.4203513806413672 872.3958765961303 0.12849775069728783
10.16944199603897 0.42810412285637645 872.5489029929612 0.0691793563314127
10.17006601274961 0.41524759693903046 872.316807390109 0.12183491782803678
10.15920746676192 0.41520833585396527 872.3709075889415 0.10190636536768659
10.165691115273312 0.4124116034949277 872.3358667485613 0.07558407429792557
10.166494374120969 0.41093543982999353 872.373914407 0.10731238314359892
10.172863031116625 0.40978017707572223 872.5184391893453 0.08490747451117903
10.171284342298524 0.40774599877895273 872.4111432684556 0.11724909923714823
10.162122819042997 0.4108352917639371 872.2331201619794 0.14680054749864904
10.163677799467548 0.4119856868733737 872.2052544580919 0.16407687945725072
10.151453336024218 0.41749609489051026 872.2131942877305 0.0911555578093249
10.160100395181816 0.41359015190763004 872.3217089962411 0.12619378318437535
10.143987013814018 0.4107115220649828 872.4146805953369 0.13554742837513664
10.154774178854987 0.42905519257605435 872.5367659058103 0.08110354375999927
10.15134022010569 0.41973846487962774 872.308754055509 0.09125570212135496
10.150164601411321 0.42059468161580355 872.4420962501249 0.10470685972339508
10.152461417410152 0.4194105862105147 872.3854870383606 0.13480724046682888
10.151901818459555 0.42863014329023996 872.3533824262104 0.08746168226812462
10.153876040792673 0.4173055496784072 872.5699511975583 0.07249615288657438
10.155128983115501 0.4182510550837867 872.5249136372114 0.11259204764744787
10.147577732431781 0.4219794355797705 872.4761555378441 0.09091734259646621
10.15913833792359 0.41129622738649424 872.4279924158282 0.1662065466093417
10.149770708421556 0.42304812732070196 872.2219954343848 0.09465874557496035
10.163507083829959 0.42844830915775756 872.2729756293684 0.1013395203946183
10.153900800820622 0.4369223485943525 872.6083372302835 0.06411999016711044
10.150258079260135 0.4144913348485827 872.5073716361496 0.08969405743332333
10.148770976573154 0.43466494225956637 872.4134484229603 0.12807788590980668
10.154515411870486 0.4362408951071378 872.5842342818069 0.0882364994813032
10.16132906747078 0.4271884381432779 872.5492288464668 0.07751407609690748
10.15324620959437 0.44310275363006607 872.5534838769945 0.08467855870798673
10.161149475554105 0.4318318388118163 872.4121425989515 0.12071432275695013
10.16130335683538 0.4460909850790949 872.5337053927133 0.0937244961036237
10.15224319346974 0.4305526038059948 872.278731373075 0.09214032420675118
10.157495647570833 0.42722013057306557 872.374685219475 0.09676283779891853
10.162862489884626 0.43185551414912066 872.5048182317818 0.09085608444204654
10.155335023547677 0.42654864120263486 872.2241672582356 0.08988433139574468
10.146294752585451 0.4303895818164448 872.3972621002571 0.13269395917200882
10.160903828658748 0.4283556484394153 872.3685092437894 0.09808339760102845
10.15025120157928 0.42700706952390244 872.479413371899 0.07270754935046407
10.156913778709047 0.4350572157205021 872.2163539355771 0.08543114933291389
10.14216256668231 0.4282396140554397 872.1480914386857 0.03538611546177943
10.152458286326851 0.4031006822532126 872.5692093919946 0.039569011721384044
10.149002446537517 0.416530954451674 872.6070761330424 0.079724650806203
10.147170421381071 0.4210920970112307 872.3387690655935 0.09202269525192323
10.1611337354157 0.4083767053680985 872.5063572364553 0.07810455972428254
10.154799100202844 0.4154192831977156 872.6201149738524 0.09126265642004437
10.147531318529513 0.42078539832328454 872.2932754332145 0.10644847816601838
10.156319025077657 0.42554034383770123 872.6330138053469 0.07406896077684677
10.154366594070757 0.4241747159455791 872.2259191803994 0.08879674860748665
10.164113277742644 0.4307849420698291 872.2592918711268 0.11645634406347456
10.17304039847766 0.43762389775499644 872.3372165912447 0.09583694606359372
10.16482886143608 0.4382873953292533 872.2930605502795 0.08650737192818261
10.176101916943802 0.43700516510991366 872.361452855967 0.10833366986620523
10.177672345646867 0.43516637739964337 872.5056422813192 0.13376732961553472
10.172462771686446 0.4281112540701876 872.6260845955202 0.0928805238302883
10.173431433239848 0.4263917686088721 872.401337889479 0.13187560305321613
10.178040953854087 0.42343698255051954 872.6099448429034 0.10197234509381545
10.171013692270666 0.43213272489668436 872.5936512015865 0.09672595046047923
10.164400905100198 0.4299144122451815 872.2457617650025 0.1074997257139447
10.167362947149988 0.42898433827383653 872.3044438585225 0.1059394826513846
10.174158523510645 0.4266877621886038 872.442255519471 0.06838433446542401
10.183265112576533 0.422226557974008 872.2337460340884 0.07463781312814982
10.165301448551935 0.4281207642318457 872.4234133410395 0.16219468366193074
10.177592085789291 0.4274172373022029 872.3312685370277 0.111844563229017
10.17590928195679 0.43293021043236446 872.2583530767681 0.1302850073052944
10.175173751023769 0.42854820390227755 872.3641359111913 0.09144425343712835
10.167209674315302 0.416047797010087 872.3435642618724 0.09214901030511291
10.17181126044406 0.4253168076585506 872.465964745706 0.16051270806502319
10.174675410661319 0.42938973043118406 872.6506626860155 0.10924575367054112
10.16326886199842 0.4324826034114934 872.6382272827126 0.08072540408258938
10.157482090916607 0.4167594303589012 872.6619396200624 0.10267552535633839
10.172977783291612 0.42810392728372537 872.6528489892412 0.10935612019509243
10.159202501045788 0.4100562621833082 872.6377607334634 0.0811952640322311
10.162079598146969 0.3985244590458327 872.6653197085299 0.10668434339249738
10.159754733909685 0.39414667758781646 872.6608675503229 0.10686901343275486
10.159686942892677 0.41165162055773763 872.6695664180974 0.11097143765719479
10.178304236456837 0.41052737906410247 872.6407620322232 0.06572550650377604
10.180743123458234 0.3849360666616353 872.6747540512665 0.046644502063660415
10.175939130854278 0.13651181294938733 872.6607028348767 0.10143836348241306
10.163241400282898 0.2740844089542753 872.6572582145443 0.04580029079233273
10.165974215688813 0.19804710910096726 872.6569006658799 0.09564727745716739
10.156960505550053 0.3610504354744843 872.6650382135078 0.08877451031238476
10.158812216469123 0.3089009723400159 872.6587849663969 0.03174933637572379
10.159348960050439 0.3419987205335875 872.6543073750291 0.03410984860162211
10.156780583746883 0.37680397401466886 872.6607604898526 0.06985155709782548
10.150177172785163 0.3517272376815041 872.66332331886 0.050718491425032944
10.15687234586433 0.36561920396057024 872.6700671055836 0.07640177194706502
10.14779783614258 0.3373055110006956 872.6645606411718 0.03860273559634235
10.146653852439446 0.29476127577494043 872.6663849439417 0.02269143465198048
10.157643195515357 0.3106069283682291 872.6760985823802 0.03027046712588352
10.153385076280893 0.3564423996528118 872.6828740832979 0.07905440926185013
10.151046585144643 0.38030437035626036 872.6852541833243 0.04557888772121217
10.155427469560921 0.15442226771879405 872.6715218825825 0.08926306769724807
10.16395397082212 0.24933772299780216 872.6807956256066 0.025601655950185324
10.160339181444476 0.196624129926357 872.679801633181 0.13132696223765988
10.168532287307752 0.36070358864630875 872.6817487933961 0.10784662692271164
10.157924232284739 0.27055493347520765 872.6768068405873 0.06191607637343785
10.154686056316674 0.2910995511106529 872.6864056864217 0.04554522894827227
10.178782431017192 0.2102726488158329 872.665930958913 0.08227604331544486
10.171061526202271 0.11569587022692983 872.665136573297 0.1307578050707222
10.174004215197105 0.13630691321329497 872.6680661205447 0.11314041055499165
10.155237556667426 0.1147398268743226 872.6303159271351 0.057067734825625084
10.162939898807831 0.10487636772512018 872.6540791417036 0.11521058724364103
10.1512597921839 0.13960072913247817 872.674093012248 0.10796591083426307
10.151364468102757 0.09840466179495062 872.6354622118645 0.056404252636354006
10.167491506036017 0.08745083428974995 872.6451370980312 0.07258921731653649
10.173605308636114 0.09882724656141313 872.6138756452335 0.029515210897743484
10.15289764176651 0.10892758615567515 872.6096635560431 0.11868260808577821
10.149159448402603 0.41365331124740273 872.6391162899153 0.064671911651755
10.157324474089716 0.420445811514384 872.6549915104983 0.09580989951806522
10.165916988959296 0.41084016760513503 872.6752731233267 0.14716931276203157
10.144327134504447 0.13162091451474625 872.6632839079016 0.10938377125861926
10.155824482828557 0.1213355968588874 872.6780253357257 0.08965238299745966
10.163786577738676 0.11097869906663801 872.6766228442268 0.09058665927568837
10.148905256502943 0.11550588317888479 872.6570729894466 0.11325304695903009
10.173441852568855 0.42077064483922766 872.2747217741146 0.11902904639579893
10.170277157862541 0.40189475807820707 872.2416903392991 0.07394176729943668
10.14718014113198 0.41289847056337864 872.2697487542275 0.0888654198295304
10.147813993464847 0.42078296105922697 872.282449258511 0.12827334084095626
10.148552941896815 0.4122475831992647 872.3985512283662 0.12719511858657917
10.154284769897586 0.4119386455579152 872.508529090929 0.08897903483047033
10.154464363765483 0.40968660052067984 872.2992108051789 0.12136504115177124
10.157151224320948 0.43302297754562197 872.3203715761242 0.11750077664359468
10.152403684158543 0.4256011049740464 872.2591156443258 0.11003489906248777
10.166465995274384 0.432014078595544 872.4670640571006 0.12080294124485838
10.158252418682894 0.4036139625765362 872.6620768490211 0.09952966496397328
10.152441343645112 0.12012830573378148 872.6518363423397 0.08870748719440186
10.15672631601315 0.1043742478764491 872.6271321874874 0.06198826715553115
10.172893050926328 0.4167418064579198 872.5366821296373 0.08638631485217338
10.163200458955833 0.4133210901622393 872.2515677742368 0.11523416161993756
10.171888831820178 0.4125111070146914 872.4668917465674 0.1279185538237143
10.162304997947839 0.4089840496043459 872.4464350076885 0.1138939453794623
10.162939128986803 0.41404951350613456 872.5386227166202 0.08125450121069978
10.168188400439197 0.41005457262055756 872.2890403275978 0.0837972857016769
10.15610901368223 0.418417892168067 872.4739437326468 0.09233003726581672
10.156258462695192 0.4211465256479221 872.5946417037625 0.08133107583591703
10.153619295933298 0.4340959054443216 872.2666463961243 0.1347217874646757
10.161977500349083 0.4356548266135995 872.4307592872343 0.12297549712097187
10.16189245511868 0.43512144148459864 872.3430818858848 0.08462591455619263
10.158123517686974 0.4352170537869425 872.220158712086 0.0686402915184433
10.158937492985842 0.4390718947407109 872.4531644649231 0.1132103719322433
10.152976014408244 0.4311599563349422 872.4369167220182 0.10973693346503371
10.17317918786856 0.43693585309437194 872.507842668145 0.1334517373043127
10.165982643612361 0.42930859693431755 872.6095060689631 0.10092626117512588
10.16649145584355 0.4315602906110714 872.3846651160318 0.12032241088556668
10.163257477896249 0.4305397817874598 872.2466545033046 0.12075443728275082
10.160391990979262 0.43135667495608987 872.5321414159802 0.09589030168735543
10.165705708071695 0.44107945613431404 872.5702112661492 0.0671672514002606
10.149740819186142 0.21039989388769678 872.6615004884625 0.11609324920228761
10.15793509178589 0.17837201936528957 872.6639781531411 0.08936079024594588
10.15850009547018 0.15679285563626258 872.6658026228333 0.09134276877728759
10.163146624182803 0.2645889725737972 872.6575750376967 0.06531489141080635
10.161544249122004 0.16273518260046896 872.6556210454149 0.07050006941361442
10.152187089523851 0.23301771438936586 872.6681196572976 0.0821495877820253
10.15740985518527 0.21681979969194587 872.6856681482213 0.09590006453668691
10.155604957445796 0.3309643226576763 872.6809539865588 0.04891699636442224
10.155685632679871 0.19139574312441585 872.6736056555006 0.11194353680026616
10.155401518719774 0.2739753558315563 872.6715694215745 0.041416467684464296
10.154200966195619 0.24837879505988844 872.6708927909291 0.025875826224344586
10.147409327205633 0.21667448770132514 872.6735257477089 0.11408194711108702
10.168702267226742 0.18448233065207556 872.6828606151062 0.07896420527439572
10.159547797399188 0.16448456243257317 872.6694062949273 0.07226412116628748
10.152184375699145 0.25747536699067186 872.6649870793107 0.05725399226065514
10.151340255693288 0.3137183131319832 872.6659022491508 0.037695677445036616
10.146256864838872 0.19966594968348397 872.6680483122359 0.13351690997328522
10.1467747322969 0.14050799766358157 872.6607740588829 0.10264099617022009
10.17157248088364 0.10529411426003048 872.660943777417 0.1287268404753801
10.153757528696646 0.10811824279509599 872.6471101662677 0.0939022118048317
10.160356924239029 0.09040064079505433 872.6270786079123 0.061195621221471486
10.168503330832797 0.4109055176604707 871.3557395392841 0.20430352217461764
10.167670029223927 0.43844607461869295 871.3636556803871 0.10719351635621309
10.160503853952664 0.43629652370892713 871.348813060291 0.12288666927891248
10.035011906369355 0.4071628929772442 871.2961919979243 0.03034908018158534
10.02539312818053 0.39229905442292934 871.314342157641 0.04584284732717197
10.05664159917348 0.4058242867203678 871.337537371831 0.10259451196109146
10.029890816701647 0.40970102858112833 871.3387279417504 0.10407505412810006
10.025497217153529 0.4031632157971919 871.3348574778238 0.10093247960545597
10.018903280540522 0.4430553759317662 871.3147781208241 0.01849317240449677
10.01059308962143 0.415257886205739 871.3205631892171 0.028991021813294233
10.020117881620948 0.4244504807570325 871.306945918448 0.10897457020378339
10.019985781879242 0.4053696535746559 871.3346286654737 0.10868241368787863
10.019924451972816 0.4363114310103715 871.346050044686 0.02216139325187651
10.016841835051867 0.4295988477648704 871.3131307461072 0.05483235634959653
10.044399480526689 0.42303159423936393 871.3482183882288 0.04649967589245024
10.019076214269113 0.44556219662019436 871.3274732730565 0.10603894175309618
10.150578152986983 0.4119687080365987 871.2841079967602 0.0006339157394014648
10.169024321466068 0.26368399960279676 872.1454897643358 0.09430176732228397
10.158343847164222 0.24412563079111965 872.1429301510753 0.08210343408382917
10.149860586150748 0.24134357829107542 872.1393710657385 0.08986670195039426
10.134108591587532 0.24860554813796465 872.1629172143805 0.06085086529561351
10.106697282319114 0.2321715398493584 872.1635119351715 0.13029906975402253
10.096819190486453 0.2455008569456768 872.154175553072 0.09643595923088563
10.104088154040035 0.23260124060750526 872.1548284012979 0.13919242546889335
10.06925487997424 0.244652988167503 872.1395005266372 0.0773538581519718
10.082573658613986 0.27087889680626437 872.1538997056582 0.10757746454756949
10.070564497063913 0.2607794788149054 872.1364435982987 0.13094339904272295
10.06835899859251 0.26212921155176866 872.123004444164 0.09589607368785674
10.110401471457612 0.2338757324477266 872.1650141588842 0.16855655044394866
10.094223522098522 0.23714396201994922 872.1492616855653 0.09606639596605959
10.074789407700743 0.2829259082999276 872.1223632000978 0.1431942378125627
10.070809509760776 0.30213474490729725 872.1072070953161 0.12709751409961095
10.089244106470977 0.30640035710078517 872.0927608230211 0.054597921303509996
10.107648830715558 0.3728293715760303 872.038018117165 0.0454499273226778
10.107609628203669 0.38777744545472953 872.0347429727931 0.11227464273782398
10.104202093917749 0.38128348626000413 872.055044952774 0.07904704774194053
10.105166384513128 0.3832935153548145 872.046845233499 0.09168213725099461
10.119050268564477 0.39143406695503485 872.0607425187557 0.053721879341246594
10.116897584397044 0.3805472503166687 872.0182899003188 0.10660607511891951
10.106037649596196 0.3993305633388612 872.0229337885984 0.10689616583468534
10.11378778290825 0.3933102475231573 871.9980951341548 0.10899296141592826
10.098869435528384 0.40106442350885657 872.0078291480208 0.05012737505143842
10.113306141375586 0.32935772647890516 872.0622120794399 0.06320641161864353
10.105407016938651 0.3422526216355428 872.0599970793826 0.042544152757185934
10.112033862588339 0.41097094102488546 872.0214620573266 0.06887087564326036
10.098742406194026 0.3607665496949946 872.0614478447783 0.06721990383708647
10.107739046796718 0.3668406565133675 872.0718315805209 0.08700976753342436
10.107395110216535 0.3670584230804696 872.0715197081454 0.08671584377163863
10.099969999702092 0.3492795895978463 872.0835850465952 0.022361394934391106
10.101660353757964 0.35005707116518187 872.0727447619937 0.09867166691962145
10.11136757566723 0.3535704206641308 872.0967696026095 0.047568680176984346
10.110469148751685 0.40568439454990624 872.0388724896687 0.14262439511519348
10.1237149267506 0.376241684129934 872.0227503078496 0.1067151450120674
10.134494147088771 0.3923459020493945 872.0114615455392 0.14713327290335432
10.129674941865046 0.3765669891004638 872.0759660746584 0.003120810052579417
10.12138399879043 0.38165045719058666 872.0063036609022 0.14053801795056386
10.108882371040169 0.3308806551638478 872.103852929762 0.016943712755574783
10.116713163751974 0.3141958092052971 872.1264143066512 0.0013141240455850326
10.11371601112159 0.3279292714814405 872.1106130532453 0.031361943052639014
10.128992981428322 0.303717023967748 872.1317671833416 0.008773276402520729
10.100068445254717 0.3119940640255084 872.1221068864293 0.09965714418339042
10.077488411207325 0.30890188969432797 872.118296961496 0.1442915250243913
10.078097808015002 0.2855842441440241 872.1392374145156 0.05503359846678307
10.107912399211308 0.250618426618691 872.1630742893736 0.17564165069664636
10.080505540151892 0.2564572435978479 872.1516714715476 0.0718462110827773
10.096708994644018 0.260583598730132 872.1616381224972 0.08041291548315463
10.086998056287477 0.2979573106882818 872.1323942479562 0.15386766923447134
10.125768302371533 0.24413830699758501 872.1606137202696 0.07313288349013417
10.133833310647933 0.3035697530136217 872.131579170145 0.008748392106102176
10.152727478511487 0.26346734697207247 872.1527849586382 0.06891670363882806
10.126327463016914 0.22446958470502773 872.152016021574 0.05141500248546478
10.20819847942991 0.4271845570912773 872.1755920795046 0.0002723938078914112
10.16400945321094 0.4091391128054903 872.1514589395197 0.04694952986846972
10.18131372703119 0.4113939817443409 872.1907493081329 0.020672976987374116
10.145924785512227 0.46825106570710845 872.1839263560198 0.02192186320069952
10.155407145295495 0.4423613029616379 872.1962977680172 0.044594753485409186
10.142230571868293 0.41683739889711346 872.1557099648262 0.03047056078411863
10.145994926164827 0.4317185867833749 872.1925977384993 0.038345014406678084
10.15008454820465 0.44154662138052586 872.1816867088147 0.013026113530617042
10.153278580954007 0.42103355040561524 872.1261834559541 0.0581737913311362
10.15220404839607 0.41368239630921977 872.1691856448738 0.08174854980841677
10.153464309519213 0.4129932482017068 872.1735673917163 0.08205722244478582
10.151389877264384 0.41216672059059234 872.1361022532262 0.01668183896347759
10.150184768607712 0.40458398864180045 872.1920643664529 0.08265106609946299
10.207183783253328 0.4225279711793787 872.1597186919241 9.066461399900389e-08
10.194989287268516 0.4301143925896159 872.1952321157511 0.004398867713354691
10.14703317788598 0.45189731093603036 872.1885932837105 0.010993608201241964
10.195993582094353 0.41850689572728317 872.1724414576199 0.024757402648562965
10.104859328256353 0.44752112404044847 871.973110455102 0.20177292268832542
10.108270599262339 0.44112684191166784 871.9807136012098 0.21645918170670755
10.127405848884061 0.4101020442722326 871.9533367157039 0.0766952342910378
10.117345475844754 0.44755908482465867 871.9763429579028 0.13283606854745691
10.09743834213363 0.4424786348954802 871.9643950957377 0.09971056834135154
10.133642449964508 0.3974441439045943 871.9684095287141 0.04054422018639679
10.126254952682517 0.43784660362434963 871.9894974562544 0.16729439665896328
10.114357288010854 0.4122168613585517 871.963476425084 0.12804025675810082
10.116838879684444 0.39541216701701126 871.9770036914617 0.05993880041283044
10.102055956475933 0.43004975479348073 871.990125862413 0.1424733525451541
10.137390983119001 0.4287930922298309 871.9956978284874 0.1813111410628748
10.103132170604246 0.4137786451725422 871.983513409127 0.17708768120960894
10.115055709712415 0.41431564482023236 871.9595663938347 0.17678997142282296
10.136058603683473 0.39775852504855014 871.3194774393093 0.035907714507377786
10.086795794667152 0.39369739348763944 871.3322395552145 0.02544701170820945
10.057908335868333 0.39291293906737607 871.3288860585657 0.057976039096104895
10.179690605740571 0.4071294383478398 871.310665335773 0.004394408102961008
10.112439837394433 0.3919837193298314 871.3179871242817 0.016440436048647464
10.214262285278323 0.40357679500329857 871.3213367870553 0.014584892579910306
10.19366659199108 0.40311475472131547 871.3188651726794 0.0076712213844799294
10.240196841997182 0.4059911066992496 871.3066979702652 0.025879686051804372
10.250030734444504 0.408053840589325 871.3108755532419 0.02709660388137559
10.221089143424887 0.4117351571905127 871.2991495877606 0.0007910740163796359
10.054871661650283 0.40664348798262956 871.3015558541799 0.1292270147871653
10.062416201452864 0.4009848681846631 871.3123102869419 0.05794405246582367
10.158083191276503 0.4052938182948562 871.3123050623972 0.022760598151989136
10.152876989445199 0.44899446225086337 871.3289511684909 0.0014051231457737
10.170036097866058 0.44028245862043863 871.3345354757446 0.07913165041858378
10.069848447956637 0.4201784674016515 871.3489599387151 0.028413368778518126
10.113160204942124 0.42885100131871845 871.3463952384423 0.0378653334120008
10.192278095056334 0.40257945846546395 871.3393953398484 0.015624463261680425
10.23930238659078 0.4174903424746289 871.344210397949 0.15177419526107055
10.267816151508379 0.4102830122960329 871.349591860352 0.008996752780366612
10.249019562952402 0.4087480297033134 871.3374565241278 0.017754152945754182
10.157605732110149 0.4036886892747017 871.3360205296841 0.12292689044890454
10.136703482573015 0.4105808485815125 871.3347007120229 0.06723217144059189
10.21308585013289 0.40861626349783536 871.3557130129244 0.008907160501517925
10.090247691833058 0.4210315056490921 871.3544049040922 0.02050620609294941
10.052457628142935 0.4054285409670461 871.3345820008651 0.09640931419055712
10.176192500410346 0.40095284427564243 871.3290304829176 0.015575377115772901
10.104242718852994 0.40720519884657536 871.3424723952982 0.032771939478930104
10.242872274023306 0.40848607064035347 871.334669628291 0.015581376558425808
10.195466933600953 0.39815704033990834 871.3292923486864 0.010026068422830827
10.221289526234743 0.40594628782336084 871.3314581503314 0.016875454941861802
10.266701371846741 0.40299005711964153 871.3259969723736 0.03390880691808245
10.088311946356633 0.408730004903285 871.3383745748397 0.044885921023709204
10.128081389154541 0.41026754463192355 871.3370196337266 0.041210580262053945
10.11063491951379 0.3966497582354743 871.3345965321963 0.014365482798182902
10.083012251165973 0.43496352331508337 871.3433894223871 0.031420315553847014
10.180555126190281 0.4413817487008788 871.347263064377 0.03858400881807396
10.051857862516645 0.4412036545314345 871.3431343531262 0.03742392900391856
10.278464007017389 0.4167119069720117 871.3015654068059 0.09534843199764129
10.238606320748634 0.4479387262092292 871.3457103873442 -1.5773906366059183e-07
10.153136769875706 0.4857098319437993 872.1986958930373 0.2063366125318605
10.142274012094557 0.49820590683440774 872.1880946870127 0.17522344250066835
10.167700050721692 0.5020993129147389 872.2148907055416 0.10979720270999127
10.161862178769798 0.5090726388728399 872.2142782798394 0.11011549051607204
10.142375585417241 0.5022350146707635 872.2102297876745 0.10875665808740743
10.13541153140972 0.5051439528885164 872.1948020847881 0.18657727605295227
10.152377761144646 0.5061753665442003 872.1632669565261 0.06596677876055662
10.146232923850738 0.5133836336866611 872.197473309951 0.08974153711697509
10.138459369099179 0.5136105311401984 872.1723461335895 0.0641823584992006
10.138555572694582 0.5114265683258942 872.2008817301173 0.08952185415641584
10.157258089889988 0.508522476787973 872.1578698683251 0.07309991421965811
10.161723727899101 0.5079486646022137 872.1707160751589 0.08024797187849844
10.16873899094147 0.5088450424071116 872.2075568005823 0.07844230686041145
10.17178577296839 0.510027390141261 872.1944859399802 0.052017715909638496
10.173045941410141 0.5080322220979957 872.1875647189524 0.06610587451460295
10.176352330362956 0.5134066804822206 872.1559112066852 0.04037878609499419
10.174251633296626 0.5088515528463138 872.2150570404448 0.10054351802106688
10.1853802603807 0.5127742479646826 872.1829153828272 0.008698030584606947
10.131612574145139 0.5109480582746514 872.1760940271712 0.07579787546687887
10.159624970265925 0.5109355288682488 872.1474600991207 0.1094285372576539
10.195600892562934 0.507658799466674 872.1814855614762 0.0020885186459209245
10.145641560519378 0.5018682292989961 872.1567372981298 0.10367073644822226
10.149356506665878 0.49168677100378366 872.1656976960406 0.1981666995699899
10.142175688209095 0.4980157205328592 872.1705269181639 0.19966920087672596
10.142776723091853 0.5008240853110538 872.2055547191349 0.17101350656361086
10.153548731451213 0.1016027585062405 872.6029210341229 0.11420582570180123
10.219862078769818 0.5100443147733905 871.3392606097646 0.06007491721482919
10.221300155700016 0.5173074323812272 871.3202168054947 0.0415604908974669
10.222423395895662 0.5142020426575038 871.3086343705756 0.014393250204702937
10.226701671384106 0.5137482956855502 871.3312078757491 0.033933982197172384
10.210293601225835 0.5028173921249448 871.3242631745072 0.028018389431800805
10.111469571653945 0.45411786229038836 871.9115873401364 0.013029521157706477
10.109316356581452 0.44541596854654375 871.9376967134974 0.06762913131345334
10.117993365343274 0.4514725226415211 871.9288103095869 0.07093717505826341
10.102884194736422 0.4557550253208322 871.899517688068 0.01822085921625207
10.12494263634083 0.4458828924544126 871.9530730362902 0.2397753766144987
10.111646855564208 0.4557798694749981 871.9328633398422 0.03376506303048991
10.120482972221808 0.4685041007960694 871.9123637786475 0.015536148943277739
10.114989402855548 0.47047089369250544 871.904693621832 0.017491195637451846
10.118833971278068 0.4724693250621693 871.9008142066566 0.0223582097920877
10.114381495632415 0.4726192461301843 871.8816953635701 0.011672214061834815
10.103701425020898 0.4013542140605447 871.9973554861614 0.055348332638369344
10.100003839609037 0.4246963778986273 871.9774564496482 0.09786747552403821
10.085926179253152 0.5211153585373645 871.3318578932732 0.05313574721758719
10.078121936450314 0.5171367561806193 871.3279572172078 0.06030799767572239
10.163674579682525 -0.0023883966954950917 872.548651242422 0.041781938747589495
10.198243839361615 0.007864551553293873 872.5455963823674 0.042327298472323645
10.175444654523062 0.0020199295798272077 872.5590974979564 0.037326448114568665
10.235909747393485 0.028347705655193685 872.5560612500963 0.08018909969373106
10.249591830110022 0.04648158577375527 872.5461603844356 0.04195884819762187
10.252390466983972 0.08176315693414936 872.5432869444618 0.00038324962497067824
10.25587090948145 0.12702754589947698 872.5597370947406 0.012144256042394455
10.250210632601455 0.13703768201664562 872.5657198664749 0.0002504515090651593
10.239935638324296 0.16323940067266557 872.560706477488 6.543002192280538e-09
10.135467165003622 0.2010426016644391 872.5505059456302 3.3057896525893627e-07
10.131972617655263 0.20344633676615861 872.5643507125541 0.0011204922917561306
10.112131036256827 0.19305673745221047 872.5548549007851 0.02759388405986579
10.083862615442163 0.1745438623735843 872.5599204226389 0.04893945561978065
10.066651403888194 0.12235080430751426 872.5557372016916 0.10983077511025172
10.072241876556259 0.13805658476806737 872.5499499111321 0.0692875209411148
10.057739730163881 0.1085555703783671 872.5502824332777 0.017148598068509338
10.067778875085754 0.05952211908988195 872.5522846894652 0.0676692066438421
10.083706451488592 0.04312750927688356 872.5550058121914 0.05871383306426296
10.076764849506727 0.05833935373142554 872.581625411524 0.07666322298137296
10.107192394664745 0.00676471576021972 872.5528815924247 0.08100222850336931
10.12209458299638 0.005450745347819052 872.5547756201071 0.08005316509195066
10.122540410857955 0.014669868017549373 872.5648980523081 0.0518950526937491
10.152851450324066 0.0018967536598990683 872.567953751496 0.03144564940343314
10.148716437127304 0.007135764942765762 872.5564395289484 0.043886173007601864
10.188629668620251 0.005492590958651846 872.5447291643859 0.031374950261387834
10.21190115562989 0.021205509888965485 872.5446374305467 0.024478728367279823
10.218877029321437 0.014707732021220868 872.5560948876082 0.028316196731936888
10.255281740695409 0.1303039492980766 872.55235852252 0.012057220569516483
10.071006584409208 0.13942760076183747 872.5527129376114 0.07008691831743889
10.083005233758149 0.160249284145844 872.5471666139573 0.07591293787907702
10.074540943254508 0.1259952539270315 872.5443026867688 0.07101890965313695
10.078872485917307 0.08327852200289611 872.5604817651861 0.03757327660748137
10.070247138433293 0.11204322742331317 872.5466732144256 0.1024894845552347
10.07600646704051 0.07100894786388455 872.5460527637271 0.036984457949361615
10.07669551513027 0.06271059939772111 872.5594756034247 0.0728597298656918
10.109287141258472 0.019167780522183486 872.5473853397764 0.06319493030127032
10.108855617131312 0.03261398511749872 872.5435271248235 0.03508492154911598
10.14247607981286 0.007120157291057343 872.5498149720808 0.044718454306968664
10.18251663731547 0.0031539047662196584 872.5608561475563 0.026663455914486055
10.172119686893426 0.019084826893723678 872.5721375577492 0.053302466667861065
10.15487930685253 0.0030215056987105636 872.5654317121125 0.048173047346822796
10.192208406589074 0.018373452137198293 872.5679235799229 0.028027738105343904
10.1996457827393 0.03883718834061492 872.5709852449862 0.03207265795353678
10.220802288527606 0.039241114733435535 872.5641448174173 0.046611109266334674
10.217357368097293 0.048544171583106206 872.5694423316534 0.04857324244661427
10.23489296355404 0.03553793916002472 872.5605848521789 0.05513468362542886
10.237983939285733 0.04190706598018259 872.5658647291641 0.03571769271858875
10.254687010643927 0.07099521634546697 872.5581925117469 0.052491332854913274
10.257035437742093 0.08491696607476129 872.5721284091006 0.05706476961768965
10.227612061215002 0.06711541934266013 872.5712506096952 0.02509624180481162
10.259084844123167 0.09392115456508301 872.5666805641481 0.006728819116452289
10.262008746598022 0.10763274802487699 872.5705758002134 0.014545067149587816
10.261249988314683 0.11584937800788005 872.5601645061711 0.014575287447201567
10.139917675992665 0.17348775492472718 872.5729144185894 0.049430060146583764
10.10723005519697 0.17446334833840943 872.5658826428731 0.023688320474266698
10.097283123627019 0.14331010538269937 872.5710142964223 0.08296074598168676
10.06900320039405 0.1545179693746519 872.5641590852543 0.05539319378519129
10.084920641916208 0.13159479772343985 872.5708034953489 0.09601311423190002
10.098605195337868 0.13499686320659268 872.5741641314224 0.13343311852983045
10.067217786655652 0.12490406958444093 872.5625021291695 0.09238846617464283
10.063318986219342 0.10370802152158004 872.5752881985812 0.06562221936735284
10.07187280409832 0.09861150810555921 872.5667142596817 0.07125556562995206
10.077733605750554 0.076090602409544 872.5648820861726 0.03132145410645382
10.078461093316808 0.03884570123196097 872.5653623943726 0.054144793157533275
10.122790632171165 0.04691606298827634 872.5696952058835 0.10145776741811204
10.109694636794854 0.028554038551881142 872.5620576183671 0.06736477101122895
10.096820757689864 0.04005779732165474 872.5622162798621 0.08193566152756501
10.134857011866155 0.02787964227032689 872.5689937182495 0.05604717731847548
10.137724102312042 0.0035199776391015934 872.5640926109604 0.036665699896192026
10.142429586366445 0.40757868904291494 871.9801779418613 0.20970655804973623
10.139558659403287 0.44162045016211543 871.970586628543 0.2297690108126405
10.149089141345728 0.4056021244397982 871.9573833221584 0.16727837462109857
10.15095232241981 0.4067855414023699 871.997720850066 0.1147008315746887
10.158375412520632 0.41080306731514304 871.9889093676044 0.21400406110829934
10.209699233882754 0.4068442228146016 871.9820197421545 0.16160245182630134
10.177169667489412 0.4031959000975941 871.9618637823718 0.0776866606413007
10.193261417858235 0.4192097452259269 871.94722526518 0.09879947801649053
10.193747966153785 0.4392347976722543 871.951884693005 0.0996872233588112
10.188219945983104 0.44602469276180445 871.9926029656067 0.07672892546500235
10.151913253571259 0.44730767127906995 871.9865734598063 0.09140987305920334
10.14426441852431 0.43708949583795886 871.98995420611 0.14406336999763344
10.191320793744442 0.45149989482501973 871.9686913025195 0.05344260796869174
10.153140200492722 0.44343144186985534 871.9654438866031 0.21073014731165116
10.145702718017933 0.4317371626844649 871.9979957197277 0.12383102883799421
10.183658316942894 0.44580168582536034 871.9875748201988 0.1068980139988796
10.200995161095538 0.44595117159757436 871.990225461476 0.11124907155447417
10.204082520812655 0.4240475672817751 872.0004061569207 0.11377853906171552
10.21259645234577 0.4247568483339124 871.9600113176764 0.09003148564792503
10.207449588726748 0.4355681771498755 871.9778749011725 0.15490499385235204
10.216969947193808 0.4219104572490123 871.9749532651856 0.13330424950941694
10.210587372506922 0.42067166859071575 872.0012558660266 0.10081463290219544
10.216599022771938 0.40242446476315163 871.9703753039202 0.10011803001531487
10.202254752711564 0.40770838312951213 871.9656659074659 0.14132682542593583
10.158075938166972 0.4090171795806086 871.9713465562941 0.21375322073222805
10.181967525014583 0.40855635377103683 871.9669585887322 0.12187727684499668
10.190882161760953 0.40765645199480016 871.9891268906822 0.12688197487134148
10.198737397935552 0.4462043189355453 871.9732504159438 0.12074462939254992
10.208562100067244 0.44195806230389034 871.9664903139028 0.08663916671898271
10.296735974920093 0.40595623012722304 871.3522697889567 0.05963044708928651
10.291339581926579 0.40452965487859904 871.3224002622846 0.09042194451663432
10.294485047157629 0.4432646390246927 871.3813993171152 0.060573932731940186
10.314139287257204 0.4270460143503651 871.3927697264817 0.06577973260923234
10.279986069268881 0.4060661904004992 871.3333112489287 0.03918147366296129
10.278570078348558 0.40841015839594447 871.307795805235 0.06525223583594134
10.295123937561426 0.4429369350158028 871.3183555903786 0.025759591315721267
10.296627851914993 0.4480327648395218 871.3531994658057 0.002988586337665979
10.310183439421603 0.42175989059182833 871.3959893183237 0.10581715938839052
10.299385996473024 0.41683390821715943 871.3214729233122 0.059083784392201404
10.306333893519476 0.40777165198111515 871.3455725491402 0.05440033392430393
10.3029473736052 0.410965359997106 871.3749638394569 0.06418100908793127
10.306018277840717 0.42227017199178646 871.3358250100692 0.09105817620607129
10.30930236955784 0.4257871702183964 871.3609279571303 0.045424583302717675
10.307318206729107 0.428472104012709 871.3737731885054 0.04832204605730662
10.299571572807363 0.4398315356399039 871.3804901503601 0.06992363792246042
10.308034047176992 0.42196500841881257 871.3427901432692 0.06206072102828766
10.30496394603656 0.4089404582862268 871.3663521902248 0.05633487284774855
10.299720738460039 0.4200055528057011 871.3913441679454 0.07501831280703103
10.06883444718502 0.503403951271789 871.2985206229298 0.039916068390736234
10.060936394682452 0.4997427878566209 871.332286560208 0.06052775179540053
10.062370189563408 0.500686470885738 871.3466841435858 0.05487219079696615
10.101703907941705 0.5068587943788357 871.2918880751744 -2.6735236637450268e-08
10.072353402554937 0.506141888982973 871.3368748806058 0.07536967117703683
10.081798967866597 0.5044479329110731 871.3464695379926 0.07478318100324367
10.08788971261026 0.49891182837982323 871.3511815888223 0.0932228590748959
10.101624121239459 0.5042094378525523 871.3495571435489 0.05620961182452034
10.077837457150713 0.4950073402730942 871.3646505208532 0.06640903489647969
10.070056819514702 0.49518308226449287 871.3547759288914 0.07204499768070245
10.059386660487874 0.49213905992588153 871.3322845000771 0.06512466115457893
10.079407270064765 0.49770317222720034 871.2874848417571 0.025142583831944898
10.052972088687076 0.48853813229239146 871.3091553394719 0.04892489470019561
10.063091852508826 0.5090626600816835 871.3176809862158 0.05646494561986768
10.128163899980363 0.48341969981706556 871.3351460083487 0.007129340647870555
10.109543458174494 0.4898301155050126 871.3530121939538 0.07884915492084915
10.104690370537172 0.5017215616446516 871.3571036822569 0.050098644764327405
10.117314811740304 0.5025954467892767 871.3210756773764 0.01666992894818875
10.064695318310855 0.47880344779967726 871.3397914224892 0.04383757856725872
10.080165664719992 0.4795255685668377 871.3565758521768 0.1021520680359773
10.113355950128518 0.47951777991035327 871.3518114765087 0.11874855447616135
10.210986495105432 0.5032657562981342 871.3320926810561 0.038703798879653556
10.224420680246281 0.4925829288696096 871.3513747432443 0.039014949157632206
10.252774642370735 0.49620129666090984 871.3591945762313 0.01969675240042111
10.217102788634271 0.5020978455440199 871.3501619947939 0.02442369010774109
10.223383852624174 0.47330333817533143 871.3502633000238 0.03965076320149959
10.214459379775043 0.47619855865590344 871.3484746728305 0.05804054594335892
10.205680991921907 0.4946147264596768 871.2982350458357 0.002629156945428271
10.260441509840712 0.4954236851521612 871.296776888387 
10.268586025963 0.4996447093075949 871.3379026320124 -2.7906379302841933e-08
10.26828044467336 0.49811063326465504 871.3204887822216 -8.112372419217452e-09
10.257076665487935 0.5094559741447588 871.3513980348745 0.03592199727371599
10.201681021362178 0.47343673179985346 871.3352337759027 0.02854667872265322
10.157575761593845 0.41794568853506286 871.265235869425 
10.169961607656768 0.4159382816332839 871.2682475941492 
10.084335891152708 0.2809676719790396 872.109216501163 0.12681352550589978
10.105381986619884 0.26519331318484596 872.1095168363389 0.02443030581214583
10.093162737194994 0.2889874172490372 872.1002370777263 0.14214537457543644
10.16078601791823 0.28334584231644666 872.1035201410187 
10.114129478104317 0.27727212756963543 872.1007194579812 0.01009858162364913
10.14975007667667 0.25418904096630907 872.1207725353489 0.06133284655429637
10.131168935442211 0.2546692462884328 872.1199601262616 0.004849272469257933
10.13643566569323 0.24294463653558965 872.1372346232004 0.10183694187883521
10.121591461855807 0.23385195487087462 872.1435031981686 0.08755495910819
10.098206680284644 0.23047137149745617 872.145567891156 0.12237773696339245
10.100635812956535 0.24829420387486117 872.1293875626367 0.09647418470639293
10.106938389949102 0.25752049783755526 872.1140926659402 0.006436404329789417
