x y z curv
0.12223920324835731 -135.78938812902655 678.6512081083084 0.03178990329131866
0.1477276933432062 -135.79170670451154 678.6404748869094 0.01750757978446788
0.08427168905364738 -135.79025356107843 678.6375932074268 0.07279723218931064
0.2161708079728091 -135.78304409834834 678.6386470723559 0.02235658333852825
0.20096014673552137 -135.7813701022961 678.6489782610432 0.03496474686261795
0.2136981563607189 -135.7732702525791 678.6503104007259 0.023987814867235172
0.19156680220065087 -135.7700962513643 678.6537506536578 0.04131962188390583
0.17542662771947232 -135.77764971628466 678.6487209949988 0.03357233140301413
0.1731539887448227 -135.7623391991726 678.6552921655738 0.08896038906462617
0.08667350022844277 -135.7849695266178 678.6490473809436 0.06624422324938764
0.11455322892876327 -135.77643271178974 678.6509558850689 0.034786104776802565
0.08709770819995526 -135.77075867932183 678.6492098393301 0.02049492816263121
0.0662199973420757 -135.76349722870796 678.6503855390937 0.022107402237273373
0.04750576912219217 -135.77114646608476 678.6520747423648 0.06070429295305767
0.16361332070529086 -135.73910930297438 678.6484383243052 5.621186685997628e-09
0.19533634158262375 -135.76646975913278 678.6516956332893 0.05524991157484511
0.21075077645901422 -135.7425842823767 678.6517789325898 0.01567360184022714
0.06569470699136007 -135.76001061095621 678.6530209759966 0.025355652220699243
0.2356055483845126 -135.7318535912714 678.6484247964706 0.008374942084051177
0.12677893963376027 -135.72851957233559 678.65163709758 
0.21386342889583612 -135.72063997291758 678.6468365281071 0.14299621825473768
0.17390291378506736 -135.77365930946064 679.484939331288 0.07414389730567805
0.12557229261575356 -135.7822403607997 679.4326064548698 0.15906016029211817
0.12459684502555908 -135.7550545583151 679.4672048350411 0.15064806846390108
0.14303376394424216 -135.78165715617757 679.4517338175513 0.11232338082485048
0.13674364105911488 -135.78112423525363 679.4547030497407 0.06569608550903
0.14796374704276816 -135.78796376620107 679.4360054403251 0.06028988785928216
0.13273239163492 -135.78099729403394 679.434186049001 0.14220548307139494
0.12066570422058982 -135.7824077233357 679.4430829043254 0.21557354843266208
0.08897267299573422 -135.75925114450789 679.4602944849685 0.03676860794085572
0.1187516444767865 -135.7528912063333 679.4532067508092 0.1093875419585014
0.12289875517575195 -135.74986700174884 679.443369363882 0.054997792822958476
0.09012387721444333 -135.79046774306923 679.4344344506803 0.10107620670064106
0.08002443082179328 -135.7825136014386 679.4389692112767 0.02484038704299214
0.08914317607451604 -135.76371727977553 679.4284921657559 0.1559690634773789
0.10920433586861902 -135.86995947341097 679.5628254646471 0.1707261037448288
0.11116990104330142 -135.86370500913674 679.5534667734303 0.15346802802588
0.12008437519618224 -135.88321439554858 679.5724709291813 0.15715518018999403
0.11277807739612945 -135.8911764779994 679.5894074419851 0.15073702721310472
0.1131784179063915 -135.9085839233346 679.6002062645782 0.16195924848595492
0.11504325875815166 -135.9124842422651 679.5952888298481 0.14030931201684074
0.09701174145718376 -135.8816046658984 679.5544964806135 0.16462444699529735
0.0954828894436036 -135.87772843741493 679.5509303904312 0.12014642181179577
0.09279813899470284 -135.909394134418 679.5954595199438 0.1535158910779525
0.089190899320419 -135.88948464699308 679.5664515128044 0.1406381356189571
0.08047393509894915 -135.90151908694338 679.5912327262199 0.12575635558865422
0.08676817857588666 -135.8590158070469 679.5470368153076 0.14683526631363916
0.0895776708380879 -135.89977322932086 679.6073804348389 0.13340772283430755
0.08463551426767517 -135.87231424723012 679.5750313564376 0.1346893054174972
0.08522687619297044 -135.86453893545436 679.570365346954 0.1485454166587738
0.0828725258892589 -135.90404455480183 679.613816697718 0.16955259313253523
0.08511667641068099 -135.87970097957432 679.5818021177017 0.14734176588791903
0.08756327890927147 -135.86622242061802 679.582274291002 0.13517026978343213
0.10339848958489041 -135.88036600894117 679.6039845967854 0.08630365537770213
0.11036518028547807 -135.85724432729202 679.5652073829934 0.16349571878654356
0.10471945228191927 -135.87075924673482 679.5885847302002 0.12909707114923524
0.11196860704685539 -135.86678400898518 679.5821225766065 0.1422416730239557
0.11189357247732651 -135.85848467338664 679.5648501427951 0.17645220570237571
0.1125852839558315 -135.88056366274947 679.5933563418263 0.09831038236553477
0.11641210732474627 -135.89034503592464 679.6092148403507 0.06828730360016658
0.11537041225621059 -135.90254302277592 679.5979941746365 0.130216970289506
0.10602400386495527 -135.90657862193487 679.6107420089714 0.16317347471374735
0.08596915901010073 -135.91180101596774 679.6139703305016 0.15113766206955298
0.11187730792722858 -135.907513991695 679.6099507668756 0.16478752657231854
0.1105189712337776 -135.84343266732205 679.5277650730116 0.12810273329090172
0.12082643262545077 -135.82023304348823 679.5080434528513 0.12369984214630046
0.1038819948424628 -135.8047378673421 679.46685602519 0.11671394427274175
0.11193505730672389 -135.86580976238778 679.5470010347127 0.10565428766805587
0.1132549698948886 -135.83548701879909 679.5113905068284 0.13487878699175887
0.1060914222803895 -135.8337482336333 679.4983978302117 0.11868638300395493
0.10644895572588088 -135.84992309128333 679.5211051745681 0.13213761890709008
0.09194557747805521 -135.79282478605543 679.4528641746806 0.15681612293622163
0.09519958117439609 -135.82164667637525 679.494729017371 0.14710826313248743
0.09888045686330997 -135.81638844568272 679.4861472647638 0.15326313984982506
0.09649667669787979 -135.86841888729893 679.5376985276873 0.13335879587394206
0.0885270078472461 -135.8273143895372 679.5054572078603 0.13765666800124055
0.08396622398741785 -135.8597544686685 679.5219057639316 0.0901833599261514
0.08728736045859747 -135.81055713887233 679.4930010506386 0.1733966642605065
0.08930506751289088 -135.82309969392412 679.5060726393901 0.12507939633151674
0.08388938365951941 -135.83828180327762 679.5230830063383 0.15211786483139556
0.08656849801345591 -135.80606951803955 679.4742147308093 0.10518727108197042
0.08321194657399078 -135.78466778098337 679.461760591241 0.04174299549445456
0.09054003878474684 -135.8493296952627 679.5277036039708 0.1411287429561362
0.08970050742532423 -135.78821875067186 679.4723100175196 0.0523850364029762
0.0879387366553557 -135.82187817124108 679.5175790776148 0.15303126437003353
0.09221829737711194 -135.80180190443045 679.4954671160984 0.14174110887431066
0.09087973728283938 -135.79194003264487 679.4886394985994 0.10816848791245355
0.09345503624373623 -135.8280009347969 679.5323776296723 0.17843090919791868
0.09267690291733928 -135.79780783821911 679.4926576273822 0.13222395462761674
0.09231384330870113 -135.83098947115954 679.5415130858513 0.097577975739149
0.09060717995310553 -135.8008158243532 679.5114200466686 0.12603011999436212
0.10512875459815052 -135.78402891079514 679.485900669498 0.1094354000861236
0.11071124890307737 -135.81441166879858 679.5155437878528 0.16066754825095972
0.11366714903890503 -135.83727942457563 679.5491717580951 0.13872906305183952
0.11506907931206287 -135.8090422877696 679.4965412182868 0.13441653393468064
0.10579672502118473 -135.8241925371543 679.5242528626843 0.15086395411176332
0.09188831525655891 -135.75738596258407 679.4476399576057 0.14358625448712628
0.09247914006074126 -135.7746352535579 679.4649772332152 0.12001924197455219
0.15653774184044505 -135.76446361533976 679.5861471151379 0.17028669085083487
0.15374895983780218 -135.76189465690965 679.5976578453923 0.1534447970508149
0.1511849567240088 -135.77284978804386 679.614491710352 0.16600524444893786
0.15645758930682974 -135.76400727446818 679.6263081737877 0.1764593387252269
0.15126812574610343 -135.78580578810605 679.6037469325943 0.11621285823620063
0.14232929960180662 -135.7823336945711 679.5817633752621 0.17926520792533138
0.1455997407020944 -135.78750834865517 679.6213293985021 0.1281064290274294
0.15054909673604316 -135.78617128261195 679.6229664571041 0.14905521339735278
0.14044693032168384 -135.78690507052724 679.6454548867576 0.1326554976398753
0.12755636155935912 -135.7844605698479 679.6141673214473 0.16996933403949915
0.12792458184621658 -135.77369154430093 679.6021134125064 0.1869808345118635
0.1258770198664738 -135.78551085573287 679.5781400612273 0.15073131028413192
0.12525997138214215 -135.7651159787533 679.6084670453278 0.1819254582688387
0.12296174496783834 -135.76682887157526 679.6320469993807 0.15668585795692194
0.12764213395840623 -135.77230920346446 679.5927599473007 0.20840440417299166
0.11937409325104716 -135.7602860970165 679.5826600534319 0.1634635131940245
0.13098583136125624 -135.7489894782651 679.6293661047365 0.12502198221820865
0.12614621551843155 -135.74689379958204 679.6095572627341 0.15631617881684637
0.15503400352963437 -135.77780593760966 679.6323717520492 0.21456108090063508
0.1408929684193456 -135.74483881796277 679.6244683660666 0.12191074790387525
0.14873875079370225 -135.75458930578642 679.5748818063206 0.132767455466551
0.12659959072105748 -135.78336662558362 679.6385446840184 0.1555744474407029
0.11665620982885155 -135.7802156488971 679.6404883786278 0.11776527796864447
0.12079339798385205 -135.76567947762527 679.6434240489892 0.14788892603759574
0.15774858174918455 -135.78161299352362 679.6476716352183 0.09552704790777529
0.12808188805236229 -135.75863872791837 679.6282474846391 0.1365981027502664
0.13281816832551857 -135.7467415383116 679.6526284275055 0.114178612139204
0.1445001585517934 -135.77637736625294 679.563358114588 0.18042701948631149
0.15758516290299265 -135.76440177617985 679.5616465657608 0.11406063483875682
0.11569563405016565 -135.75906399345183 679.5723412750957 0.175196238168486
0.13274313175565608 -135.7914286142641 679.5719850808282 0.10284894413406853
0.1235273655265408 -135.7777856072551 679.5714217283003 0.17199883939156876
0.1497144476487265 -135.77413594045035 679.580480630616 0.18430738693715923
0.1413684050463569 -135.72159203273912 679.6030259997597 0.14612961483848463
0.1357673417340423 -135.718896250627 679.5975692937053 0.15606693541574765
0.14560587821293006 -135.73724783594918 679.6008250533748 0.15428149612458056
0.14360361909541805 -135.72369939111852 679.5979463890269 0.1244684137380159
0.14568587732226984 -135.7386244856801 679.6011152641221 0.15216613433477816
0.13938678923116143 -135.73119101878967 679.6201179778978 0.1473795258579042
0.12067553068347031 -135.71757069805278 679.6091101665043 0.121995161130267
0.13283376811846107 -135.70345589807465 679.5906575705634 0.07424706161819138
0.1447219475462346 -135.69250932860496 679.5990536925955 0.1882774845840175
0.15585866510242197 -135.70285676477684 679.6095699390578 0.14046729743875536
0.122415018388312 -135.70119550417283 679.6065001121891 0.1556058128944833
0.14285166615437153 -135.70738279670127 679.6148649655839 0.1426179403170521
0.14266628074946475 -135.74570433193944 679.5946648719507 0.1800831079362437
0.15479991144178365 -135.77850732451273 678.6523538497188 0.05115451076266538
0.12934660969955625 -135.78209481165075 678.5796190594787 
0.0349179536973209 -135.77148080351844 678.64869369367 0.10532590326933178
0.035467997149839676 -135.78683773863173 678.6349407880862 0.12449755846740455
0.23954468699396916 -135.791638599587 678.6337471243978 0.06515075784636398
0.011452037931369181 -135.78768683123013 678.6429000604018 0.156906291371565
0.2702107573321124 -135.78848496801248 678.6590514643791 0.14117892927088205
0.2663137077841944 -135.7962861078916 678.6403233351989 0.14527547055864104
0.18210667456542798 -135.76269219537718 679.4485186313404 0.06473140370599778
0.012863098815071729 -135.7818201486006 678.6456040009931 0.1263696535700615
0.028826569202773517 -135.7753447438329 678.6480404281621 0.12708249571346228
0.03621925987465066 -135.78756715231896 678.632854091759 0.09820332402060601
0.0424159814408861 -135.78757501350853 678.6175363253994 0.07854802887135301
0.029696470061344828 -135.78822662434655 678.6283606263319 0.11690190355899202
0.018640090078165826 -135.77710433229942 678.6038091541942 0.154127316413887
0.010979371258601652 -135.7552929254551 678.6327459916743 0.12051404381488477
0.003344098671770047 -135.770526771387 678.6331900858287 0.22535048083119816
0.0064995177893349965 -135.7629376282263 678.6386239312328 0.16738804043445504
0.00337172290057935 -135.78278515996058 678.648260071293 0.1506160039772015
0.25371292987671945 -135.76786996032888 678.652919062613 0.2214512277487791
0.2611331613963044 -135.75568675861737 678.6347757078313 0.12351814613250423
0.2716460006801894 -135.76472272347888 678.6337709016194 0.15930120325000718
0.272453349667756 -135.7641047199427 678.629128471475 0.14057095784847162
0.27664443132057004 -135.77111721408 678.6231888887176 0.1430927735889521
0.27354863705504756 -135.78822238387133 678.6428942759385 0.20492109355424223
0.13476154907721608 -135.92775326036707 679.71639366183 0.13574770548682719
0.15237486493527955 -135.93877054126415 679.71733056577 0.08877297342518828
0.15820437257306202 -135.92087144184143 679.7132997400054 0.11701271793243402
0.13974610828485562 -135.89966638339746 679.7093239899915 0.13510096378518383
0.1357307275345341 -135.94452199015086 679.7264923505625 0.0645876875583863
0.15085375501181536 -135.91226846811222 679.7742253067845 0.09575743512389764
0.1495213126342235 -135.76319356893762 678.8674036422666 0.06994212093584495
0.14607720990810946 -135.77051118809604 678.8564154122914 0.06550631529124279
0.14965479127529732 -135.7664291334852 678.968718133567 0.1430357098320548
0.1516970048629135 -135.76930823793535 679.4051394590077 0.09290638675110599
0.14208551361795693 -135.77611509282087 679.4705125868783 0.0900471292827603
0.1527437306084533 -135.77351144789893 678.8065440425128 0.07246036911716823
0.15774212454399006 -135.7689779559276 678.9301952603422 0.039764822589699995
0.14718572919628528 -135.77264869154942 679.3908632843766 0.1070705493224593
0.15187091029301544 -135.77263491955512 679.7979849199521 0.0970688324441031
0.1422975015597038 -135.78220217768427 679.2023290639014 0.08830242981884574
0.15099132682460548 -135.7664492069555 679.037480244987 0.0753725927373261
0.15230532214898898 -135.77640081420705 678.9127375792821 0.039365667547166555
0.14929754469780038 -135.77993400809538 679.5473720964796 0.08160088167223797
0.146845735604025 -135.76394709570133 679.2755271568404 0.07144840768792692
0.159925847395633 -135.77544307803925 679.3086888159007 0.09222081713559584
0.14982225927955414 -135.77572523093284 679.8071272459272 0.07457303569549761
0.1512695636616382 -135.7755840261065 679.3388803842429 0.08442907836485385
0.16063285903081279 -135.77420527657705 679.826039205193 0.05714797607183036
0.14981017356941712 -135.77911670315845 678.8377683806918 0.07188618660253297
0.13674534369689995 -135.78314174039312 678.8915166896795 0.035847110150543
0.14247408452191096 -135.78371756534725 678.6813739167138 0.092420619126954
0.14431657908313147 -135.78056100554213 679.3621285606189 0.0781507226196614
0.15279634722432367 -135.7712592183446 679.5439520751793 0.10012177792798498
0.14603399270871267 -135.78147481873935 679.1879784496157 0.08733201171174058
0.16123287446716522 -135.76559200750663 679.654982360028 0.09330857499870929
0.14312712071692396 -135.77415882370727 678.7012201204136 0.07998542536653493
0.14558651522409596 -135.77623605088203 679.0541618663582 0.061793135153679686
0.14769286940894324 -135.78063798850496 678.9418492489235 0.10532676596378501
0.15962131266322493 -135.78233716777657 679.7397683551418 0.07241142716902053
0.14803526718996415 -135.77862329148337 679.1728674594754 0.07515735826018968
0.1356832884028928 -135.7725825923202 679.7042071813977 0.10079417969840448
0.15238569676266553 -135.77139154260163 679.7219012119344 0.1573010420353959
0.14152937171242297 -135.78024734123522 679.421389269683 0.07616684202161247
0.15013612213434568 -135.77051973561078 678.7807953518565 0.08718600689837944
0.14904430797590223 -135.77550923243143 678.74973772364 0.1411047359360568
0.148856881330386 -135.77241764802795 678.8790849940242 0.02857000845703115
0.14559429522447753 -135.7790487650839 679.1973097112244 0.06559088040068986
0.14468789898663056 -135.7795644715721 679.5205398421772 0.14210424660345877
0.14455738935866894 -135.77812922655517 679.3815055662287 0.13953336029302107
0.14998332450209576 -135.78080981196584 678.996914579228 0.07711149002090222
0.1490231196183764 -135.77619816708037 679.6672661190216 0.11663879139136711
0.14365288677996024 -135.78188087291258 679.2163355434063 0.11002777988467664
0.14859370024780746 -135.7778092184863 679.7943516700742 0.08954112127563234
0.14050155961080218 -135.77834673068568 679.315699352619 0.08660782720162839
0.14021472902209986 -135.78412877430085 678.9196405577082 0.0787472837359104
0.14683007136209875 -135.77090844105007 679.4819066857095 0.10452022964934748
0.14577224780261064 -135.7776984732964 678.8558310063413 0.060606485475136945
0.1388425475655503 -135.77255175419157 679.2499779824147 0.10024981636141236
0.14273772674485163 -135.78157226007949 679.1190986099405 0.0641601250822019
0.14724530155794274 -135.77709648627922 679.7582296306673 0.12301432312046602
0.13047633319670082 -135.78184938583615 678.8316972379503 0.08356468350335935
0.145880557180855 -135.78575845022903 679.0242980276099 0.09216255915818997
0.14058656541230127 -135.77575647967976 679.2965991206952 0.08980892568552831
0.13762663998958316 -135.78611564193662 679.0756692771638 0.07613411449310534
0.1565870895585822 -135.77358062301224 678.6745353514702 0.08182010081885202
0.1408390852954362 -135.78514897433578 679.3941753465509 0.09638938696383151
0.14126195728932314 -135.77611058857366 678.8011716211819 0.07310409071703927
0.14743408843195227 -135.78365204067185 678.9867803405155 0.09944826661482808
0.15069251785973115 -135.78591346165484 679.0098397282811 0.08337979879255367
0.14940028481039755 -135.78237127150624 679.108042356814 0.0649616025726324
0.14369850030338624 -135.77731936879383 679.4016577870059 0.07943905384985304
0.1342045879679073 -135.78533655224444 679.0456285786563 0.081282082002654
0.13629891810452005 -135.7776122044511 679.1543484084907 0.09991401312358364
0.1361347915396734 -135.78536795679938 678.9617234381486 0.182737142569233
0.13890437041676415 -135.77644290472924 679.2833452923524 0.056441893425160476
0.14520536548640356 -135.78301290248598 679.2358017329037 0.07672482211239708
0.1413089895634261 -135.78326623210444 679.0181473146611 0.09338426511330444
0.14157218067386493 -135.78244119329963 679.779435177929 0.0832464029780477
0.1460585664058674 -135.77679681889273 679.0674223173345 0.04569772340736434
0.1398078620739672 -135.78161706000375 679.2107208120543 0.10155580092028972
0.12952247348643234 -135.77483616092195 678.7739579136208 0.08879346961766885
0.13666436440608387 -135.78421306426387 678.7520057046438 0.11825051732773005
0.1382954082318073 -135.7697007766932 679.3038173013414 0.09470403198787983
0.13926085469733512 -135.7816081302093 679.1468534598644 0.0704840304864563
0.1426395379536376 -135.78056173723527 679.8223405306775 0.05667100026609209
0.12920731419688264 -135.77501072576982 679.6588539502235 0.1697319633747387
0.13296472566045311 -135.78184068980005 679.4592968763689 0.20064976222651762
0.1459860055687027 -135.77818196290286 678.7198135466534 0.08471448661514723
0.13981586769723248 -135.78857352609046 679.3312892186578 0.06240866524427206
0.12836878142388258 -135.79206114953226 679.7201778939518 0.06456131803211598
0.14023657548590732 -135.77618509356265 678.8091049355097 0.08054736111104326
0.12907095445552402 -135.7815740672377 678.8850229651375 0.028983592962075963
0.13687647447366394 -135.77416353444937 679.2517848668061 0.10029762533855148
0.1287219630206693 -135.7809390906934 678.9400105980793 0.11379634541845167
0.1483649526711507 -135.78299421741528 678.7352392700652 0.1263868725109632
0.13229182563266007 -135.79139508383346 678.8692965351131 0.03927391636725071
0.1402461950887964 -135.7805568673334 679.4268529658983 0.11593233476829898
0.13854280751237708 -135.77544009057686 679.8117129695132 0.0713760311859676
0.12958900996943568 -135.7766283092478 679.0887472105254 0.060922584406477125
0.13572531746942795 -135.7819584831099 679.0533590763915 0.07606121641680058
0.13450994400700686 -135.78074615385216 679.6868742542639 0.11594983731834796
0.13199479381518486 -135.78959624154854 678.7902198560963 0.043065279801307386
0.1308975379201394 -135.77914616241253 679.3639779044906 0.07779850263723229
0.1383860168384498 -135.78451139616516 679.5105604835929 0.10232237079922289
0.1274099526882939 -135.77888016183033 679.2660078757987 0.1007133108187723
0.1318662899784286 -135.78544854438607 679.7684734658734 0.07724101329324441
0.12435069126590241 -135.7779243286649 679.1216433767156 0.06717161728506622
0.13638907732421388 -135.77787614848225 679.7147822031465 0.14815227937014283
0.12940694241242148 -135.77851674713835 678.9192980903748 0.08381120895699802
0.13752251238833763 -135.78658832429429 679.5077023179491 0.13002340995018008
0.13610523739678035 -135.77675166566704 679.1770905277187 0.08537064955559967
0.13453029437699696 -135.7789193254492 679.3542090714094 0.09787244386960688
0.13976628350048484 -135.78726882570948 678.9490508346903 0.09628242532751542
0.13273438410731225 -135.78300439782745 678.9728704564812 0.13352514839645457
0.13028348697248815 -135.7649887857504 679.7903978291488 0.07953442335470969
0.13957602412856238 -135.78310036887655 679.4489661476903 0.12836158145028584
0.13387972230347667 -135.77844977686848 678.6728773583003 0.07635827192568578
0.1374525703350839 -135.77250135755585 678.7073781593757 0.06742350971585473
0.13279671789213968 -135.7838814254869 679.6628060049275 0.15228565135738642
0.1290745258833216 -135.77036828749965 679.1451248734168 0.07236998955492273
0.12816127119456924 -135.78000121325735 679.1107823532074 0.07833827660419913
0.13128611988640157 -135.78435457028797 679.3840891283373 0.12013651654744502
0.12618287791052143 -135.7636415051971 678.7202112962354 0.07320360790685693
0.12771949446555647 -135.7743589143256 679.0691156537874 0.0722424807788965
0.1284308418745387 -135.7701310599159 678.6904517228536 0.07891336050218162
0.1371095574831966 -135.78567482088485 679.1255384428963 0.07139175778582006
0.12102309318278917 -135.76656785613915 678.7415929363167 0.12667861212418602
0.12472877125589933 -135.76825339009716 679.0297378442247 0.07151098884170178
0.12696969892103735 -135.7710630672473 679.4087579601517 0.06856612259215798
0.1316951552865689 -135.78270774807427 679.2446982190503 0.09809878415189455
0.12386956861929929 -135.7692370013817 678.7717573519074 0.08586473671746404
0.12951354683641106 -135.78091607685465 679.3402237572886 0.0874948618124348
0.13047441053516956 -135.78222913325422 679.0097361631321 0.10140960944899992
0.13335008868468348 -135.77619408852226 679.1589922375726 0.11345207932410427
0.12227100541694098 -135.77304972191462 679.7326734696321 0.13773141951035572
0.12658223980890812 -135.77165314683347 679.8286511659916 0.0657439223343007
0.12812492772481948 -135.77610715853285 679.2039788198169 0.0774943128188477
0.12699898347046779 -135.76934893101574 679.2211476682711 0.10666112460078712
0.1283181506417698 -135.76433790217308 679.2851427852787 0.09428701148301744
0.12529999615529536 -135.7682234957145 679.49817182774 0.18102038738212695
0.12044808297924336 -135.76757395289331 678.9493455270555 0.10321672835155508
0.12304330011179636 -135.77209854488754 679.5495087583578 0.1408689748729062
0.12312907081922765 -135.7668762570172 678.9675184487178 0.16090214900823904
0.13092417476411128 -135.76485719795295 679.7144172762156 0.128228935260947
0.1225526622891546 -135.76817712765313 679.4023154867061 0.07900172199006483
0.129341562694493 -135.76727152518873 679.7802380102111 0.06765255205273418
0.12439078713385515 -135.77156636420446 679.1854151253394 0.06165226745325694
0.12032742903389805 -135.7752969364396 679.5248312702341 0.13453422341442842
0.12982228828423206 -135.77078496894262 678.8420893151425 0.10277214500905575
0.12925004152526773 -135.7683271282591 678.7150826613498 0.07495403077011098
0.1309388792694423 -135.77855851453296 679.0845246282497 0.059905301247822666
0.12545858449816602 -135.7629406848676 679.2505570915763 0.08263128304680889
0.13327029233957094 -135.76125632321464 679.6660165546131 0.15566091442788893
0.12704322585468958 -135.77167249928846 679.7545042070827 0.1553338027075481
0.12656494614724217 -135.7627744748288 679.485324652638 0.14881540701557203
0.12904602106800378 -135.77121670658153 679.7481310458676 0.15086759042712478
0.12837368037774924 -135.7676656752971 679.1426277526233 0.06781165184179237
0.13438251321100658 -135.7659176933305 679.8070571119852 0.06612052708435207
0.13133848566928108 -135.76729970993185 679.3202871596535 0.0804500826439218
0.1376591159248395 -135.75896429291794 678.6760564495119 0.08143667225710145
0.12895397673831135 -135.76840761548596 679.2248192198542 0.1091132385404367
0.1329620814893853 -135.76646208630524 679.8107491070219 0.07290984086002557
0.13660977181895287 -135.77599376852555 679.1028534902274 0.07665175927029401
0.13901086725284434 -135.75766252494296 679.7118155668448 0.1470249150280546
0.13503771730690878 -135.76052686121895 678.6926827921626 0.09574112494332555
0.13755687866627303 -135.75908688698988 678.842465466379 0.060457021172241804
0.13370770540710425 -135.75663189038102 678.7259966303695 0.10117569619928404
0.12558462803105877 -135.75893125154147 679.3679774806099 0.12291813427381575
0.11894110047199326 -135.7644339414822 679.6887438869162 0.08182275722414649
0.12808833257790078 -135.7686415310536 679.7406598755366 0.12423688749956843
0.13128856389610424 -135.76717936156908 678.8154386880104 0.07582213042354369
0.12459255187359859 -135.76547114290378 679.1753900393367 0.07903952203568304
0.1281814929221889 -135.7669731885352 679.328622291719 0.10343595288544617
0.13340091467102247 -135.75819370414186 679.5282884061095 0.16742828962220965
0.13563064034978167 -135.75756051048907 679.6599527779035 0.18022966532457121
0.13277859809135092 -135.7523854633176 679.7744632754597 0.0974714404941207
0.13768241095669187 -135.7542942547656 679.0075565568059 0.1211712196915733
0.13833750253887003 -135.76157819796418 678.7099008508508 0.06955116075088165
0.13844997193598646 -135.75002865771208 679.5054926946074 0.10516206719409625
0.14559395441805012 -135.75671144233397 679.2650943955971 0.07869068211514627
0.14396343204699524 -135.75484427012086 679.2312634583767 0.09997221207812089
0.1381262630094107 -135.75932615757378 679.0863755988926 0.06308652647385046
0.1515799478532585 -135.75474315153414 678.7886822297256 0.050155286100829435
0.130861761588008 -135.75733824023487 679.4781182649201 0.14886381998359402
0.13619541578662753 -135.75770852254865 679.7647721017499 0.11700032257027139
0.1462776304423676 -135.75223061677977 679.737941233166 0.062351959969207046
0.13885926749015876 -135.760765263176 679.2087944260807 0.08615169376780339
0.1399437472028007 -135.76402795641795 679.6900721820973 0.08096688821926044
0.13406850390751346 -135.76374275474072 679.8185155872447 0.06496990774992559
0.13341091470795285 -135.76364057208613 679.7590900256984 0.145680622600618
0.1468291175072955 -135.76344397482868 679.2521481046629 0.10195380768209225
0.14829000084067043 -135.7584871416039 678.9156054297664 0.03890661949277271
0.14701662486961078 -135.75597825333145 679.2989946264714 0.07371938977482084
0.14835938688354747 -135.76377921555675 678.8020601989812 0.07162965843619641
0.14730284021428017 -135.7534097342963 679.1538139034933 0.08191339661434403
0.14695511080049678 -135.7610300722356 679.3708320179485 0.1095358828505146
0.14320550347944003 -135.76639204311843 679.208749277259 0.0823634383464954
0.1467971197536195 -135.7683428279323 679.3289908428118 0.07433591480889648
0.14312238454510248 -135.7584615910772 678.9795401700013 0.18849962606381976
0.14500980932275984 -135.76428743608443 679.1663031836198 0.10971794358590567
0.15422637691183305 -135.75698811285523 678.9669889367938 0.14644055356419533
0.14380478984987083 -135.75249335234358 679.0267856158154 0.12184583480667183
0.14743985750346617 -135.75808876509151 679.391046409628 0.11218324928964464
0.15208561548985056 -135.7646317736852 679.1158259137512 0.07832822668546907
0.1429570826224089 -135.77304733240092 679.5149487677741 0.12079413735491959
0.13583021076056537 -135.7676323063892 679.795403483384 0.087146794095821
0.14370491147955325 -135.76954039019083 679.0637488871217 0.0954215605914495
0.15213471552789803 -135.75449207012701 679.5545144694634 0.12843319270308262
0.14328446926280133 -135.7513284952325 678.7615876744688 0.0998248973181465
0.1348961441309072 -135.76772240924726 679.7924525062315 0.0796319863459494
0.14774941086294277 -135.76408552119716 679.3553863739763 0.09293789197121077
0.14815656573629118 -135.77702319554854 678.8943588589185 0.032368286049657545
0.14053806348479012 -135.76357128424883 679.177869072214 0.08450142134208793
0.14500881046387995 -135.75617556234877 679.0578806011101 0.08270969775775605
0.14405246898811389 -135.76249783441529 678.729068314141 0.10012123217315029
0.15099898386626792 -135.76081804571197 678.8956176802616 0.052039739436858766
0.1519720204722411 -135.76694440146971 678.8452513161122 0.0844329099929132
0.14717931913089063 -135.7587935606153 679.8188070640805 0.04538763647661079
0.1417224467521909 -135.7739141079833 679.6751951455869 0.12462057524117992
0.1552989362010154 -135.7585309019851 679.3145584287338 0.1318982772496475
0.1504242097351182 -135.7602784853757 678.6694075186734 0.08528235329016134
0.15787863753137066 -135.75795034480893 679.257924560672 0.10217560385064685
0.14653900804537456 -135.76421291666813 679.7702215995129 0.09060390036769685
0.15085584952372735 -135.77284716904344 679.7066651419574 0.13905957369002991
0.1520361367825049 -135.76894698123806 679.1349845725431 0.07812771897198412
0.15935314536873005 -135.7735892079214 678.8152797627508 0.08276633652182079
0.1536049223310129 -135.7614502640545 678.7499993601331 0.14107759675804504
0.14726706513027774 -135.77041621887219 678.6903751346541 0.078183144109251
0.14985563158377796 -135.7644443511631 678.9481959987075 0.1072873788387125
0.1474524570723649 -135.77381043664096 679.5041773186381 0.13968667628553694
0.15012533981391157 -135.76344193952642 678.998516135748 0.06374226332043971
0.14309501053932297 -135.76821976290628 679.0831715491167 0.06561903712858347
0.1517665918594142 -135.7690231048676 678.7328172846362 0.12428041376801151
0.14816605664973906 -135.75773597301807 679.1086927535599 0.07483234497195052
0.15143831504382874 -135.77917746237625 678.9714567698805 0.11793825961055002
0.15228300736883177 -135.77024050223795 679.7052898922813 0.14032929787368326
0.15365486712551923 -135.76692278714677 679.2411948385972 0.08919062658294881
0.1419021378195764 -135.77673970510955 679.0839373458689 0.06434893980033612
0.1521030733237476 -135.7667921689971 679.763893393342 0.11265429030595206
0.1565772855044706 -135.76518619895 679.2926905231328 0.07422620084719693
0.13673948751854353 -135.86598973475088 679.8148524150324 0.06598522447034176
0.13907879285207497 -135.85989295875817 679.82548965102 0.09692950477498942
0.13167068345506577 -135.86286515256612 679.8239032306777 0.10332311301691954
0.1368241876427216 -135.8751484555114 679.8081771457067 0.15988749422944656
0.12943465521493536 -135.86650422259535 679.8405342674167 0.10422676309036659
0.14078864819696055 -135.8728816393629 679.841644296542 0.10521869521377805
0.12735104800556044 -135.8876609894064 679.8027082399692 0.1986360806540086
0.15598933867388345 -135.86762268845027 679.8388619262344 0.1362605022038925
0.14916814620057486 -135.8814762840401 679.8261910289704 0.11719807589360293
0.13879521430002315 -135.87043577856818 679.8446007574253 0.10700979094724483
0.15553667714078612 -135.87390154389806 679.8122676907631 0.11439334773176774
0.14789093004073783 -135.8594836678213 679.8267825521907 0.08838749267248666
0.1614635037008927 -135.85793541205388 679.8449480452099 0.12324874497460019
0.12920604453446038 -135.8729907479629 679.7967390477568 0.1332346120102308
0.1264992216383854 -135.8550036272335 679.847854502804 0.11641613407699467
0.14588151804316926 -135.86320984170015 679.8531836532568 0.1038287680655553
0.14972812982906308 -135.84381151602065 679.8491517714489 0.12084640287550419
0.13752108353576642 -135.84507803629123 679.8524491104498 0.11371260376864911
0.1506491358673739 -135.84544549305872 679.8504108720232 0.09578276121249561
0.13123550710143841 -135.8473429347545 679.8677570037747 0.08897601210627314
0.13963420817216943 -135.85951244852507 679.863870659753 0.08610020419213345
0.13862757002874895 -135.83768806577618 679.8786475324449 0.11194856528944266
0.1264278145549965 -135.83484022068131 679.8637180554429 0.10387023485861031
0.1524650689556316 -135.8375970559109 679.8678295918945 0.10624727627602083
0.13294764132332101 -135.82725307895367 679.8784555675111 0.09510815896351109
0.14198311064580654 -135.82070827174283 679.8798751431868 0.08144178162351545
0.14548459502605227 -135.81813964236787 679.8683454776584 0.09811220882366045
0.12397065789962873 -135.8179730620783 679.8719618769234 0.0911301950790258
0.12736584535825451 -135.76352363974152 679.8421872311802 0.13280120125050723
0.1306423685728409 -135.7714308729351 679.8390488875382 0.10777753391421807
0.13722863821818707 -135.78475341502434 679.8412753023184 0.09242681071754098
0.13196347113042553 -135.76138630918288 679.8599001385609 0.12001798079714839
0.1298518115260874 -135.77991272671883 679.85982735618 0.08442310954746507
0.14503780410687864 -135.7630702372871 679.86317597293 0.09107693600781118
0.1288157475078832 -135.77410090282547 679.867454099275 0.08538074753914163
0.1493643735161318 -135.78976165806418 679.8512700181383 0.10296917059328055
0.14402030049871248 -135.79631589143293 679.858158149114 0.0823869455214077
0.12621057352970855 -135.79217587890494 679.8561723895015 0.08711139221624728
0.1375725574702456 -135.7839257157301 679.8827125131282 0.11214305953171257
0.14979926815161498 -135.79365187976714 679.8671821843627 0.09125998524782827
0.1351323212459505 -135.8083418181633 679.8601986958328 0.08972439140992026
0.135764262406442 -135.79799809323669 679.8743454824563 0.09960631476163147
0.14259961387643413 -135.80770922321025 679.8840947986096 0.11233295749583433
0.1590685275178456 -135.874678408043 679.7922389554886 0.13572205028628348
0.14798439741896752 -135.88773773318894 679.7969753304367 0.22062035710188344
0.14449617148009622 -135.7871046706306 678.5501386889315 7.133129489748967e-09
0.1549054214185317 -135.76132254388892 678.5296591098736 0.01602312381660386
0.14768950949651113 -135.77190013957798 678.5214916617734 0.06994936604461692
0.1277711681462815 -135.76922778881612 678.5162532817759 0.03192906367685066
0.12774893260921596 -135.77272319732455 678.5070024866892 0.024611840264235525
0.12571344410706298 -135.76958058220382 678.4917779609641 0.06962166252459252
0.14350157851589898 -135.775281778841 678.4927779858398 0.057503338050990976
0.14498374498433614 -135.76975453586743 678.4734069310108 0.046945014623594725
0.1378883751781582 -135.74963510425766 678.470148191854 0.0202711031125203
0.1290489774161719 -135.7674107449271 678.4579448990414 0.06572459054766822
0.13454536325425978 -135.76915333880424 678.4440916559013 0.0757421659012972
0.1350699552229152 -135.7562931722704 678.4411362893051 0.05616183249702752
0.13332357696190458 -135.76266539549792 678.4300169128536 0.04485115316866442
0.1186972580640497 -135.75843032213538 678.4405443002388 0.034290854190735465
0.1250298373154399 -135.76617534075262 678.425253823083 0.05241943618420256
0.10980070736825963 -135.75643018873856 678.4049958767029 0.05151457155022334
0.10694677016526531 -135.73908554753223 678.4153606691917 0.017054167542479345
0.09300840134091434 -135.75481314632265 678.4035063559312 0.07743316342589343
0.08338497168425156 -135.73856942705046 678.398290219928 0.03823898434704758
0.06420504444187834 -135.75667885650103 678.4079441234728 0.062318413323932675
0.07802865458782865 -135.74335840602077 678.410634678644 0.06641906782099685
0.04037475623962663 -135.75721441672374 678.391874291344 0.04232545119894647
0.047499104396517645 -135.74040260226468 678.3943770521405 0.027103442321608013
0.04196258341677078 -135.75009179674908 678.4238533906314 0.07912677782407238
0.03008839533189189 -135.75767945879798 678.4170104418145 0.05935396575855821
0.019088084459855804 -135.74983793718863 678.4248049900343 0.06386075592506901
0.01915749821644005 -135.73144178222944 678.4296445182515 0.0259971238368483
0.020155091921406982 -135.74813077253117 678.4426341009553 0.05706381444251311
0.00844568241083378 -135.74815953042247 678.4476398128106 0.07571847198256722
0.025577207226996596 -135.74561975091578 678.4410401513138 0.07042441390401709
-0.0017900595006259288 -135.73844360564354 678.4477465014551 0.05841595235166245
0.014735109592572421 -135.74011226861248 678.4785869801583 0.05551479790429542
-0.0016148182893728222 -135.74226444229578 678.4712693880558 0.05925754684440455
0.00046064727552120807 -135.74066859544735 678.4904544825985 0.04515739439840482
0.011968388352741045 -135.72344896120245 678.4765318846869 0.03133130352350648
-0.004214433918535631 -135.74161129538197 678.478373087703 0.0407977331216309
-0.00011183997493929571 -135.7414547092921 678.5072513765542 0.03869584289755715
7.93377866109609e-05 -135.74706735434665 678.505868462839 0.03817332225175333
0.008366127525753974 -135.73260541779155 678.5049167491369 0.03493106997518183
0.014292541833155698 -135.74768204995058 678.5175294407453 0.029438358993803544
0.01282035774248455 -135.74321825955067 678.5267864472131 0.0543782842196526
-0.00222614969709122 -135.74092450136015 678.5384512042731 0.049201785413820344
0.005333379938815228 -135.74394841213535 678.5238562520458 0.05446304416982531
0.00014099295466478336 -135.747514123544 678.5408483293647 0.0386504220212015
0.0015835106713769861 -135.73559326068175 678.554810124619 0.011589660872468384
-0.001982125160260173 -135.73846786011646 678.5672996344313 0.010952231873595447
-0.006948408422171868 -135.73173671786972 678.5839459595136 0.005069765912582075
0.007644724319146805 -135.74158029842337 678.5992815814311 0.045409693126266734
0.018718962786370506 -135.7421099173068 678.6233087552855 0.012317853222297262
0.026161548715678534 -135.73070524636861 678.6281348187474 0.007403235779587661
0.024812477328336885 -135.74033584784212 678.6368426310188 0.08649982829182667
0.025154201143178182 -135.73887097870224 678.64634116536 0.09358883436912611
0.021716893257400702 -135.74294934778436 678.6675581224788 0.0502284826195648
0.028004635450283602 -135.73279375334477 678.6605346473704 0.031159817870128077
0.04159702479856984 -135.74278892284315 678.6735466881081 0.09833999056164193
0.03902758238580294 -135.72325098923122 678.6654874019315 0.03929366476726761
0.03709224884306602 -135.73519385955606 678.681356917897 0.0577024184345648
0.035315872651744865 -135.72742742285115 678.6862960484726 0.08941661150928183
0.05173030170469451 -135.73550776789526 678.6873925102146 0.08653529630811951
0.04670866894966106 -135.72443901630746 678.6998466541212 0.08682443703827772
0.03904491775460965 -135.73834917494244 678.7089854420744 0.05783825446128483
0.039487750131644565 -135.71873835172735 678.7200679765143 0.036771685433950395
0.05868429582696853 -135.7333398269104 678.7115801457495 0.04703823109380136
0.03217594233532925 -135.73553299069235 678.7282496444884 0.08416208777937303
0.054623860871962804 -135.7385191509328 678.7404666542876 0.04047638790454205
0.051290264580644895 -135.72476400341736 678.7429957808803 0.04417552293617074
0.06113678643109647 -135.72969832231504 678.75064311903 0.056873270270502325
0.05037794774954405 -135.73080591632245 678.7499216941274 0.05270131049852222
0.06403911237593782 -135.72335894220467 678.7467442368613 0.053305637785712845
0.06590731108745945 -135.72601760585232 678.7678317557779 0.0519860857340512
0.07133572431453343 -135.7185243948709 678.7702749318817 0.03710042817310986
0.06966318294750592 -135.7355472886078 678.7938619825759 0.08075684561498823
0.05766587012806186 -135.72460898875204 678.7665531376315 0.06460818248711503
0.06945956525233304 -135.7337598823003 678.7895057505427 0.061490955102987424
0.05574845711442184 -135.72002273513624 678.7812447136638 0.05661804278944232
0.05407209937867727 -135.71125383838182 678.8064888913885 0.1050732715302307
0.06591732383615642 -135.7313526207703 678.8057234545289 0.06405346675020494
0.06573663710069015 -135.7179434106641 678.816566020404 0.06458771498542061
0.07792181839525286 -135.71168803640398 678.807459996589 0.05678917241019472
0.07056008939742453 -135.73778747777664 678.8160125730776 0.09796336233953763
0.06303805616795471 -135.72848315903767 678.8266229828105 0.07649704547923156
0.08738262229513521 -135.72431739433281 678.8437032741133 0.03836635629237061
0.07407092490455204 -135.72017928124072 678.8421044130007 0.05259030067866356
0.06422216839853702 -135.73152004101297 678.8543161440329 0.05777254820180652
0.07893095662832256 -135.72068108938214 678.8404802533391 0.05776716710771729
0.07695488045124413 -135.7333152653947 678.850714919559 0.05822439500136467
0.07220475665842728 -135.72349763813497 678.8580840190233 0.06094039174861752
0.08296418884708014 -135.72164906952375 678.8677502168975 0.07065732010123323
0.07479871123517949 -135.7359482303634 678.8782215688785 0.06118813663680928
0.07282753115833725 -135.73910659528474 678.8900201040333 0.06147166011003104
0.07007863109377813 -135.71645780763822 678.8811845683591 0.027256782315182564
0.06993121486704604 -135.73842501613012 678.9032287140709 0.06695833478782262
0.08200991798156863 -135.7200346998041 678.8922031550962 0.03868283092134719
0.07898561261011477 -135.7407254389406 678.9260010919814 0.05303431694533317
0.06117922476340597 -135.72653344390616 678.9194102265843 0.02941389073429889
0.07776057073202547 -135.73412046478467 678.9314752051318 0.032219327471843646
0.08249188691995225 -135.74372262629845 678.9462493046858 0.039059789577679783
0.0734014879864058 -135.7294211041781 678.9457178389666 0.04390277596067658
0.08165989356270806 -135.71856060644652 678.9528487488926 0.05252745229718729
0.08254328060520462 -135.74362357080682 678.9590155280247 0.05267871895555243
0.07701852755350241 -135.7242672859222 678.972623612372 0.08484450736483208
0.09279895128083877 -135.726715850073 678.9789045004567 0.056332038901643774
0.07119509566839118 -135.72021546204002 678.9820156838327 0.08257451463829563
0.08611691627968165 -135.7323070116875 678.9969169422384 0.06533646422120647
0.07472152239191295 -135.73723940627315 678.9857861280467 0.06576419951986205
0.09153496756450827 -135.73060113777564 679.0026728838733 0.06097417950012492
0.07323799412312153 -135.72972366204223 678.9949846837346 0.06263900949466387
0.08192556302446394 -135.74101606105614 679.0230695130431 0.04969059342214773
0.08686146216394239 -135.72719557550815 679.0187207440116 0.04719454446035565
0.08516179016281927 -135.74031314190395 679.0247225333258 0.05637225613673582
0.07755458808246272 -135.7331797264537 679.0336608185547 0.035997426293267895
0.09139356285134789 -135.74792995137352 679.0428299225074 0.031640243183821665
0.08044128469156941 -135.71824040890283 679.0375944940432 0.0339580534563054
0.09071528138090043 -135.73887622541656 679.0508681117433 0.021457341014384047
0.09084319499987135 -135.71872410754116 679.0694370458131 0.025256514573755936
0.0824167503536532 -135.74085909437937 679.0718707608096 0.021669402830785525
0.09026573713802374 -135.72862442998306 679.0718000737767 0.026571956566193385
0.09167942458787141 -135.72026065519327 679.0854088882108 0.04088175555017642
0.09358984475770359 -135.73457639121924 679.0871844573335 0.031064152796087378
0.08828304421964307 -135.73046722750897 679.0946603323113 0.04231680458946631
0.09619208417540598 -135.7248802151346 679.0855709899349 0.03841751375027681
0.0945172505812367 -135.73546322118568 679.0985784286074 0.036122224140646746
0.08765161087542399 -135.71737366526102 679.1047364093587 0.020386356802934876
0.10245977463622073 -135.7201183094681 679.1144138055033 0.0189981318493194
0.08793494290929658 -135.73154145714204 679.1190040457589 0.03935585357622851
0.0980144970270686 -135.7278629719133 679.1386132682592 0.04844769540381913
0.09278268587818309 -135.73067245482537 679.1389608888625 0.0512303971110059
0.0904358409626799 -135.72661660740428 679.1260519119338 0.04072279644672113
0.09532482047184662 -135.73169738569152 679.1437635297943 0.04861171540273575
0.08384893305059765 -135.73838106640986 679.1581090346881 0.03588028679733804
0.08071348767660048 -135.7254971977175 679.1489635771684 0.04231357527512594
0.08929166834216026 -135.7220342958619 679.1652464511363 0.04163024943917996
0.0993475211131063 -135.72190922181912 679.1647735633618 0.04251631369924005
0.09302195449087672 -135.71861130566694 679.1746140006464 0.048723611936943294
0.0960961840523859 -135.73568189503388 679.1729377994235 0.05031253645484349
0.08761635976505107 -135.7194171195067 679.1828105222108 0.031094726644158414
0.09468847662743378 -135.7378518254361 679.1937510661479 0.036274372377447
0.0929534040207462 -135.72486717128717 679.2001624995542 0.03062190333039194
0.09264402633618547 -135.71841332666705 679.1976324514659 0.031818950198482576
0.10188319517434279 -135.72894769312688 679.2133795304238 0.05138158809589934
0.09519498476541458 -135.7249294071469 679.2170117921609 0.05483177484631818
0.10215165394231987 -135.7223890136252 679.2112884067815 0.0349554342948621
0.09110265969277534 -135.72272405935922 679.2259105383861 0.04768140323723191
0.09349312730573416 -135.71093713003032 679.220949856722 0.0358190769045587
0.10595813820074211 -135.72327761016567 679.2319842445467 0.015165952787430896
0.09231293121952662 -135.72544671536278 679.2463750523198 0.022152785396676353
0.09615316364328011 -135.7310340821384 679.2598894827833 0.028397794653846554
0.09356000093940914 -135.72031337715117 679.2596031403286 0.024734583619822594
0.09882889154448202 -135.72785810825292 679.2704460228051 0.050876875529003725
0.10043767271843915 -135.7242855999361 679.2783985906414 0.05447901771004603
0.07925554981080674 -135.72128834818292 679.2622957217927 0.022329337140414882
0.10376276481607596 -135.74355891909215 679.2876658337019 0.044652156604721605
0.08701600286244249 -135.7232471245309 679.2843008776387 0.0445748480495942
0.10325385999749091 -135.7269224724093 679.3007462202272 0.07492415237372295
0.08562721121409687 -135.729718041393 679.2948349559855 0.051212666391242535
0.09880102901318712 -135.72119913808424 679.3027853671321 0.06893884961077389
0.08803458369731634 -135.72543986119337 679.3226946399353 0.048336488700403316
0.11049929207295117 -135.7206832160072 679.3215555984041 0.09044444269839011
0.10880204048470651 -135.73420796177945 679.3325391493304 0.12674702251737177
0.09160592882413476 -135.71913573411524 679.3431524670799 0.05711272511938895
0.11553260503257592 -135.7229587493503 679.349358713399 0.0866878017022758
0.09387349232505968 -135.74375586472738 679.3442932156046 0.06691876222659418
0.09183843414028388 -135.73342307975867 679.364837913211 0.0720080044943543
0.08439569830550833 -135.74278581466976 679.3575232814113 0.07150753766521843
0.10679317358612089 -135.7239654746901 679.3697879868674 0.12190155684285374
0.09225889425377681 -135.7278802296457 679.378401753438 0.04053820825395764
0.09564618994937385 -135.7387502009318 679.3746568200495 0.12165777791849089
0.09446132014778025 -135.74111544882223 679.3913238201504 0.0385730822569248
0.11190305555274423 -135.73072718243873 679.4023772921583 0.0662395252279511
0.08518824096529108 -135.73696362178842 679.394484774794 0.025984151625969863
0.09787743162611857 -135.74574121799614 679.4091582958956 0.08555611000716179
