x y z curv
0.18263094019314724 0.35408558813535007 0.7167770350055168 0.08923673764557077
0.10963675054651159 0.3508865118174278 0.7058991940881474 -9.915381853714522e-13
0.09209948843060738 0.3380573787657171 0.742433166217501 0.10667933025849176
0.17261952938595493 0.3249782293708657 0.7472140538024756 0.06474480929248906
0.09195157635137173 0.47458608059560425 0.010007578315848357 0.0922168766485134
0.1181090376921649 0.4216754760737262 0.055109857675712935 0.101860882852363
0.12045650679725306 0.474074523426088 0.033593931349480605 0.12756660101081824
0.12252864718754308 0.4357516746849947 0.06623428701923897 0.008807110946600076
0.11846475117435172 0.4521839149252452 0.06568120382565756 0.05964673770325328
0.10169820986671978 0.5090409994981581 0.04486719152023947 0.1458626236786514
0.080818946847877 0.5056383872347996 0.05128099497899456 0.14061555871311476
0.08192644054060903 0.5088220257535068 0.0662624811030809 0.05783179790479278
0.12141984148880305 0.4972130843664855 0.0396316263268855 0.08151140159611317
0.11623441173484463 0.5034721331902732 0.06377025952045659 0.09712077028473678
0.11019866330147642 0.49007054563611635 0.07726338451697094 0.11365345120460046
0.1223063658987021 0.46852534175626975 0.0676068216724264 0.04755917710183003
0.08726659059463651 0.48783878441462647 0.06136313625889168 0.23543810650425784
0.09021327104610596 0.5013735818722402 0.0352589703109859 0.10535187774464579
0.08179770169088475 0.48016127873339925 0.033558740113958416 0.18877084285620405
0.09253928857495108 0.4770925467949128 0.06893889509908978 0.24420750107068015
0.101273649270117 0.49545525879015356 0.07474771056926816 0.13763597745303716
0.11822472370637134 0.46151500985378385 0.04395725245689262 0.10158286202948216
0.11762655775747492 0.4517209191330126 0.05031307003820935 0.10785986140350177
0.12219009597420212 0.48709006094058804 0.04426703469914431 0.15942620562505222
0.08589761945851676 0.41979149745584915 0.032390161149176235 0.13919413049377588
0.07751953398259682 0.46441070295364073 0.04545759952445502 0.018994163328676067
0.08067215794727335 0.4334303315572403 0.04708680836385318 0.002775405673387505
0.0805624289403079 0.44222731666819387 0.047229399484633616 0.16936827681211494
0.08244965658675092 0.48241988241340367 0.05927216036724188 0.08337273913809162
0.12360020306972476 0.4344909651938629 0.07824959426206886 0.010846615227506969
0.07626377285901186 0.44618008371974743 0.070003322075799 0.01280377802999267
0.08062158274920538 0.43581934462331373 0.06587635410036946 0.009529852154861749
0.1125831855294435 0.42521795085652236 0.09291532403020626 0.12351155318849132
0.07849342294992116 0.43061974201001196 0.0962576431450941 0.0910297690802215
0.08159631758421644 0.45019882654014415 0.09509226756658166 0.1303162486784561
0.11981756774140888 0.45273111888652595 0.09105346760905525 0.13666634731639582
0.11058195045571625 0.4631062363791766 0.09643606450173346 0.13674972203739463
0.11730080339135637 0.44165075048308766 0.08857548763274804 0.09810370329549872
0.09435351856693078 0.400419690048595 0.10128404137799742 0.06382263876853686
0.0943052259989972 0.3889017070753523 0.07802199597217681 0.15158842601827496
0.09937478444707734 0.38393877437736346 0.07030985708629238 0.14212345943944193
0.09096064032820612 0.3849329202826807 0.025970978368377126 0.03929217267232067
0.10743695348074583 0.38160154342993463 0.04601992745642646 0.15461103139797533
0.12087424613447921 0.38497430116495185 0.0556802959704959 0.13619365952247997
0.11743719511192813 0.38676442415592105 0.07141956372677678 0.1674979064987498
0.11740117093270536 0.4130575328412512 0.056971720068962256 0.12026606995574299
0.0855693962178372 0.40719476912926283 0.04753625320774445 0.20194911151802392
0.07760372521768098 0.4080330407312781 0.06821854418909967 0.011796485927205872
0.08462530295277491 0.39393741641339763 0.05231788316442927 0.17826456485364536
0.08698031341175975 0.395469141640052 0.039662904780468695 0.1633377564295007
0.08720974099321782 0.3878299422559447 0.05903308325319004 0.1620477161951925
0.08940590450152748 0.4041895821804143 0.03381804494238158 0.23915383089052933
0.14403122973920862 0.464745592972764 0.5258868024991765 0.06032652343755081
0.1317676979724067 0.4676008615759267 0.5383321667997117 0.0031217211580285686
0.1521940332979507 0.4623821902161943 0.5479123930435875 0.0357731791162092
0.1485712868746873 0.42493964557465025 0.527525386641126 0.06878667358134025
0.13411623956911112 0.4150955064919999 0.546185643105162 0.03561794492766388
0.11751157625382738 0.420362568908429 0.550404532619787 0.015534510007637567
0.15029532891500844 0.43961142096724287 0.5264614925409453 0.11598990596050392
0.15501403354353183 0.42466745780123943 0.5413230197609973 0.09041972190662016
0.15748969680951302 0.44898887747232064 0.5462194379777204 0.04912899549545048
0.14300591046252256 0.4612497074339477 0.5167150711125921 0.0609903858976984
0.154641603909836 0.4298030036841522 0.5424772952844902 0.10013053402897201
0.04767641523727117 0.44458234371863103 0.5572507814077606 0.11566318523967685
0.053500185000611974 0.4602755665652907 0.5507904163298414 0.11194034297355426
0.09093271265979218 0.4726781128117345 0.5430512550098415 
0.04211708732407903 0.4566172042256724 0.5299336272684765 0.017504280055761826
0.04279137354865598 0.4298338846646179 0.5511512058995655 0.13543225436730294
0.061702181325780814 0.4309893669953268 0.5560192623349388 0.09038097117850379
0.0496323805074285 0.41839667253528084 0.5447367959989284 0.12540004034789975
0.07332483035983069 0.4251349048367119 0.5401800739748488 0.07198736793810635
0.08376318619044196 0.4254680212223333 0.5373003694157198 0.023604834015951894
0.09364199030915457 0.42375747973776057 0.5394753584664292 0.005789159524741079
0.11308933947812634 0.4185018351256037 0.5293231814206604 0.015319359440238847
0.07298635248720264 0.42585476096346797 0.5292105149154371 0.08815639252054562
0.08933260584533959 0.42328866808751786 0.5276193889123765 0.006276437494872248
0.051419542631222385 0.4565940511890273 0.5507596373721924 0.15344247777905717
0.044456184789077514 0.45095870396104104 0.5252006830533382 0.17748882395963458
0.04045159307791362 0.42994227398341206 0.5358223089934621 0.1594895676670266
0.042394053276431864 0.43491083599657737 0.5372986762679243 0.1650369267275552
0.045921887066241146 0.4186782132404092 0.5294559564336951 0.14242827851772344
0.04265769758860653 0.4355556011910447 0.5162712361618402 0.09494449200444728
0.0722674934637123 0.49974931404484807 1.060116898605777 0.12818680923319675
0.07404369474938036 0.488821551042761 1.0544508030739814 0.07198928939175835
0.07197340928752342 0.5075378153651063 1.053934499474482 0.10091887892695095
0.07238892774763057 0.5015951349763336 1.0330462122881976 0.06584040138028517
0.07352441189957631 0.5056022413414458 1.0203218596931602 0.057265111623301154
0.08036625714127546 0.49583361115923086 1.0148436541609593 0.03366151084419227
0.09542558327392942 0.4905916811706203 1.002432118113069 0.07061755393379301
0.1234406568856786 0.4951083608774934 1.010203736177391 0.034293912749482534
0.1260345225451203 0.49831677333088115 1.0218471986938473 0.05248336602398238
0.1352953628499356 0.5060188632115402 1.0360028655979856 0.04263331210883437
0.11109793958584252 0.5029751755964255 1.079447732114856 0.013839968515746578
0.12530557840237616 0.4923522603480586 1.0759800210543704 0.08722729015197571
0.12411740019137361 0.5016569119227062 1.0643171547691364 0.1732909486674345
0.13497330710016023 0.4960814559515969 1.0597511820294938 0.03728361363812757
0.1307342984043354 0.49233618087785663 1.0378726777715643 0.023117911868557797
0.1390841189132303 0.5101528219940089 1.047058462806073 0.03851809524947268
0.09960717434467962 0.5113703217035304 1.0066356845574582 0.054305590982486045
0.07209083345334244 0.5047483550752847 1.0484839629459002 0.08863391119258514
0.12455174382479064 0.5090567994406618 1.0165549480251341 0.04892931643830366
0.13008752031266516 0.5019508809528694 1.0294413080254468 0.10057912297645533
0.08925294536882332 0.5132322630897984 1.054893981576189 0.09095543798192472
0.08921445108848053 0.4984789908618143 1.07451720118686 0.056872075787261396
0.12487229554490482 0.4831918687211776 1.035172619506484 0.050198974068789835
0.10571008660195133 0.49949502493589026 0.9952821323665927 0.07765934114079291
0.08014767100684678 0.48379603124698545 1.0370759800886067 0.07106054173516044
0.11517926352891024 0.4902788427722456 1.0786242447848537 0.038182459741909
0.06963962095321233 0.4875602305701586 1.0481847608777997 0.0583393914090712
0.08007384240933932 0.49252023000770795 1.0731142885807914 0.06202049684717501
0.003975237081037801 0.20726564330020028 0.9149560442952638 0.008307729027556289
0.183206673986769 0.20629287665574697 0.9242493080152789 0.03905509188939233
0.1646767872191234 0.20331289397774066 0.9253900320132344 -8.319674775513924e-13
0.1924368820761453 0.19350568357819786 0.9258497285366458 0.04543074892106092
0.19676575415924083 0.16822559899762768 0.9246426043060815 0.06591565888785758
0.19809670056877066 0.1228295473463845 0.9232376869788074 0.028896635275012017
-0.006428523684996601 0.1518645835925081 0.9313917029526447 0.03076006847927493
0.0009352082227187962 0.06216886364719345 0.9205493595615815 0.05280710385150247
0.0026032985256549987 0.008881683975709896 0.9232388626980772 0.05686475720522029
-0.0018073090041563426 0.04921113296972664 0.9179902973370848 0.06868109957438777
-0.004818518234890552 0.12132402810081756 0.9132195744373728 0.038376062707329836
0.0018902819578086802 0.06590652429449284 0.9230234942143782 0.05197619630559838
-0.0014644640695176247 0.086832239745735 0.9209542071468363 0.03481242132490089
0.19527758950743412 0.0013041997367371004 0.9193863335502895 0.10473252224290933
0.12633917081575005 0.00021789922069769034 0.9171401854945845 0.03480090657735735
0.19672202379407214 0.06007757210311921 0.9052690856303948 0.014899575435603728
0.20761839522705605 0.15149255574787024 0.9164028189797282 0.0542500703064484
0.19962399091711 0.09706366722954256 0.9130889492903341 0.04643826400427812
0.20500650071009255 0.14342265842906515 0.9133936711036602 0.057447730326124824
0.20080697463937572 0.0016531585599727878 0.9071623245917864 0.0816484929325855
-0.0009536793651766661 0.177858056510698 0.921927883896161 0.06890203710488835
0.003039491535543845 0.1334347783041665 0.9243801390743313 0.07465912159786271
-5.62052837801143e-05 0.0779057692675772 0.9212727364818704 0.055001730532536326
0.1425990944644373 -0.004370205441300981 0.9215097047170955 0.021772041180526384
0.015252830883265647 -0.004267975080187286 0.9261228289270118 0.0702407546885627
0.06959567080893445 -0.002045823584685121 0.9193987796518591 0.04171229539310179
0.0951654817536977 0.024061158410282293 0.9269930955744329 0.02731237843763713
0.06587131562826641 0.014543458988901201 0.9246059048395501 0.03883853101814516
0.013356666942120596 0.11861773854919336 0.9290453324917457 0.06230993362742372
0.05397615908598287 0.002404749579354728 0.9253157978694814 0.03906155577776963
0.022081774187385994 0.004980075023645914 0.9288891579439202 0.08105089607690215
0.009188129051286135 0.09709018788767786 0.9279174478192842 0.03420121962835538
0.0035812314804262637 0.10792754245299266 0.930568769822399 0.03798586404544002
0.1395801874623097 0.027596481570785692 0.9301609647552 0.04622414209011778
0.11379882044524361 0.01851949919371986 0.9283228516323646 0.04216569104150204
0.15368439636015085 0.02461344673444432 0.9309313863851996 0.021000618586723575
0.1923743208383975 0.01199320009509555 0.9282785844131073 0.060013068579128005
0.03109699722142814 0.09259753270909848 0.9329990544793849 0.05110392209876528
0.08780368142974035 0.008492076122250357 0.9210801338613889 0.04185334346071676
0.07369538699391262 0.042820291917207 0.9334376293699633 0.01095190014445593
0.03669842380924527 0.12561335918899072 0.9310043379344476 0.005237119553422345
-0.003033064277625756 0.1632940024235079 0.924409229590137 0.09541390645430495
0.1809487321334 0.002279298083157617 0.9303683237175564 0.04942581460839111
0.10320871542894776 0.006985834278135309 0.9242559749772039 0.020047536768200824
0.0030424461460475836 0.03563962290662392 0.9308660895186083 0.03884840720302559
-0.003920954397901997 0.162883609067113 0.9269832235494143 0.08820739268066352
0.05380944503630697 0.019683621373565104 0.9326740721668939 0.050071168639254426
0.1342071826051886 0.025186101578473886 0.9293345491439194 0.03133693047987402
0.01563735955121327 0.07284941968127584 0.9302326306691013 0.05276554007941582
0.023417213678758663 0.058998677240499134 0.933950888288778 0.044740311983796625
0.01690987546217168 0.18973044381546988 0.9229228675325172 0.06027159455263466
0.1999279252421304 0.032428199675136535 0.9234756007798511 0.047908541183515806
0.17007007773129945 0.055429733300833686 0.9399171035522518 0.0036422109455301276
0.04379687512379417 0.19572992917502735 0.9291468039342659 -1.5311470777346285e-13
0.19038655760732562 0.11715217223951405 0.9262971478395983 0.02351660211228947
0.1744661640344107 0.1515151016990295 0.9302910670016848 0.04316712227202541
0.13437995303083364 0.1579693009581281 0.9345246115894789 3.8413055280850337e-13
0.19786231200195303 0.17955632511736913 0.9265082033269434 0.049933779017808176
0.19639341541463148 0.06094627257028511 0.9290085780310355 0.023415472963627885
0.19192456643884717 0.07887122370384797 0.9236675285846354 0.04113135772510462
0.019592426100607074 0.18562866746986112 0.9247360569121247 0.04390405456022291
0.1891617100229556 0.14981860695119623 0.9291713476143895 0.045850085678357834
0.176411647332697 0.0935397288071515 0.9300461426948247 0.03352331352526146
0.1883735670545906 0.08502488553444286 0.9270380592722277 0.03821308046576286
0.08400539990522585 0.20899000375487883 0.9240906994633931 
0.16267625331850954 0.18367002205911842 0.9265647806588906 0.001250989857692589
0.11797926062224248 0.17038231319440508 0.9334399197390879 
0.146998945766168 0.13625798019163224 0.932227884836188 0.00024112125481889888
0.17091704692372622 0.035115378771135755 0.9296158131095672 0.04289712395424531
0.1654714345219414 0.1240933773906728 0.9296433178603939 0.024659762823345047
0.17988491234713314 0.15639048230033303 0.9288817024870787 0.03855493408291239
0.19455387052018047 0.096729261690854 0.9271191534225122 0.0446013983921703
0.0026988928957454917 0.060083895038768174 0.9085073046298844 0.06143617089872442
0.07111988715015197 -0.002819567828524222 0.9139751371220272 0.04680153161134692
0.16565485088888807 0.007145312281679245 0.9239550732595879 0.06388796883324488
0.10551021767006619 0.002082248213729443 0.9040154025467466 0.018575750626501956
0.19734691460430723 0.02528085602756055 0.9133881477500161 0.0682232342763523
0.19740840653499944 0.0862768195538791 0.9197960516722791 0.044471050111634096
0.20361393214829362 0.17669990841101404 0.9194233245729758 0.05717824028500015
0.007189212606040253 0.20351472286144784 0.9087438564464111 0.018800852224766452
0.191166763030723 0.15487229339207215 0.9082590830889018 0.03361013281855108
0.19311689686322916 0.09633542918790712 0.910080914704198 0.031406138715336394
0.19598006081411773 0.11696160058537294 0.9125223563592555 0.0331418724376893
0.1927242040402139 0.030932993894220905 0.9107756088178621 0.0629431128897461
0.20236215195382776 0.19146038398027762 0.9119471012252921 0.025664686324047836
0.018658025420932083 0.003717864678092044 0.9149042790746237 0.0759777314310584
0.0016234675455917315 0.15840709571591577 0.9078867333317416 0.047892509698439695
0.1791570271164843 -0.0015382385005750822 0.9216375208910669 0.08100577634246187
0.14184836646438345 0.00361279280365859 0.9102443301024017 0.02465478874145054
0.05583464984077548 0.009621209450984047 0.9056285698644424 0.015027740580141944
0.002351056028963308 0.09888524928091272 0.906242488118021 0.02410934435102075
0.008888894060016108 0.03067146619278939 0.9092983889095124 0.02922516723992877
-0.0015512548524651065 0.18274681184374458 0.9139866402215228 0.0738651568976285
0.03714243876763675 -0.0021639898056298457 0.9135212807447679 0.05436743467459506
0.12343156523283925 0.0032569692334018913 0.9058619605033941 0.03845457151495769
0.08965185764693856 0.00036941942739216263 0.9123516968990024 0.04378995642515164
0.16439485021227562 0.4404823071370639 0.5682860671979586 0.05611625128080172
0.15934352110275396 0.4508646357836441 0.5674543231705221 0.07675322012793369
0.1493314989286963 0.4336373024508482 0.5773372256395797 0.08072999016985599
0.15671668035131986 0.43075767328264164 0.6076892942761567 0.04243895702678874
0.15973890766500565 0.44027932364775435 0.5865513359044675 0.04122809372775368
0.1537267944408513 0.45208803793879754 0.5953506456517432 0.015253374618160256
0.12789555724338952 0.4144008376301906 0.6070010120196961 0.0313200418525481
0.13782705141403334 0.4129948953395287 0.6179968363665026 0.0528844345946922
0.15167866061773286 0.41995154324792733 0.6120837552284082 0.033282303727934226
0.15387573394616724 0.4268681091483978 0.6199661994708074 0.04733576311910334
0.16006505766908263 0.43874174608065286 0.6266717912736743 0.048848413690839365
0.16284003683506812 0.4394993738822185 0.6098651700701123 0.030361519395927926
0.11499210907927032 0.41526529179888716 0.6521934780355393 0.1821277772512205
0.11570317433156832 0.41838553626488195 0.6305894920543341 0.043225237774573634
0.15596756187887764 0.4248666418257265 0.6358662975064918 0.039289626018299315
0.14877292138414533 0.4270069218883751 0.651085406714258 0.0990361704073558
0.15835447226504082 0.44206163401733234 0.6335424203538421 0.03401650257350118
0.11475049755827493 0.41199336654335766 0.68299367337731 0.1480808955455095
0.1540718825877668 0.39865347316282934 0.6609588543431197 0.013982049253642662
0.15954079702106028 0.42112466364972 0.6896585374530976 0.016613067316969793
0.15168828906571158 0.4248809878140855 0.6659363177522241 0.015579876072481336
0.1687615960559286 0.3948685180279579 0.7137175813255867 0.01318165140922653
0.1541650737376974 0.41249834022724613 0.6837078614622555 0.1888703542540237
0.15479119049744536 0.40832677373774623 0.7125292081381116 0.017026949900855907
0.15464952108549565 0.3644222431111754 0.7523899564695025 0.003537202605690085
0.11798720797022615 0.34125729229261115 0.7777312414088862 0.07879818953467217
0.13601753398073824 0.4222242962575417 0.5673793458326938 0.033991453679905456
0.14268900371047827 0.3752808299985668 0.6764388504103849 
0.19250783668479482 0.3375423492879261 0.7355701284841084 0.10949726467994782
0.08895082071921767 0.34269227463624874 0.7392608270465653 0.061921584335064346
0.10945987982778793 0.3139368417336072 0.7658701099393693 0.07983019909090223
0.09281168446537592 0.31739008720680156 0.7524059775605579 0.019087427645152498
0.07857400029843331 0.35449116399354 0.7462276728540197 0.06866828491099186
0.07979417591921234 0.3397887502772407 0.7625424463356565 0.08010932283779938
0.08401458565801384 0.33288693644842104 0.7631420471990159 0.08776394581424085
0.15326688695368165 0.3052556047782786 0.777836385142602 0.07149164489109416
0.18933153956198703 0.33872655353429804 0.7636510196920779 0.041989419095656275
0.1724962537575371 0.3234224887999646 0.7750109498674536 0.04854954840749971
0.1000246347906396 0.3297259029997938 0.7762715226534398 0.09373118613382447
0.1247860531456623 0.3182302471849782 0.7817703769411597 0.06220334619084173
0.18010577715047213 0.32498591016814266 0.764845982392203 0.04858139523994083
0.18718756064854694 0.3435810124781393 0.7269964065485871 0.1207939403728964
0.19884091725206848 0.36478634368191193 0.7340230732432178 0.007852804887891614
0.17938775222143966 0.3717308334430568 0.7117463009933686 0.10737001640824008
0.09631436729850004 0.370451506305673 0.7120723705363419 0.016425144565020425
0.0906849852045203 0.36289577655103555 0.7266389669296843 0.07218939135505682
0.08385670892810419 0.3623364038128704 0.7428574793502231 0.05997879832274331
0.10706261839195434 0.3702403220945628 0.7035998549462107 0.043144903399598145
0.17227101097224531 0.36552119236260855 0.7465535359317633 0.06735819467456237
0.09914426522896559 0.35873161016506777 0.7567440633608257 0.08096014475118234
0.182277300589518 0.34897150392135573 0.7521510067462891 0.08475652767966128
0.1178511462671839 0.324325472100834 0.7836911484623101 0.05585808420037801
0.16135064466081847 0.38065518541373966 0.7365929392224164 0.03211320164254372
0.17240551273962534 0.37342603152871007 0.7423256992345215 0.07484782495638803
0.16337950990076122 0.33669998278059915 0.7773412738642899 0.09780705053213117
0.17664792732437667 0.34804006301784535 0.7592783076054674 0.08233205609966565
0.14234145525672026 0.31777604423987516 0.7967691804106155 0.014544057532459513
0.17012300828750646 0.3375817243270861 0.774100124422487 0.08860897734003363
0.09370032941889224 0.37340020608591035 0.7381412760162736 0.09090493205037722
0.1610474346975558 0.31004841639270186 0.769252792179944 0.10053003091974033
0.12072736989788221 0.30698266336867147 0.7601833715741347 0.04128928051951426
0.08933683644338382 0.4384928781537521 -0.0037399827105138728 0.15058944681281697
0.10705568337994392 0.43715453971317914 0.0054466844129949865 0.1665242288008906
0.09003592260350897 0.42857722632785855 0.012182028733744018 0.17477113991715099
0.09948487515267815 0.42147658299854346 -0.006019986411303953 0.08806011247440391
0.1116099737882186 0.4344514448782637 0.011413611283601745 0.16424469635931976
0.11681318602323272 0.4219755834019914 0.031243244805924105 0.0718503261412285
0.11370869780785214 0.44936066150255016 0.016207028423321248 0.09345877761241345
0.08723309622635331 0.4337129593113535 0.028913388151785624 0.10272230994325991
0.08141785692749604 0.4346001389854397 0.5601977104877216 0.07529293734737294
0.06062417135846913 0.44107193583389037 0.5640821899362715 0.08718610005538596
0.08171501708209886 0.44862100156710716 0.847991750846383 0.10283718191388085
0.08527733811896647 0.4433682796475481 1.0238655080889592 0.15536404239331053
0.093398099718949 0.43990505766283255 0.8114871239758104 0.11664550920702044
0.08507377964684407 0.4422986903988091 0.7701300909248304 0.1430348655488189
0.09483389914273808 0.43406618390866614 0.6430943521863667 0.12269656509101265
0.07431874304748834 0.44682967532799905 0.7108603386643384 0.022134431211685474
0.07775520146365254 0.44934977218187994 0.1484000077077535 0.12910600683275153
0.08768178715430809 0.43996291113199915 0.32584622184095763 0.10488105375086185
0.08093280674327646 0.4354111357577862 0.23818581184585627 0.13575344034846518
0.08808668605031902 0.4539692361486705 0.269581892516525 0.1470636131024354
0.08463437777628822 0.442301186980709 0.6648986137770244 0.16929222253476264
0.08525611474727533 0.44622996688519195 0.39118585059323324 0.1258426723595198
0.0880199737718383 0.44556797039010293 0.2615130954104892 0.14856904240871946
0.08702055861978472 0.4295364276354095 0.7810234472457194 0.10193269708132889
0.09114186231439991 0.44938099385121355 0.17354525994666745 0.1557868831310433
0.09923674597071733 0.452688960654025 0.923558443194736 0.1474581493660911
0.09734223232708322 0.4539826843398167 0.9600040222951163 0.14222907394002443
0.09118811298908899 0.45452909616948584 0.16311901813591634 0.20730375064062945
0.08078662980089256 0.4502347073437907 0.5881398023049607 0.054877644104342295
0.09329581534295181 0.4554197007511223 0.21728834000523378 0.20511701494921555
0.09490872488593925 0.4509273621926701 0.8967903985898343 0.12455874602618623
0.08691103293329346 0.4561324998050777 0.7247769256096187 0.09753124536307334
0.0855210135596209 0.44929597062443316 0.9944102991789964 0.09843666446686844
0.08964475826070639 0.4615267325727679 0.2935782423227379 0.09916166849076119
0.08701018583502107 0.4486279034812675 0.7483086354022348 0.15749381605287638
0.09255186768047403 0.4532983642040015 0.646308066850481 0.10590225161827456
0.08288654696234221 0.45644949128431633 0.6990450443013608 0.16070439120603933
0.09595806699854595 0.45153221490504813 0.35359925046629365 0.15727605996874722
0.08705548948739401 0.45463764451591265 0.6815386929927708 0.13946814626681905
0.09252305016821805 0.452971829420146 0.4099888120795398 0.12865101458393083
0.09209528840228087 0.45495946915567903 0.2064398987335969 0.11694929679490843
0.08920828353952961 0.45887678712973506 0.8659190765301794 0.07870771971357807
0.09080707099017657 0.45101411531193364 0.41344987178847137 0.1538606795817481
0.09460844489425944 0.44985015622326124 0.8839018155800581 0.09238115968541108
0.09245842008174142 0.44979270550863937 0.8146176810038075 0.11987441071381973
0.09728532753224668 0.4519005048077025 0.7790824729037026 0.1196393423596724
0.09272651290941267 0.45189809077814563 0.6184469088715012 0.04530713891655209
0.09012311729015114 0.45531759315749415 0.7968014679895754 0.14424206317825553
0.09030353714363998 0.4580893149306847 0.9419952853505722 0.12553328330067967
0.0933437671017366 0.4606039248153373 0.6200329416551746 0.040324338464988736
0.10213751486459025 0.455696849752046 0.9037118932761241 0.08891571426093539
0.10237747374356583 0.4608048236355105 0.15511757962310838 0.21033706663194965
0.09563482900458363 0.45083657048811837 0.3384722217872317 0.20577374096347192
0.10335877779749819 0.45987901222980754 0.3901078867772754 0.14573810953922084
0.0993143916218062 0.4627175923368977 0.13311396560397082 0.19889854013966543
0.09822704968547542 0.45949966462967706 0.6979795160126973 0.11367850950751308
0.10275053431276535 0.4640711125557885 0.2362905598398245 0.15842481568491668
0.09452089234370023 0.4541736440442489 0.652457005903248 0.09862870204236349
0.1030541494482958 0.45976105649289284 0.3447559085116462 0.16551009994918575
0.10561890532884635 0.45660681278658877 0.4194442651583952 0.13684429789041427
0.10163166517871366 0.4432384251766174 1.045873607147968 0.14515610430218626
0.09752928358837341 0.4676893560568641 0.9444613940762053 0.13249448038384182
0.08757390260582928 0.454347541543058 0.4419333273059335 0.05367883661204243
0.10330756722546551 0.4576806446115317 0.44497576466483146 0.12970776574760098
0.10604416611449748 0.44697872014743106 0.7871525232199216 0.1523180929211211
0.10565971215419669 0.4507864153273879 0.8945136417844346 0.11976245443383916
0.1228257255012353 0.4514381845692285 0.9799596704399105 0.13794374872031012
0.10855081909919054 0.4572891952536314 0.13816320613658975 0.23093905783209764
0.10596357091274441 0.46082637594172765 0.2362617831752472 0.12698751775542455
0.11182691193692221 0.45071513068304053 0.6747107447776001 0.1711236451666174
0.1091526919138601 0.4532427272529858 0.8119093998963806 0.08842667519690729
0.11749298969843039 0.4513393159781033 0.6596591513405242 0.12954745541387433
0.1130920388944069 0.44430996694717373 0.8682409520777089 0.10931215758846433
0.11016743995148229 0.44802071417461065 0.8509753123937845 0.12020235678094363
0.11044902006148 0.4559208942193944 0.9152467578032484 0.1489595323711778
0.11754561465958585 0.4512776749451035 0.723455342948844 0.12011594346582524
0.11492484018848692 0.4485560709652806 0.3773959119143022 0.12901320447570677
0.10593212392211225 0.45344977457751945 0.7554167243758325 0.15120954929131042
0.1161553736535437 0.45655872676741216 0.34043550640987236 0.23250840595949662
0.12591331677121773 0.45425465308781066 0.2933475334628497 0.13734217135906862
0.11069140853980534 0.4485842662872167 0.1988473490167733 0.1311594397819709
0.11610002006588754 0.44942807758114384 0.1290704834182295 0.11318038254582083
0.11165556280986169 0.44523862573178913 0.2161583798208535 0.1600179840069424
0.11279609015587368 0.45424684052158903 0.17932594112385322 0.07479706698899515
0.1123062454376027 0.4439495236790191 0.9074757263871753 0.10726731591369616
0.11333166957278185 0.4440700982127069 0.7336457598683165 0.22911358136859236
0.11452889458667403 0.4530106857413204 0.8284710267137485 0.11276680507202706
0.11822128846297097 0.44768735748600136 0.14160820029342105 0.09261152890257572
0.1201105889084482 0.45177340102668345 0.36459296130921043 0.09699843435112245
0.11550883524553784 0.43999938353598267 0.7516610836384765 0.14817568096526307
0.11662434943896317 0.4456449721612244 0.45236834211323884 0.15357878642950967
0.11518147687584311 0.4341581633940452 0.23749276423228993 0.19133075469272112
0.11688098772087066 0.44118151762111235 0.41158027818805343 0.13761388649109896
0.11160832907188602 0.44979904659172393 0.94294126669706 0.1344113762402601
0.11124817612436164 0.43696046818266154 0.11393786603750021 0.1636209455309799
0.12093220781191728 0.4461281350245993 0.6842641083303419 0.18186319956928457
0.11527468542170231 0.4398153702596537 0.27328666380784383 0.14620386923861584
0.11199281268955011 0.4316284541745715 0.7896740504866541 0.12076862217428287
0.11827230211708539 0.43670105690745303 0.45810667724165244 0.12245540690012713
0.11296924260653265 0.4411739186563254 0.9301746363020036 0.10598390261289285
0.10786915509175875 0.4381004950039143 0.9083166872444826 0.10621931361825072
0.1204601269157541 0.44163591798634355 1.0112464168849167 0.13379339026638337
0.12236943018885937 0.4383142413102409 0.32446573759840003 0.11724773519983965
0.11526616956144499 0.443455606261201 0.772514989456086 0.12704153650922195
0.10275187576378778 0.43720557352015715 0.8010212880480326 0.16055592483878334
0.10410110958047468 0.4366299671300805 0.8855634613010673 0.1046691941760483
0.10636468011519304 0.4289744130339367 0.7611647266263131 0.1523694487732163
0.11167313260316045 0.4386109120968449 0.38069264989906343 0.13194299597778777
0.11091232874230071 0.43826566993561716 0.22159126914792882 0.16507023697366435
0.1128238096594766 0.4416971484886103 0.8965502052029565 0.10000213017458524
0.11462413936093756 0.44461845790818894 0.13067425336369798 0.12368772209432578
0.10681893867961302 0.43133591725822723 0.16807881048255432 0.19022535442643773
0.11120209995240352 0.42879680169114726 0.30486496657717765 0.08672942400789833
0.10899585605639428 0.4255510098243364 0.29402364307413226 0.0785057605341653
0.1136988902497849 0.4482926151100077 0.8600056999801764 0.09978426791291271
0.11036215486616831 0.42887523465905575 1.0157266786499044 0.13666839109679152
0.11078131352927234 0.4279836223100039 0.9372428265352709 0.1642008963532285
0.10663532632366671 0.42980479707383645 0.8270028797747411 0.08129760284048836
0.11008887994227368 0.4262932261950122 0.7456455303638688 0.17824411953440486
0.10193634531504174 0.43360051882940703 0.8770926845531014 0.08671066918004226
0.11003321562264168 0.433114266541488 0.8434754388744421 0.09124483812692134
0.10313191021160299 0.4225311136964962 0.451754806271021 0.15630980546823584
0.10879623268895643 0.43586233072815417 0.14600043537139043 0.15821638987782413
0.11051034288773162 0.42541298695725926 0.23199643961587957 0.2275700829686196
0.10656897474858289 0.43365930437099526 0.4023149782474306 0.2030826832750135
0.11397958252564391 0.42744748292843865 0.9634669348690243 0.13948613953348063
0.11398201042179354 0.43025810077692295 0.582742361018593 0.0476935362465335
0.10346090333329644 0.42697387051042246 0.3594185172113625 0.0956377156539195
0.11708644828185827 0.43353324218627504 0.17853661622532105 0.1351289699542324
0.0918182723058364 0.420572785697753 0.43718618586077 0.11041039251101083
0.10142815838875555 0.4325426984457176 0.41372718784460283 0.15226880912195423
0.09790852097659701 0.42608570568024934 0.7847365985356654 0.12686667674082644
0.1089994861639354 0.4278935851435706 0.9665221890585148 0.1424164039822752
0.11011151843047161 0.4299280364039252 0.2558201609051918 0.1077897424036936
0.10685987471309295 0.4261155963718667 0.11258335653742581 0.14561165644833476
0.11087020819385349 0.4366814680348229 0.7893878143908841 0.11597245947747656
0.10049331458703603 0.4261967644816882 0.2143889093721247 0.10867007352914544
0.10106477065177173 0.42709581115296597 0.14624205711316848 0.17092028541815066
0.10487294489858726 0.43292155672507765 0.1864101193637634 0.1509349722253508
0.0989597911734913 0.4299392894131841 0.6172775126189788 0.06045544919235835
0.0990289104952577 0.4217374611297273 0.7527110226901198 0.1464172197800388
0.09979079845978145 0.4222633722891156 0.6909703444916934 0.13869629274303202
0.10210346820985994 0.4302179130123724 0.46538409590844354 0.1611661661512154
0.0953674253751641 0.42338010366648293 0.9164757181089311 0.11629004260359321
0.09901836023434124 0.4296112928980903 0.35203954093089707 0.1302678218052487
0.09352752561139392 0.43183226552813314 0.8864042465816199 0.1248541267035938
0.09689791603046623 0.42964001811233 0.3621108894095694 0.12537963753239287
0.10127799774479776 0.4309176439608754 0.9846016373484527 0.12422688448035532
0.11146931983703992 0.42652094452219785 0.34422551519805156 0.13788647678950336
0.09026765638486535 0.4285328186534877 0.4729247612928367 0.021090435392116323
0.10622441739589261 0.4278936321266921 0.8254071002949499 0.09030043176425595
0.08893342737211873 0.4276980044423831 0.39959205569163164 0.16658681712829657
0.09747455530594254 0.43213276420914926 0.2847474852595226 0.16411395922161923
0.0869148836744767 0.44229245739537687 0.9371881555919892 0.13501150559212868
0.09136973948022514 0.4217518890835064 1.0081699860090654 0.11167966884350597
0.09324846526946783 0.4254575859130337 0.14380928569630258 0.16812636099619122
0.1111606665981532 0.43303261487648076 0.49086379067232977 -3.419684241919486e-14
0.09225411037129039 0.43470456195213436 0.8439176741863903 0.111376303188118
0.10088689698379028 0.42546900905500407 0.30065331062170164 0.17985080560939276
0.09293526849032142 0.4273781764223834 0.5548899075557675 0.006064614228965971
0.10665689572021932 0.4293398602154204 0.39090715479257443 0.09580686876126138
0.09609748972583165 0.4232751415625974 0.11553786354554563 0.191519305477619
0.08686092642353085 0.4330462732758089 0.8589839113582192 0.10681280197723637
0.0933818872522402 0.4313799141801255 0.23818293447316105 0.1625020743729615
0.08271109157244191 0.42688516456201975 0.16685573056551722 0.0661797742060103
0.0899750845525124 0.43200269128711155 0.5730950347305827 0.020007566823640223
0.09866922128481924 0.43397486208182595 0.2539471156913414 0.14515226636401998
0.10158788110354677 0.42646093059556867 0.7915493085514081 0.10723850896763093
0.09028896743647773 0.4389595621541483 0.3145865804517098 0.07568300054019629
0.09396555361308004 0.4358490725803546 0.7997107813620813 0.15514278379200583
0.09856003518748704 0.4315336795287953 0.5891810109164424 0.04172415255576398
0.09094498467931862 0.43901343052033237 0.9485584033988831 0.11297606451697677
0.0900288906226892 0.4346903438685415 0.743983732649219 0.1586630181454499
0.08816755547721661 0.43893314122738 0.9700593061388009 0.15493466689615093
0.09177213048667238 0.42920203072326396 0.6220016479819753 0.06263875398278683
0.09412837277136384 0.42477209778101865 0.7309008435827036 0.13863683067127944
0.08203174785946603 0.4351902274275033 0.8795780234897748 0.11159449355121731
0.08778373076135627 0.44405469527607944 0.1883961939810389 0.1743732635441313
0.08511928995407916 0.44341277475124297 0.11213518176753468 0.19957673941903453
0.08816943348034482 0.4419057573406418 0.8314359029376089 0.12860660046757202
0.0850157859121413 0.4357682151189632 0.9084230872470039 0.11333681953386546
0.09649587247000636 0.43320655372251593 0.934377419390475 0.14184049915178537
0.08291604342107872 0.443278176746332 0.6433086915314326 0.09065646517595824
0.08392252726073696 0.43520778803210924 0.393792350182771 0.17114274271988142
0.08442257885707297 0.4390372496446661 0.9990569993436378 0.15477458112693268
0.08643456215421218 0.44182233794715986 0.8720028608576714 0.10438187004895384
0.09360240279675743 0.4439296193407373 0.3530300688721288 0.14202923926081876
0.08583875010838125 0.4377654787177248 0.286470104610673 0.04629572500684795
0.08760565439263285 0.4336073473350182 0.4205238637005787 0.1386888043771697
0.08379168135091626 0.4379411042511068 0.9002208978764166 0.1102087803009811
0.08970509380299661 0.44007427164468915 0.7584261885174758 0.14764212056397152
0.0898689142627457 0.4405346774845414 0.6781395375879706 0.16675394534051602
0.08325873742150929 0.4385727760223464 0.21556280543756753 0.17310417442447848
0.08635071155703514 0.4367476120406681 0.6097418113995584 0.06380351857305701
0.08725691425515797 0.43849090931498247 0.6607654413758144 0.19762810528158062
0.09751464641534345 0.36623328544428135 1.0554102242854564 0.113007659001119
0.09375258094023473 0.4036633443890319 1.0539092196696964 0.14969350058379682
0.09562236826872868 0.18256553790659022 1.05914810968008 0.19050219606106272
0.09077164004787185 0.15773883483777623 1.0609462209860236 0.11411211115723639
0.09820025473385388 0.3772174966529341 1.053439094390713 0.11766643440681263
0.0944564892881737 0.1986506332304192 1.0560911283190362 0.11439597621468961
0.09413305775788901 0.2556074163889585 1.0608885764534917 0.1339445460954645
0.0960352675483328 0.2815559969027568 1.058208666165219 0.16885602550930354
0.10187597839574455 0.31380096430556265 1.0575557373084519 0.14068485669894784
0.09486307212799297 0.4645898715791151 1.0533908000370165 0.14476999084836406
0.09009661368315854 0.4209231201098512 1.0473814283872627 0.14963904901988564
0.08332006437452749 0.33120870237652494 1.053266850133086 0.1692662866698391
0.0924950968709098 0.2691341447671915 1.051986211965273 0.1296790585874465
0.09150292382007578 0.23041556178996833 1.0575444460169154 0.1659703382319534
0.1062383401607119 0.22883098887310452 1.0476357669625027 0.1525140736952737
0.09354411559061569 0.1728910880477402 1.043999277357325 0.15982859933501942
0.0940606942362042 0.29971854594990166 1.044860529972082 0.11767266542740461
0.07954715794463013 0.20723541049958924 1.0520727210365153 0.10656717676986881
0.08434484566261494 0.38138001576537855 1.04404465372809 0.13256450948575896
0.0873232825409015 0.45283028447473445 1.0492454236322848 0.08979807543689995
0.07891557784936803 0.39922577053354863 1.0391609926644247 0.1473727603309853
0.08503740471624394 0.4043412883599425 1.0541501288981263 0.18565492817320398
0.08633979485375375 0.34485286496024986 1.0388318867113875 0.17290253159099914
0.09221771876758696 0.16995482535561415 1.0354425189909962 0.16128206493836678
0.0886752111034317 0.21865919067858977 1.0400311809114304 0.20807171442789513
0.08910560068496627 0.2303672487992877 1.039618888391627 0.14153255560819686
0.0916470187548038 0.31849883720971867 1.0351903623266143 0.16240637175243872
0.09228346496793303 0.27631773923800407 1.0312690403184486 0.16004947325327604
0.09097091277772533 0.3318729000689322 1.033731034761616 0.14716774529195192
0.09251835295640194 0.3859783582765543 1.0315185848194242 0.13228241855974554
0.08172098794764386 0.3658776016220412 1.0373730401996613 0.13811148302937773
0.09217054199522084 0.2672345908718951 1.032269747819124 0.14962942977014532
0.08877918589264035 0.20504588282352504 1.0334893169952586 0.14382442376346122
0.09233866454365067 0.3493246412814674 1.0264733196608282 0.11387053312676404
0.09172703500006911 0.15531364843501483 1.0254362386763316 0.11495889505485733
0.08745698456012604 0.17843358333334897 1.0270108156273026 0.19566985920977328
0.09155521585107791 0.2945845929080346 1.0197797610804364 0.06273760910445933
0.08654531676484718 0.24684441154083467 1.0282697722212337 0.10666175334394266
0.09008542357358766 0.18863297984441715 1.0275140048933058 0.1607383902085531
0.09254486104011235 0.4191277946897025 1.0246447291493768 0.16931125667609606
0.08501241793468713 0.4873651087677284 1.028089139996086 0.09674348097955499
0.09643009960920955 0.2794986556150405 1.023563287881755 0.18445507926152185
0.09925747266879627 0.22213644017983075 1.0250743130887428 0.1583376491259898
0.09525519523158948 0.2995462488278072 1.0312535410244767 0.1251504581219607
0.10676589388578346 0.3463234281522981 1.026673893686941 0.1717911726480601
0.09392144099247081 0.32873185855629566 1.0288083594840773 0.1315806877061039
0.10795618544494814 0.1414894293380609 1.0281535123424328 0.1297851194905704
0.1050115477106051 0.17558726007015799 1.0290651430490458 0.1395954513481001
0.1119213983327812 0.33595609960256967 1.025843672351855 0.11719685101480738
0.10853505890812569 0.36413092112183204 1.0379932174479203 0.10504259686100334
0.10042669593174812 0.19758816020303505 1.028461726764813 0.1268984250125578
0.1115302316687022 0.2914457066749985 1.051462834092813 0.11813354594767139
0.10340511475451844 0.21904244264379802 1.0523011208718243 0.127061933129711
0.10411070632134072 0.426844270906891 1.0464816364373246 0.12900600991313468
0.10688413392230309 0.23067462937411748 1.0581804505494374 0.15972184263459352
0.09938310715154293 0.453029922295062 1.048844706781305 0.10245656520781278
0.10770056895641458 0.40173920434516586 1.029071988622353 0.1427611059469177
0.10979284903614349 0.38690987876577565 1.0357002912942472 0.1453405759452406
0.11012202354789138 0.20837004940097778 1.0418467757532293 0.14172849425155112
0.11667603835881027 0.16767661305451756 1.0355375330308807 0.16568208514108315
0.1133488010624237 0.24151486448086845 1.0345830409408234 0.1302182449891355
0.10769006854458893 0.2611852417043525 1.024865806263015 0.13749709511553523
0.10475149521398178 0.36285243810769496 1.027647753515969 0.10006868814353703
0.1132657426539866 0.1807224340757039 1.0384063796665564 0.14212641683881067
0.11453131353379736 0.23190133474676392 1.0329715642366324 0.1373884131645185
0.1143413831155606 0.29808122301640777 1.0453445106301487 0.13051746932852404
0.11277581326309437 0.34534625093609655 1.0321517380865808 0.17945598291992965
0.11201901877457225 0.4639971780879312 1.0377185438636558 0.16558013924446285
0.1201260352531927 0.291924837643515 1.0331170443179192 0.0882707324866149
0.11212318692643383 0.44565377271525686 1.0336742588755585 0.11628776599816655
0.11514158949227442 0.3276768960371219 1.0538163029668335 0.1338462426204155
0.11548260962701702 0.3616690355501791 1.0495749132836691 0.13683529976309516
0.10551887555266665 0.42104683326699416 1.0525048015610046 0.10897218758890558
0.11175108738029355 0.39787868951806155 1.043318909380019 0.132752680250073
0.11710097722792061 0.27941555011640523 1.0405417028987773 0.15667278830884832
0.10897360434440617 0.2559968212897483 1.040702152837676 0.11594342413313168
0.1066906909568698 0.41840061776976367 1.041922357042054 0.15165578093514243
0.1161246616510436 0.4707624352371487 1.0497830789175515 0.040161776473031374
0.10747941041313493 0.4069253014747987 1.0505082770722367 0.13380249117535034
0.10933830136107635 0.1961250944866512 1.0458350641132472 0.14271436181745858
0.11243923269307916 0.22096472718975227 1.0419553345236185 0.2002393041186378
0.10906109924805642 0.1654442070231982 1.0473335627445401 0.14417258513387182
0.11163006938385232 0.37277991098538343 1.043882932063866 0.1186449796087349
0.10855294011062865 0.2680237896687413 1.0615539284475708 0.1302294153197012
0.11406686442083433 0.32228039797539076 1.0496861790598655 0.14849037557119724
0.11338837610444469 0.17725361032267287 1.0476442878938503 0.15065221917503632
0.10608918698160075 0.20979252824945668 1.0473501854778298 0.14140797246861944
0.08470048108707823 0.13147975469864995 1.0416548575860283 0.13132433285785985
0.08108998725414697 0.12153571063186829 1.029669514410493 0.109748035181945
0.09052772075401501 0.10688255309936033 1.0057141703844457 0.08974932920026225
0.10995735756909904 0.09642012372469103 0.9977720645142396 0.1370363814355609
0.1086351707140643 0.08291225007080547 1.0127740885301404 0.09478210299815282
0.08866950375641819 0.10079602370245606 0.9956516415524566 0.10663432023340919
0.10288817058796824 0.11131217166642174 1.0041925899487172 0.1019143428906445
0.0865416490273425 0.09957747137354224 1.0073518782086666 0.09457385382962757
0.10712145857274671 0.09926615966531023 1.0216519123857435 0.09939025203820373
0.10492261160971267 0.11553872696438536 1.0191099263392276 0.10576438500812306
0.10727697348858045 0.1121039824626871 1.0258925122558937 0.11696222177802211
0.10858107953180414 0.10859808734144677 1.0397298590324402 0.11471086973297062
0.1057759795378454 0.12174711921355373 1.0310824365550266 0.1331016177013902
0.10349502876238767 0.11500435793861996 1.0390920252164453 0.10564056022574682
0.08548752344175489 0.12308065456442863 1.025496478381366 0.11475410430517845
0.11304403023101536 0.12744131629227742 1.0483559778735942 0.09271402080760774
0.09420580476624006 0.13034336630484747 1.0470002416430382 0.13699070565777582
0.1120403026075541 0.14198380086582912 1.046729228923557 0.10910681509716663
0.1019334068516926 0.11529228725057376 0.9930230890650672 0.08426767333581477
0.11607773382648834 0.087079443224506 0.9951350879592229 0.156091531739695
0.10012865179051422 0.09452369027548348 0.9988501634283237 0.1237924021944577
0.08574602692193294 0.14582433002942896 1.0408571461670977 0.1254387174109409
0.09287854820131596 0.10956556852925113 0.9801155349983255 0.1753982553441187
0.09985708448214659 0.10854167151312455 0.97446006885479 0.14181024677204493
0.11032100400024192 0.08795335964829 0.9747294420634491 0.16157770343376868
0.11247312724545132 0.10307326389224711 0.9925179977918317 0.11746907216567946
0.08557780716124203 0.08243442788670402 0.9731252969198402 0.08525108341753566
0.09239978058671483 0.11762362365502993 0.998245357756979 0.10241990777279907
0.08664313436404046 0.09622708073095175 0.9857458574014484 0.15067364578639902
0.10388701045389043 0.08523001960526388 0.979897116940492 0.1420583878425449
0.10448002631400453 0.10336574785231117 0.9558504023166864 0.15883317720067394
0.10798153015111907 0.09173656022949965 0.9623824640058978 0.1866277096254351
0.08783435830744646 0.09698617712312518 0.9638038915235037 0.16144038341149528
0.11473934445369305 0.08708996554280639 0.9514123124064872 0.1717822626086334
0.042702429664262 0.16206025081716632 0.9411152578844113 2.34294923368554e-14
0.04184997368398229 0.04087001926091305 0.9317302764949915 0.005650142370561605
0.19482101229091306 0.16162223070042744 0.9110135954457632 0.055338674511559625
