x y z curv
0.6233704984374181 -0.6805613594990774 0.23471104647672664 0.08929873561387454
0.618653517955121 -0.6562736467690883 0.24819235538766599 0.005195161574331236
0.6041761038419914 -0.7077413997108957 0.27087201457243065 0.06017764168976138
0.5889276522778986 -0.7075911064503065 0.26880213063098707 0.05092698184591107
0.5580436575488218 -0.6792661630795742 0.2740567202956189 0.023038495469467728
0.5818605481265018 -0.7167003681929869 0.2863217482699864 0.015143853255100544
0.6101168880445652 -0.7028181082420536 0.2742455963685401 0.04606511244538916
0.6216718002439506 -0.66047246165402 0.28154897878598945 0.004796618503149994
0.6236767251744131 -0.6701407182753873 0.26910261507981925 0.06558253659268179
0.5510316674913528 -0.6785873621975584 0.2889678823498584 0.00507284481322406
0.5575602190386851 -0.7067168084805449 0.29722516890087847 0.020415916557866603
0.5776316364171329 -0.7077386464558085 0.2806861081130463 0.07601677370152837
0.6045495834973623 -0.7113218527050845 0.2904060970392658 0.03084123799225103
0.6328871647330302 -0.6844390584887671 0.2851058975213506 0.06681669279554094
0.6352401212229433 -0.6844647921021512 0.28815022988435895 0.02938138152726995
0.6214357465018374 -0.6404542257725117 0.2877451566557465 -1.506566327102582e-13
0.6421712495118411 -0.6323372767049656 0.31966401542266326 0.02772807111715203
0.6323250080249091 -0.6451499458958008 0.4242012803463682 0.0038424726303137448
0.6334176126466061 -0.64865279773104 0.4223736845485622 0.003768411584017895
0.6526773981283925 -0.635374311326788 0.3277092996376144 0.07159001575158916
0.6611307656949902 -0.6250060233628187 0.3324391265904533 0.010924633756334715
0.6534104348908553 -0.6505417628404288 0.38028165699285765 0.014045256185272881
0.6357640746963311 -0.6537662695448403 0.424759456456478 0.006579606642117751
0.6608730348398205 -0.6575391394787657 0.3440376540060006 0.03070372303773501
0.6631156130540926 -0.6624814464300803 0.32887808855760936 0.018082523887453822
0.6331056787321657 -0.6604839997524117 0.44425403590051876 0.007476354943401714
0.6583019847840358 -0.6611788576981737 0.35321595354568497 0.01988726358967431
0.6632623563638209 -0.6785214616187771 0.33869659524250595 0.015789601241780905
0.6372918580552296 -0.6717898885706538 0.43531084467535575 0.009038814584126581
0.6448812527019071 -0.6826559968890918 0.41942324479672627 0.008591330574488899
0.6658753926045303 -0.67432194840772 0.34898282350204585 0.029016766156866887
0.6503050457792594 -0.6859712751270602 0.3826371614213336 0.012985316134888618
0.6652248119371568 -0.691791078147123 0.3500755798078878 0.016064651168793555
0.6382603412838348 -0.6824754277017533 0.4426317352790403 0.031565652967045665
0.6556747849833667 -0.6950642980716961 0.32960202749850553 0.023456795015283426
0.6443283174387169 -0.6980009639765811 0.4009921003624333 0.006653060529624087
0.6345484724695234 -0.691034693193192 0.43802784230794084 0.024238267983149923
0.6388657237354946 -0.7237260457843814 0.3537612497946956 0.015910890233668002
0.6386992053054829 -0.7208992962642096 0.3880732811948851 0.03076192626089106
0.6340726397618051 -0.7220826685496675 0.3726582911213398 0.024706320854662456
0.6316113748004097 -0.735851274054012 0.3387763770879575 0.022645356772079264
0.6171373756057793 -0.718010548898749 0.4460756567224351 0.04258858208986245
0.6217815440841494 -0.7183005763653713 0.4280706638956272 0.025414852500121952
0.6192876273495059 -0.731065599045341 0.39237462324826183 0.021544852024746396
0.6049198098020223 -0.732190193046811 0.37833091064488394 0.02226304371272234
0.606815619252811 -0.7508529153843796 0.3399653854842928 0.010941988180136206
0.6040075077871949 -0.742599775024545 0.35696180223042867 0.031143750081090917
0.586723237332696 -0.7469575293563535 0.3649486532299924 0.013824240847266777
0.5883416422074441 -0.7471237735917502 0.32753120315948303 0.029556891237642435
0.5786913337782388 -0.7254648408930008 0.42671436109346467 0.039105135260078326
0.5688689891252463 -0.7381892233941728 0.38866098030889906 0.019943732720504006
0.5632351225815555 -0.7463790684758617 0.3494705140140537 0.01729011927845853
0.5736267714271608 -0.7524107720121572 0.34162067496641413 0.015481100655046567
0.5711144878929334 -0.7358325201611544 0.37264302948459715 0.028253757493637406
0.5498951968448392 -0.7370027549978037 0.3339132628130793 0.009925720597354826
0.5549480908124008 -0.7336237668765865 0.3707814436220173 0.014650557561200999
0.5666823420933227 -0.7229881058295774 0.44796290378151726 0.02030799995596965
0.5694870143453427 -0.7246616816522896 0.4310762976191302 0.03602474532524087
0.5556520934279185 -0.7118923264862875 0.4583748914337833 0.03905965217088555
0.542711376258542 -0.7205460437830994 0.3930499628993039 0.012604142094290508
0.5299280814889601 -0.7149257824795345 0.3553324541243422 0.004084734352981621
0.5393588745765941 -0.7183452488876423 0.3870429067038697 0.014119836361755327
0.5433099954914997 -0.6985737115284129 0.45131435385965946 0.07850395136705506
0.5171072237868231 -0.6982799516580972 0.3335258936423384 0.009617112449848515
0.549762445757253 -0.7016440150509222 0.4325418320738228 0.025507764968497854
0.6315519948731864 -0.6315207888105935 0.4010591270081489 0.0038125118139545164
0.6207411683710808 -0.6378543786568116 0.43850100221497534 0.002727202559223756
0.6352352382976962 -0.6340329232417662 0.37791569376164674 -2.7334155727516805e-13
0.6352526136955762 -0.6530320793583535 0.42253979804293207 0.003152260720729306
0.6442212885541391 -0.6425316879116033 0.3873851772944139 0.011042529455074815
0.6513030801499543 -0.6713738174225277 0.39179370995336255 0.019350344566579386
0.6635527061468759 -0.6730228978972674 0.36298565794942933 0.015200423841151034
0.6488335610702846 -0.7057801693727642 0.36724132961760414 0.011221934528566256
0.6458293739201565 -0.6819403690068809 0.4130495742284766 0.01191720108052452
0.6293067094656187 -0.6943334367784503 0.4542788225486512 0.013653328559487189
0.6214374898032092 -0.7137924130910334 0.43342801656019747 0.04862025848166656
0.654482354137714 -0.7146537322446063 0.3308529082347555 0.007442217971744751
0.6444201107940785 -0.7088624695053783 0.384618421368733 0.015176087247490524
0.6303554001585208 -0.735733313707188 0.32352297268381397 0.013235522570918333
0.6198929662828617 -0.7305599713243717 0.3921699904828821 0.02176560272842613
0.6221757923644456 -0.744021461741785 0.36016563227469933 0.00952602505571662
0.6279848142494628 -0.7343426873096086 0.3314427122705747 0.026043368715210607
0.5925172728312641 -0.7317602086154898 0.4118972184040609 0.02025142467882922
0.6082162603796563 -0.7214684606432819 0.4288015270244216 0.01756530750299032
0.601953702620691 -0.7299551786290517 0.43780828190588 0.01779875180096362
0.5786809366552056 -0.7336898316294959 0.39970730194769466 0.01739227891251826
0.5836473142317591 -0.7232136665857305 0.44205957142443547 0.03353086894793811
0.5905976327274465 -0.7402416077162156 0.3728329072396036 0.01194906231815625
0.5929940989402535 -0.7278513303214349 0.42928444834421176 0.029992421695490202
0.5668624840360101 -0.7395610974023594 0.32018236585304916 0.015091588502569187
0.5758227415766921 -0.7148390228021633 0.4552730433602147 0.035718063299590916
0.561948807556243 -0.7332014074748426 0.37502004598932376 0.013027628020637625
0.5594952672581459 -0.7193075321696891 0.41053042902928377 0.015595308565478149
0.5481985457955013 -0.724636608462575 0.37395069794392 0.012993528907712186
0.5401498215160087 -0.7190688754263009 0.3194272017394235 0.02908232352147461
0.6220675158381936 -0.6494245285491954 0.4560037716906203 0.0077685521043709665
0.6279359449875849 -0.6723577271620576 0.4586790061978711 0.01134994252853395
0.6271277063789149 -0.6834831094669571 0.4573172481363278 0.038544182425169396
0.6059032019537083 -0.7221606410533528 0.4553454336699112 0.028195575623611167
0.5799045115968642 -0.7203797957790855 0.4490159114838703 0.05474010654683834
0.6376592027867618 -0.6159854638393631 0.3258964370699442 -3.2492758697798924e-13
0.6571159232681834 -0.6859005978439052 0.3192434708736727 0.008603636248918656
0.6548852172847937 -0.6945709837632695 0.32110181459082443 0.01597482518862065
0.6400389395983488 -0.727240899955544 0.3382229801102339 0.025579461971127947
0.6129874815503978 -0.7374814528391589 0.3213502858360957 0.023718545762195824
0.5447420636064831 -0.7313325716722906 0.3200430945228093 0.019896690966903535
0.5064814318197752 -0.6752096753824095 0.32353294916010755 
0.5163027357846259 -0.6754507509584025 0.3231410222523401 
0.5953036739458867 -0.624792636927835 0.07904341966571553 
0.6038290365971664 -0.6125134261416255 0.09453300650746298 
0.6295895165760932 -0.7188956085321739 0.1015241210829509 0.020226655878471025
0.6176199860471906 -0.7220965058299601 0.08816705535233403 0.04590985982169177
0.6129035757089588 -0.721433580084222 0.07317113853264395 0.026541387760589882
0.6108023759812847 -0.727321462332864 0.16287986712176244 0.06902994369885455
0.6206523495966904 -0.7184288235704028 0.10728250145952416 0.030402648376581274
0.6176915587864121 -0.7208268568149476 0.11480518173318484 0.02657201937431842
0.625430009615791 -0.7224684783651426 0.1280858451233342 0.02004084583138432
0.6249040603447789 -0.7301690818824942 0.15077605173291533 0.020079344926815217
0.6114448762113008 -0.7229527763733214 0.1370011114438343 0.035685186536339224
0.6372256259518351 -0.7023055274891398 0.10226959034663664 0.031489693324491703
0.6544459297432357 -0.6801738235756951 0.10203476711804266 0.03947258533032309
0.6341586881092737 -0.6924027800114216 0.07972337009557647 0.01926803322351364
0.6328069558470697 -0.7164109834765422 0.10443963098800974 0.02155812676923761
0.6328171217784252 -0.7017441294554168 0.08970779125864269 0.015642036673308227
0.637818852759359 -0.7068713682106282 0.15798956260035268 0.03934738989268903
0.6356584532958988 -0.7051651993908966 0.11350088672618416 0.03728042107603669
0.6537163780981756 -0.6982415576952353 0.1298367761420149 0.017327179543637175
0.6523630815674507 -0.6880883887528964 0.11819655561100507 0.030516496915040863
0.6405133620919925 -0.7033864019176046 0.15060754599296877 0.03835715963431713
0.6408647427390068 -0.7149678300845457 0.1272506271549241 0.03390681413466092
0.6503868848132991 -0.6603048089780619 0.1046409123451844 0.02109670942798236
0.6502504219115881 -0.668666357051099 0.08314330578719972 0.030183381940432526
0.6451152477569044 -0.664153362592061 0.16019283190330183 0.022842252476890982
0.6512659897681543 -0.6620372561597959 0.12062769422091973 0.015750380088826288
0.6480738261852844 -0.6764929600604648 0.12205559246495137 0.05513607139380667
0.6453502075981995 -0.678402030142746 0.15449094760361362 0.01547723588567171
0.6453922071457838 -0.6600465542000308 0.14003524067151188 0.030473237962788478
0.6430012856564601 -0.6562265450732914 0.15995411248195363 0.024041353841607507
0.6490303294427742 -0.6719173193041499 0.1366234672283668 0.02342760602514571
0.6313920237523475 -0.6640662655434924 0.07465815750275362 0.04600018656136682
0.6365629859579012 -0.6444253382957852 0.10107075408665328 0.021965615178546064
0.6262936297514796 -0.6420595093702826 0.0834124141271513 0.02288483958269171
0.6341418675217885 -0.6397873289688848 0.08576119992859753 0.01859913306526651
0.6277404236723477 -0.6341600650687647 0.12252702778312695 0.017081116966504238
0.6309660976610952 -0.6414782195209557 0.13064936210791905 0.017757302377246605
0.6404896919089713 -0.6369812493143893 0.1429445264097269 0.010210818300080778
0.626738068837414 -0.6266702784703794 0.1266450158962867 0.024134447007157302
0.5806358844756668 -0.7226001883957531 0.08309424985198853 0.030461649737119633
0.6003953264897071 -0.7339781170502261 0.09515946788478034 0.01928963502631848
0.575925901102604 -0.7307974167721356 0.09389168560981095 0.012275353051758482
0.5973292470450835 -0.7345821783609959 0.10756564297634426 0.023832358698304867
0.5833545104079533 -0.732318383599279 0.10628885970820895 0.056965560383182935
0.5720448615011503 -0.7286788502609707 0.0994008243035536 0.01577268859407615
0.5840267913583286 -0.7410109324946325 0.13145734220391314 0.023936311082725904
0.5971513095955429 -0.7379096290175574 0.14072158643104868 0.04715145843026343
0.5982161789784314 -0.7337992666094639 0.1579774515240483 0.04318879571399344
0.5735272518082447 -0.7230887175579307 0.15507680765147305 0.042236904341655945
0.5767455442339804 -0.7258148512649003 0.1193430264381872 0.040391210895905326
0.533032795057413 -0.6902033686828591 0.07486235655137587 1.716988870151247e-13
0.5327075423189618 -0.6969040492578674 0.13506096646012158 0.06491780331247643
0.5240362018597345 -0.7065904135246688 0.14207241793010358 0.00232712567486111
0.5327445420158157 -0.6855517708709187 0.1135225290734148 0.017270092916362088
0.5646008513575156 -0.7105023617710144 0.08216370937513504 0.008212326827373531
0.5488256390144515 -0.7130818310165057 0.09401902322963265 0.026958540153068866
0.5575380119634645 -0.7233408566797456 0.11416612873826057 0.02672788007623653
0.5589226497533941 -0.7245333094732352 0.16626530107048265 0.045464168463232875
0.5677322623179605 -0.7205875266439843 0.14782407423067673 0.028528749323378774
0.5567633626833438 -0.7264333458403333 0.12427182052823907 0.008862347148339224
0.5480592619419207 -0.7092424289183428 0.14861903056712977 0.03542234356410715
0.6954921885550096 -0.24899050852424184 0.26164972461577984 0.003870899208752493
0.6846741643063557 -0.22707712399342886 0.2660289804813648 0.038545223534960066
0.6797258074375319 -0.21441197189540392 0.27293785518202884 0.021505262193192078
0.6468352150059772 -0.18596532790833656 0.2623242604353515 
0.6762487320947808 -0.25323074957061226 0.3137241499353535 0.015621568479407159
0.6738346467562496 -0.2563793758837711 0.304190836402863 0.008795711220482578
0.668670605738666 -0.2346461885238455 0.29447975004764193 0.013783595134823187
0.6631829111299568 -0.22628857171994185 0.30636797132447335 0.049789788449223396
0.66068168044222 -0.22650251231943078 0.3293141797654389 0.013498866843915363
0.6547867447819855 -0.2168647956886079 0.3262357750154091 0.01341988108536629
0.6504127214041456 -0.2080366349838098 0.3324424472606597 0.01733311438116192
0.6762051391672749 -0.24481950082328302 0.3185358370962814 0.015108250301182938
0.6845183002381431 -0.25281780393618136 0.34971212136440794 0.006073384696104603
0.6750512285743461 -0.231720300735489 0.34017745756556683 0.009124468659630187
0.6683564893993168 -0.22192538025217332 0.344489746179437 0.009287580782016662
0.6770292801017723 -0.2447523154337747 0.342910429560555 0.013199379015161258
0.6750125031711669 -0.18829256262044966 0.4443354838277518 5.593516506059623e-14
0.70963707571686 -0.21466415050110857 0.4188060025545539 0.022493740460848795
0.6934646835914886 -0.20651714887238612 0.44840515734753933 0.012081288570528922
0.7098582380032092 -0.21707511187092443 0.39547689532614777 0.03858328246191531
0.7134662474124011 -0.22100092213142555 0.3913321059577784 0.03319040543173754
0.7168728179606536 -0.24204311193895955 0.4349420597064147 0.006918430006454448
0.697540847126122 -0.23685098448490646 0.4883015951234972 0.00836892167041529
0.709371820454854 -0.24722019422463523 0.4226362112834581 0.006766345045854948
0.7017831991553101 -0.25398544485375646 0.504963428859061 -1.0077597137375443e-13
0.6650039179071251 -0.17378519703143744 0.42118408991600753 
0.6868362205748241 -0.19725639119860713 0.3872032687257586 0.01823560500342388
0.6782964017693459 -0.19598482224863137 0.45721391236619424 -1.6226290778460524e-13
0.6866617509508953 -0.2279555200259868 0.49980748629774646 0.0011721643654614164
0.6961112429717751 -0.2155741982897215 0.47381871580047275 0.007430596413982684
0.7046538799488692 -0.20403684805427008 0.40979991084459305 0.07113068928336712
0.7093711460052633 -0.22705118860278384 0.445026683645426 0.018577770122156854
0.7088267346894489 -0.24219615489182122 0.4048031583530603 0.009092244078931458
0.7056268464144048 -0.2389674913263635 0.4619649233639991 0.010185480665580799
0.7037655097815319 -0.24238012346249876 0.4628292960256112 0.0004183920229667545
0.7125042828348747 -0.2510899042788766 0.38461279620907396 0.008174383880619194
0.7157341154512583 -0.2662253309538398 0.4160985724523826 0.01839747146756698
0.6724681824456318 -0.20560079370430437 0.5145387976667252 
0.680277471538428 -0.22268825892926408 0.5157805001511294 0.0015348626889711945
0.6441297011398153 -0.1726806933818837 0.38056571044759935 
0.6996695994747886 -0.18542851180141728 0.38449569240605774 0.007183421901101486
0.7002831564775841 -0.20373909180268002 0.3917673726891785 0.047749725046603166
0.7128226195120606 -0.2394662442926615 0.3808287390166427 0.0339406217231219
0.6922427513946307 -0.22485689044748855 0.14684808263787563 0.05376821953601723
0.6957220541838857 -0.21052308844823317 0.14842051840872317 0.022017565555714685
0.6895787802828544 -0.22563503658894582 0.1369047321063978 0.06208799286726412
0.6974590549790245 -0.2244588593054106 0.15566389968842287 0.010529161732540777
0.6898868816192937 -0.2146594777184863 0.1651496577921576 0.0340183140778411
0.6953850061452642 -0.23366301240750098 0.17183040898795246 0.011771576738579214
0.6878653330599953 -0.21362386900262506 0.18787406116501607 0.021063320157226867
0.6937606169523204 -0.20772442365816976 0.21683934954221612 0.03267719261798141
0.7015683457880795 -0.22538080571388944 0.21280239171526924 0.008690944230048039
0.6947164544025943 -0.21405382077559984 0.19944533343914894 0.021904401123672174
0.6684868766122773 -0.19791805925500627 0.1399558260935998 0.046779282149223736
0.6748794788917339 -0.1887108116425454 0.16272357755216135 0.016170762542771677
0.6719676269481685 -0.1937486461199576 0.19050686608652356 0.010053446124253008
0.6693506791130346 -0.1862777804679873 0.20592653366530975 0.0011996469639272524
0.6967024153546258 -0.24859832050203431 0.14170811649242326 0.03540647675086679
0.6950119480908244 -0.2506032862680068 0.16428185781615443 0.010064803001213204
0.6934050880529343 -0.26444089540086685 0.1460874676380725 0.006128095696712666
0.6991633016194625 -0.2549516640274573 0.17438642823277098 0.01628580004364892
0.7025169884785475 -0.2576698621203519 0.1835155880721148 0.006979729878308817
0.7082005932416436 -0.2626033011672324 0.1985704172421841 0.003120101417625378
0.7047181805594817 -0.254127337324203 0.21605262980899262 0.0113104161799644
0.6996726190566266 -0.24557713036877618 0.21687331191583545 0.009400953280187252
0.6975283414079041 -0.24105607196942366 0.185417156537073 0.011139090501989144
0.6942995824076098 -0.2351060625210933 0.17828114925601585 0.012481973755285331
0.8095041083165375 -0.3971133741089115 0.20777370560811637 0.0302250890004302
0.8095411946298018 -0.3590094208970194 0.19597620269576554 0.02474174233989236
0.7743649985464754 -0.327477803016451 0.19936492579373424 0.01659376620389282
0.7950189443196817 -0.41893374129684363 0.21060413894529328 0.0059575816499549804
0.8099861121595966 -0.3799911085263735 0.21442072929923323 0.0072217458384751946
0.8021335492780789 -0.3515977928016815 0.21681106063640548 0.003178352823103801
0.7864658103721391 -0.3308470217954216 0.2078882920012447 0.02137498140302608
0.8160650694406818 -0.37271990134180144 0.20025812763710044 0.011043911926374073
0.8016679264927645 -0.34729349762380457 0.20463182825473247 0.024484065100772123
0.8022291773237497 -0.39237021392976046 0.257425939743368 0.025958116861594008
0.7878725130109075 -0.4021492824779756 0.24205233547166113 0.015724663569214283
0.7977208765753411 -0.38719286887091603 0.2513969886448997 0.04515154348476914
0.789717473012324 -0.3648124647397559 0.2562603356153823 0.051016247051285116
0.7980575256303949 -0.37402020405900926 0.2409767704906666 0.044367780912375275
0.7845424116638422 -0.3504107221073055 0.2571143931536242 0.04449261724908185
0.7931422062036613 -0.3661592786343937 0.2390640059985533 0.04339450262571709
0.7925561402003249 -0.37359312838645964 0.2712983080340354 0.03721323396218415
0.8042169871357303 -0.35138476914774935 0.2780916295744308 0.0067997059996998946
0.7881533230282329 -0.3467472945113688 0.2878528934488085 0.08643830039066526
0.7952182797584858 -0.40591369853748877 0.27914143558318477 0.03535210626945196
0.8007868509181102 -0.3955160241826394 0.284025997298883 0.04954384317361228
0.8059510008844504 -0.3823640115689628 0.29584129796277286 0.03573178645478447
0.7956143325544232 -0.37413858964330554 0.28593292062426656 0.04463959206212889
0.7819486835499673 -0.33777218690558247 0.29984537601922134 3.408945715884997e-14
0.7709432576119316 -0.3102316611116464 0.36554623605868986 0.012927248945380105
0.7830957858468214 -0.3074140832921164 0.3414447277554724 0.014142287924655036
0.7871726991102743 -0.31483607218005966 0.33271631541914926 0.02088782959586085
0.7870830026859743 -0.3195288330464082 0.36616251010843814 0.016261357797158267
0.7934030942247517 -0.3292792246124582 0.4500468385534929 0.0015709736758712722
0.8013623935799178 -0.32417254736329276 0.38342841291928537 0.031177391500397847
0.8099304540811075 -0.31779461135595777 0.3369520519505707 0.0459632480394037
0.8036848227672035 -0.326018141685669 0.4122718803484527 0.008955743770131263
0.8194397514613381 -0.32231454509421936 0.33376111199140024 0.03949309684191593
0.8013858717716353 -0.3453130050109123 0.4449609152591799 0.001839271628407098
0.8168732524320601 -0.34670684044147543 0.3879268900850641 0.020758960657112857
0.8174256681858838 -0.3429112594837299 0.40517146552403455 0.025526769368297144
0.824599392537559 -0.3525691906103361 0.3768522028635996 0.011135543463350966
0.8061274764110066 -0.3462901767601882 0.4379355757110437 0.0026971067522771953
0.8316042030763047 -0.34941245198800935 0.3513884047456574 0.012265022119175838
0.8276259146275584 -0.350544110824481 0.39832402011317986 0.017568670580233977
0.8159196550923187 -0.3664502926168353 0.41928814556234 0.015880291358803065
0.8283883422064359 -0.3627067731578056 0.39607764787994393 0.027877741632799616
0.8485420739700918 -0.37869522667429134 0.3319112554890856 0.02199615495691972
0.8374199907774027 -0.36578044144120786 0.3420724921276899 0.04056208353865699
0.8342601027261187 -0.37432169542964877 0.3832468177663031 0.027869499323729213
0.8150711077098401 -0.3767964701597601 0.43313771302502685 0.017395937257770236
0.8392036149586968 -0.3893047931949791 0.3443194699849218 0.04172875268712532
0.8335143746837291 -0.3876639969641084 0.35858230036087824 0.03511705405993673
0.8251005689941138 -0.39418090241879894 0.3870944307794327 0.007216041784619489
0.8326842251663547 -0.4005939848339919 0.3440178894741932 0.02985056047951983
0.8267596040413737 -0.4024916957970987 0.37040648873689297 0.0122059324172387
0.829943462681471 -0.4025864029559032 0.33206812111203066 0.03203528843295535
0.8347900736367561 -0.4087587566184814 0.35407272857383093 0.007601644141679425
0.8201229622179248 -0.41385013176298746 0.3381479533918426 0.016069994890892714
0.8168739870712564 -0.38955989650661593 0.4388842782922517 0.00938499389166268
0.8182306552825798 -0.3980262033743302 0.4168491305394305 0.02364781789646334
0.8233564740060644 -0.40286966876539954 0.38408020218448996 0.023772084651819205
0.8192375179528165 -0.4219321412251608 0.37700979485646857 0.013405178547142927
0.8175182497754084 -0.4286911608089792 0.32503526963604323 0.00648408599490679
0.805756041410332 -0.41317323204994016 0.429927482461053 0.022578537005405356
0.8102736685475195 -0.4208620686465308 0.40159109875097593 0.019423306134469135
0.808008239427563 -0.4270153210797093 0.32325728031014783 0.015007598584806001
0.8031825248379911 -0.4159206916373573 0.44518522417497053 0.006234014585556621
0.7970563785875575 -0.4327411679442078 0.38182572407403037 0.013157873303908971
0.7823124288031521 -0.4174628961143021 0.45686283026973407 0.029596861506471242
0.7917178320183424 -0.42614774030667046 0.42179752821483685 0.02185660355619076
0.7945053525947374 -0.44390361496604425 0.34282041931610935 0.021334514651633708
0.7847113813485386 -0.4339251677493018 0.39558842777415937 0.00033383038882918263
0.7695171885439518 -0.44759891824483516 0.32474338818442355 0.02396333551496002
0.7810173538445686 -0.4441057167933863 0.36941439409095345 0.0029499152907122433
0.7497994615791556 -0.4552551050206585 0.3265675636303691 8.542706488780623e-14
0.805821540766444 -0.3112133495970835 0.3205619131487571 0.014953911396056264
0.8034083032466122 -0.33344091599050846 0.4227929328983371 0.012265790862130081
0.8096432938881292 -0.320810330810409 0.36410191678676274 0.018946641418142496
0.8087709598325359 -0.3313720348990541 0.3721695396564745 0.020880560696332415
0.8003901954505867 -0.3555827638399999 0.4559135471059248 0.004161816685594233
0.8198241299911482 -0.3457979701159701 0.36728867787633906 0.008657849725609026
0.8266764973031177 -0.33577509334315686 0.33738042751901853 0.009143576909072837
0.8065420628355768 -0.3631079821137552 0.4519375776346265 0.0014206229752432807
0.8339697033006328 -0.3574372582612209 0.3601187395562239 0.017733449371474152
0.8170995012944147 -0.3771336901383223 0.41296408492422093 0.023538059371039304
0.8410650783322068 -0.3725433165959018 0.354140640626864 0.03420214653917536
0.8084924251362027 -0.38811509712689557 0.4534881885722757 0.01778731909023235
0.8219918332117468 -0.3924160906715108 0.40792411754185526 0.010979846105261674
0.8155502489788112 -0.42066496314350216 0.35388665904081046 0.01866024941071521
0.8122745726268845 -0.4154622544751263 0.41325565758550903 0.03139579623246687
0.7979110469263813 -0.43644531474558107 0.347943587322424 0.016901758411844617
0.7797293978879114 -0.45144749075519247 0.3393957288008441 0.006546479397343023
0.7918562071195028 -0.33862472995768 0.46217384895195524 0.0009608750283146024
0.7463215360875723 -0.3085519243999348 0.3193896191094942 
0.7732518341435958 -0.31529024392028343 0.3229134008639426 0.03491905828861494
0.8239564066228661 -0.335335666927912 0.3320558964394512 0.010619903887802894
0.8293005537528828 -0.3457712926515702 0.3294168785909022 0.010791605815645667
0.8390989199780298 -0.37316568844428993 0.327486604220743 0.05413883421337778
0.8349482899024319 -0.3945883343877204 0.326718385672589 0.03588608460919893
0.7938266210686298 -0.4405362983108446 0.31890939238146426 0.028877149996427025
0.7971563406048602 -0.44307582884956676 0.3251213063423012 0.03204529118719516
0.7401116095860845 -0.44757697299937843 0.31797466173740296 
0.7143039503750507 -0.34061425520640704 0.07615424980359028 
0.8260723314950288 -0.387068172462183 0.10624749386248793 0.011010233660883476
0.8232669272007941 -0.3682257922279339 0.0888180308347365 0.01851770350091685
0.8264784988353673 -0.37487791509848056 0.10150501422917788 0.046888864493240735
0.8178607636971581 -0.38066089047374796 0.13861367800692556 0.010032623161261705
0.8234607253070994 -0.3858438980181527 0.11843727043881504 0.018030550076156872
0.8267749466176266 -0.3786712871080247 0.15721515361362362 0.009644412913565978
0.826419942422903 -0.38100633960285074 0.11925676020513257 0.011943377066472152
0.8237669064328696 -0.3729943186442915 0.13372797452947557 0.015182014017977797
0.8243730277593126 -0.37367661616256714 0.15410377911883022 0.013865156325571809
0.7976575883463943 -0.3501791514303519 0.08128867420001387 0.049370903166702236
0.8070651045965029 -0.3316733620515641 0.0977138826656506 0.025680206830166887
0.8171028774514801 -0.3401472581447102 0.099160528669037 0.0210311104870624
0.8052483563109505 -0.34727940726319706 0.0866223422455429 0.03860311939395796
0.8023852075957619 -0.3372975176187789 0.16495625276832335 0.037954204339370544
0.8204702910426295 -0.3514103100520191 0.15093673101141722 0.056536493841490815
0.8280709392979431 -0.3527352046293766 0.11397301268213678 0.02263208063776343
0.81981697596907 -0.33812322537575623 0.13444967785091838 0.020108136132564125
0.7876206391102366 -0.32836668466121205 0.09127637541083664 0.035053378588631556
0.786172242929169 -0.3261777830573753 0.10249281311184151 0.04196016912618197
0.7884962053087897 -0.3275055906657553 0.07319663544708464 0.016983198092744265
0.7773289857856225 -0.3204323159967364 0.12389436979317216 0.008052587889389215
0.7855551167109348 -0.32680111600202694 0.1479862492686015 0.01657359094187469
0.7753718737430039 -0.3239630496186807 0.1536243728584247 0.0164358954476827
0.7694212751763609 -0.32313184677488677 0.13652281948330836 0.00944816265014001
0.7691546687387892 -0.31583031890951263 0.10660610249347519 0.019330481099993177
0.7915379700318609 -0.3316995037544955 0.151152694779718 0.02476753758389559
0.796793707843003 -0.3244830643089451 0.11463442344258987 0.01846134475408284
0.7616577448739664 -0.3138694249806292 0.09389660653600565 0.01067132643723075
0.7650204688701137 -0.3255916474073128 0.07434193111221563 0.0017354924524263318
0.813227494104271 -0.40125383549549953 0.09450132781037822 0.020783504519215196
0.8193199496082681 -0.39538874337471974 0.10374842786890032 0.012404984146867994
0.8127777271996535 -0.4088203813363808 0.07537769093913761 0.012194886777352122
0.8080631255220834 -0.41680937633389165 0.09854437273873883 0.04063389358648114
0.8241648827000583 -0.41418549236530117 0.14584854685273685 0.02505558003252998
0.817422766835033 -0.4036273008357822 0.164560410677274 0.029530402173392804
0.8181692621958053 -0.38924135106797925 0.13180516186812818 0.017959607687295143
0.808737287721744 -0.41440729834279283 0.11281618942435069 0.0529000844273134
0.7300113880089519 -0.410217102208126 0.0759790297916472 
0.7471534401309391 -0.4293653318031991 0.0962603606822544 0.018483167944402558
0.752665723494693 -0.4172214484870684 0.08540336356925354 0.010674603766168064
0.7571160975321896 -0.43118975303444596 0.11347399937564953 0.04186779880667151
0.7541022416999509 -0.4342952279408045 0.10444619228673492 0.03286757936838337
0.7532744850020806 -0.4353292821377753 0.12526700439234983 0.010684130395765639
0.38672371092341423 -0.07649455526627005 0.261897674344441 0.003999930377616109
0.4263589274112305 -0.0661799508500105 0.2680966179172288 0.012151393311503552
0.4600740482166744 -0.0809897290232798 0.26443650878002867 0.0161502711567138
0.44476473096793323 -0.0729363796889611 0.2600130865684094 0.029081874579619513
0.39490957873767313 -0.06756538071450721 0.2659218147362684 0.015703183249849907
0.4475716279481408 -0.0972285512079887 0.314852382000301 0.003181746169280692
0.4148677201111664 -0.08570312631274302 0.3026124251662418 0.04618957149906172
0.3986285757047965 -0.0925805465800252 0.3232412649407881 0.08799609590784652
0.41022584425027625 -0.07898831777504564 0.3379863732964361 0.06629213703682792
0.4160975535672332 -0.0877298740652161 0.32050155994688817 0.07492112813196952
0.4373066769780566 -0.09674221103362905 0.32988987542633863 0.06690906575327514
0.4015588329037253 -0.09078424854226211 0.3376013459911745 0.09252260117720247
0.45673430468465054 -0.09943102216643131 0.34686932946413584 -4.65781000618092e-14
0.4341928867029772 -0.07565790968127432 0.3464531794283334 0.037429617614489735
0.38440592811603086 -0.10060484813842127 0.3428773977053439 4.10020857464083e-13
0.37297576774277114 -0.08328544560268529 0.4953501506065254 2.3087018690923748e-14
0.38708554532766765 -0.08464126747735604 0.512338871496507 0.0027853849455847877
0.3653892116526018 -0.0670819976882854 0.3999927543255636 1.779683093940198e-05
0.38319159830049065 -0.06914414228055052 0.4839420433626968 0.008387290310316995
0.3763169288069583 -0.05719500048718302 0.39928032021439497 0.004087424911236056
0.3790361841030284 -0.054196529522014515 0.4439213459745925 0.005436604384791311
0.39406368560297034 -0.08601030525794795 0.519801276018098 0.0043024728123009755
0.39545149985078837 -0.04842147541026936 0.3968026032674236 0.016519620171270736
0.38564800017097456 -0.049841126245933634 0.4163258340379623 0.01412635692417895
0.4017108653863777 -0.04488526556648848 0.3814420626254407 0.009930430357249517
0.4056563988016478 -0.05524946653381028 0.44070348884721194 0.006130187267224359
0.4154786868939272 -0.045531679695709995 0.4158594323915409 0.0037209221361885272
0.4130139345754005 -0.052926171973914055 0.4562502435301527 0.005710898252644514
0.4179953442997125 -0.04736075448190895 0.4096756413920711 0.005019841546683469
0.41074377902784115 -0.06746835205336023 0.5060262935741969 0.02015044831927257
0.42052522712202806 -0.06350828767557344 0.48249051153402894 0.03641149723144736
0.41430326155135283 -0.07458846758654082 0.5134031066447146 0.031684443198758176
0.4228495052575151 -0.06363867271055884 0.4921514238972667 0.03216403344518828
0.44312783952677265 -0.04746214981413118 0.40024781942391136 0.021561885176307926
0.43238566882809754 -0.0603366133024306 0.4985432213291113 0.017150149097216166
0.44344058671089925 -0.06755165608765988 0.49498835427031806 0.027853120497340896
0.44834985345606315 -0.06972763690523139 0.47937964226760016 0.027776238081679186
0.46896866272468885 -0.06807117695153951 0.444859043920582 0.01530752357852271
0.45428797630392276 -0.07518156537803403 0.4654921466054916 0.024568487232017676
0.44975618799217004 -0.07541626826066442 0.4966577178788937 0.04228462393175774
0.453940996358088 -0.0834129130927135 0.5166107816210568 0.002028780758785853
0.45249041671354423 -0.07721403845984863 0.4879106374399832 0.027097120704973676
0.4588122102699274 -0.08556117673208039 0.4973975533031583 0.010656796419398264
0.47291659662127994 -0.0709200583525961 0.4462078166158324 0.014388278656501484
0.48555487511878376 -0.08784556790640631 0.43186200393661434 -2.1130846732031274e-14
0.3966631751573305 -0.06402389076128798 0.46936016195655195 0.011189407523924581
0.3868993049232214 -0.051465341427836014 0.4038675960568269 0.016789810441906933
0.4117448165983605 -0.04186720744149815 0.3900047988750345 0.010650212173697443
0.4164432214084217 -0.04454727640029303 0.40165567575345307 0.006075655979366059
0.4389304628669309 -0.052149291717505555 0.4339785557375829 0.013041397741366098
0.4350510698072561 -0.0671865837477753 0.47639513479234835 0.036633176754611134
0.44778199676657177 -0.05140762327332763 0.4260633326458635 0.01835356163914207
0.45712931162876624 -0.04965846786555128 0.3864344343620964 0.00551535841020757
0.4494319721265674 -0.046455997024181184 0.41435324399254886 0.01979199474187486
0.4710970461931002 -0.06567954170556475 0.397046226750402 0.009553983792677774
0.48030327681039225 -0.0767604177529309 0.4150607684403034 0.0008556786087861847
0.47244466089914716 -0.09899864320080959 0.4860320639208694 0.00021304105940956795
0.37555846293765477 -0.0600031438707388 0.3859058842816052 0.002657362268455607
0.42405599539591265 -0.044416979304943066 0.37809152630354204 0.011861715807130626
0.43481785783772003 -0.042147866135546094 0.38744473129012585 0.01998607282519277
0.4676987124269899 -0.06426509524104321 0.3824550419542484 0.004341614005240549
0.41816799456971343 -0.0603309234950822 0.1570989283084936 0.029720465724698122
0.4070226889071285 -0.05852259929038181 0.15705235455658054 0.03813113038502082
0.42059059361867607 -0.04960784280085353 0.17194228636728098 0.020463882872044512
0.43033481118324435 -0.07056917347859011 0.14883412966423837 0.042058743242222606
0.4095297400355506 -0.05750847742558981 0.1751224336822663 0.030442272780415613
0.4318139584666637 -0.06247462208739145 0.16076717248867303 0.0450950849815037
0.4243762779893885 -0.05863707737408777 0.18784612422207111 0.04172322604343212
0.4281266876429642 -0.05514505008242645 0.20847672178491575 0.024046167067091156
0.4197588725333977 -0.0504040612624688 0.21784786285695143 0.03553368272391608
0.41444894179291264 -0.06097341403770007 0.19488971243220424 0.03347022970479135
0.4034188438415406 -0.06088846167732213 0.1983291913326187 0.014353583355563361
0.4234411464516369 -0.05935272184879954 0.1944009411608757 0.04373325669939336
0.39563952825609844 -0.07075975176931078 0.14760652935910507 0.035715896991357604
0.3816991024697588 -0.06880119612431933 0.15800063109267326 0.009218032380989996
0.38578942819968204 -0.07203559955204474 0.17373947824903302 0.011690766470744724
0.39509118348633254 -0.06906691170392525 0.16688657165770274 0.03721716401498003
0.389985577618945 -0.06669094021162614 0.18432278129680513 0.014942413143424038
0.389136539744279 -0.06876937388864045 0.2045991146940485 0.013348894462118926
0.38376637600095975 -0.06784945906024865 0.22637553357783105 0.014972147125251052
0.3642679294375338 -0.09680214210391846 0.14975253847270417 
0.37722730377967834 -0.10015928278579239 0.13088006355061574 0.009801327956572976
0.3622842500468311 -0.09343490134102518 0.21420958988813077 0.0011590534975617773
0.36204869549735785 -0.08527266820367384 0.19155042358010843 0.000326707775862824
0.4492498808253919 -0.06268690724502426 0.15716632518591309 0.0284815924819628
0.45007774904124126 -0.06848418142192451 0.13613818448858495 0.024911498156361265
0.46116862136934705 -0.07642410422184424 0.22444256652869451 0.008675787103728612
0.4530455554181333 -0.06599217763577858 0.17006969135452168 0.033103848990006964
0.462067172666835 -0.0739504504749516 0.20414664549682032 0.012826642649340086
0.45192504271174055 -0.07080801529273377 0.21193649780388704 0.017041182294539364
0.451439841420385 -0.06289673820542253 0.19579361580678067 0.025295377370209156
0.4429516380734247 -0.06520676848125534 0.1739812887553242 0.031108785061256403
0.4584617297485278 -0.07517413780432373 0.18571097125943012 0.02634508695955209
0.46948259220723226 -0.093144821434711 0.13901113322212746 -2.2353849389957443e-14
0.4696217836412933 -0.09087084498397213 0.18121949273316307 0.013819763998769498
0.4871570035655536 -0.09901865716113867 0.17002949705676468 0.00012091295116831194
0.4714902184695591 -0.09043543878086018 0.19931874194512808 0.012459801560683928
0.47229023627518496 -0.0837323349023739 0.21440369741504686 0.005772558655557297
0.4735390497592022 -0.09395865518109078 0.18630192289410813 0.012155827339275784
0.5389960220812049 -0.06927301735093143 0.19934445273254847 
0.6476282154438004 -0.06294151532555108 0.1991900401762146 0.017375511839673726
0.6242557213352194 -0.11448374896958978 0.2060266351862958 0.005527524019043513
0.6461984121394673 -0.08823625625249287 0.20575073038155983 0.0170474736436441
0.6469799560690862 -0.06860493704037027 0.21066983870792735 0.02607524590535374
0.5992824718870136 -0.02383484583449005 0.20278244358198608 0.012166878979430695
0.5535146373026503 -0.055000009390158186 0.21244853188905202 0.0006124803685707063
0.6446703394046597 -0.05975916528248619 0.21574060095070707 0.01482570701382104
0.6133690627975005 -0.0968873881993683 0.2537722911646707 0.019032592418937285
0.6212335957561108 -0.08762209204834957 0.25533160646805536 0.028406304361054503
0.6232704729696307 -0.0806911400998509 0.25216091341211416 0.04649969114535509
0.6251771574625544 -0.07721443376207332 0.27047831401156097 0.05328884707580767
0.6216867753042691 -0.07262662075919907 0.26116341367107276 0.05301076915822017
0.6259673807691118 -0.0742122143871229 0.24286873947545204 0.03435268842221469
0.6217879934082653 -0.04416643291542262 0.25332256866176356 0.04447511412882396
0.5859727176465424 -0.04273783598584934 0.23506200774978836 0.009413593862171684
0.6065957286294508 -0.04497193468709455 0.26805992975332815 0.07402692536194821
0.5770132269643504 -0.05266195712770848 0.24881952739285165 0.04288630077967493
0.5823326582793521 -0.04834632129887165 0.24833825657056427 0.03625668833394352
0.6299197520019909 -0.10225774774960686 0.2809902693787294 0.010294595910020413
0.5881171855489753 -0.038412526932399015 0.2852797196556759 0.04826877619880533
0.6342889736804261 -0.06972953309530167 0.28200081740641236 0.036879497215242675
0.6230356462812473 -0.1063330296720911 0.28273026177295874 0.018103398123905656
0.6356137441334114 -0.06649756998527077 0.2955431109297905 0.02663590851889004
0.6266669178802444 -0.05640331644982793 0.2904839678808429 0.07989135209289175
0.6195029838256314 -0.04816281479657175 0.282001227080231 0.06293238435641438
0.6008421681872779 -0.04343613899569667 0.2911805867991551 0.05775627887200567
0.5831887772131734 -0.03379696644781335 0.27422872501534756 0.020516397129650435
0.5669799097585084 -0.05248334723724173 0.2858915040238931 0.06744167624770735
0.6105289282887578 -0.04665302868943903 0.25869227985040355 0.06682175548882258
0.5697572878166206 -0.055545967681905666 0.22732798656870262 0.00518922459012061
0.6301937945767885 -0.09986748606272301 0.21157084887500732 0.010137708190198911
0.5579111705756457 -0.05444092906978399 0.2720740503202834 0.018998850296582673
0.5260581266421521 -0.058044585048037396 0.3217806055864715 0.006296314616081083
0.5241619187814828 -0.05113150157227489 0.3368403846551245 0.017146651558231033
0.544481083543191 -0.04479165986382243 0.38441431937189463 0.016009519452016504
0.5292626539939469 -0.03575851451620924 0.3519757395594808 0.01415234763231747
0.5367767198559089 -0.046619095535282616 0.37155248410205743 0.012316685734426314
0.5561386814981096 -0.051841020598155006 0.45643495995732475 0.02488817038856825
0.549558181445661 -0.047902799576239274 0.4410352940913686 0.025471173339350364
0.5337950021318065 -0.031635876429820416 0.3488825099069911 0.016008054009155316
0.5446511186897665 -0.038181452716526114 0.3723213059003996 0.006718060651603137
0.5543233484474026 -0.013931462095673572 0.3318542420818447 0.029205397738786158
0.5582399787943024 -0.02849241567409816 0.4163441432538355 0.025072807016694655
0.5689892093176766 -0.021841962699392346 0.4128984825034918 0.00999316849149568
0.5604986872789801 -0.007276433173362403 0.32824303110919895 0.02963906754930554
0.5736493152875155 -0.03379601898514204 0.4514754565302965 0.021495525847071782
0.5781905536466031 -0.03117333271304359 0.4305180728889854 0.026708373100425346
0.5729155284135042 -0.010163138849649438 0.3484185589530939 0.010599327104859141
0.5719113214760656 -0.01183820669675454 0.36930647625194923 0.021240682304038354
0.5845926110039547 -0.013390336211119173 0.38179671359443884 0.013047652212577397
0.6043975006663606 -0.012631961156301445 0.3693645211977307 0.01267020426219409
0.5951950953735344 -0.01874456202492619 0.39506940651079797 0.003882220324445252
0.5995111764970791 -0.002392275268214167 0.3459396246220963 0.013499757092253031
0.6050806173532757 -0.03207289124365115 0.4319527049926888 0.007291242809746999
0.5943566497101315 -0.03411175521311693 0.44477957720830025 0.003994908601091542
0.6175563298233349 -0.021233631976863277 0.396154707691768 0.012847922056961367
0.629387475156393 -0.020357016124250015 0.4034561014152925 0.04857175339386355
0.6136044352857143 -0.0294807632325625 0.45003462274628797 0.009686022104958563
0.6349561051987184 -0.019709142175574096 0.36263086927634713 0.018598179857179736
0.6205347070703255 -0.01859558739523367 0.39317427698825835 0.015462373211805198
0.6289729732286171 -0.009985736391238384 0.32243007259098966 0.018112173496988813
0.6316761457852921 -0.032105784441722476 0.4183634830307971 0.06644418478691302
0.642519820270791 -0.019266472798416374 0.3314432459283816 0.020386412947803204
0.6495441380392546 -0.04053284226543156 0.35229371341329924 0.012586835232308297
0.6438092955505498 -0.052799748758925666 0.4134230245097455 0.01783990271427096
0.6551959160879782 -0.04182639353647346 0.377385774551634 0.006027368349640414
0.6427642085987586 -0.05245251164086108 0.44748898325386494 0.00970517430924272
0.6605153112773079 -0.06364354139342315 0.3675351563970765 0.01306328573921453
0.6400780796487611 -0.06618597584574437 0.4320174477443097 0.024679181809500194
0.6479827719817134 -0.07553431777042731 0.40344101719728354 0.014296796848921066
0.6586559704056002 -0.09222902187055868 0.3660906591350115 0.009821370858341139
0.6654602126216562 -0.08385429390127015 0.3332557402522659 0.006442451038173408
0.6692636686552863 -0.08552000065793672 0.3481326730880939 0.005776686382903103
0.6452604164733475 -0.07952981111592168 0.4369194925139464 0.0071675157082835865
0.6499075435498501 -0.07802088671608179 0.41144581627863286 0.012045401903631304
0.6300925014549772 -0.08185541490421207 0.46196847249331024 0.017225596104564738
0.6497027224006274 -0.08948729926275148 0.3990935537921829 0.011856856124409652
0.6458205506628485 -0.09894749401585196 0.401386966422211 0.0058975273359655085
0.6401579186761228 -0.09435698004327885 0.4223996271835556 0.009583224555425558
0.6453255364728243 -0.11624457792440644 0.3854037438952271 0.001003834949801398
0.6527608597458406 -0.11725104848476395 0.34836484812305146 0.0075699235280202535
0.658645542272577 -0.10239570848657044 0.3295869198470023 0.00651198125521042
0.6369505729734326 -0.1086269069689604 0.4142616937543033 0.006786265762225127
0.6441820262540787 -0.10083114560544816 0.4043449750077844 0.00979674490589456
0.6332478623988381 -0.09901477585858678 0.4479668117191825 0.011104215931900368
0.6437894523709764 -0.13298255656782917 0.36424945492700184 0.005959430220638113
0.6264411269785765 -0.10699164605511709 0.45393435601164994 0.00685558396275268
0.633044366091977 -0.1223802888020483 0.4217798721391452 0.0012318521070496591
0.6331340212471375 -0.13562315392667199 0.34934641618096496 0.016634113724098513
0.5520412851644166 -0.03816094335640152 0.4408942252996407 0.011340576937513648
0.5562085893362977 -0.02793734495302577 0.38405401257998595 0.009819702435986418
0.5582200687180654 -0.009134282225062011 0.34757569887484363 0.02081280371216738
0.570932908755648 -0.010750008848143443 0.33578274626427224 0.009165617421581545
0.5788128991141034 -0.031726946919245276 0.44657881063726523 0.018708484316115527
0.5709352928670822 -0.022959830877265636 0.40582647364630564 0.016673852846041667
0.5927882840764308 -0.029384174268030302 0.4309871915480211 0.007393420871964182
0.5873700316198195 -0.005272971972528564 0.32795733073085853 0.016779453607528926
0.6016897864339145 -0.0258928948294311 0.40827422021119786 0.0033066758748988975
0.6163176935954124 -0.007466488672466512 0.32096981903314514 0.04359241123365911
0.6122925836388229 -0.009272088700373335 0.3747277821440011 0.008992355662532238
0.6334020379448427 -0.012454406021448598 0.3521240106407587 0.0169119239325905
0.6345309141962764 -0.032151504269066336 0.43221846822874566 0.05899490409065652
0.6427949372385914 -0.026092018701426804 0.3372843594311305 0.02824772337736665
0.6497708625389108 -0.051755364421595715 0.38536902717286653 0.01612286950439914
0.6501605399754462 -0.0674774055098398 0.3914019764673034 0.00673270333868478
0.6463665800664882 -0.07147218645771945 0.4079108483167623 0.015643773452758088
0.6701417089441297 -0.0768769223728505 0.33409099167692613 0.058486723659826954
0.6627477770132841 -0.09676943333181896 0.3235523988181311 0.003587890083577697
0.6529615250177476 -0.10526977978757227 0.3727461101100216 0.004494147460850835
0.6535913268014699 -0.11124718355061967 0.3359208877103254 0.012706772773561931
0.5245873825419389 -0.07819171256072444 0.3183930020219968 
0.5390043665141453 -0.03239145453844059 0.3225146625686493 0.006350166493308233
0.551896595537213 -0.014606291104659897 0.3243921071470277 0.03447255236354836
0.5806240507815464 -0.00885038116421453 0.3219384425946999 0.016886230570182174
0.6073431801350164 0.003121561981795382 0.32157738494836935 0.0026454300895072578
0.6413730894699945 -0.02127543472450246 0.321605112025578 0.02907236378463299
0.6524023241319812 -0.04551802426729416 0.32638729822760093 0.01675359091953463
0.673979519056044 -0.05860082928982482 0.3271915066192215 0.023114095357599184
0.6532197505516264 -0.11763518282122135 0.32370560940394033 0.010076268939518166
0.6314353432871692 -0.13523480534334711 0.31900500585276625 0.0004558641033768679
0.6325586665181974 -0.15179678015314993 0.32841761843413453 
0.6268900382724053 -0.028555873563721097 0.08710057562825187 0.03496840836616756
0.6238743914052335 -0.04236575597479181 0.08734487861245033 0.054579633161018534
0.6155038614448486 -0.014743994558094201 0.09460161370767387 0.03737354023549146
0.6243853817447641 -0.01956881766098185 0.10945987862274725 0.05373349408169204
0.6254894777661693 -0.029735715865257004 0.09766276329102376 0.06689321575141537
0.6138989450589918 -0.013803036028920121 0.15926026559822898 0.022726221563602197
