x y z curv
1.0924672083361284 -0.9962725012139757 0.606682587947482 0.03845913032390373
1.0945933726315904 -0.9967434756254774 0.6209987786047162 0.03216668483301965
1.1022741255475599 -1.006708962163713 0.6332941327052759 0.023884985380752503
1.0506161246086063 -0.9944182421415018 0.5610269729291801 
1.0499508307157859 -0.989375120168798 0.5716647877310231 
1.0473541832946411 -0.9883956633490909 0.617764236902728 0.0034786483121368415
0.9875506167387408 -1.0752166023713428 0.6699990323396996 0.000794843486178582
0.9919454057018701 -1.0699421953262984 0.5765461912147032 0.0047762324967147215
0.991175294869166 -1.0793216061216282 0.5930431069957841 0.021373211512067124
0.9920716306131966 -1.070982526111137 0.6197953927162683 0.029381879826016945
0.9884129655355814 -1.0682302327300215 0.6347092304824106 0.004123527822258419
0.9964855700424452 -1.08574086951197 0.6433071216532591 0.03905857833946648
1.0022353852497348 -1.0411655895600103 0.5517392633574596 
0.9869971537396147 -1.0503633256925773 0.614638509384724 -2.0835253778519437e-12
1.0291718261163993 -1.1130608396043682 0.678341852678623 0.016339597946310014
1.0176273364650075 -1.1186799129299525 0.685632794547239 0.012211654066986523
1.0298741352809109 -1.1132790791047265 0.69151633665198 0.01506426565489742
1.0234923334786763 -1.1076914509405438 0.6714695528750174 0.03676091088633265
1.0284584663773788 -1.1129488301457637 0.6741349510831911 0.021676164328251
1.0304276888362203 -1.1205285483289467 0.5990780094203576 0.0564979528072955
1.022236429531174 -1.1177698542132308 0.5819942110976217 0.03767565733891941
1.0276110836719408 -1.1157309243319913 0.6223093085073876 0.02625883416533247
1.0275933123795573 -1.1248062858794519 0.6109176309616354 0.02851442020333279
1.0020530960664433 -1.1146614077386932 0.6549788912865591 0.02332666889189773
1.0360212175367303 -1.1219552166471067 0.6568027203516931 0.027145312402864042
1.0333512956717976 -1.1307528469558206 0.637556433062985 0.03544162966266144
1.0439369427859053 -1.1241995430408325 0.6520056781716701 0.03469756617972098
1.030770661333395 -1.117176077352832 0.6531317668237058 0.027154724837923545
1.0172008387100397 -1.102513067302903 0.6267590285715557 0.03919341507557796
1.0252667849514976 -1.1118281016449925 0.6263344423136695 0.02943524201662261
1.003419341070892 -1.105781062915779 0.6712793692852121 0.036294390502383866
0.9956799528668608 -1.0800827346106696 0.6785024106033334 0.02144375566174306
1.0032935416343496 -1.0964033882153423 0.6991861584341521 0.022961437117960806
0.9962664473957049 -1.088411182407174 0.6601162742494707 0.05258411432750846
1.0086155517947435 -1.0852232746357167 0.5667284968069134 0.02132184343270126
1.0157878097597157 -1.111356790262533 0.5790592862101127 0.019122547924003114
1.012110409215488 -1.0963856637651577 0.5646118413910327 0.024422490092536095
1.0010964483519298 -1.094043325546826 0.5836281357979172 0.016838162146617684
1.0081031631247137 -1.087738829948621 0.5570235764885696 0.004195978015267563
0.998541178901445 -1.1017124212042075 0.5999425024254691 0.020711827423896365
1.002667588438606 -1.0993157377018477 0.6226857242149022 0.036573523360415916
1.0226221023084519 -1.1081118404789938 0.6375933821228996 0.02838227426437936
1.0119880711929286 -1.0987951130635618 0.601046671321038 0.02688093328323624
1.009415427807563 -1.1023803433235508 0.6059241680705666 0.022934782596268515
0.9964528987008454 -1.0953401212062472 0.6265145648978011 0.043563395331884094
1.0755228207467467 -1.125028914014913 0.6835914886603056 0.031018614716904095
1.0831644847609816 -1.1210184051017926 0.5893409562337083 0.026580401522242152
1.094261351310993 -1.1246789785551083 0.5985318035300454 0.022276482952380685
1.0686620150657549 -1.1252267060700485 0.6629380408939108 0.02610882788407072
1.0784302458805077 -1.1299630535674412 0.6229018434658677 0.02968924014090741
1.0769130695763822 -1.125278436077596 0.609075990052491 0.030379814554530978
1.0737613099724623 -1.1267855927892994 0.6252362424119166 0.02754573098681169
1.0818824244092184 -1.125321491046549 0.6136903731559062 0.027228511969702555
1.0838953672890843 -1.1343890310087437 0.6486514895507045 0.013964777601025841
1.0949405921949662 -1.1252551976285798 0.6678826947640581 0.03421409450478709
1.0699426941029906 -1.1229383860769282 0.6446241512017716 0.018588931965502615
1.0596620144998237 -1.1326671029373767 0.6678447643359423 0.018853076548560138
1.0523922403161543 -1.1264822349089165 0.6827392284639948 0.020773202660768986
1.0391799032722355 -1.1240060095254978 0.658924987387848 0.029310552787959396
1.0609454220254422 -1.1331785712969482 0.6594496962736108 0.022324861252988885
1.0581205915324097 -1.1195387985592107 0.5572444943661004 0.07489191060355248
1.0670759422355356 -1.1296775283173477 0.565457692600948 0.015265477348572514
1.0371437511778794 -1.1273757793368884 0.5785404493689863 0.04823005058098724
1.061434578170873 -1.1194380876275263 0.574698982519309 0.05516965134094291
1.0493791317733103 -1.1386370841887257 0.5911382919431919 0.015333160427989306
1.0438024468681544 -1.1236022981116773 0.6211167557846818 0.04645334035256196
1.0506297644548621 -1.1253948654336794 0.635450264863187 0.02572363804815921
1.058148637189241 -1.1215543768878822 0.6050315067820311 0.03032862986743346
1.0680639001491585 -1.1216546577925541 0.6226203859272365 0.01663634538325016
1.0601432659919587 -1.1278594730607547 0.6326514132955623 0.02138807310162155
1.1281604397328246 -1.0702538589363864 0.6805905081896625 0.025599775446706722
1.1306288458213152 -1.0931872699009388 0.6684771613025536 0.013090334298457395
1.120277826428847 -1.0907375779776973 0.6849879822207793 0.02238592229349364
1.1352868810281533 -1.0724793747039796 0.6729737833417192 0.024887058842474028
1.1217446784617837 -1.0683890718789093 0.6022343047168525 0.03211782336963676
1.1250006176505507 -1.0919648040666086 0.5876965043185947 0.033953804056171676
1.126537478482217 -1.084822481538261 0.5969996435786469 0.04556593552471312
1.1259013315335626 -1.0814470651716703 0.6093719900158071 0.033619455251167614
1.1216056264709173 -1.0958848324920065 0.6431101122838913 0.02733353985652478
1.1302579613817707 -1.091434460206715 0.6327669658447653 0.016407056495029836
1.1331450514871129 -1.0813326664110072 0.6208787831749641 0.03371550728416361
1.1287952296937598 -1.0834908542866837 0.6632043250613878 0.02537890853605639
1.1281651075038834 -1.0765957144675005 0.6477866785826718 0.03204489349443546
1.1153139266211516 -1.1093072845523058 0.6888357205030734 0.01095491150071697
1.120572170850438 -1.0955889976419342 0.6458317152463291 0.020876074125796208
1.1007680141448388 -1.1203618654264262 0.6453553948618193 0.041892708092256266
1.1131361129064863 -1.1164809374137197 0.6576762225953299 0.01034688025849022
1.1005562233615365 -1.1072458654219228 0.5653013132766023 0.04639407952718522
1.1084037042758783 -1.10719793121613 0.5629705931952582 0.050089840944653546
1.1119328303153424 -1.1119673212320904 0.5748530530188846 0.032740809589504
1.0965220416586223 -1.1127096932504215 0.5787949343190725 0.031978906676773215
1.1125440366542563 -1.0978924408783621 0.5815059391861949 0.06028100637544812
1.1166235652877186 -1.1090071520682185 0.584950872280905 0.03380242252848187
1.107318033647508 -1.1063671988559882 0.6012374143301195 0.032818081821122516
1.1083985733682087 -1.111040812108157 0.6239192303797375 0.029313686146878324
1.1195076701352782 -1.102411221509154 0.6379887973926607 0.021290447415171013
1.1176452225663145 -1.1125468919176007 0.616254751602251 0.014623512012883777
1.1063492929503878 -1.1109141655564372 0.6006926257760141 0.038016699024424325
1.1074889364956277 -1.0220796564907344 0.6792199799857327 0.014309391210108116
1.1111027972215066 -1.0317710433637963 0.6730179942426824 0.0225550448045547
1.1116472539719686 -1.0264453445228883 0.6828933114988915 0.012149435114236846
1.1152471105116093 -1.0291024853103201 0.5728157733641204 0.01896963556503619
1.1097827753854614 -1.0122434297834115 0.596096791664213 0.015705650604762752
1.1201231055122538 -1.0261267946550332 0.5850849951541184 0.01991745678970605
1.117794610833817 -1.0185241887520637 0.6602216651471673 0.03035487340307804
1.109304131166161 -1.0234099270451635 0.6069372988752735 0.028489417965035544
1.1243739761083817 -1.0332348067922317 0.6146551911699216 0.03033593997861154
1.1187154447918215 -1.038198055383469 0.5962037993468886 0.03212966726030831
1.1208958050495859 -1.0298452296273632 0.632749906519922 0.019177384155297142
1.1240029872815174 -1.031518968608305 0.6459180340486737 0.02986424710381704
1.1174365466370235 -1.018357404342542 0.6484536634443877 0.033671636509142816
1.1077368543350654 -1.0237572828762485 0.6133417797835744 0.027003005552584017
1.1152455683879734 -1.0197058774644538 0.6334712592101953 0.025527705764019734
1.1135036488201038 -1.0144640763426778 0.6538541586197971 0.03829834300042228
1.1278133214422683 -1.062938530824696 0.6874631874423224 0.0605591744687945
1.1329325770525887 -1.0448665353463917 0.6768895768162599 0.02974274896036146
1.121310869256552 -1.0494420854646358 0.6442772457429556 0.03415667851290827
1.13869209587522 -1.0480130921205724 0.6654543574175212 0.026327059434434356
1.1312346613870226 -1.064447367043934 0.6457160234376036 0.030994183191404387
1.1219326679555695 -1.0584640134033434 0.5583652280361165 0.007349649270937977
1.1189698143764837 -1.047058123913744 0.5700544159938241 0.03062982564661606
1.128691599961077 -1.0460193409004617 0.575325618883342 0.02231737134876665
1.1225632660343727 -1.0649837315483737 0.5689640819019922 0.041558854192038634
1.1345882381531387 -1.0550233484459848 0.6370620440303437 0.01868302638257527
1.1317235878367482 -1.05997156564347 0.579069862883673 0.011983519690959375
1.1214998630436144 -1.064482627789937 0.6044344533858711 0.02957631122727526
1.1220239026429306 -1.0461539205939314 0.6279677157527422 0.025437196443372185
1.1256567345139523 -1.0496629958640604 0.6221339344988565 0.0259458606894605
1.1220595851502275 -1.0474861498391124 0.5975572962826352 0.030332017771658004
1.1319948085534524 -1.0541524879943165 0.6279610848101324 0.01992746730633266
1.1165997578457398 -1.0578259256322071 0.6107011976320236 0.03499667872139958
1.119383866133589 -1.0419712347557406 0.6070833289674832 0.03244538504496177
0.8650927944161975 -0.9652373060192977 1.0595366554813772 0.029892408731651898
0.8653412926025488 -0.9367058052675988 1.0557052797089914 0.03261347836069599
0.7704465255431081 -0.9627457522895388 1.0678312795968534 3.03506155297206e-14
0.8016806840759939 -0.9848459395768275 1.0648867687155328 0.021822420525702
0.8073087414943245 -0.9974956933747493 1.0609661660295362 0.002578294972745706
0.833671304855452 -0.9938728240147415 1.0617322174954469 0.024229152948454222
0.8554183945226739 -0.9896742553079543 1.0658183313901632 0.009825892396124027
0.8606632709317319 -0.9526358670549553 1.0596189767627777 0.014539923171847964
0.8437978399598419 -0.9411836056781963 1.0924457349510743 0.03482258807309864
0.851154175225491 -0.9395043215509743 1.1019424618174882 0.013348299991190046
0.787599107373511 -0.9441761518020417 1.1282018012700072 0.07134786169399499
0.7979437748045156 -0.9660925297771538 1.0835697175015653 0.056769942881342524
0.8102789709315817 -0.9773335802649883 1.0995019071991305 0.08883341858990552
0.8141132953210692 -0.9823524957677081 1.109205819627933 0.03757443077280921
0.8316581030193801 -0.9862510853242867 1.1100084548001157 0.05179359482820276
0.8400147783484649 -0.9799689280881534 1.1016108898307775 0.05991777645923366
0.8311696475438234 -0.9741359247543006 1.0967264635302558 0.0660503250796175
0.8400344253721882 -0.965736776014549 1.0994494816225844 0.08249640549411878
0.8482901541460101 -0.9587145566248108 1.116622005918669 0.03161370776056489
0.8457944444202086 -0.9767356117027253 1.1118624104551031 0.06903710333430389
0.8004573574199598 -0.9677077572772013 1.1312277094962147 0.06431649080845293
0.799120013918002 -0.973899602179989 1.1097078149322817 0.04618583965092216
0.8529803285100498 -0.9422844185256224 1.1177421609614993 0.01226288933862527
0.839363417293665 -0.9684258509626256 1.0947133429209852 0.17793982032941164
0.8476072210565184 -0.9352288486656436 1.1331532134469782 0.03700386386601591
0.7880936331635692 -0.9637580919777483 1.1333421794761307 0.07520225635668293
0.8061528307031887 -0.9826886800645006 1.1402689025846287 0.026243823233054613
0.784003891328478 -0.9619913262439437 1.1393472895670487 0.08293841830016521
0.8528782112074008 -0.9327333937058733 1.1420116630721848 0.048014089483582
0.7871287929386779 -0.9729106468186609 1.1370244700919392 0.05541917495200569
0.8185794384911613 -0.9889436688779661 1.134130655264232 0.034453249310548176
0.8355338598796217 -0.9896868240308433 1.1408888286213212 0.09144128206011877
0.852964671522419 -0.9914333087493844 1.1448701922093736 0.09899659652454104
0.8597358298844688 -0.9777657647918425 1.1350450168887007 0.06259439086681623
0.8510409639967249 -0.9643432341280017 1.1406543467416745 0.06452007728650261
0.8542862373276326 -0.9439863781069875 1.1394373498784942 0.04694760210516827
0.8557285181456009 -0.9515685371759229 1.1354086272575226 0.048512402117250664
0.8419955874084092 -0.9531249369594683 1.158457298042809 0.046049378580426785
0.8393542750803716 -0.9562473070701453 1.2022846237665181 0.0486315935758992
0.8295446807944621 -0.9482453261884275 1.1791112752301292 0.11493547620856127
0.8394005253238478 -0.960645125874459 1.1557720587434361 0.04840528408022742
0.8253381172071056 -0.9633169811888467 1.191486649227369 0.1354182437970306
0.8242712422628787 -0.9649625794791424 1.1722060699148236 0.13208777823684398
0.8265209104773903 -0.9661995921146335 1.194694107933752 0.14128607120348743
0.8168554712712558 -0.9697446697837074 1.1617094906495902 0.15047025051695273
0.817479199415309 -0.9757234947894247 1.1859317785957673 0.07185280513225817
0.8219982407868169 -0.9634709515102153 1.2106534073275672 0.13681411147987124
0.7996926754039869 -0.9591279463443766 1.1840138363837054 0.1055705173941131
0.8018597808643891 -0.9452697529022751 1.2158415319702465 0.11675743324628346
0.8283242509994998 -0.9345425189290426 1.169670735936196 0.02441076215101653
0.8325594265329213 -0.9378704833580025 1.2032912547951944 0.15449235409183554
0.8335975856084058 -0.9567507655828722 1.217453977458683 0.1508878045002834
0.8306482765583452 -0.9651891946738412 1.2108994426699873 0.10893793417628819
0.8053961937337483 -0.9713015622258389 1.2110151826222748 0.0805924954360702
0.8333435531341338 -0.9380164933327836 1.2096410531394086 0.1426469356984453
0.8044597632981795 -0.967100613573567 1.094714159239768 0.08403099297318575
0.8424947130876027 -0.9494811535595116 1.0917423706253526 0.06007598217072229
0.8311944112408465 -0.9428030617840025 1.2283298946208945 0.16556270920591226
0.830596932475458 -0.939291597563958 1.2526959913956728 0.15711871387944795
0.8155519821819902 -0.9324400962731286 1.277333619073568 0.07581769090366848
0.8102400199589018 -0.9522331344624353 1.2823179409328516 0.11085602697671344
0.8173287827010978 -0.9689064720387646 1.275375498231634 0.2066392338240359
0.8134287151152587 -0.9603007806617421 1.2362332560997842 0.17431147293048996
0.8089141934828981 -0.9626851658374921 1.2408960974671321 0.169606151208888
0.8013000803363067 -0.9688915734115082 1.2556421847989954 0.15144416616625458
0.7960671513380123 -0.9479149226203669 1.250016095850187 0.10494682919981445
0.8197150758517958 -0.9333427542601647 1.2348059554921822 0.14452918245173785
0.8234376146085135 -0.9755214176369145 1.251751229590416 0.1412294893964088
0.8329941211916884 -0.9653542190667915 1.241665439680191 0.09524563542479897
0.8342795791658104 -0.9594698165287137 1.2416303983138528 0.08504339402467048
0.8321950133147411 -0.944922700986927 1.2635686459080335 0.1714334383697446
0.8096469048389554 -0.9673972407822149 1.262614960664626 0.19545347869987273
0.8249300265071831 -0.9561960863778064 1.2811992362416695 0.13935113808361219
0.8317203500665268 -0.9580645487472411 1.2966608703006623 0.04260452117794074
0.8285112681426667 -0.9380553855093791 1.2641084865604113 0.18567841248838382
0.8318726660631303 -0.9380401979551779 1.2550582052001655 0.17582497376630743
0.8425453571423339 -0.949531876915431 1.234549026378567 0.08919538239069985
0.8404470895697405 -0.950047555753891 1.2266437555455543 0.09269854856273721
1.046566368593722 -1.0782164947669683 0.757218493110472 0.04345878695620541
1.0892219547573616 -1.0588411615044446 0.7472350939376248 0.05749777267683296
1.0861823097881422 -1.0589743839693173 0.7819157744662788 0.14582344572398195
1.0949770587884298 -1.0638247823408475 0.7968408831401133 0.08421330145548037
1.0826008522143817 -1.051914274042632 0.775986897917833 0.10340201867696668
1.0898535313913207 -1.0479663706277247 0.7901905579588987 0.03761755035454681
1.0792287533449423 -1.040269716253748 0.7977123968044464 0.05132752962386061
1.0729405570619428 -1.0289726721730252 0.7845842362438019 0.0346178993591188
1.0654275305461118 -1.023649325339108 0.7764826081966931 0.02662940939140313
1.0298199443073854 -1.0613570296814945 0.7777501438447124 0.04957214364654015
1.027994673072594 -1.0632484833485816 0.8030534511286689 0.03497010026391354
1.0477694955764352 -1.0804396733407435 0.7979186517150416 0.06195304808239827
1.0351591096320205 -1.0743953569107554 0.7919992396485264 0.029548841959789452
1.0366864771078634 -1.0845623092715775 0.7806557024045707 0.015310428900546387
1.0592577170874637 -1.093050793676443 0.7801695942375513 0.038515880433404426
1.0303521380182667 -1.0710284238682295 0.7716431363881292 0.0462125248361061
1.058537397778273 -1.0844036934749208 0.7937817544369997 0.08204922972751391
1.0508169786538306 -1.0833918726648222 0.8126922583684636 0.07805472672042063
1.0847175867818806 -1.0765365348016231 0.801055086348411 0.10164993702732832
1.0662509010830818 -1.0913764186600527 0.8293992995227554 0.10016318149913911
1.0835283484778542 -1.0779639515239197 0.7777150137370422 0.04159174708039534
1.0929047649147927 -1.0720665968655578 0.8221870393332597 0.07491095217814092
1.0414942281187558 -1.0844019141515788 0.8207165174687685 0.04993518450580517
1.0751166583191585 -1.0996764142648339 0.8210184718828947 0.04064151510151456
1.095024211779421 -1.0842017968775957 0.8207100184231445 0.06619028302780024
1.0955791962501038 -1.0396369948310695 0.8246326715965362 0.032584011240716235
1.07675834642731 -1.0305550098732965 0.8315524921468184 0.07646090992763938
1.0676389466576965 -1.0234709726347344 0.8224411120186305 0.030636464753324745
1.0557085885228599 -1.0254843719206201 0.8173619819659838 0.018247439142127
1.0232317792899215 -1.060888441340509 0.8236563677396078 0.07174666523867962
1.0389142981941226 -1.086064029242644 0.8270676188468278 0.03971057156891227
1.0587055217550998 -1.0920363097444257 0.8164231702917907 0.07414574087731493
1.0651244688501618 -1.0838428613815596 0.8105725008202516 0.0762328859063905
1.0742048950224703 -1.0364384512863192 0.7946309047628387 0.03977808289199534
1.082702254755802 -1.0669916914056672 0.7837496514445601 0.1345964994587258
1.0701498816492703 -1.0399393516616118 0.761439784595748 0.03308388359128298
1.0569174814998716 -1.079388662337537 0.7627488808048357 0.1574202364300528
1.0935531297485823 -1.054936156144874 0.8277880760220713 0.07558553903047333
1.0932562174999247 -1.0511585149275278 0.8115395948060568 0.04939552013984799
1.0685415111330476 -1.032628381154744 0.8139444539315802 0.02627228283260078
1.028496815156232 -1.0685611085770246 0.8172147139441649 0.024690286345550098
1.0555382812137633 -1.0865966732861385 0.8107629313721304 0.08134857127738376
1.0905481395888543 -1.0837957935498683 0.7370637994241355 0.0288161881978512
1.0966103119943995 -1.0896192674808012 0.731078259043865 0.02191368166697967
1.014878613014854 -1.0992348080755678 0.7028795622773707 0.026578053691757836
1.0979420371075288 -1.0192985572262814 0.7175526536507519 0.04422767777785732
1.1139087879217868 -1.0660580996199878 0.7125278182928256 0.022989458429057724
1.0893258961598362 -1.1099704157960963 0.7102050742811452 0.024392987821447717
1.0948964623315418 -1.099010815430911 0.7165046125605404 0.03095649356032388
1.124717898776855 -1.0542795278665065 0.7016023152211993 0.0348591899255974
1.0354988805596919 -1.1116245428592917 0.7054429208498704 0.029408538543493762
1.0512900608961837 -1.1172392558752902 0.7020641978952467 0.026687330215220427
1.0736170943969618 -1.1198280382417862 0.6907687883884307 0.02713825793973972
1.1091642702670956 -1.100653989985957 0.6939548651217964 0.021510587140733905
1.114355146686485 -1.044905762362431 0.7094105388780768 0.03542899907790514
1.0762331299903902 -0.9931912740595649 0.7027281698990006 0.005263613533468019
0.9882234234965687 -1.0479026960239062 0.7096214053366479 -7.449292037597747e-13
1.0008465887319355 -1.0855335952213512 0.708284673054139 0.015686752715398426
1.0088989653677527 -1.0954413491395787 0.721188796203878 0.016959192162644753
1.0259418090990302 -1.1104513761493104 0.7158643843539544 0.025507384895047072
1.1309858143916733 -1.0678702330484169 0.7013382885296243 0.018727007427112828
1.1162464325645702 -1.0735619687689995 0.7127550689564309 0.022551688377614506
1.1076065680470986 -1.0948016015197386 0.7081108334247948 0.018688142595702444
1.081691512699713 -1.1319767296068097 0.6983948113843077 0.00900972169152533
1.0670567671375433 -1.1125878566660066 0.7130776397741548 0.029897204566880824
1.1110187786514378 -1.0936321449232629 0.7156847288636146 0.01300082057432658
1.0843356504955888 -1.108268691377809 0.7149553317708311 0.026556204465853966
1.0670855634637284 -1.1113695710431162 0.7200904991894453 0.022839804296952784
1.0368817417787395 -1.1134492035178294 0.7112999394761637 0.02559123736665182
1.1092458979739541 -1.0382253944643902 0.7113577410829092 0.03930776990530982
1.107406519235369 -1.0266617256470956 0.7161247362207506 0.0353690719089785
1.0978689903901637 -1.1102945684812746 0.6981480470988629 0.02746940788701531
1.1249809990454265 -1.075571203641452 0.6941857658444205 0.020400372822124608
1.109664711677993 -1.093684808917703 0.6976299312325823 0.02161984424341873
1.1261538363715298 -1.0488751559579021 0.6990278055586345 0.03748561493151906
1.1144175191538097 -1.027361060744822 0.7094497781414275 0.03362269936815994
1.0979934577362254 -1.011688091833987 0.7075907084992429 0.02026294867533501
1.0502796179594984 -0.9863191888362146 0.6906146418714686 0.0159252875748599
0.9922529654897292 -1.0708790589788355 0.704068648867049 0.011600508936216532
1.0560105832595057 -1.1134899999614636 0.7232980785254972 0.016644520322634054
1.105719996808603 -1.0588245070299769 0.7233865009294747 0.01612842023855963
1.1008723257532924 -1.0291393269324993 0.725721316399009 0.011155408733506502
1.0744653569639955 -1.0134393439343679 0.7310417229389277 0.001015179707478767
1.0524265919367415 -1.0017236947181354 0.7242826276510115 1.696132993543817e-13
1.006683162653758 -1.0776906037031269 0.7232997529737618 0.01963327137358467
1.0334027988000556 -1.1079807022286907 0.7295761978061105 0.02272565188562806
1.0649961007326736 -1.1021903672576696 0.7301825148336176 0.02268295436077717
1.0859507611206085 -1.0930908306070901 0.7283378906077255 0.02519951649381154
1.1022306752319553 -1.0625801741238639 0.7307305138917586 0.01894424687988257
1.0954274595807014 -1.053977875173764 0.7335342868271522 0.020998693602770006
1.0838533416702494 -1.0892697224518437 0.7317794981151481 0.029416027208445494
1.0148158851227098 -1.0860292368399265 0.7319882833700683 0.018142553288144687
1.0958967670444422 -1.048774735869318 0.7288581970414715 0.010897394386140768
1.0982830547510631 -1.081691738624788 0.7265172059730928 0.029993489663525108
1.071519601701528 -1.0814864485375952 0.7444168141105847 0.08607194249560897
0.6520138047167231 -1.0557577297183531 1.0321082687844807 0.042999407178331055
0.6414393795168195 -1.0588869706465345 1.0273953905026463 0.05022739524920274
0.6283959418089614 -1.0546088527815212 1.0356814869983446 0.04034956364346045
0.6449097518353486 -1.0640697203608003 1.041519089801699 0.033727800783557374
0.6329838714541328 -1.0492258033238382 1.0002341287993213 0.029005993760006142
0.6378388676918094 -1.0614510268591295 1.011784455482166 0.030570109843160106
0.6502996273297119 -1.0526139079456667 1.0173866651294408 0.03924131602441565
0.6452546449033755 -1.0596497812560626 1.00677710214746 0.03243813177365893
0.6380647335318105 -1.0410545370422633 0.9051277062917539 0.00012356253802063048
0.6449154293672323 -1.056772267249743 0.9208749489180519 0.04408851968696276
0.6459653098977656 -1.0587282009898256 0.9318609556151353 0.0847145111190932
0.6404888524786145 -1.0569515259086493 0.929330853774136 0.09563655830810183
0.6308317233707119 -1.0544024679567137 0.9326321786588272 0.03282771139354158
0.6319501019181745 -1.057044284155381 0.976111318037363 0.04162791695335176
0.644090382111105 -1.0564866755082383 0.9619478381146855 0.056632343802758695
0.654978171743903 -1.0566509138130653 0.9476818498323232 0.021901992701483432
0.649283330301979 -1.060489546965803 0.9595857319988507 0.043492057276478896
0.6477544809305199 -1.0567507899425415 0.9845660976497392 0.04407275267404595
0.6225729796352537 -1.0607572761399906 0.9429872171444812 0.014172792229546328
0.6446929134667337 -1.0506907850186553 0.953875869093422 0.08686016137042361
0.6950487905485435 -1.008406317892051 1.0252941799035324 0.0005449584177906398
0.6952985575510426 -1.0191307974732267 1.0384418817352115 0.01558263611529706
0.6838485877695485 -1.0333479746638328 0.9989116071627794 0.028597690566889294
0.6967074457891356 -1.0131490329886215 1.003218074601546 0.01450840913162637
0.6873619110891183 -1.0241722795954014 0.9243009857810248 0.012570552332512449
0.6941687489724045 -1.0281489788633416 0.9136190322947225 0.01609911660585342
0.6912453565138849 -1.0266139032478543 0.9380809414993951 0.019727863965100446
0.6831346078073561 -1.0251174465148207 0.9294019889672172 0.011095847287314775
0.6921415754536251 -1.0232132091550998 0.9566999750980816 0.005211941948710526
0.7010580763014324 -1.022981140290028 0.9565000972359597 0.009372061721922616
0.6920734009077898 -1.035446792018456 0.9855212375638117 0.018970379401858733
0.6706851316669372 -0.9543534079962208 0.9099489332149183 
0.5865773848396286 -1.0150621027513966 1.0484918889556096 1.9989463604821713e-12
0.5970428564122459 -1.0310300835668007 1.041754066560437 0.026309280896819387
0.603483725376714 -1.0217280724434 0.9243291136617533 0.008331163820879457
0.5934186296846812 -1.015260644774423 0.9163853987049635 0.03556992167442555
0.5863402013372989 -1.0309123488953067 0.9972851262783922 0.029820524457684756
0.5886978869794303 -1.0240945279983449 0.9355176407915382 0.00956531141997072
0.5822018818536759 -1.012240649622052 0.9326475629413883 0.024178280671690547
0.5904721563921729 -1.0244192671371972 0.9542279868124426 0.03196075380221199
0.6779476916992659 -1.0420033574113703 1.0307289134723685 0.020346861621880184
0.6709960322346229 -1.0482994512620651 1.031210702218896 0.013951959352260535
0.6767589251114251 -1.0431530817581742 1.0418815332508513 0.01252603673373117
0.6627381366084268 -1.0456136079924363 1.0298687057749905 0.020827675016337692
0.6762901598912029 -1.0296940822485923 0.9470985557203268 0.019155285377959692
0.6806376895896998 -1.0320370169149335 0.9588292555651429 0.013674517673093701
0.6715100193760756 -1.033147686637389 0.9340731161449427 0.012029200503656558
0.6694915265514705 -1.0517484205804704 0.9996724564613185 0.015683394968014207
0.6717139088134861 -1.0405742030257359 0.9650199947809988 0.013842981613836578
0.6765835726787514 -1.043009457331469 1.0123136058832196 0.02812890847508725
0.6796769076923703 -1.039731759958476 0.999296633125185 0.028289470001436265
0.6811323623451931 -1.0430751999212455 0.9826659387951294 0.01883367376401921
0.6740490036301368 -1.0469330336969698 1.0084158160426842 0.00797294183153713
0.6668794391183781 -1.047505228621149 1.0153551449131333 0.023289919927581813
0.664884028501028 -1.0430285516289945 0.9673573914455132 0.019751749694180334
0.6131599999104569 -1.042365179741153 1.0448108248823773 0.02246208244908115
0.6069971429348648 -1.0507105506798569 1.029495991232864 0.03197161043115687
0.6054850946158584 -1.0381610077572636 1.0408351366501118 0.025082823217372076
0.6117910993290102 -1.0454224039842674 0.9450178104962513 0.040959043868101015
0.6069679379221584 -1.0414352274944525 0.937846640653785 0.026142355924315776
0.601553947730466 -1.0410059864331669 0.9516245405357657 0.03792740563028214
0.6059062472888117 -1.0464915511381758 0.9627446525402983 0.031112082091349802
0.6121960705474876 -1.052061099372491 0.9958375734513202 0.026041669756205546
0.6157531563521982 -1.0497423567267945 1.0166035231781538 0.033390155623222555
0.6206067715226529 -1.0431299426170557 0.9710360447860986 0.035173774350420066
0.6179798828621978 -1.041264404781356 0.9817122164086411 0.01766130179192979
0.6164241537171605 -1.049198770325092 0.9924642123741626 0.027475922921819818
0.5949999154318675 -1.051674646253676 1.0155919519212346 0.011294144113920577
0.6022023698542273 -1.040818146124025 0.9811581604849335 0.03806645867102739
0.6019951372845633 -1.0473512612944427 0.9702678620157644 0.027199322779816383
0.8544227674056014 -1.183791008354249 0.5439606451124189 
0.7308568878319343 -1.234046164516429 0.6679120726727368 0.02326170932610063
0.7389987511532103 -1.2569532723091958 0.671636277088085 0.016407296957493663
0.7383540440035812 -1.252414572836744 0.6787062132252368 0.014023428531861984
0.7331266364853228 -1.2488754380631815 0.6010669624325483 0.03892846598669576
0.7281170932237632 -1.2387264833565574 0.5915160370396403 0.03659667142884587
0.7394658508325342 -1.2510409251765815 0.6208604596091107 0.01855096650588229
0.7175220424642779 -1.24506299149372 0.6029486238604904 0.024233750882431772
0.7349401045506113 -1.249561099346759 0.6593882566278619 0.023978929382113667
0.7337498223165643 -1.2520395488001546 0.6346999860601437 0.021440540038958834
0.7362414217205494 -1.2523906608407624 0.6455383484870834 0.020172120373276144
0.7476672979188383 -1.2604927771779495 0.6583481491676814 0.021376074601377224
0.7269068954372424 -1.2386800186581606 0.6287815337404536 0.028760760896356683
0.7170796113648196 -1.2418742117606623 0.6462608108190214 0.009823377726368149
0.7248710847590394 -1.2209501679076364 0.6917944699828305 0.004756060906355036
0.7333047525278371 -1.2240554708447713 0.5597827051692978 0.04683557630432726
0.7293171116372574 -1.2134395222415948 0.5590541427359869 -3.167446333681725e-12
0.7335438540895218 -1.2182550026268502 0.579365616214994 0.025204024093950134
0.7232012402899087 -1.2156905638800684 0.5809368431200838 0.018362135951242215
0.7263932658170872 -1.238085599857545 0.6108292354557605 0.039801938180735415
0.7819267407764523 -1.2778231574281067 0.6871610699964271 0.020264625869491792
0.7957334660445823 -1.2816756473053632 0.6818998938590585 0.03562725316760178
0.775633744656108 -1.2741708186641065 0.6846741172742483 0.02043227177414909
0.7854638437720641 -1.2823222746149257 0.5882572727370348 0.02813681440516626
0.7790900470776801 -1.2678030638232969 0.6021664663450583 0.03811674817779448
0.770842897786467 -1.2791473521432006 0.5863514503569783 0.028869041306021654
0.7916814379215874 -1.2831224437566622 0.6102695792387445 0.03593703716514167
0.7715821854287979 -1.287764328133332 0.6369533485486637 0.023707877234298295
0.7717738985720425 -1.27249119777583 0.6516081306391861 0.03396236872565862
0.785428844824141 -1.286871863400577 0.6679057592098023 0.03650293425234901
0.7854995216239611 -1.2858712078011008 0.6512713276141681 0.0319229129102875
0.7890726493104406 -1.2752412018568955 0.6254103665096935 0.04318571061980613
0.7923481740446136 -1.2808399912642208 0.6195574448175173 0.04047807030409567
0.7894946326150225 -1.2701472025542786 0.6387712539503275 0.03784903685572143
0.8012697079556292 -1.2800285902871549 0.6672195675945709 0.03976393731423054
0.772419506747564 -1.2770153757440645 0.624694402519861 0.0314941394931807
0.7516890838428985 -1.26863186815239 0.6905242910426236 0.01576674760198697
0.7568774242603552 -1.2634830857888757 0.6661610331373716 0.01848315045158794
0.762720706230916 -1.2754973237868956 0.673706481407843 0.021333242808695703
0.7626944877108544 -1.2718801085382605 0.6894259777095266 0.01574547498457523
0.7583936139350778 -1.2667993226480267 0.6571506085442832 0.025728487768175788
0.7610097668773742 -1.2755127054662478 0.6596905744553055 0.02514495061595082
0.7528629476869868 -1.2596703867114165 0.6548874436692823 0.02005889170991235
0.759985710645402 -1.2623595670618935 0.5632295922087993 0.0669148517672979
0.759383849915765 -1.2624695600417564 0.5449264743721324 1.8999588406039032e-12
0.7728443736699028 -1.2597395846188735 0.5806423875447166 0.027363577239492225
0.7583757916547643 -1.2723297262111224 0.596727858719193 0.03651320348137255
0.7533066686479482 -1.2661784814859902 0.5794418471263817 0.045724917562157436
0.749686141298171 -1.2693661014365787 0.5965548516681145 0.032658025085081296
0.7579532084312477 -1.2710299415953248 0.6353211414732811 0.03167514920463521
0.7709699064291435 -1.270572098963975 0.6161378774671792 0.04585876250124522
0.7667920213412619 -1.266561850179039 0.621611403636752 0.03559683417506741
0.7444061828824777 -1.2646557824970543 0.6344134269523476 0.015200632870614393
0.7504720897770989 -1.2621517986093458 0.6053188201206869 0.03908837368914297
0.7577382323851307 -1.2702913337411745 0.6071186947014826 0.045119540749040093
0.8456078479925312 -1.2581047408344448 0.6857194307185369 0.01677970195664795
0.8277637050719319 -1.2693020382390086 0.6705095690257168 0.017764376539705494
0.8345051765784647 -1.2690793718440203 0.6799374007383132 0.021128981123189783
0.843034337069597 -1.2649267501620816 0.6749198824110823 0.02173825164969019
0.8486741646896676 -1.255019266104464 0.604032487651388 0.019745728026719655
0.8443625397280978 -1.2582180400538086 0.5938893307817459 0.017788373146081414
0.8341219028631236 -1.274802854758657 0.598343899632608 0.027653041266946135
0.8339094246337856 -1.2744615917971538 0.6426113933952047 0.013531752609307758
0.8356888716265818 -1.271065134024381 0.6404974687677593 0.015066965558402944
0.8425826985091903 -1.2620190211142759 0.6263614878811089 0.019302352588722687
0.839650216248604 -1.2666289611091592 0.667240198713322 0.02812818592415303
0.8348922544397962 -1.2709631010938 0.6681782236438714 0.023101353945703562
0.820020903416714 -1.2841990914894668 0.679940683302535 0.018852724427379886
0.8094904342423651 -1.2843101834759885 0.6858598383336987 0.02580633552611289
0.81800765663949 -1.27271149305507 0.6543253855933245 0.025424877089146043
0.8102091388823212 -1.2762068817232843 0.6566794038473561 0.034153230373050236
0.8046993140854191 -1.2790878372011936 0.6698115407097944 0.03806472024211679
0.8171145413028675 -1.2806707314284451 0.5538967738896792 0.05069710127015396
0.8035637058453179 -1.2803824793961738 0.569954214404235 0.055527152630464725
0.8265073337094859 -1.2790512298120356 0.5767837837159322 0.047055904112430234
0.8170328713557926 -1.2826522614191485 0.5796200600720635 0.030007078830629343
0.8059132798141798 -1.2737271282737432 0.5799024813657901 0.05059972926618762
0.805000800886319 -1.283890733057672 0.6294099949766637 0.03283162411141566
0.8042773301993363 -1.278099935389893 0.6171728232991939 0.03732450441722673
0.816141793592204 -1.2830479826447354 0.5939338052830793 0.03244220539988354
0.816469495107642 -1.2723817908550228 0.607827974560398 0.05276675337256306
0.8147940731825588 -1.2857452509055118 0.6274037381093874 0.027531292503680534
0.8238641550007603 -1.2787454488851346 0.6258985492633119 0.03445426131216106
0.8182480975498027 -1.2782301128144016 0.5987159963052641 0.04364565958717585
0.7980629738510288 -1.2821762300938317 0.6097518951236685 0.04193693716815745
0.8738641549177301 -1.224646417655981 0.6604280727066538 0.0009237744506802949
0.8522468562480422 -1.2536342860877958 0.6881345121882365 0.014214498072005827
0.8602973589562017 -1.2372222284582313 0.668322560220474 0.005576466619199283
0.8550263322291012 -1.244161527891885 0.6881314176748798 0.007662520523295016
0.8682928173931971 -1.2314962555135693 0.6522850182355596 0.006242036203412746
0.854156001666436 -1.2565182259729277 0.6469930698747508 0.006067070414214287
0.8547615448174659 -1.2401991528032918 0.5704547309513863 0.04103552059805074
0.8601558317901086 -1.2495102489778398 0.5840926417697608 0.011854738826894959
0.848422499100013 -1.2463078964630787 0.5678423617757627 0.023466567159927763
0.8495756651603593 -1.2464224090063039 0.5772411348241563 0.017815595657197425
0.8653590356237117 -1.2388646377922126 0.5806982575425396 0.022188718278030012
0.8595359882682644 -1.2502578070301085 0.612427823337605 0.01187211052711162
0.8656924988552261 -1.2372361397816427 0.6197212105286956 0.012298305149154518
0.8633791166674062 -1.2326002027469394 0.6077558420589534 0.015594292262195903
0.8596605103951294 -1.250401956936748 0.635726508508583 0.006863986596574247
0.652973069196051 -1.0497261726772562 1.0591622444324877 0.025884516377189817
0.6284947280603789 -1.0403155933995083 1.0589118805702835 0.019586925076979837
0.6158537896124133 -1.037060128940488 1.0664832897482697 0.003230261500873935
0.6687957282507095 -1.0364052785130182 1.0626016579816921 0.035744956398263326
0.6903321648164383 -1.0234851938448 1.062882161507594 0.005507100328221983
0.6390485636836801 -1.0259625694466679 1.086167516714349 0.03103542859457759
0.6177000475441823 -1.0147400606583343 1.0971656866208066 0.036588294032875904
0.6113740181078435 -1.0196556309798335 1.124034064119482 0.022203761752720354
0.6266722424738763 -1.027058741623205 1.1095131717047102 0.03308400616497418
0.6338025574878385 -1.0230741605848979 1.120636446001872 0.0330710303203511
0.6337076682013711 -1.0208503632654333 1.1018038582711736 0.0422326597227213
0.6424274605812532 -1.029388114023967 1.1161266712066231 0.04910473725562245
0.6490393941195581 -1.0351325726083511 1.1083695484410623 0.05160892397562376
0.6651449298040996 -1.0271515476065192 1.1162728826354558 0.06530546575268685
0.6786788937510789 -1.005610300074146 1.11740622527241 0.016138757382001153
0.6630628460265325 -1.025218168809797 1.1232882029090432 0.07049846926927124
0.6688819722355843 -1.0289723322300621 1.101074595162209 0.0834446155795198
0.6865289904160757 -1.007645525548942 1.1369997121107507 0.009540770959523954
0.6098527805198933 -1.025096973376567 1.140804258329562 0.027807144018044582
0.59506254818539 -1.0086584876783415 1.1373775694618935 6.04733717440789e-13
0.6323907168316196 -1.0324682596046255 1.1470374461183415 0.03394909723499509
0.652525036560093 -1.0378248925110853 1.125593607722741 0.035352886536716276
0.6490292288283643 -1.0272258021991978 1.1430571267083425 0.02896489868485252
0.6718978845032512 -1.022849370175365 1.1377542300219659 0.04348150009874919
0.6755853597783956 -1.0197306773810464 1.1469137739274908 0.019713135988396257
0.6294021663029953 -1.0222212529170538 1.142472687651251 0.04674390220559965
0.6720549371731097 -1.0164811140736603 1.1319233882469257 0.046246455657434446
0.6609297426869674 -1.0030606834261202 1.211019441413449 0.0471956345090617
0.6596853746772015 -1.010459216620416 1.1822297544379616 0.029017448352306206
0.6546220371834449 -1.0106963425134938 1.177137478476467 0.031372614374852
0.6483056273676876 -1.0137594175310691 1.2158938520104206 0.041353862739567766
0.652440835364013 -1.0206599854828855 1.186756413919431 0.03155217545281234
0.64070560610175 -1.0133190946032862 1.1677661295802642 0.03522908485385496
0.6337060632245285 -1.0141476664553946 1.2027156118459847 0.04666588667036864
0.6326759827835101 -1.0094289232428855 1.1917416896600883 0.041773212760559356
0.6284378106063889 -1.0028260562345297 1.1984821160397057 0.02509373458226544
0.6336911999592229 -1.007717385611844 1.221948082902799 0.07870804750246226
0.6504578544926422 -1.0119367866734905 1.2174304193410643 0.04666988480733245
0.639502705747955 -1.010596094872441 1.2159648396131346 0.053724501151808816
0.6539467539939725 -1.007848130308203 1.2179409971534447 0.04524491284821309
0.6297195914720718 -1.003024575202893 1.285404825857535 0.0835110946254586
0.6390489729650987 -1.0081225748097 1.2846000550729537 0.03105714730547358
0.6196229182992498 -1.005051074641298 1.2369417556238729 0.05787583377704085
0.6287509019037707 -1.017917244330052 1.2470372738268605 0.0667284349223257
0.6354325688954882 -1.0124619576219038 1.2253595601735319 0.06626705393468016
0.6205377715690508 -0.9922659457676526 1.2496898453130096 0.023271623469016157
0.6280557090321139 -1.0078094075275954 1.2624638364964607 0.06453649662708619
0.6428325518709495 -1.0246710292173338 1.236282702023289 0.034699158212193736
0.6494736238693274 -1.018574236815945 1.2482789260575355 0.05379511142646208
0.6549847561747416 -1.0148521761613127 1.2312985262834064 0.049751190713226846
0.6481629097338385 -1.0185901789702623 1.255112021504097 0.04376525365787935
0.6617551790590793 -1.0036043679928368 1.2739764245933909 0.03391796921684537
0.6613370810272249 -1.0092983695398032 1.2542188339596954 0.03972747309121168
0.6461623735585903 -1.0142031814430539 1.2665966126716033 0.07048938403085576
0.6479809535943938 -1.006593483545416 1.2842921363326036 0.032140060484223486
0.6437773590093147 -1.0053922503284347 1.292238436089374 0.03881735789932929
0.6594843919508298 -1.0089931790864757 1.242025391335922 0.050628817956286855
0.7949190909406454 -1.2274975550308806 0.7631120380076514 0.1038894063760186
0.788099926546261 -1.2320799138924399 0.7528315406018975 0.12003147609703124
0.783159767452034 -1.2277988848446604 0.7630240370307149 0.10603522180340583
0.8032964169604442 -1.2374140631329456 0.7674451185153229 0.10682788183404524
0.8243678440916248 -1.225405207135126 0.7801578543505673 0.037718878622965225
0.8194639505694875 -1.2246866151078337 0.7925012857401429 0.07259811467983997
0.7696830288552999 -1.2349887007667804 0.7913880408382973 0.024936886454010893
0.7699186384457033 -1.2244104109369174 0.7874618181035907 0.03437698693390687
0.7726783883733997 -1.2220443870978166 0.7767224507307777 0.02107875407399961
0.7927988408865793 -1.2354894935910086 0.7871548313397596 0.03998903756488627
0.786264380124189 -1.2371712370558527 0.8000823982944912 0.04371767114798075
0.7896080728936445 -1.2387128585389364 0.8133439403189651 0.0648527375547094
0.8081613918305789 -1.2416578120142165 0.7971144904143017 0.04696880504835653
0.8032545188165842 -1.246357109139495 0.8232390246650801 0.07302491807712493
0.8263320699704002 -1.245593297169055 0.8160235671176538 0.03749588123006625
0.788336230547565 -1.2445758783782792 0.8241352262263121 0.06764100050840427
0.8294551937147492 -1.215344467964262 0.8207066354209251 0.07512149388139618
0.8320744039353518 -1.2076438292416463 0.8254703789191811 0.07196812571055046
0.7710997791460931 -1.2475276413334124 0.8176113149690802 0.02743530568217715
0.8159172237896083 -1.2231377051762586 0.7858294557573673 0.07570140419801771
0.7974297893306557 -1.2352244528765077 0.774899299127448 0.0512389563066239
0.8180101683677656 -1.2179275984631461 0.7637074315215768 0.04500551705271445
0.8174651257852508 -1.2258935992349282 0.8271032845166296 0.08738565291798253
0.7516822659293968 -1.2177828009489506 0.821388761929426 5.536220048404623e-13
0.8082511595842536 -1.239680216805023 0.809421552148854 0.06553398821802477
0.7315897764186924 -1.2289956423438426 0.7096390761078449 0.011967610630121556
0.7720331346506191 -1.2582079477750638 0.7173679269944416 0.014668070226993152
0.8460148907796967 -1.244042700353944 0.7095883412244682 0.008356918319130215
0.7535469501506578 -1.2125028870432057 0.7335659507574397 
0.7888583886729458 -1.27478085125992 0.7009375516432611 0.011704580829843745
0.8348181675916191 -1.2698001406484378 0.6926470867147742 0.018226329773141186
0.8400158598531888 -1.256309453641464 0.7127381989570178 0.010527652229706664
0.8240671412304397 -1.271547721650628 0.7043688436623323 0.017947752757138592
0.7883002516518676 -1.2746910321699043 0.70633822512447 0.006664095333626426
0.7715348827382676 -1.26994237037003 0.6953149646648614 0.014299814185840325
0.7666347955683216 -1.2608810991426915 0.7135547555028212 0.023554230192967204
0.7885101622112317 -1.2676233998483204 0.7210829637031588 0.007583456703716749
0.7622236590072267 -1.2602556784432375 0.7228480131292097 0.01675764523832696
0.7426404884977262 -1.2453489562291495 0.7088749323173198 0.013037531553036141
0.8568657578204749 -1.1990776516360135 0.7210775112170184 
0.8138655621632775 -1.2722052748147952 0.702713809664286 0.01977139972237621
0.8005498109562382 -1.2832354641741608 0.6887369466185413 0.031238556583570408
0.7702660044555586 -1.2702851281459386 0.6929889403387927 0.016674995566991164
0.7636949657002967 -1.265683003836718 0.703035620531902 0.020081851308303256
0.8437329193302623 -1.2558098794441392 0.702669801439794 0.012657220851801699
0.8635443655027879 -1.2178594471409456 0.701195934178407 0.0015518129045965143
0.7386222896717347 -1.2381542898420437 0.6997270692050128 0.01428125832701297
0.7257933838477427 -1.2120998461966468 0.6998458345402235 0.0009448063019714438
0.8148471792085289 -1.2602486138824824 0.7301332094536068 0.011187021395165966
0.8287159405207177 -1.2570258026004095 0.7277308779945604 0.030286795166379388
0.7701473065088994 -1.2529196975546222 0.7324443667441585 0.01924255430496958
0.8128694187481244 -1.2634125941339809 0.7258776954541504 0.01586532857675641
0.7924681477602663 -1.253868727547056 0.737560738928884 0.010711931365915533
0.7587810769688461 -1.2206929161657178 0.7349146158479707 0.0073576293849231455
0.8249228070799689 -1.2574776865765036 0.7312225767088697 0.03210887657154419
0.6991109896214176 -1.0784529748370695 0.40269436676833525 
0.578382475721844 -1.1090837166235452 0.4497342366640787 0.01714665230855061
0.5681779500809221 -1.1029379290123376 0.43347918819917125 -1.503605856123523e-13
0.583871558811144 -1.1288520750630069 0.488619004362831 0.029854675320230256
0.5747402147433012 -1.1216132635775966 0.5027765405041223 0.02380090881161022
0.5887099511697906 -1.086312179763076 0.40534263158732925 
0.6189503818669133 -1.1587584046356403 0.5179782856393907 0.026822376243559563
0.6033240388640428 -1.140105930562817 0.5262129569150031 0.03245822348211441
0.6200242849460555 -1.157910322917739 0.5435163845531731 0.0347324626071751
0.6115877948011451 -1.150827089153628 0.5344391745291249 0.04289844708190473
0.6221535809395605 -1.1580896731452368 0.44679715737493547 0.03360630783452521
0.5973946614693452 -1.1563670321939448 0.453821669192361 0.014880996883837781
0.6132597921085512 -1.1426650527420608 0.43146136542060426 0.03908273148762506
0.6162755156325535 -1.1469986220590596 0.4626898763843767 0.036769368669228725
0.6062341433944727 -1.1454402438759717 0.485000795456353 0.035576767213594436
0.6097838963686043 -1.151706383647277 0.5070802760342762 0.022241990603050477
0.6115239636323135 -1.1502819289478097 0.4914590331749444 0.03253862681007958
0.6157552419970456 -1.158960429751147 0.47996497078471384 0.03850007435994569
0.6053811644444432 -1.1457721594726933 0.5120187748118739 0.023105248908056514
0.6072247371066614 -1.1524276113581753 0.47618887615763666 0.032377249970665135
0.5879816566447907 -1.1440089181648487 0.5239826919184626 0.011788203239085844
0.5987183176800035 -1.135097268657527 0.5072748015872717 0.01595434908597524
0.6071460121560673 -1.14134387499263 0.4965791836800967 0.023439726521311464
0.5799327767588465 -1.1314033897942684 0.5112838561380332 0.034140130373881104
0.5913987461346005 -1.132778084367106 0.419502654294879 0.005323391751723646
0.5971131619366409 -1.1302653811609196 0.40558884584128935 0.010926242858619949
0.6011212467077063 -1.1333746225295798 0.41597251185494855 0.010710105641313566
0.5923439489511839 -1.1280416435861824 0.43368480555017785 0.03425377632925308
0.5946137907188741 -1.1330312300620902 0.4712932475472124 0.037108455890642655
0.5787561350289707 -1.1323754011701257 0.4767838527104769 0.037006946510069985
0.5922879043496072 -1.1352900770217793 0.448955292521397 0.03925791180852379
