x y z curv
0.001921187213702478 -14.849263184465658 0.5314601887275694 0.009167707861357375
0.01989256827892099 -14.920423152738664 0.5208298233861662 0.028283075466328685
0.0034013327813634305 -14.88615307624089 0.5465769734283562 0.011112201676577196
0.013727175129623882 -14.899619989782465 0.5401001378082523 0.017263743316863638
0.006372150002344684 -14.891047783714326 0.5283516639590559 0.011510056201340753
0.015448416154408656 -14.919010920440053 0.5363233219251293 0.020650830200879173
0.043006786981018806 -14.93793540302116 0.5341717180151405 0.03759773138786155
0.053573130913809455 -14.92898504407329 0.5366434481588982 0.03033557310733076
0.03935173811812209 -14.935002456435198 0.5477743335012971 0.01846456992413118
0.08359577617124057 -14.937298143325267 0.5404153120408297 0.0014120955168106168
0.05391238729383658 -14.80058449842827 0.5249704699426873 0.019283337356151915
0.031213552732779225 -14.813505260180639 0.5175262266039614 0.02137877782416675
0.02575610166390356 -14.816048777547776 0.5341452242402134 0.01619855872919237
0.01577610708192169 -14.829403594989772 0.5394377959520068 0.013079706397037504
0.006179068926945313 -14.845758501968982 0.52086736287895 0.018878685539213107
0.9715154871571332 -14.86877045940991 0.5233088638789243 0.016317209808258442
0.9698479622364472 -14.879406784794108 0.5427511703099565 0.03373045720132411
0.9713126603624294 -14.858837367476651 0.5346465039245543 0.017215061744041683
0.96259871010868 -14.84120960956122 0.5286590051718281 0.030007773534998373
0.9678773654383264 -14.842598945991876 0.516074955130185 0.01763218310102005
0.9648488280481052 -14.839572161355226 0.5236450739369805 0.024963367366537054
0.9643332613828826 -14.833350306560074 0.5273892495059082 0.025180002762235882
0.9619346295467813 -14.821451886440729 0.5217770385904439 0.012045365832925412
0.9417395396030958 -14.81162809576879 0.5417069989299462 0.028307789958590138
0.9173635713204371 -14.805208665385127 0.5388243936330923 0.018610632198781844
0.9072708211178769 -14.94645203341613 0.5288976901086186 0.008199240116781137
0.9542408489096859 -14.920750132970172 0.5360793759237391 0.03507269417043325
0.9430869403971048 -14.931048904437228 0.5382627968343957 0.03675269294348308
0.9641794691186462 -14.909158858470144 0.5326299053183148 0.027216161794638646
0.9755834334384291 -14.893085096759384 0.5488199068445873 0.01918901729175372
0.965537380846603 -14.888654460963489 0.5335137293361705 0.027570867044627727
0.7351666538488717 -14.449636433498561 0.5245199445345573 0.017674428724978288
0.7145938638438517 -14.438834432393994 0.5398987179598511 0.017723591013611036
0.7298381941167105 -14.56859022880961 0.5309295008122069 0.02750134324234896
0.7211909344979359 -14.57865506065599 0.5281572471450929 0.027619179268830403
0.7174527206944018 -14.586928601683578 0.5311121103593752 0.015403490827106849
0.7635636800167754 -14.549015519785797 0.5395198671673315 0.024430833161366343
0.7388316539751013 -14.559899756078119 0.5318165021248797 0.017389939534018257
0.7621243110110955 -14.531744980597974 0.5434615076338969 0.06676354360839766
0.7614188217157966 -14.539439875321369 0.5394433451589923 0.043053148902117686
0.759373272184031 -14.511681760568642 0.5289027631802979 0.039092135675291045
0.7571270955945951 -14.488197353289047 0.5264542985846941 0.02128334792231755
0.7566160928025866 -14.489952676245567 0.5269217541237494 0.021232937508468674
0.7681407778536335 -14.512476082677908 0.5398222572899714 0.01596650976121798
0.7482908962354341 -14.460937614239315 0.5178719821935569 0.023855641771638045
0.7515716619031293 -14.47531127781451 0.5355331100292829 0.02441766887645014
0.7602389037359385 -14.48584777945105 0.5326568661978797 0.019972095196278246
0.20870325001526496 -14.47382539854761 0.5217634379615841 0.01580227797286198
0.20805049556965907 -14.5184926079453 0.5291268219006522 0.023227004965098587
0.21510278955735732 -14.496034614788009 0.5360272494644206 0.028657645395275638
0.2057385789318635 -14.492321887331382 0.5234946681550766 0.04218937684885437
0.2114889106763999 -14.494784678767944 0.5311440757820973 0.029939829238899793
0.2117127762141382 -14.52554091443944 0.538890430451357 0.009422221187253992
0.22744140012631953 -14.55186941649467 0.5306022321476795 0.00851398285501623
0.22800923863519723 -14.550938153944266 0.5484694838872447 0.027103558214560723
0.24778913332193023 -14.575551589960632 0.5194195806089102 0.013264950980331305
0.260857296359567 -14.572928788083573 0.545390471554135 0.01728321620245919
0.26697796205862595 -14.578656289331548 0.5287504178691481 0.006013445373855213
0.2624943064326265 -14.437656024548916 0.5322216240322989 0.0035941321546257635
0.7167899291163802 -15.296634190225033 0.5189221804534927 0.02276980439674443
0.7214091787115161 -15.289879287416907 0.5401188610165281 0.019511145487191607
0.7420342149116919 -15.291966202172926 0.5236321723777365 0.01362288668898762
0.7560720296219807 -15.267011980092418 0.5282006408577176 0.020866016403118224
0.7600330579656756 -15.22904317701795 0.5329096066162659 0.025322319292437053
0.7633856071543784 -15.232831421464399 0.5406940246827496 0.0256568995560746
0.7578300844525782 -15.25212307166289 0.5214046046776498 0.038042190311848155
0.7593457754588512 -15.203593364792063 0.5307626569867434 0.026815706619460537
0.7547104998224745 -15.21819290818473 0.537293163532128 0.021127474239493755
0.7564228042612292 -15.19950222054766 0.5287609207336207 0.041013286326724185
0.7499209761486096 -15.18402260721831 0.5202443399012541 0.04840459851283713
0.7527934451776396 -15.185380789885293 0.5237283476395297 0.050525667703600834
0.7407782428031066 -15.1766928407907 0.5333639353838251 0.03667943909286306
0.7510568139722025 -15.178270391136463 0.5510486946672737 0.04464675642684669
0.727968791314329 -15.172455306236838 0.5246366770491893 0.021191702198759325
0.7342049526116776 -15.17445978461455 0.535109100066363 0.030709676871185948
0.7040104193074541 -15.162829236507225 0.5322395675252533 0.0016151609459978664
0.6907041634119808 -15.155965628947108 0.5433591623103992 0.004212238741520297
0.6210868396096724 -15.223019626702786 0.5417537314174113 0.004872706215811876
0.6352311836203021 -15.253840280915638 0.528249566377114 0.014786253215746859
0.6340179280997181 -15.262922427820397 0.5382246164835954 0.017261785316277756
0.6465273225234883 -15.274828552615773 0.5358062914514784 0.02250119270261808
0.6497736851926643 -15.280157196342017 0.5375193819565476 0.02090885961931084
0.6521700499460714 -15.282433867408376 0.5226910471129204 0.02051686208684751
0.6886605672025649 -15.304596562643939 0.5254945068221262 0.042804670020071905
0.6607538890103155 -15.286764015843305 0.5233803096148675 0.013244293514703336
0.6718249964632385 -15.292598652552167 0.5425188385793129 0.054743968150847325
0.6743467373274741 -15.296763852807766 0.521878808151041 0.03223131739316651
0.7050872647042435 -15.29505302908435 0.5272364256792381 0.03290254449167976
0.6938063018783296 -15.304427968133707 0.5285104267132144 0.03864946280055776
0.25422114731697604 -15.297204216054789 0.5151816962969455 0.024767791636746837
0.23830207945602352 -15.29357745590103 0.5220043310132242 0.015705792530977175
0.2863000039610754 -15.301940782827453 0.5155282267062473 0.017653056892008336
0.25376083613568406 -15.299745463112645 0.5303653466801789 0.021614493670178272
0.2735741895928379 -15.295553648422922 0.5412399431851014 0.018281102202163845
0.29500684875747246 -15.298907058730533 0.5210968721704428 0.018538514267198453
0.30649239472938533 -15.291179680761847 0.5331591683956965 0.01570714295069745
0.31530368154301047 -15.285418980467876 0.5205212252543235 0.02251765287588538
0.33037211180449816 -15.285496498860688 0.5442477803919634 0.024749249526849468
0.344207333198013 -15.255139484464523 0.5283186462333797 0.0030971039863324328
0.34418031522844145 -15.249365589497467 0.5375532234631843 0.008162118367115792
0.3429038912013674 -15.261872133705733 0.5295416750855337 0.029810771990875062
0.28062944439107845 -15.15929020938483 0.5205653853094683 0.009986261765851403
0.24032621917471708 -15.174259788453679 0.5322396937659244 0.017288046349267214
0.26848128687305234 -15.160972689944431 0.542682788975593 0.023281580626831614
0.25892599023146967 -15.169966585909286 0.5225153217436004 0.018285312871390957
0.229419297300127 -15.191768536958323 0.5237819898162601 0.028289563459958658
0.22723420280086137 -15.186681596649215 0.5363070574691962 0.035017640033149784
0.21096085663002082 -15.22260475587378 0.5280841399492063 0.01741088047876559
0.20820742660206484 -15.20941521860782 0.5292099897418565 0.010331560013108677
0.2078746609991174 -15.25556980012943 0.5264455931381166 0.01324858326990856
0.21617642222645467 -15.232753812612488 0.5429065306152446 0.010789197960460866
0.20851313817341163 -15.236671810742694 0.5097634878125039 0.013528701143268249
0.21929335807217198 -15.272131467299245 0.5387634433600443 0.021032153536727157
0.5318831572199758 -14.509453825058756 0.3877398070998106 0.0072653904217832325
0.5527120100897964 -14.531572026974175 0.38748371107772667 0.02066506425472224
0.5421686414775729 -14.517758131112444 0.39752718256010133 0.009373894181014733
0.5504761430922902 -14.535834631892085 0.3833213862624196 0.014692533845688133
0.5594269484998011 -14.542381634469429 0.39654605646335245 0.00890216451864394
0.4241310441778181 -14.538499813013788 0.3942547885027616 0.020535837718484874
0.41294102643825326 -14.549099553855232 0.38598123661276285 0.019217295146843075
0.4358787474416277 -14.518817745477483 0.39277446318496545 0.015129607729455631
0.43673786800575953 -14.513339587818857 0.3797630838531431 0.021415704333180314
0.43762549674672824 -14.512046391291209 0.39555914068943104 0.01858817064829935
0.44756111275967053 -14.497203533023384 0.39062470579918174 0.005577486773177673
0.19947197332947583 -14.785297393420835 0.3834852247825037 0.011211931742047723
0.1992441362319237 -14.790806203477452 0.40442181802027855 2.4633869558998332e-11
0.17128535624078864 -14.758860998397061 0.3748796942005977 0.018291671138357328
0.17264678631741007 -14.774945168645118 0.4036256838380207 0.029033575833061074
0.18073299169439944 -14.771323469307653 0.3930487418480637 0.014998208785183655
0.16702198460082895 -14.754976607232274 0.39151674752290744 0.030290801839625656
0.15564738311125803 -14.744395868446246 0.384680477342742 0.014386218787631511
0.15317451115878064 -14.726106315595542 0.39706613084446846 0.023424086744165754
0.15467969618708124 -14.720618770710404 0.3816204419995493 0.033555848772117966
0.15380625207597223 -14.693714320166624 0.38752248172521464 0.0167871701358647
0.15171875523222106 -14.71155873270823 0.4030241183539175 0.02810335052783921
0.15596535896325228 -14.72723909821587 0.38144653114952976 0.029523475425863862
0.1731326823330253 -14.662966911238229 0.4045283034517675 0.037090374545824895
0.1781759815274321 -14.659983147969655 0.38763591095399247 0.027720383105041276
0.15847205569390121 -14.67151421740832 0.3947880365042477 0.016922549655359442
0.15934262991351633 -15.007180279920817 0.3942673544578666 0.05112956556454442
0.16924839095157487 -14.983364770813534 0.390731476982358 0.034530096867704606
0.17238275981330217 -14.987406146691923 0.37706443940781076 0.04097423433535517
0.18406465800280786 -14.97103451783242 0.3841682335532393 0.026788170824479124
0.21291686716467248 -14.954457423531625 0.39121868696995876 0.013941623768738138
0.18760746786844368 -14.962814496953653 0.38769761156261073 0.0337086518229083
0.22365590871223465 -14.95441304769429 0.3797770478351281 0.003652074926537338
0.2737367924302919 -15.081988590773861 0.4000680185059606 0.0013771802740886574
0.26861072013841597 -15.063453203777305 0.3797135537324701 0.03230967008695556
0.25845411560475007 -15.07518722743796 0.3819866653054003 0.04715255957658788
0.2890784730184694 -15.04247302418406 0.3958236261664146 1.4160620634097982e-11
0.2248090202810848 -15.089911952025858 0.39242006644712935 0.03711654052775811
0.22945303387610308 -15.087507893900591 0.40091226769054494 0.032767010389559106
0.24493387140975903 -15.086370687841676 0.3948273931004109 0.047415805240784425
0.17874557413936215 -15.077898052015533 0.4022323002209698 0.03892338845558841
0.18118190078311694 -15.092993401676766 0.3853428148938358 0.03412762908021122
0.1514080307328496 -15.037387925979731 0.3833762398110908 0.038008156460875756
0.15670624166524083 -15.027949437402583 0.4083831661831287 0.03405251505837726
0.1526419083598381 -15.035459446012478 0.3969057126323741 0.03591930185863937
0.1489113190804836 -15.025740772148046 0.3858631449556529 0.03320215135611118
0.16244029922357 -15.052691612684255 0.37929528988895284 0.030056371917467732
0.16748163345984496 -15.05719144096396 0.38818432926001856 0.02944110810704994
0.4475676449815806 -15.229819810985083 0.3932347598941947 0.012521539069422482
0.4379489423665454 -15.225248838958956 0.39790903297142177 0.023896278349942925
0.4394249376425056 -15.222583186931832 0.38057484065221925 0.017315750758190043
0.41911686187624636 -15.191532325613787 0.38248075055121905 0.006528247010143571
0.4165442485395844 -15.192951442284695 0.40325385609480335 0.02885039632819043
0.5249709144675002 -15.23124583702097 0.39403628875079066 0.023285680851387585
0.5426311536252101 -15.222367890740578 0.40028276920575123 0.021428118994438874
0.5432023706842154 -15.228781329757851 0.3821005292211347 0.019469799000049307
0.5172422846756148 -15.241076345828091 0.38161840175801287 0.025440619487586007
0.5095287823012005 -15.24743124151657 0.38600305229654924 0.026930235239796416
0.4576298403021595 -15.236580552608695 0.3945679640978877 0.015536133300241773
0.4581470901728486 -15.237061350453953 0.38994527822617614 0.01256947277395725
0.4510454294856107 -15.234366427542623 0.3976831030217307 0.013798893264250926
0.4714710538830127 -15.245238840499168 0.39397828297105164 0.02176531867921255
0.4962600779368351 -15.246098425971761 0.3980947352416925 0.03415983152182785
0.48420294253525753 -15.243523357617741 0.38901699296801706 0.024541273939634827
0.4927438992956914 -15.251873303547903 0.38719450545634704 0.022945983239506827
0.7669799335608809 -15.093285445511945 0.3916602052273071 0.016269058445985536
0.7539594509758035 -15.093547934221984 0.3709385192304647 0.03331370079721132
0.7250133383268974 -15.086506741345898 0.4000214306096696 0.006220244214903961
0.7317330615479241 -15.088460341583248 0.3874244385154766 0.016710172091217203
0.7486476594298438 -15.09649474376057 0.3914377077566125 0.010667922293072512
0.7035577561999893 -15.07515550850641 0.3828418473339222 0.01286798640976475
0.709832357616049 -15.08147243563659 0.40133695409655656 0.011304187708340206
0.691229144363677 -15.065360585844825 0.38912095278824743 0.011450324822654874
0.7594809986429463 -14.953090526210739 0.3847113301521225 0.00016970334783186715
0.7903851702558343 -14.962929553169483 0.39551057590934735 0.05980120008881562
0.747484496818966 -14.950837434615423 0.38920834210038197 
0.681718987273599 -15.031071277106646 0.39385011134518966 0.00014508299832710663
0.8040926394595772 -14.98223006540824 0.37999717396396143 0.02146231047969479
0.8033384871164179 -14.979440643323258 0.39191462750393824 0.016924150707119934
0.7977264036666064 -14.970668121904323 0.3849824915512665 0.021494315905362205
0.792525329029421 -14.964489385248397 0.39547389386173365 0.05863631092836297
0.8066222920471611 -14.971569927392755 0.39891258463709334 0.012189707838866986
0.8121209857258955 -14.994095138718361 0.39250218363049644 0.02335522939179803
0.832982655294089 -15.007848093796262 0.3899935878072368 0.013123926507865298
0.8112998579882299 -14.995771721171096 0.3896579663242614 0.023283723214367842
0.8257857544061333 -15.016996759116859 0.3892098358095278 0.03641860621934582
0.8235522824685166 -15.029870004778333 0.38163800509696255 0.04591815654185849
0.8244701300344662 -15.0365225099031 0.39193584945311566 0.0269089811738982
0.8069316916132654 -15.082311627678541 0.38449373528337866 0.012174044292534235
0.7965743034297211 -15.08606740384636 0.37869303588904935 0.028139525411313294
0.8138809862018358 -15.065200442648662 0.38023981533087087 0.03158540780366588
0.8063307766763582 -15.06564956916358 0.39340200824916716 0.02935093605679354
0.8271544111457985 -15.047830007304235 0.3928987768886526 0.01183764006362399
0.8142863321130764 -14.748140116837222 0.39115542407914217 0.038432587242634715
0.8186729993321891 -14.731854629727739 0.3899649384783118 0.008913353718469678
0.8191753760991952 -14.7361041418902 0.3947973690136495 0.026135884556010187
0.8003692433748271 -14.765168036176043 0.40568071572609926 0.10236386643555397
0.800314307518093 -14.775332530876051 0.3969052378433618 0.023145553611555673
0.7725149204855647 -14.779224197953367 0.38687184556772436 6.571152187220981e-12
0.7601842808310807 -14.640807433668265 0.3857163049786991 0.010402335514768503
0.7685472746792198 -14.644627431627992 0.3925415658111712 0.006739946833002886
0.7840299267991863 -14.64946985123287 0.38377753922449015 0.0049392593934445995
0.7965190335930168 -14.665742756815952 0.39462470306225156 0.03432506411308886
0.7916008845634367 -14.658760562077907 0.39148740478393723 0.022169664571796966
0.8234022254727107 -14.70759313907641 0.38371499215418375 0.008568463692740691
0.8161650366695994 -14.706909210991265 0.3980882927987076 0.012902303496765508
0.8160725772004428 -14.714039552412382 0.3805984357264462 0.011862524831756581
0.8093835737874872 -14.67531158551439 0.3745448533412365 0.017603294079411427
0.8167590662227554 -14.69931707221889 0.39123502173243485 0.014740185437980814
0.8094409290170609 -14.691216156623442 0.39421459211099563 0.02218277398699562
0.8075230303101847 -14.678549108851122 0.3882553298458588 0.02322917563596641
0.3370723677737253 -14.857725679184417 0.3525983748067085 
0.6143539751040984 -14.994166619978383 0.28957515296870107 0.0051037009207927485
0.6540375528968511 -14.880767963956174 0.35771020709649104 
0.6601963547983956 -14.881972528691438 0.30998740430303956 0.0422764461148442
0.3968721821966928 -14.751678664379357 1.4211747064848463 
0.38365264060971094 -14.723326434878334 1.376646813013072 0.03807713834652931
0.4198328398831262 -14.96725432640247 1.4091221544572146 
0.44473435044224463 -14.981360876205152 1.4053535080409179 
0.40483356827356565 -14.985775651539694 1.4161515074751794 0.03802329637882462
0.4258370192117404 -15.010849270757241 1.4033585622625366 0.0735074571800287
0.5573902458298651 -14.972846185675495 1.4279450775065818 
0.5669333889035598 -14.976909714678557 1.4086634076775524 
0.5587570470001493 -14.77636210676777 1.4249984971517904 
0.5643597261619128 -14.769293774096324 1.3980430001632027 -4.3664021957604135e-12
0.573725606580684 -14.74698299194242 1.413884986192394 -5.6354205594061925e-11
0.5850167666408802 -14.730098626227296 1.3699991780339338 0.03572087625439365
0.3066106783772227 -14.855371027798686 1.3595285725292434 0.05386528013519447
0.29774070321122376 -14.861044416675464 1.3633918142114245 0.06634001600916509
0.7691725502758361 -14.723632287040157 0.8683401349403669 0.02291191814332391
0.7603442912765512 -14.704278583943799 0.8731544577445081 0.018130711799341736
0.7645736880100094 -14.723989343498612 0.8802596187225382 0.025460321115443593
0.5262979671291176 -14.564410589577841 0.8730277305949987 
0.207888894364217 -15.030065647757702 0.8718333137760538 0.014981143431565631
0.21803482663194335 -15.046084111563854 0.8674274129108922 0.009242191989370948
0.2153007059536757 -15.045326026645915 0.8630197670155522 0.009423116075063446
0.4577425175687338 -15.167062736325066 0.8827835349600126 0.009484569647702834
0.4670184642113498 -15.175012035427072 0.8739996989291742 0.01632506832167596
0.7613342999166924 -15.037154613804283 0.864973455085734 0.051116248354716766
0.7776630552310232 -15.017718119728332 0.8805942074470743 0.008563860543594736
0.7655750537342331 -14.986595574741957 0.8753847525344113 0.006527602665512823
0.7258754260301927 -15.053772459997337 0.8706728297837311 0.009557998638922954
0.23181925735799505 -14.776341709212948 0.8747850303659966 2.4132066303950545e-10
0.0711681928099944 -14.88877324643507 0.7073320174360563 0.02516621183854829
0.06644178351607646 -14.88247712525014 0.7217947908687506 0.055970045724893065
0.06797172063635702 -14.862516799614546 0.7176851656213907 0.05375686190240587
0.06694445101631888 -14.869361670161862 0.7321248973764639 0.04056559596262147
0.08383578357904808 -14.888790804268892 0.7305508766752151 0.05788540516418926
0.07632603590247587 -14.880259821552519 0.7326888561725995 0.05281002528422449
0.08669996280940243 -14.856844796610591 0.7426325672777202 0.04045358851604219
0.09290183857456563 -14.88634398290987 0.7369521268284907 0.03548059032960003
0.0934067999055953 -14.879676555966205 0.7597805635003403 0.024174390133148236
0.105429511001388 -14.853613324547771 0.7582867658975323 9.03365420190277e-12
0.10367225770043385 -14.862705364879616 0.7658901670603043 0.07046804730154979
0.9143485172938737 -14.85768016953147 0.6933757221400036 0.01941128778952395
0.9083796121165333 -14.86541373536151 0.7000903578516761 0.012631279626454722
0.9051564452791011 -14.877253922883611 0.7148518645337729 0.002989675522209402
0.8949258815166937 -14.884786711820883 0.7180624218014284 0.015251761036370182
0.9020400944667067 -14.860268935377826 0.7239569714287823 0.0108219268328968
0.8905604969441401 -14.877755610459774 0.7307363263377551 0.015219500256779985
0.8849593913283282 -14.886213008330722 0.7286366369916876 0.009576264842078594
0.8882429922209907 -14.866511983495249 0.7461172249234422 0.009163145470314047
0.8857689375007676 -14.882328722666069 0.7309498619081854 0.009894481668074774
0.8959882464417654 -14.85727028089724 0.740451975627711 0.005259771762009831
0.8842895908586722 -14.860303364730749 0.7530154211855317 0.01179171669222664
0.8660008709218736 -14.884519031014605 0.7466565858652711 0.003781591238648958
0.8735517016198168 -14.869599742249573 0.7638032674631873 0.0019466237772599872
0.8400871659986351 -14.884185747581586 0.7748088280281296 
0.7090101037094798 -14.505143701657012 0.7082467396601413 0.02327032441787153
0.7084040109318156 -14.514532833386092 0.7156197686128936 0.02135669302029504
0.6941570875163654 -14.531130199784664 0.7156635000028289 0.018325445143830853
0.6927645202686956 -14.524768733641162 0.7330069254607382 0.016883440532646933
0.6922879628784321 -14.534038640865749 0.7248327042478654 0.01850791505347914
0.6914167796700297 -14.512572139308228 0.7505309302685793 0.012928133967888356
0.6898802820253795 -14.534832125723781 0.729767648285765 0.024797668037845118
0.6955030319846158 -14.526481867213397 0.7511310872908679 0.01938507770104972
0.6954725519188301 -14.526587622424763 0.7435440969537095 0.021031683523954497
0.6874234916279486 -14.542871845694576 0.7466880264958716 0.013730657518454472
0.6860064855291761 -14.54697906803859 0.7566133836008122 0.011946041475978341
0.6749730964751627 -14.546489975588225 0.7677875527871261 0.004487209580161932
0.6783676419048812 -14.55666697365176 0.7373456287608455 0.007435804161493072
0.669554405639946 -14.57269299990031 0.7471739525396036 0.011457874177525511
0.6717762722467465 -14.573763914002946 0.7664713175017475 0.018044571629054727
0.6702725552407627 -14.574790811124258 0.765229744106979 0.021314835013529952
0.6668416434996873 -14.581412911352363 0.7652251095449115 0.0208077935045543
0.6604119733530094 -14.58049421978579 0.7768882167965119 0.02049801214950238
0.6587761219150114 -14.587160353613038 0.7762896851243573 0.03126408526094317
0.6568865638157522 -14.595603371394535 0.7522591976428376 0.016689102903133475
0.659993208392101 -14.610432294005669 0.7737912662574886 0.015367389820843853
0.6544107610872001 -14.601098403813884 0.7489858887438017 0.03987817483970774
0.65299582161378 -14.627025643615795 0.7401445309769618 0.03720082661034449
0.6485976600350329 -14.628225480504025 0.7613679756746846 0.0018435105423288767
0.6494760903656074 -14.631893123842008 0.7359930609251369 0.035360430762150376
0.6294284148295565 -14.62053298330327 0.7258930321580788 0.009536521567690887
0.637205006578421 -14.63360009654186 0.7188050728634041 0.04350046854141827
0.6280343142561656 -14.652275703472004 0.7194453637307386 0.037990145352763086
0.6263439174033016 -14.650743420512109 0.7103594406908889 0.0345450591619194
0.6226465716296341 -14.63925256615872 0.7065712218938572 0.032362823027682806
0.6095927175136382 -14.674228998385999 0.7156518944378566 0.025115026691319382
0.619517994530959 -14.661819650764503 0.6947105535262444 0.04341645498929046
0.6209665515746251 -14.644017313974617 0.6900107372355405 0.0351310454136475
0.6132014716984302 -14.669794607549948 0.704675811681836 0.04620602097143923
0.6138054438583243 -14.681108016946881 0.6759166914175544 0.0736214456055524
0.6144139740665019 -14.664505309255114 0.6901710802480427 0.04525938295581318
0.6199624642967685 -14.658705766932759 0.6698070531449032 0.06483178544532578
0.6236934550987528 -14.647490658476581 0.6898929232464917 0.040174302527622184
0.6073698274359541 -14.651994849088496 0.6756014483775182 0.01860667902205855
0.6093592605929109 -14.675346923783186 0.697510602652951 0.04637303404202126
0.27510083022683146 -14.500642529496641 0.6993746889009113 0.0128916260751858
0.28892848200832366 -14.541131620294328 0.6972539299439761 0.012304601814003899
0.2702814339743159 -14.523764969339688 0.7081724523333469 0.10341467592617898
0.28756725686125617 -14.506651233281463 0.7313534722209188 0.0441903317109379
0.26863548938904924 -14.52683629752034 0.721812522404993 0.05754296819051151
0.27678477253467193 -14.518713475155 0.7407152446506912 0.05566674191303804
0.2849579109526228 -14.537365615130938 0.7259581141778019 0.08559090678936974
0.27550483132440684 -14.53060132317666 0.7289756753668665 0.07904061551750143
0.281334060726418 -14.529666587546576 0.7401831695318468 0.052742893055367945
0.2861281575022167 -14.53955804534061 0.7379745422516908 0.04620279650769254
0.28575020424130776 -14.549937581016529 0.7508965078010243 0.1158715591159387
0.28938390180584106 -14.527846706579032 0.753938347781796 0.059047892275654885
0.29528493394774025 -14.547593807651346 0.7401615362627436 0.10498529924559596
0.29432974958622704 -14.525480751539183 0.7601493465355785 0.06968736884676384
0.2938644103605211 -14.54306096449771 0.7681539459327092 0.10111608673847962
0.31695999867112196 -14.568940286724905 0.7477306744768059 0.03865494236397315
0.29910883694171636 -14.56475213934754 0.7527746577274654 0.07662941061767331
0.28160412182833133 -14.57081418698172 0.7627468858702899 0.10290704500287909
0.3178718293401955 -14.585549123435438 0.7755986897408746 0.010759508257688984
0.3053823622373673 -14.587631165960312 0.7556536059568837 0.05752270013899089
0.31918575300594415 -14.591027473865998 0.7526569190917944 0.07012128747291449
0.3186352244389993 -14.600537830870929 0.763783197098538 0.07474121182082819
0.33896819851436283 -14.596674172708274 0.7469897225696831 0.037885676101913006
0.3223318901513208 -14.59626976339736 0.7566969022882086 0.055934121728198054
0.3275024308990533 -14.611058147690791 0.7606138996128723 0.04907980201472817
0.3332720042703872 -14.62150935335027 0.7534285008824473 0.02198186603522213
0.3329913044866145 -14.632749198971212 0.748727903359049 0.04270220609163401
0.3454632202261437 -14.615974598759095 0.7338332465012051 0.03467279169639234
0.3430559823168653 -14.620153345541747 0.7303884977859452 0.026056995858187958
0.3424076051658503 -14.64014176309798 0.7393747754346657 0.009464873922778594
0.35369075038970393 -14.623849665412985 0.7150417041542364 0.03764032390552646
0.33779079047619215 -14.644425342329656 0.7170533226468148 0.010461045811177867
0.34420946383143547 -14.657766272747365 0.7092161163252633 0.04707147604839729
0.35713516161162046 -14.647015759699567 0.7009369898505722 0.05037788128122447
0.35674823962540964 -14.66578266069386 0.6940190451308208 0.06709542787137462
0.3695386488548698 -14.646132190403407 0.6797054449641561 0.037586776822284465
0.3538143595814718 -14.656991257369445 0.6879006900155757 0.07624056941941898
0.35024240177134996 -14.66896725993831 0.6767664951031319 0.06765694021861175
0.35984902262307106 -14.671325166161138 0.6936801826925965 0.027019509842581082
0.359103017468546 -14.665006716772922 0.6577957703367591 0.07513327132144751
0.7105262753685745 -15.228862758352179 0.7029899259613703 0.02726274908062908
0.6928547637708417 -15.229177780938494 0.7227786079426155 0.07969961719845702
0.7085825968257367 -15.214233767301874 0.7065933509615504 0.01742650057776345
0.6823930187030798 -15.232053964511875 0.7257456860140756 0.07256552896559013
0.7034854339722748 -15.203527670550388 0.7129545043363773 0.07237579138019841
0.6758391406609449 -15.225108174892895 0.7271901587158763 0.14559736837543488
0.6855215018266879 -15.22719258975479 0.7349758856400376 0.1191923122577154
0.6934197262590673 -15.215320223190876 0.7308029856774027 0.10325575024411647
0.670650199462714 -15.2146252279051 0.7339366222865868 0.17658636471763733
0.6940060667738457 -15.202132199014812 0.7443299266386493 0.1000815806211176
0.688818583517259 -15.212125968487344 0.7524813443153583 0.1331782465102758
0.674598165425716 -15.22176140982342 0.7480837323471178 0.1429046558146434
0.6894905807380323 -15.19411313353655 0.7323450738555187 0.13549401678130996
0.6925304799985189 -15.20488417094714 0.7549750005267235 0.10635627035793792
0.6736217029845096 -15.213543536950821 0.7560809027018093 0.16415770680810282
0.6935948637593254 -15.19520410091796 0.7518116932101182 0.11127920930209102
0.677293554984375 -15.192060534165797 0.7328513186313926 0.14221164027773675
0.6665790310897299 -15.19965270108919 0.7713432338496967 0.09974951554773982
0.6542110698683522 -15.186706437173354 0.7415272181832544 0.10313086417999082
0.6761889884127443 -15.181708663063388 0.7449942539437254 0.19055288799366862
0.6741986304699703 -15.175745539607643 0.7687778068949346 0.1337303995162228
0.669246209410056 -15.169457196457678 0.7496682523902766 0.15072886116491108
0.6769110427687868 -15.169310680664125 0.7573994781576592 0.13045161075314643
0.6560608639388842 -15.188273734605124 0.762720139803894 0.18269507269416194
0.6482969421114587 -15.18019133607793 0.754289941463465 0.19199158041548425
0.6773350302408437 -15.156832416977185 0.7534167831162838 0.15077106049101754
0.6631216147534061 -15.152702794255202 0.7726968700924427 0.11584352975553532
0.6487345473044532 -15.166987319041377 0.773922803560812 0.09385646506265678
0.6621028454542116 -15.143147715819405 0.7410180794208425 0.1097851336682032
0.6316644219346401 -15.146815860925797 0.7544945338460355 0.15839070866571653
0.6293953376737326 -15.146901406971843 0.7473630201393067 0.16084794319397783
0.6598407134149292 -15.141060678615014 0.7590646184668407 0.1478296400825469
0.6581844227961088 -15.130047695616998 0.7670178487661116 0.17315686256416588
0.6332389287855698 -15.129709311887217 0.7785639224601486 0.05138109605375926
0.6468426984134491 -15.125702555223121 0.7590435094101676 0.12915875966269943
0.6236785911605928 -15.138844635569537 0.7561719460368025 0.14772154802845777
0.6212448151165626 -15.13535243173644 0.7509464971882972 0.13691735126317892
0.6372057867595076 -15.114744522113911 0.7365177317747825 0.09079478599683144
0.6167908009851479 -15.124376752051955 0.7496505020240607 0.09905344980496125
0.6439942434479229 -15.129386849735972 0.7469562229607024 0.10960481187356591
0.6377542028439386 -15.115223855606176 0.7326093248468802 0.09193537605852094
0.6149478444370232 -15.119241667171684 0.7510007044829033 0.10630077787635185
0.6172618473755417 -15.123938152859198 0.7389692951880181 0.10096245822967999
0.6342634400503409 -15.090705987334387 0.7327603843052218 0.14311956372454454
0.611840465688665 -15.110151933739383 0.7404907658653237 0.07925692506880036
0.6190013282959146 -15.114264972519225 0.7193906964602474 0.08782663246366176
0.6244131888584035 -15.111150799940946 0.7170817937961276 0.12599676260327664
0.6311784499579041 -15.10571545659793 0.7180382728529014 0.11588904067479353
0.6054647683218416 -15.108661310038405 0.7249697823515864 0.13716936542704802
0.624921672953467 -15.085914396349567 0.7139618445930345 0.15567496062286676
0.6200239816183112 -15.072339067674955 0.7227086205938305 0.1893208022183758
0.6113091836490949 -15.105504091006987 0.7150086258011379 0.10901237933364763
0.6158468992510701 -15.08762911889844 0.6854224322775659 0.16021205782939735
0.6155894959364457 -15.09608245322532 0.6982723023631369 0.18257724032611908
0.6183511841710867 -15.085662663337105 0.688311765702111 0.1623997978376256
0.6165181314255985 -15.07556235173319 0.7069438261963185 0.18877472891798003
0.599103650736192 -15.088301144923623 0.7184333142259486 0.1817022105286154
0.5969358413301642 -15.088114986155498 0.7101850713592462 0.167820886073028
0.5870331782334967 -15.077854509006785 0.6752624507674565 0.07313322581326265
0.5945769406142831 -15.08490427028918 0.6888443695404417 0.1571081980523025
0.6012374179347719 -15.08973021042041 0.6747990180748219 0.07664009998951485
0.6176244055239944 -15.079387973194564 0.6849438716068524 0.10641017686379757
0.6217055853287936 -15.077557838908582 0.6892278264933218 0.1768844516459251
0.6064303731041264 -15.065770643881244 0.7118945565573787 0.14403143166436444
0.5853507047514649 -15.068459156029768 0.68852027204047 0.09258222702092654
0.5844468791448038 -15.08154733022691 0.6637769630685049 0.05115099524282434
0.5863073707673768 -15.070773815865339 0.6479918353006523 0.020609000984285572
0.5824517430234801 -15.057227442085416 0.6332567898710254 
0.2803440144711306 -15.234580701205163 0.7012807739172651 0.07468947507937437
0.27353580949642803 -15.227045125998025 0.7192157785847276 0.06411703501799886
0.2974527744742334 -15.2304277868311 0.7117755105865367 0.09924494814245109
0.28538361303861515 -15.236230403121683 0.7154611841990194 0.10940608974272192
0.278352536956604 -15.224949692313515 0.7244478782438836 0.07185526914815542
0.2714511786678705 -15.216828215616239 0.7225394291659779 0.07275927075335027
0.27734991792994546 -15.203421559599427 0.7170348027440189 0.07848848724443158
0.29590586307138333 -15.225137172000233 0.73020480433267 0.07195820628032727
0.2913354090357642 -15.227047442635357 0.7369524361847137 0.06603991163807779
0.28154889954595386 -15.210948910297638 0.7456154481805839 0.05158038749260637
0.2754399626873193 -15.202162436460085 0.7384822658064886 0.05886595498801613
0.28198458093248496 -15.216859367441431 0.7571741761910749 0.03946950874733019
0.2806684173868486 -15.205585403564054 0.7457463802945195 0.05006551574990078
0.2991787004328457 -15.201295570643907 0.7562925203493511 0.14259179699548277
0.2837787572910593 -15.19417906904176 0.7554659103865133 0.16620851090419045
0.2841679067294996 -15.182665672570923 0.742842241596995 0.0860260303191473
0.2930403252511658 -15.205861456518898 0.7622392738773938 0.13580880015294822
0.2940577670838136 -15.198379886895184 0.7709658071884009 0.15281330660352513
0.28708704718090894 -15.18779865227875 0.7644424830403407 0.15168335889225182
0.32078095437975684 -15.191882303680288 0.7597565264303338 0.1366604777579606
0.31417172308323393 -15.185921582912902 0.7660576929448975 0.15679482451318774
0.2944272682586524 -15.183263645305267 0.7730833463086655 0.14590953234541687
0.30595564740381476 -15.174641098232797 0.7438337484320537 0.11824569120625557
0.31984894378184675 -15.178162067332254 0.7493490745813243 0.13575420772077046
0.30420577171181046 -15.169149239661719 0.7708682859083972 0.12114499168951844
0.30258124156035116 -15.170619250636996 0.7645108446208395 0.14006270268929713
0.3355975293725325 -15.168882966071475 0.7646072961001789 0.15463499085731308
0.3028586712003704 -15.16148887827468 0.7762552185180092 0.13034639564803172
0.3301580559337256 -15.16714677865293 0.7822913555342542 0.08603213188500695
0.31622832442778337 -15.151777141255192 0.7711826996944566 0.1478631061988636
0.32147169191282615 -15.148616576426717 0.7563704826077342 0.15554326760203507
0.3373864730725902 -15.15106784069373 0.7600484223062761 0.1766846758230404
0.32550231324279466 -15.13980232192745 0.7737654868402579 0.1017276345905619
0.32147882540621514 -15.148336485898989 0.7566458530200052 0.15549446717909257
0.3284188120185167 -15.138648491820012 0.7766893820727362 0.1089914476161129
0.3156678020039803 -15.130796217428397 0.7605957067164161 0.09551283059438065
0.31875535973388897 -15.13632314933292 0.7491183222247486 0.1479359394330858
0.3512465220446979 -15.135427341317891 0.7695237360654348 0.11239214384620852
0.3240414057914356 -15.12312954040315 0.747775610807732 0.07529211041359163
0.34015089346833954 -15.1401860616766 0.7408028686819825 0.09235654055829738
0.3473062060148657 -15.125843603923538 0.745855976281854 0.06847250681930085
0.35450652227474205 -15.12075372472692 0.740061842673443 0.08498981929378038
0.3301988143800184 -15.117777173414304 0.7419159063386305 0.07008121089312098
0.341176110241426 -15.115459903599648 0.7339793728935522 0.06617573327254131
0.36182293012119193 -15.112380712793552 0.7457203617077542 0.05863533173018716
0.3527856920976349 -15.11042232538649 0.7101003648230538 0.05414379391562304
0.3617835823128007 -15.109655543856732 0.7140303943919218 0.07165741748322066
0.35072071217905076 -15.114238398453258 0.7250052018895832 0.08476510432133717
0.36148034367728366 -15.1117887427461 0.7325150872326012 0.08911137541959692
0.34350412909942835 -15.103303692549023 0.7236698117564424 0.07563221565526819
0.34610848605426386 -15.08642924612858 0.7126320438839711 0.10745864096767772
0.3671252250382451 -15.098874462192203 0.7090092940279991 0.11069487948998565
0.3518944683881643 -15.078626539462409 0.7096354711270194 0.12503942868510104
0.35224818132795527 -15.096354316441813 0.6991271870249864 0.10096158877045784
0.3604460398649943 -15.09033628091225 0.6866006852093157 0.15122454883552278
0.37612979752985365 -15.084260937390749 0.6981329855399947 0.15193989677278483
0.37736816911449333 -15.084076017152816 0.7124139972442106 0.1219818622529465
0.3548633196714188 -15.066401735063659 0.69839681410314 0.14534538038122977
0.36175578966955824 -15.060462684048604 0.6730812095272094 0.19520033834980777
0.352656924067438 -15.079277131477319 0.6858920729194375 0.17268506623494234
0.3721131833182715 -15.086543438435088 0.6773321713404145 0.151895300959234
0.37978761571529324 -15.076382558784793 0.678160331341106 0.18270967974793556
0.371538583276813 -15.085085141193753 0.6920430152208439 0.16037453303985555
0.35781063173018357 -15.073700347341584 0.6750638330903895 0.14027749990630456
0.37825097376849304 -15.083111183127574 0.6631054392412837 0.09010481806162028
0.38448210597489113 -15.061957883115504 0.6876639389847973 0.12529087807797018
0.383786573354219 -15.063096232640529 0.653179323550658 0.08434708167388469
0.380904610663357 -15.067777248345138 0.6379846995632835 0.004495193206115225
0.39006744329657733 -15.061805897573551 0.6341139662322255 0.017042936369068888
0.3948753430853962 -15.045467883467254 0.6444956855553636 0.0018202070155223418
0.4000843093231052 -15.051774479991394 0.6264020111913069 0.005893010431562037
0.40261599788713837 -15.057285820210762 0.606609352956841 1.179667882918612e-10
0.2113897633989774 -14.706756502666707 0.5658401865895831 0.012426682678090389
0.2182234068354157 -14.72404189495517 0.5679787586075536 0.0026506461905517337
0.21743261292552823 -14.728280322724574 0.5744994565678513 0.007944937769369756
0.22673059163224552 -14.705784108257003 0.5796563722023153 0.011617137311160595
0.23509241729749045 -14.715969498403634 0.5936391648011189 0.02149794255023986
0.2644418166228597 -14.736712240117233 0.6136798107585126 
0.20711729576554816 -15.021833592781027 0.5528485828119271 0.031085749098183325
0.21043879252284028 -15.038346888695774 0.5561467088599904 0.015117546059844035
0.2136301146087526 -15.026869583833212 0.567710985436665 0.019997262632422033
0.22149738025277316 -15.025314301483805 0.578439104744621 0.017560303165033656
0.21747498767177906 -15.020162371921487 0.5800596754647546 0.014633522208646292
0.21934541028451254 -15.015747649420947 0.5822708698162726 0.01696835606744662
0.22186997779110176 -15.008526485170579 0.5899671979107503 0.00575891685417843
0.24233762304008324 -15.021427323654294 0.5965759982249346 0.0013687113426339558
0.23538235592717166 -14.999043599807562 0.6009980419196993 0.001341707882942911
0.4742663902101323 -15.19338479369489 0.5498745400297772 0.033435120157716415
0.4849468356715398 -15.189445312253238 0.5633829945060347 0.016697531658019387
0.46985006473882784 -15.169233116007478 0.5630227579984884 0.0021304430550847446
0.4806618434984209 -15.174068614433486 0.5775020488299748 0.0034091576805621413
0.4817511312892349 -15.159622616987988 0.5914602798396638 0.00734698836193739
0.4793947998692859 -15.168052687239564 0.5803172491798757 0.004018456437067913
0.4730927403835661 -15.15142886845284 0.5850573552461906 0.009543106111188615
0.4908641466704811 -15.155986897332335 0.5983715678589047 0.00348815570271381
0.4905208612609726 -15.124661749150576 0.6133253745674044 
0.771489348490178 -15.02160211263634 0.5551186190500043 0.04983674335261236
0.7505067245302464 -15.019645865128552 0.5813441524326671 0.0001905879457452408
0.7460743408984253 -15.016507916216364 0.6042504146701474 -5.425798991956942e-12
0.7467905105925765 -15.029971882009718 0.5840757543786104 0.00701501150348239
0.7385397053668684 -15.03143408595232 0.5931454458061705 2.5927959509063647e-12
0.7751605957571331 -14.72455082213076 0.5622852073321293 0.017355705722340527
0.757213552771196 -14.717481306280568 0.5746130170685076 0.008489650379476412
0.7487883314960256 -14.701233815944073 0.5640463948255385 0.004112908677615433
0.7557622977509861 -14.712735036667578 0.5744147793097154 0.006046559227846433
0.7576678370131139 -14.728346822855618 0.5773273732458476 0.007783719715027541
0.7407583587764007 -14.726726301091462 0.590809277295667 0.010435137917742454
0.72933645849584 -14.71920070303881 0.6017710813019511 6.558850206810004e-07
0.47757686092253004 -14.687376048455286 0.1921741040969183 
0.4571630343633767 -14.678340918575001 0.14355179062407444 2.8148370556493196e-11
0.4910324637997088 -14.671730103683695 0.13530120169104803 0.02761253295942808
0.5166392041955378 -14.68381833390921 0.14993282027900898 1.4686321250672566e-11
0.5057226607930082 -14.675043939494223 0.14030378180463676 0.08200499260106196
0.4798908481722746 -14.66773869170147 0.14988384011183326 0.05491095837037007
0.49119787208389254 -14.670371899158857 0.1754489207455874 0.03850997233226001
0.4988965841813435 -14.675334971591766 0.1877178964261148 
0.47454962423717395 -14.708242001805573 0.11839142104746246 
0.47889320483153686 -14.694888476312011 0.12556833435205972 0.014015753082405085
0.3589516959424013 -14.717494627456885 0.14472457278004147 0.012906885459238333
0.3553218807270984 -14.718515142475287 0.14996519340516504 0.021374613635267
0.35483323574017445 -14.760186173934196 0.1646297627267489 0.02949859145765456
0.3475902538927827 -14.726793719840622 0.13488331451098381 0.012262946454839664
0.35707271504806215 -14.785945618884869 0.13810489665790004 0.04382696608276422
0.33869468621412174 -14.737439267212293 0.1354703154219921 0.02329902438836923
0.33295904710885504 -14.753473832875935 0.13930474408344962 0.012562866860973264
0.34175114369388326 -14.770636601393125 0.1432821640113382 0.039846495614882495
0.3471360730218323 -14.753471374654598 0.1507290522266115 0.05838788257067997
0.3480006932452143 -14.740970705157073 0.15173781958781798 0.023921040279382712
0.35136450302707267 -14.756005789294367 0.18106488448568187 0.005253030545780446
0.3592568540163811 -14.731219240356946 0.17828561157035602 0.009763859917502981
0.35762576929794826 -14.73640556990454 0.18607729766919107 0.011333791351396704
0.35516314580716846 -14.751789950682292 0.17884976130411506 0.009228975669055044
0.3711167161987756 -14.757183241022549 0.11483233256352814 
0.3063735309055835 -14.866835538872385 0.30437380266430986 0.017735655343473287
0.29580669173875057 -14.856243805841427 0.30413876450781735 0.024139708982182834
0.3023079137254672 -14.891837979283466 0.3136314838932579 0.03311762187218053
0.29502068266773723 -14.859841701550426 0.32088985437758516 0.032229684198773985
0.3100261855556674 -14.85597742665834 0.28756663085133494 0.031496471247029326
0.3122132671552025 -14.87256934371073 0.28708200612785084 0.04117204636279082
0.3016963028518479 -14.882555685416692 0.28866065494087323 0.03575467880424488
0.2877732001664566 -14.878971392319638 0.3369517423785471 -2.4031725873250736e-13
0.283490548972984 -14.853945042074157 0.13785218842825833 0.0007353429914089886
0.29877821470255095 -14.894597381709788 0.13841030992821124 0.0002361705183359852
0.32165787283626107 -14.898834351286098 0.145972254833637 2.8955104361615885e-12
0.3134743257855836 -14.832591784289368 0.15400541338757956 4.4777357884613383e-11
0.3003489119384209 -14.835089383476369 0.13915383440726697 0.024911861908099273
0.2896147502307322 -14.854689147712802 0.1508563875425056 0.08875257623366839
0.28391041087092334 -14.874768186584145 0.15108221009451175 0.0025446836039404036
0.2943064605429116 -14.887154575019109 0.13767903823805444 0.0815507728576747
0.3057205591071205 -14.881864207627567 0.1798439146618585 0.033620288391324554
0.30354313639591907 -14.882922159793491 0.160428701822964 0.04529254747822673
0.2983897426509045 -14.852643879923772 0.18468492526473826 0.03802812491166608
0.3128964629852543 -14.886649576177886 0.18738466761342779 0.02638203436230516
0.31533689583673336 -14.859917756007494 0.1182110106681851 -5.80858816418512e-14
0.35707538582699483 -15.00535389652541 0.30614103276735166 
0.35641194569198204 -14.996841675787458 0.2855019113774219 0.003453552415699411
0.3419672709157262 -15.00596909799981 0.32677264487189916 
0.35761642101688995 -14.963636741919213 0.1489669036373756 0.03879408690555466
0.34034803867795854 -14.987624074226442 0.14077837775006544 0.10961842262663823
0.34597320630226347 -14.99681540172157 0.1416737742276093 0.11691868316201044
0.37569324414979277 -15.018015543906541 0.1440589604766644 0.16268333109230726
0.38781687567504325 -15.020639770537858 0.1428657196968566 0.02311827085998663
0.3499850615998395 -14.986403852650236 0.17353275308916966 0.04125959406026407
0.3527534645623126 -14.96975849356565 0.1454988553545672 0.03217795255658904
0.38939995299603347 -15.002064601408001 0.15880144796924997 0.1120903573202763
0.34456186052157833 -14.971952500293582 0.1390105531961826 0.0378828292404013
0.335922058184836 -14.98175802888889 0.13605511822514424 0.05776649977100214
0.3471029563590085 -15.01834766446512 0.1458569823172016 0.06515788555419795
0.35665605599324396 -15.026861497525184 0.1402258892975778 0.07874293433967444
0.3775473758198669 -15.016264210694132 0.17068473673443563 0.08484043292089624
0.36917484135642104 -15.016766008783401 0.14782218409943196 0.15592967978602515
0.3548499498600665 -14.991565429619374 0.1738486089379535 0.1282182092781917
0.34451619771807723 -14.999885127300196 0.15491322916531433 0.08936900721832003
0.3563927158982462 -14.97937138900725 0.16633567121425766 0.02737380039875085
0.35701428736610935 -14.976600954414025 0.16280472104602975 0.03126818419732678
0.37849421757003704 -14.970737866459531 0.1763462239790235 0.07561383811401441
0.36573488286573785 -15.01741371791892 0.17868816211688165 0.06348184789735871
0.3624815775100462 -14.981248248805286 0.18357447012843633 0.06246389349724349
0.36015709644976235 -14.993672090143264 0.18608613203709462 0.09342542516242755
0.3699356402921149 -15.00646937152748 0.1329004566023127 0.1534562963111157
0.3586458584230771 -14.989499326840058 0.10550658782929535 0.002198256058535831
0.476411250461944 -15.076332009641156 0.14288448203377443 0.09558762421869946
0.5263377709775341 -15.047722824882337 0.13532004101587883 
0.4779353857454456 -15.059267818481947 0.15747607131995384 0.0787222258548047
0.4453037169774246 -15.038083804181005 0.1542460600220635 -1.8550410209026622e-10
0.4638081039772346 -15.06793981261672 0.14428210997264593 0.017795233515340715
