x y z curv
1136.7707404457392 -0.9812212089429105 0.397600056289072 0.1161350577829747
1136.7531857565996 -0.9766668983009438 0.3941949569500541 0.056457201392346786
1136.752859549478 -0.9640992645779075 0.3918376529742722 0.1323013587552658
1136.7812918791258 -0.9791826157336617 0.399096444292174 0.09291502900491509
1136.792658866529 -0.9618794350035155 0.4218314936548753 0.0913410380489077
1136.765971608607 -0.9427790759404677 0.4287452625391416 0.15630057167716246
1136.7598556382725 -0.9645522764268227 0.45774870843710047 0.1772322534103995
1136.7556281974798 -0.951744389708339 0.4470116362684803 0.08422985385536359
1136.7524859930716 -0.9558423641081676 0.41455159225632293 0.16086285383536852
1136.7562776817701 -0.9601043235886938 0.43414805839772186 0.1946841734570565
1136.7620617750497 -0.9419985822850729 0.4171231774525528 0.1121115084604831
1136.7465443204997 -0.9678497509934084 0.41230283708404936 0.08820809911616687
1136.7594577417146 -0.9812083309021787 0.40920464204916085 0.07638249513821535
1136.7673468075525 -0.9904009606216498 0.4344204667197231 0.07879653177383
1136.7718483446129 -0.9944238856842429 0.4314819900643188 0.11543353815137442
1136.7751707156692 -0.9812665112563961 0.44395033489420793 0.15427130618191595
1136.788019904325 -0.9763503213809708 0.4357142938725829 0.1243058409654993
1136.7796795306301 -0.9774973053505702 0.44688252248543603 0.17624750913790285
1136.7787317626555 -0.9487764738771985 0.4636383438910507 0.08217167146472479
1136.7521831102754 -0.973691460655473 0.4465721886114245 0.12856934526996014
1136.7500300001798 -0.9710529807352586 0.4337222947530218 0.17016044006245856
1136.772849200428 -0.9659768628173924 0.4675880848853483 0.14730836525842997
1136.7742131236569 -0.9671564237065968 0.4674381598783663 0.14668530850435826
1136.7860700895312 -0.9714803210631092 0.42556518239592556 0.20641025619449993
1136.774240717667 -0.9799274770003624 0.40778574469956985 0.09568538269549987
1136.7496401964345 -0.7931966746296552 0.5887234857905749 0.1437439870663501
1136.7319839972013 -0.8150044676809998 0.5956433990022107 0.15640475517442035
1136.730081861063 -0.7993926710275945 0.5858229807907843 0.14342991479821707
1136.7442030844486 -0.8363971751998361 0.5475141271825827 
1136.7383394543776 -0.8299309063876839 0.5662559767028638 0.04843898131843927
1136.7323952128504 -0.8226608762340498 0.5912522175912065 0.15253889611748853
1136.7536311660842 -0.830539998579246 0.579390222096568 0.12111381032404808
1136.7598134797715 -0.808154817929856 0.5941598625588015 0.18651449945194984
1136.7505900413105 -0.804319016714559 0.6215672443040478 0.10501654399171705
1136.7446071362044 -0.8130176681417136 0.6090268474362248 0.23635276631796756
1136.5805259199094 -0.7266652306712563 0.21023332531360453 0.025449156256432934
1136.5826675339624 -0.730454467729149 0.21801006308788579 0.014658290114254497
1136.5756071953033 -0.7364062582057325 0.11639010452312551 0.04766178024887017
1136.5869035181695 -0.7241271668855063 0.15177596624761414 0.011117584915455123
1136.5839966339745 -0.7217851969783643 0.16955704942522595 0.0022828579419974186
1136.5685259706192 -0.7318488434820124 0.16987693074091892 0.021226619615645488
1136.567070670263 -0.7289245290515265 0.19882408938444893 0.01364862014459005
1136.574493898148 -0.7304171623512399 0.17942900224825686 0.016092515070574777
1136.5888735010424 -0.7224813680340569 0.20040064601034704 0.01032430527379425
1136.6293452053953 -0.8159796715225931 0.11915617081217206 7.974997913319384e-09
1136.6387720618486 -0.8294464785737521 0.12944600428410488 9.035854398715989e-05
1136.614365600927 -0.8383658649775158 0.1584812409934167 0.035292247117256946
1136.5442334179143 -0.750285562539773 0.19776101152810285 0.017818190227856627
1136.5626622755635 -0.7488192111538627 0.21622071996515577 0.016939327017218373
1136.550942027945 -0.7575157014530424 0.2160931144652077 0.02866974261430864
1136.5452620467095 -0.7598820241652875 0.1250600609023254 0.05033850748461242
1136.5443745105908 -0.7420162801940021 0.11298103925823158 0.0271767905396889
1136.5601037996023 -0.7336641175702128 0.12986443046320242 0.04760103293689429
1136.5583377211537 -0.7338629339814348 0.15016365548351263 0.018702445882959023
1136.5370850404472 -0.7543006704882448 0.1546562043494645 0.01045565166674987
1136.5557034590709 -0.7354607193263712 0.1915987987131636 0.014281085943805356
1136.551394007942 -0.7517267796582389 0.1873463252538681 0.03011085957368663
1136.5477903417998 -0.7579605673870602 0.14618150571556054 0.02255163199877502
1136.5450605998947 -0.7495923471727676 0.16566689596080234 0.030875866952340174
1136.5440083096094 -0.7423694968377343 0.16915954566299352 0.022425268225551343
1136.5896184674084 -0.8367084173606201 0.22070795899837892 0.010735533974843682
1136.6003530524583 -0.8366027229600757 0.20758081993623168 0.019704430692808313
1136.612218700082 -0.8408656312901921 0.22479916713672735 0.008214114955522735
1136.6086902363727 -0.8408692870339923 0.21566584035671943 0.0065228393338476465
1136.6075035745287 -0.8413316917665091 0.12161926458726474 0.05706545467719979
1136.6044759369586 -0.8471656791423056 0.13256027710051657 0.013124342845623442
1136.5921073154766 -0.8362834533446648 0.12234385488812372 0.026262571228275085
1136.5878994856175 -0.8382885384962449 0.15611257342329218 0.040377934164539726
1136.5925635618785 -0.855131555453607 0.18183586336587879 0.027579852046691725
1136.606167151565 -0.8470597123462744 0.17953369443391565 0.05289424940343722
1136.6061263858835 -0.843792714943507 0.18910086214173621 0.03950909968082744
1136.6005566218253 -0.8357228114701418 0.16223810737587283 0.06186817392733282
1136.5367986033466 -0.7889758110845035 0.2198262901677454 0.023193092161350244
1136.5375240691199 -0.7665112420815454 0.21575033663785123 0.029430485012589682
1136.5372628741204 -0.7844087776179172 0.2048065836412619 0.03537960280822032
1136.5449753851226 -0.782596433223489 0.12008637134676806 0.048091053161259695
1136.531798900782 -0.7813736423793566 0.12146101120615983 0.02813377601672679
1136.5370600355297 -0.7759190197050982 0.1281603532610467 0.0309311486149987
1136.529173490803 -0.7891309205020326 0.1443164528822834 0.031036760666023747
1136.5348311719183 -0.7696506172307344 0.14365306210323914 0.019883614265145566
1136.53599589225 -0.7732340862944584 0.18959315591901463 0.017252558028961997
1136.5346369403999 -0.7828387000099339 0.18212794513356712 0.03440133799434227
1136.5280456874918 -0.7822779679820836 0.16886529210226084 0.022071982172675007
1136.532970045296 -0.7884553853253139 0.19239768462539322 0.016931444297848642
1136.5369029413134 -0.7705076529289852 0.2025003769429547 0.03206506021671385
1136.5337394523506 -0.7780177056692646 0.16988387110613226 0.030833098026155394
1136.5359514871698 -0.8082870263735517 0.20449252775887525 0.0372908718417092
1136.5413808539868 -0.8137253944444962 0.2179457047835167 0.036853841022971276
1136.5445854523837 -0.8223107559999101 0.21161129627768122 0.04293050615559372
1136.5448845932733 -0.8145549971353122 0.11560866179980428 0.07607026894357326
1136.5371897648197 -0.8098189487978159 0.13459623326649128 0.05449965634996104
1136.5358421017143 -0.8143233121962943 0.11907443782827158 0.02861749546501655
1136.5486752650975 -0.82243008204501 0.14300993155505748 0.030091098814438343
1136.5391093863302 -0.8085927366924129 0.16132793450262933 0.04863979437572864
1136.5357859573232 -0.805150508064113 0.1888610530643763 0.03364777177122522
1136.5406534884294 -0.8221930977507831 0.1556658431957702 0.030737812722765934
1136.5529067161174 -0.8225205263388746 0.172343170883752 0.028402186100936817
1136.549234689971 -0.8158782905088316 0.18540979471683414 0.05542133331032748
1136.5423514026734 -0.8264907324333223 0.19500503342175976 0.032584355321872135
1136.5399209255543 -0.8134656598271703 0.15820625224025223 0.04835648358929784
1136.5686813874056 -0.839031990462362 0.2258676429856159 0.0317020968480157
1136.568270769283 -0.8312386556113384 0.2091168376265639 0.042001184303618655
1136.55586399351 -0.8339020038460765 0.22103526522965994 0.022539905023974578
1136.576601404148 -0.8344327541585911 0.1293060161500729 0.021960786890475488
1136.566938016033 -0.8416541320841179 0.1384544590533425 0.004883526141038459
1136.5560983101266 -0.8254495155071024 0.13291428124824503 0.022576239531720183
1136.5603434644054 -0.8272944157252853 0.11662786717893793 0.028974057914663273
1136.5616858417031 -0.827315037771426 0.15636162003389487 0.022556996911125934
1136.561540170804 -0.8263595240530858 0.17195319091019778 0.02939529879918779
1136.5601137590907 -0.8312869240470859 0.18501878419620388 0.026116738977502236
1136.5712709601833 -0.8380541494160361 0.19465042690228207 0.027600533135546428
1136.5722727785485 -0.8277448111855077 0.16919537928848583 0.03917282220496212
1136.569840726389 -0.8279481379075491 0.16237753350098919 0.03280873128416388
1136.6401345943368 -0.7884733980589271 0.11809482815395533 -4.200226155495785e-09
1136.588801752663 -0.8374797864035383 0.23008997395478142 0.030533738116041414
1136.56017154315 -0.7507948290792983 0.22898294874780245 0.011431605198608205
1136.5446719756785 -0.8064961818414659 0.23349374987638574 0.010486674329552102
1136.6009944946022 -0.7373819733775605 0.2472326459148705 
1136.6159822251818 -0.8350348020886862 0.24120269406161268 0.01588179170155534
1136.5640744598716 -0.7538913839786463 0.24140142538065285 0.059193804024679844
1136.5406009682656 -0.7653736100922324 0.2439720699680121 0.037187307291588985
1136.549438049187 -0.7888784227421751 0.24249859266473373 0.046222818313180924
1136.578015401278 -0.8336121880835401 0.2516931880553225 0.034792324980280495
1136.589204083234 -0.8288344284669019 0.24776786039180676 0.03601457635088723
1136.5582427494144 -0.8149621063217635 0.2386394876734158 0.035510959385793246
1136.5668524115245 -0.8078090777742897 0.26775634465298764 0.044065916049152706
1136.6145155967297 -0.8069383614889014 0.2767877329921344 0.0006145777625666839
1136.606814989857 -0.8137782233854093 0.29490024070723814 0.01623206749142197
1136.5990244036166 -0.7506875451985738 0.3025200547771993 -2.858202079084725e-07
1136.5681686929872 -0.7598823249554789 0.2830326133736796 0.07166290706746764
1136.5527344645618 -0.7772515538265493 0.2801713290725436 0.03640380887741436
1136.5633431957494 -0.791372547000234 0.2935185360470151 0.09916461656113244
1136.561055372109 -0.7992278225585998 0.2822798544259104 0.08464104946098353
1136.5597826121673 -0.7938985697792483 0.2622912605504445 0.010370384699406833
1136.580601572787 -0.8255486531695395 0.2870055678365327 0.10044700249605518
1136.5665008181484 -0.8079080527063354 0.2973544081594662 0.04824293487231871
1136.5995946256594 -0.8141692169112651 0.2860893360738156 0.04622959183725141
1136.5898121744096 -0.8202669879031622 0.2870133189520793 0.14537366687328113
1136.5616932767318 -0.7911986826197009 0.30738686334275167 0.07271210748800443
1136.5748167802437 -0.823074775011542 0.31479966198956477 0.09893921588658691
1136.5647517711225 -0.8216518479426999 0.3277121556791838 0.03416635642613602
1136.6095763590386 -0.8203613364283356 0.31356056321557824 0.028586125053637963
1136.618379695042 -0.8144278864794028 0.31587811001067245 0.030407068746260278
1136.5842427744774 -0.7476537095484674 0.31916046508018425 0.003531538832410277
1136.5558077929588 -0.7693092842162147 0.30947831416854127 0.0697387777935697
1136.5507010550305 -0.7877455534894094 0.3245928866657966 0.012647149006494562
1136.5600861082705 -0.8071201553622278 0.312753810407344 0.03712283904395755
1136.5892526852617 -0.8289309865927758 0.319197346514973 0.0494326097244724
1136.5626600490318 -0.7550972234968907 0.32340750633292686 0.059686309985268055
1136.5776217162722 -0.760130733725863 0.31060438648031274 0.10792837574978134
1136.6009534337163 -0.8018561763886058 0.3738658796728395 0.18417763770469453
1136.5832578856139 -0.8084842440745615 0.36567486623512213 0.10348929253619883
1136.572593289196 -0.8004270293334631 0.3871576077737606 0.14644314904125968
1136.576613283147 -0.7899147650790842 0.3676426958412107 0.18311335111141572
1136.5731001101756 -0.7746171850541819 0.35819651980807166 0.05704582991121741
1136.5847468560592 -0.7772122636338933 0.38657887872734026 0.16200802709988182
1136.5822984391677 -0.7802126684826085 0.3782824635820762 0.22313867633851786
1136.5951733244442 -0.7722900555156735 0.3848845734701537 0.13567745292662345
1136.6078422950345 -0.7907227320660336 0.3556466235011537 0.07951000116179151
1136.6093912269382 -0.7907395159065532 0.39041551655326157 0.16963430676559219
1136.603484998557 -0.8002522951127542 0.3742269849306969 0.1830416161984512
1136.5994788702312 -0.8070759410581627 0.3475552557692992 0.04515860368850099
1136.6039146743203 -0.7997223229225128 0.3917621432343493 0.1989747930084909
1136.5997678843205 -0.8082274899368668 0.3955960175832966 0.2044605311875119
1136.5869461034254 -0.7749348180415375 0.3948245108227844 0.17714344152171957
1136.584414670596 -0.789314167278093 0.39639335391685415 0.19776689976716375
1136.6038202270836 -0.8011083590824439 0.4117668339610072 0.151775471745372
1136.6137366549458 -0.792499231362677 0.4283780884903147 0.09841861443626848
1136.6098494815492 -0.781212108082417 0.45154988148446396 0.10490681858223574
1136.5803767337275 -0.785447982752987 0.45891820685667634 0.10523123979418936
1136.5824954125578 -0.7789440600979108 0.44199913525659634 0.2334064814626055
1136.578892911585 -0.7709993824504148 0.4189879957797248 0.14252027913390897
1136.570413433106 -0.7880511091814267 0.4141403850081411 0.14152802563395475
1136.5838307996612 -0.768690883324836 0.4250998121468692 0.1723215704925579
1136.5929729570473 -0.7666598485938474 0.4297952879653376 0.13568914010346364
1136.587569169742 -0.7693566861525942 0.446968526372542 0.12994155642567723
1136.594508704724 -0.77038177656086 0.4048648687831014 0.15896357195775512
1136.5780849529617 -0.8015487286112771 0.4084505972945908 0.1892810921216989
1136.5639780638787 -0.7931091267088136 0.4175971011825484 0.09739695970857348
1136.584612932327 -0.8065995131917204 0.4183346356735797 0.18895228315958426
1136.5912478447929 -0.8101216536308866 0.44608765563750535 0.0902907930312338
1136.5965264183076 -0.7989788072552679 0.45888319808290656 0.2003411358313559
1136.5875711154415 -0.7919840692280136 0.46326785659313646 0.1942067939431866
1136.5777892630672 -0.7926420519470964 0.4404566102185999 0.19582281715901945
1136.5892743553434 -0.7962513587085055 0.45921875452031324 0.21475798152127362
1136.6112946772314 -0.8000240634098675 0.43565922254405937 0.19229053802137275
1136.5972979950134 -0.7976350131192619 0.4224374331139459 0.1774215723805342
1136.572491391473 -0.518719284469794 0.10871389895680385 
1136.5413180586572 -0.5922285098513064 0.11070167980387784 8.266593736526509e-05
1136.4928042601236 -0.49181709416788966 0.20921216206387117 0.009644812966380721
1136.502545356342 -0.4893967317052376 0.20426594132357515 0.025884848462197185
1136.5157415388885 -0.4969372532713279 0.12526987375204396 0.018137997668424576
1136.5202432059375 -0.4888116769754597 0.12786162995195563 0.004624683973963441
1136.520265462294 -0.4932005313714864 0.12298515320062899 
1136.4994991375445 -0.4905497625292368 0.15852449646529368 0.03571396462958546
1136.50217129339 -0.5954704375208004 0.21084079655981475 0.006295454403516582
1136.5031471622128 -0.5895273595624557 0.10099113115957399 0.015766944581842374
1136.5092412642653 -0.5944227602236601 0.11791758513628439 0.04146462903283601
1136.516878279823 -0.6110438605424435 0.14028993458976746 2.206013312704826e-07
1136.5072142681586 -0.5981348429814463 0.12946846535779 0.04386153239758764
1136.5112137524247 -0.6004251089088429 0.16963524341217334 0.0060810651242418
1136.5150206011517 -0.6030852402296558 0.18456881360388372 0.007583684119362523
1136.5188934891098 -0.6063519210837978 0.20003330216015747 0.011992339067822277
1136.5007123804658 -0.6000631259463696 0.18995590819709157 0.00245227564733873
1136.5003942461249 -0.5955411704004665 0.18398961035857334 0.006730922942080104
1136.469952156783 -0.5109515064845348 0.20591779920387074 0.023780534546538133
1136.4868529075136 -0.5099058697158017 0.22432572574711807 0.04582530787971779
1136.4826605620253 -0.5236711689173268 0.12476467211287193 0.013877910450085972
1136.480642061665 -0.5173982702948927 0.13159652551546983 0.025876861945856484
1136.4845092533951 -0.5064596396862425 0.13530040769976026 0.026414796816955383
1136.476751170382 -0.5054321866687208 0.20297699449640116 0.025947560968547174
1136.4850765083438 -0.5165532728046986 0.14467949384012715 0.03223268676620711
1136.47944989057 -0.5217575186632077 0.14846870666514195 0.03003062105124274
1136.4793617197067 -0.49686990767254363 0.1726923672692759 0.023708208747863845
1136.4862880984526 -0.4927598331055042 0.14562024743785312 0.017121584849067274
1136.4717103954372 -0.5110357782712845 0.1649810222997483 0.019386991790780975
1136.4820255806767 -0.5070479413932166 0.192634460979571 0.03497830303287205
1136.4690754163275 -0.5301319983916644 0.21803106567657896 0.017235579420428082
1136.461692824371 -0.5601228928550737 0.20994465886534905 0.033723763490640775
1136.4743807714954 -0.5400979391791676 0.2199524229039701 0.026900895013226876
1136.4697547942358 -0.5490979209287504 0.1210363035000247 0.02294178248673741
1136.4757799620618 -0.5416976327219376 0.12668071423288543 0.03490596757499534
1136.473093772828 -0.5407794130140314 0.15420093888448178 0.021333008417865118
1136.4702341024142 -0.5372732114870314 0.1372338907092784 0.01859394770075608
1136.4730551066966 -0.5422956594664123 0.16977883031300114 0.019441869726210453
1136.4771007548966 -0.5477133630550722 0.15129822187710573 0.02986642845334841
1136.4610745794378 -0.5517619932463765 0.20104123879670766 0.03074640758645347
1136.4668282937653 -0.5467261248103057 0.18301345548778986 0.03237352278671813
1136.4679580056686 -0.5344211716853337 0.1678365583641196 0.01755300481137793
1136.4699235412238 -0.5371354566317089 0.19451056947378287 0.021850979390781483
1136.4735299989495 -0.5417198323228716 0.1608275602319226 0.016924779302815142
1136.4742843760807 -0.5657182364987438 0.22481609262800356 0.03626709316381727
1136.484746222188 -0.5800628005137759 0.21198877482290318 0.009743244789833178
1136.4807875088172 -0.5774471569460803 0.12294722019033627 0.02025027381108499
1136.485617118116 -0.5738982280937466 0.12149639766596063 0.0307291344616197
1136.482814085283 -0.5823175233899959 0.13444958427623915 0.0317969142612252
1136.4724430967326 -0.5662818284780001 0.13816578039047628 0.0179772642799181
1136.4834913414993 -0.583840924645658 0.17018068946707787 0.008080343908766038
1136.477386188045 -0.5762561506855516 0.20429124285698347 0.028375913018157166
1136.4829963108461 -0.5789560870556568 0.18448548786328803 0.018941916781325903
1136.4801898016124 -0.5847869005343201 0.15734855107918838 0.0333096884812532
1136.468917963517 -0.566782097763975 0.15748120194466864 0.012544063378761171
1136.470534828946 -0.5700926877094087 0.19194008506863364 0.032659640326154024
1136.5661614667813 -0.5734616576552048 0.10132821243928958 4.067255401039557e-08
1136.6464372629184 -0.6735840716308417 0.17045119374693818 0.08626136006879254
1136.603387121409 -0.6476385424114173 0.1893118227642999 0.0006389104115004687
1136.6130115754822 -0.6616183134535261 0.18802788181147037 0.04319258889629511
1136.6236003525748 -0.6768308907986278 0.17327924699810485 0.017104404598330205
1136.630366867079 -0.6737833500663717 0.19174728193691523 0.03954928798399929
1136.6230004769184 -0.6644468305994818 0.20035433491298596 0.04290058580863136
1136.6116521995255 -0.6479666393858444 0.21032095432842418 0.0031163915376519282
1136.6254520126008 -0.6586705624104779 0.21584399168995957 0.02640820492519505
1136.6352642978966 -0.6461585954987435 0.15454374410238922 
1136.5950287071767 -0.6619410683404082 0.3565746113991747 0.01768139050923103
1136.5924343554402 -0.6549458764082177 0.3539218522117814 0.024165260550700365
1136.587838048679 -0.6269322359469814 0.3498971943938328 0.012565356683063312
1136.5929477966017 -0.6259807054758553 0.33705257186937354 0.013898413172650554
1136.5936584354538 -0.6301089265525943 0.32967904636993417 0.018409207098733567
1136.5887718750157 -0.6356539515427698 0.29839390689571155 0.026397648435386965
1136.5938050649895 -0.6347965427971208 0.3198586739228439 0.017416371496161348
1136.5877852328606 -0.6495832663123469 0.34184460082677215 0.019574943604142275
1136.592789469208 -0.6611872440561111 0.274178470039977 0.056738765074930066
1136.6001559357296 -0.6541851070154412 0.2502741065642255 0.006771146195753755
1136.582478740068 -0.6614707212062645 0.28498027086575545 0.020384856730772557
1136.5961575326912 -0.6454212772171629 0.33596898991849317 0.02478809711897568
1136.596244007853 -0.645576477348139 0.30858288478747303 0.030447324453342077
1136.5943208214985 -0.6506921818745216 0.31594268193659475 0.03184612445664271
1136.5904849711103 -0.6612232723715765 0.305227149256634 0.03098950902636614
1136.5914065948496 -0.660240900509759 0.3356730810964739 0.02082145575185108
1136.596881365864 -0.6650832772461124 0.32163320961147995 0.03021085501759473
1136.5984367773551 -0.6385769767532724 0.289549549758171 0.03504540049022367
1136.636721840348 -0.7030613427093967 0.3529065431263133 0.003777347771533492
1136.6339835055235 -0.7039603592292665 0.25787702762594344 -4.361257867085763e-07
1136.6078131812017 -0.6714522380631809 0.35387414154425917 0.018275068092395198
1136.6203745374858 -0.6867331064850525 0.35412736575300713 0.01264627413729162
1136.618742209496 -0.6820530180260285 0.24490017206624842 0.0024784715494402653
1136.6080047309924 -0.688875389319246 0.2720688154889741 0.0036315071760858954
1136.610555690327 -0.6770863994898997 0.26407635236520993 0.00514793559317365
1136.6025253802595 -0.6834088205889545 0.3178253198450273 0.033171653986851755
1136.6026913850285 -0.6820287746995554 0.3132340509415292 0.03879074990704303
1136.6185347257629 -0.6980587199667078 0.33695427775291165 0.0036291721404166787
1136.6005571790758 -0.6810016931449361 0.3303342031985763 0.023295528393378583
1136.6232755267072 -0.6839218300035851 0.3687711344216835 0.014830915185443563
1136.5977044117817 -0.6380950519140751 0.3771451417342021 0.0007008630117645514
1136.607805704039 -0.6234345203093529 0.38687829732281864 0.025617993338446797
1136.6089549797478 -0.6586204420893563 0.3849161044344684 0.023496665136038656
1136.6149290112533 -0.680340166258463 0.3822824689814188 0.00440195490732147
1136.6201501449775 -0.6801438659596434 0.37226737754905964 0.015121253035872471
1136.6211598245068 -0.6277381578158614 0.4440581379577766 0.0244072270480642
1136.6124814000837 -0.6424917618958277 0.4215722630867125 0.03576601745776879
1136.6171916594087 -0.6351930225132 0.4430648133975569 0.03875791052042104
1136.6213129717373 -0.6331848623725428 0.4203858406877849 0.020652343679095235
1136.625845524483 -0.6569622063248909 0.4193599340286459 0.053663408875573165
1136.6182690612288 -0.6451231980117205 0.44543681001375457 0.04327429841181553
1136.635648739174 -0.6726453301087542 0.4389150707581012 0.016559558191715368
1136.6383538747962 -0.6726114621261006 0.4202317557589634 4.225625680098597e-05
1136.6106181932214 -0.6413215186499447 0.4592446751143569 0.027263950014943448
1136.616781310751 -0.6592701726372395 0.4518998523669499 0.037109679537922845
1136.614339463797 -0.621225312495033 0.46320476225766744 0.00983968025176532
1136.6169957060144 -0.612378225399452 0.4554371660341962 0.009922327145702337
1136.6297160150723 -0.6701164056044208 0.4520743946700845 0.017985627905553945
1136.6407842398437 -0.6565939523296471 0.509609569723001 0.08412248969177435
1136.639201237101 -0.6533850194459744 0.5253232661422198 0.045339303904267415
1136.6203143986866 -0.6435478241334129 0.5150540753366546 0.029376709438196126
1136.628881598323 -0.6448547741996757 0.5003303249613388 0.041273218099062724
1136.6270653699012 -0.6377717958273946 0.5219176446466082 0.04446959189960677
1136.6293717158892 -0.6313582397054607 0.5258316656578416 0.0413949422574949
1136.6301205303535 -0.6462661156142248 0.5405173459988545 0.05017157118637549
1136.6327503682155 -0.6301844825161901 0.5329564989568879 0.03621510281452939
1136.653270933135 -0.6641355890166611 0.5492947557396616 0.011176772792707935
1136.6505133542241 -0.6238323913163182 0.5909326582952441 0.01744975659172446
1136.6498137348515 -0.6436848785192358 0.6044321109402442 0.058554208405701864
1136.6373841712575 -0.6210497489736245 0.5768378497820104 0.018878122740038552
1136.6311760508374 -0.6274294047349963 0.5599381271943227 0.01322475049851758
1136.6433347006143 -0.6364087296869397 0.5932246361192391 0.0395653719708785
1136.6310888209741 -0.6428545492546471 0.5515359666306806 0.056134414108184504
1136.6291894838257 -0.6528139724758119 0.5657089561237152 0.04398218754602054
1136.648164945566 -0.6648129910990502 0.5811730029100056 0.05610591891740091
1136.6490392558114 -0.6617406241180711 0.5933756626659853 0.05260813785048189
1136.6464111319394 -0.6526470297789424 0.6079304579240363 0.06729294558012859
1136.6357008040743 -0.6383930257429934 0.5775417156894889 0.034852914337346566
1136.6254659269298 -0.6442287280102972 0.5666528720156816 0.04289078313689473
1136.6361570922327 -0.645371182535845 0.5848040501557439 0.03480924590333078
1136.6401814472847 -0.6478532281473278 0.5922637541109185 0.03691844758180012
1136.4785405399316 -0.56270027655927 0.2336338771644117 0.03406077264523099
1136.4859684971052 -0.5271265849267736 0.24274254392142147 0.01187417683404313
1136.4991090988226 -0.592136944379212 0.23646061547472946 0.0012693470644367733
1136.4888637594142 -0.5093245053867791 0.23637530747354524 0.0185219462736657
1136.4784130140931 -0.5555476038033297 0.24404185044708268 0.01009497193358925
1136.4796739069584 -0.5596778194268837 0.23622279220246703 0.03291976650211688
1136.4857783639259 -0.5435279549990996 0.2353484352285407 0.00876387661457036
1136.5109328964813 -0.5779879604101039 0.27455799079903154 0.03909146438777624
1136.536491473911 -0.511190131256342 0.3041259063577213 
1136.5162878163326 -0.5158072682269885 0.2696957069884333 0.013189957188064587
1136.5083626802045 -0.5216609417585886 0.29090919782069136 0.06599771412779223
1136.505187614254 -0.5203095101143447 0.2706352915403107 0.0475922792551649
1136.4950539443494 -0.5339894958405947 0.29784725608107804 0.03778197274381257
1136.4964066069676 -0.5401029579266146 0.27394678230529174 0.07475390442659682
1136.4949184268567 -0.5524041097222112 0.27712429505699593 0.08739917738505842
1136.4973050414574 -0.5416797886096464 0.2639665458166456 0.039621359368682434
1136.4966305277019 -0.5615335848090416 0.2675194285719645 0.036781456404003966
1136.5012876533883 -0.5577989131069052 0.2845071051139826 0.06716854531508648
1136.5004605842603 -0.5672348242443576 0.29625430002600034 0.03683004446965445
1136.4988944689878 -0.5465376924517386 0.2933105436357879 0.047480484800071186
1136.5190152531982 -0.5835516720832742 0.2938827001333563 0.008126534000538324
1136.4903516234606 -0.5321355591839002 0.30741043431099546 0.041523035213847016
1136.508589894195 -0.579318886890779 0.3104755888917778 0.07493856785200921
1136.496951672558 -0.5667615649696907 0.30919829116955677 0.05197617759315049
1136.5000286675504 -0.5274395395315237 0.32386540848303985 0.05178642030355545
1136.513828824665 -0.5104421761673803 0.3183858150170566 0.015446072306257838
1136.4899837383693 -0.5436202522666513 0.3245468222833299 0.05385275554930419
1136.4868106860042 -0.5612460216159657 0.31346796732979737 0.03287557979927763
1136.4950152872227 -0.56324019666701 0.3170676240230249 0.07043168191581818
1136.494634800398 -0.544345951880639 0.3016740328913448 0.050290820195854714
1136.5123805851892 -0.5564827066853122 0.35920908874167357 0.061224663606105026
1136.5146378951488 -0.5618334852008194 0.3427848161481528 0.06403417949193049
1136.5048751699433 -0.5595434826830941 0.3808302739354151 0.02044374973127674
1136.499088267674 -0.5462601050116189 0.36163199017777903 0.09561483458107366
1136.5075271760857 -0.536245117291468 0.3386516901747957 0.05657007320707305
1136.509161109245 -0.5363968043758891 0.37449806648121126 0.06382255665362752
1136.5196919697778 -0.5272910743869113 0.36044692697968167 0.11308718089695446
1136.5274108780497 -0.5259064429328237 0.3865232890162885 0.040310130866161295
1136.5046004083767 -0.5369890998521205 0.3889402904659144 0.062714135099664
1136.512893402906 -0.5601209099993902 0.3985467174570357 0.07547993001052002
1136.518678303944 -0.5268424913247572 0.4418063315222624 0.04577991917025411
1136.5141582011051 -0.5367188812107121 0.4256050964914709 0.07643065148819014
1136.5125807769411 -0.5276815904425939 0.4138099178673367 0.08051634140790204
1136.5288370438336 -0.5329141279474159 0.4615836373173921 0.05049317842754194
1136.503569904024 -0.5474025533800498 0.41012403933420427 0.08745124485874453
1136.5006650474706 -0.5511517525167544 0.42390978512658656 0.05402460697926604
1136.5129990000835 -0.561757054880124 0.42726474945356396 0.08806718662951399
1136.5043978527915 -0.5534768678927088 0.43382787294418756 0.06357356916752797
1136.5223420714303 -0.5654976641523256 0.4302511554438819 0.058787649443903266
1136.5318651691578 -0.5425443340486498 0.4699554105031491 0.026193784338490553
1136.5078027510124 -0.5402209004136068 0.4513821925821461 0.058985726743936075
1136.5108204931043 -0.5597505061893684 0.4561195381678961 0.08081816818954232
1136.521612959142 -0.5522281373799236 0.46754123765075 0.1308199693871043
1136.5197160335886 -0.5628504545398267 0.41496528230401875 0.06974529445068849
1136.6204361306964 -0.41123326921021286 0.1846761328185116 0.010115295343656492
1136.6289985408232 -0.4139574912660059 0.17475069773070018 0.12260388389978627
1136.6042391289768 -0.4441140951283839 0.17743273217368496 0.03583697099495132
1136.607545982702 -0.43273977624539756 0.17731850990051926 0.0810593944839777
1136.6086550554323 -0.436137075138417 0.1966216486458805 0.027137768412258158
1136.6169552010035 -0.42810942800691915 0.19253001729119024 0.16067106064378697
1136.6135720485663 -0.433816255340967 0.20031365833670048 0.029539163720367304
1136.6308512831308 -0.4334065325040477 0.2238740058239163 -1.1474658916987015e-06
1136.641309803614 -0.43799088120490254 0.16304398681663687 7.614872290225675e-07
1136.5893546959023 -0.44756614456054894 0.3491927167228063 0.018766733549920152
1136.587599059692 -0.43954864005696026 0.36073181870806426 0.008745320386520898
1136.6077566052809 -0.4089685734673676 0.3524278698238126 0.014968115774131478
1136.620168464121 -0.39388451395458085 0.34254171565080976 0.023117319503805873
1136.6145682899132 -0.40651551935460956 0.3557611912788158 0.013223674185792155
1136.6151041537314 -0.40616142713739933 0.2517975732235365 0.060407692970148655
1136.6126437036821 -0.41462902895705367 0.25989760024521946 0.03231987469968192
1136.6208615887977 -0.3995879116738526 0.28623103511822556 0.006217154871668881
1136.6010100812312 -0.4144407592451934 0.2734298781960063 0.022254073442906412
1136.6247263230732 -0.3959906552953256 0.31653183211467456 0.007490922381487153
1136.6049391151591 -0.4008221738139091 0.33040600578878604 0.014367290106279115
1136.6003575651384 -0.4136959588011731 0.32458757829338564 0.026858448670659455
1136.5972339148927 -0.42214386483137595 0.3394190766048438 0.020233443926445518
1136.6004358436746 -0.41965894877712373 0.35228110608753205 0.013685577531448606
1136.603583164144 -0.43280159134737367 0.2657490166773904 0.02917350599640527
1136.5976234105563 -0.44216570155982876 0.25145990122714384 0.012839079579451407
1136.5851793218949 -0.4332965732623229 0.28082474585792244 0.015090228866723355
1136.59893887469 -0.4183817821529085 0.3011406654202119 0.030636937050156896
1136.5988772096202 -0.41732494160894223 0.2957109939233578 0.03055690297466303
1136.596578117257 -0.42510249916595605 0.32848387108730676 0.014105901473326108
1136.5927379422023 -0.4413711968467893 0.33287995079285965 0.01422911773439179
1136.5965651654255 -0.4366688670730641 0.34031741221474693 0.02523150140962099
1136.5970987580042 -0.44160913966098686 0.317699884509992 0.009381182475927697
1136.5911161779693 -0.44177321221513355 0.2933455517957445 0.020268725054465312
1136.5966489777784 -0.4673975667652352 0.35758571388510685 0.022319581271370834
1136.5952391882952 -0.466431517963424 0.36218862430794263 0.022390904386383643
1136.594661276677 -0.4610450918008694 0.2697626614769172 0.04223802839708028
1136.5974260184462 -0.4578274100107654 0.2768732652147434 0.0408460341885984
1136.5892680701024 -0.4605921765394746 0.3281227090993118 0.015459481538758106
1136.5841995042445 -0.4693927631953172 0.29569163997672737 0.02554410285708814
1136.5926488226223 -0.46308596892591064 0.3149538890420112 0.011295342565157615
1136.5896373364992 -0.4573811720695258 0.2927673149798413 0.042739522357821844
1136.6078142577765 -0.4252303237423354 0.37361411231196173 0.025150200013925234
1136.6013351402396 -0.463387865488007 0.38864068582602357 0.012963502375209083
1136.6142478078064 -0.41681854565859705 0.3749673469055745 0.004358128629015883
1136.622142907214 -0.40997956560049453 0.3762165398388129 0.00217220060574364
1136.6023898393655 -0.43869443816207876 0.38412506266721913 0.021121037736316347
1136.6012947109236 -0.4579474407860316 0.3769959979471131 0.03749363779272752
1136.6272558677572 -0.4303613810345055 0.41721002710770394 0.013431086619921885
1136.641523817129 -0.4182996205988138 0.43529967979392326 0.038404514133134345
1136.6318197415592 -0.4308096425068344 0.43658606213836965 0.051547470017259414
1136.6188533364666 -0.4489799889906378 0.4363697778908353 0.06297105421129234
1136.6240354954632 -0.44077242405714817 0.4237669122455018 0.0400777489284652
1136.6215475208667 -0.4538608786831883 0.43643536508764386 0.061931610164560065
1136.616464826487 -0.4651218485332056 0.41949886744182163 0.03807770659562023
1136.6221010802913 -0.4524765635058004 0.44119439479269734 0.062120333707451826
1136.6237969753674 -0.4707766008862355 0.43396039370684714 0.0070294673093879
1136.6238979672326 -0.43352001625094777 0.44844628823462646 0.07807244817492627
1136.6407923104957 -0.41187599813809994 0.46338773381103926 0.0020787458205403027
1136.6188417809303 -0.426095915093354 0.45856168784483586 0.066254922992013
1136.6011907192983 -0.43852714985079316 0.4600810524174287 0.023444246344917683
1136.6148168329846 -0.4628460285714439 0.4602800013889725 0.07516328008788849
1136.6236116133866 -0.45278513746109617 0.4132242011414413 0.018124618955559956
1136.635391674579 -0.4182620540262095 0.44345914540093473 0.04252081057681869
1136.634325241974 -0.4656730582977118 0.49064264802601776 0.015099088215294204
1136.6383572391435 -0.45735776390773053 0.498021642918492 0.08537910812873058
1136.6372625508604 -0.4472587546459891 0.5146110504790177 0.08244929735720403
1136.6321194970924 -0.4440512819947711 0.5267677036080235 0.055193817798295894
1136.6452579123702 -0.4331679835403107 0.5144573235518889 0.11156101724035945
1136.6453341763458 -0.4308281183342051 0.5023827118422444 0.033004684709693824
1136.6556796339096 -0.4288822596680529 0.5326787002212637 0.0745536826743787
1136.6445510148824 -0.4667036283869881 0.5233366966840919 0.029342189595468464
1136.6398450765494 -0.45831691521741874 0.5098661404533426 0.05819048016783874
1136.6396178495756 -0.4581443765756584 0.5424423295287021 0.1159910277450655
1136.6288181238685 -0.4416538891793908 0.5302073160458854 0.04364332466215166
1136.6544851923247 -0.4737504158457246 0.5625794784070821 0.01789102435061292
1136.6526960389085 -0.4430704108483895 0.6032558082253414 0.11233182816796473
1136.6437065499758 -0.429060346841753 0.5735166400116275 0.05245887956333703
1136.6358366204186 -0.43867862835850274 0.5422788509261801 0.06457470043492217
1136.6289258686056 -0.4458129798871009 0.5645352967764661 0.05737999218849737
1136.6308662284769 -0.4539898610106356 0.5556934050377476 0.05783591789769535
1136.6254495781668 -0.4519849895688184 0.5656610288543975 0.06012417719075276
1136.625710336088 -0.4615303648833524 0.5894181937450178 0.040219434236694426
1136.636262644491 -0.44783732635311635 0.5943162333826761 0.09042015062081665
1136.6437140155056 -0.46839175839311453 0.5835138312763578 0.07512027845995091
1136.636829211989 -0.4470170263572308 0.5943036662797446 0.09106254874038679
1136.6314597874716 -0.4294075283264947 0.582672291181999 0.03436962181663706
1136.6370166946576 -0.4507021470231021 0.5963114459225857 0.10005767817493813
1136.6407549720466 -0.45158793536932235 0.599915623305563 0.10622843501857665
1136.633131776784 -0.45581740760778783 0.5546668737528937 0.07315338193022439
1136.6392350685517 -0.2850533880248828 0.11713784278360753 
1136.6248937840294 -0.2707372840066223 0.11293476401144574 
1136.5752798168633 -0.3565171708269739 0.20758832629308857 0.02765432244324381
1136.5862180408478 -0.35715898320567263 0.12912385103611398 0.03258128146584795
1136.5781577004225 -0.3611720980952509 0.1340310872647685 0.022364510986930944
1136.5684522662525 -0.35179325843494225 0.12749139775337479 0.016637265788721607
1136.579033965226 -0.36232739442728484 0.14332453905068082 0.00946789064504101
1136.57613333311 -0.3607693083365005 0.1931449555558216 0.009828177968080188
1136.582016583346 -0.35922060357238234 0.16747655609395187 0.012940171545845825
1136.5769613607197 -0.3565457294590006 0.16496567802964404 0.02347316678329272
1136.5925937564887 -0.23090341390938215 0.1989019502267774 1.5749568003969273e-07
1136.5479076622444 -0.32950707239009747 0.2122653786751516 0.02939650895575541
1136.5494172071474 -0.3478692458726761 0.2120494639326722 0.02003852396678746
1136.5575880549334 -0.3409599560374024 0.11611562660069151 0.018784399896356444
1136.5522443890022 -0.34293465195471234 0.13085249549259337 0.021457118974664305
1136.5442488121305 -0.32806032704567867 0.13212472416935236 0.02101486689775186
1136.543119659356 -0.33737022268471195 0.18287085875956693 0.01062101228829101
1136.5460832634503 -0.3335557474240436 0.14855688642747802 0.015844932545473863
1136.5604804669458 -0.35026213955780633 0.15233234263222575 0.01368993029804736
1136.5519184598684 -0.3511669672676765 0.19393390780801747 0.03261926262715336
1136.5578929833264 -0.344225221551405 0.17591042604698948 0.03885618158907716
1136.5462277921108 -0.3283565217266009 0.17682537754568153 0.018804022272317287
1136.5529877054105 -0.3300808271678597 0.16817509634116326 0.023904893235111725
1136.5733787205177 -0.24448698123081006 0.2104113151400779 0.004073205345934284
1136.5678574827396 -0.26289657785197135 0.10815909919007805 0.0073987214827032945
1136.5651345015433 -0.25478970290095876 0.12808316559112998 0.017090607407155716
1136.5640174187085 -0.24639194892795413 0.13625264150538394 0.01096900402123108
1136.5749559895532 -0.24374284370487811 0.12906476320630025 0.026043759083222442
1136.5631700539104 -0.2535714138547615 0.1513692137029322 0.012220405625367865
1136.5681459424447 -0.24762846989943585 0.16186016363676253 0.011029608474038265
1136.5847334538885 -0.24144084893447718 0.1907914489936263 0.001321127299456131
1136.5662174447477 -0.25114858643353033 0.16972475695070263 0.01799759444210866
1136.5630374716138 -0.2511268349991773 0.20064849538658594 0.004073683309353809
1136.561767901647 -0.25286325300210866 0.15698635040650064 0.012036815502346709
1136.5423250856359 -0.2690284973842947 0.20354366113307606 0.035917722239713505
1136.534942581722 -0.27727477999334144 0.20415975832284694 0.02892992726666789
1136.5391637159482 -0.28044094471100806 0.2144735872427526 0.02993340989501318
1136.5377057631013 -0.2856321316785656 0.12778784537374788 0.03344381670940705
1136.5411414013179 -0.2761731604553768 0.11675799962928285 0.012650464918123338
1136.5531244663136 -0.2604007451897008 0.137278239373909 0.012998786476925244
1136.5346381634104 -0.27493129184104836 0.14781781439191555 0.016052819713693947
1136.5451644577315 -0.2661467384994836 0.18373981675386436 0.020751768597259735
1136.5442714401916 -0.2749612814101576 0.17372754666665838 0.029175336007536974
1136.5455350369357 -0.27743108182437826 0.1742518979067213 0.038771733138981204
1136.5436213128987 -0.26305177604838337 0.19460151928460093 0.009532551926806274
1136.5555941876842 -0.25982288648426344 0.17192348455811804 0.014088737196350265
1136.5302793402807 -0.3080971562076295 0.21792618241370829 0.0555278211931963
1136.5313942338737 -0.3141956833659896 0.1282810407146532 0.01104099516622442
1136.539987052783 -0.3072911204796688 0.11965151826216043 0.02854792079802663
1136.5360519636997 -0.2941784508093758 0.12360086311253567 0.028021620740723306
1136.537054274799 -0.31120231710297747 0.14748670873835493 0.021570484567679675
1136.5309290041237 -0.30319482608353204 0.13857716981896145 0.01952808400966664
1136.5367659722067 -0.30542996514362997 0.1694265590047 0.06656105144087991
1136.5334369807877 -0.2974407498264329 0.15805753524897487 0.054840344484718945
1136.5220328503399 -0.3042076036327295 0.19573240773657824 0.0251054515841425
1136.536250362382 -0.3116588653517833 0.16157617015726095 0.05725198283606228
1136.533644703003 -0.30501821242604316 0.19061024888875874 0.059011742331860136
1136.5325387044732 -0.30125499413200435 0.18902762092969613 0.052243706952682205
1136.5414041165227 -0.3148595665704231 0.1855793500367704 0.050449008544629775
1136.6049508446954 -0.34742724733957064 0.11133585504827234 -5.5018454938792724e-08
1136.5883479303204 -0.3576548007022551 0.24076978595668722 -8.999089747684806e-08
1136.550514988976 -0.2651318394918648 0.2251440494773528 0.019858045822238057
1136.5642172012758 -0.3442283146813272 0.23557237898746594 0.03227901518536567
1136.5759084383512 -0.34649050468029036 0.243699854326649 0.01672157138541614
1136.5658723352458 -0.25609397098389114 0.243265023749689 3.732286587657267e-09
1136.53812685167 -0.3139216207281544 0.24441451420729582 0.03324374870178854
1136.5454640408173 -0.33550612396639284 0.23465407850627304 0.021531291844621384
1136.5538742655233 -0.2845044583913843 0.2345000852574096 0.0022245167822177924
1136.582339338798 -0.3291676680863956 0.28107644181568386 0.06813056462456418
1136.5779560902863 -0.3304866025432437 0.2901028390757675 0.050348120249686254
1136.5789324123311 -0.33259734324174123 0.3030368810225867 0.026489783875410972
1136.594647188297 -0.3367064180705228 0.3047938350360296 0.01017631744077829
1136.581921890058 -0.27644603067150053 0.28583851426797685 0.014648180507036236
1136.5861123841057 -0.26327908829557445 0.3076049075496457 0.008688335851255275
1136.5696369812838 -0.2849878272454947 0.2987111974860636 0.0421655467724726
1136.5614252909925 -0.2975043811640424 0.286429852671822 0.08927395601306279
1136.5729361077279 -0.28740287993497665 0.2736879765758721 0.07130648078890123
1136.5594951762196 -0.3000207695918984 0.2715086705933094 0.15016825308788523
1136.5624846956646 -0.2983242936074122 0.2685180361878111 0.11638666201832724
1136.5546579778413 -0.295129137803815 0.3043263193412383 0.03429262254238559
1136.5612497530913 -0.31867277036985264 0.29229300034793865 0.07331537900635919
1136.56128030018 -0.3166449540850201 0.3147985776108577 0.09535869806671252
1136.5629163085744 -0.32214843705899243 0.2856922127012465 0.09181390898122675
1136.562120803596 -0.3192915899016601 0.2676298021984301 0.10899186436947135
1136.5555183528659 -0.30821408866414707 0.3151200813108803 0.09451781916571499
1136.5683082138362 -0.33200027439221313 0.31410184344172815 0.01221044508219485
1136.5578206156206 -0.3078602593686007 0.32304028898643117 0.09512831933321367
1136.5636342194853 -0.2878038310140224 0.32274414929532197 0.040263430189487
1136.5717429826057 -0.2630528835666774 0.3157874049294933 0.010296467851051134
1136.577805781994 -0.332163671134191 0.3250132659525825 0.020268960007034886
1136.586022849219 -0.335531818166587 0.32267268374758956 0.02846097013952824
1136.567516322762 -0.2839774693975986 0.31680142958584423 0.04940524323816321
1136.547903092735 -0.3009158329279442 0.32358434007520176 0.04861646115897384
1136.5782195879426 -0.3221038545170337 0.3556731257846791 0.005532130882853358
1136.5737256767757 -0.30615348764751404 0.3797561127895356 0.026780745831904807
1136.5724798667675 -0.3090232988329864 0.3678560146538136 0.01080681580374178
1136.5708584396737 -0.29053899688028206 0.3594347711751846 0.011765306221231484
1136.5768932614978 -0.2890955778519478 0.38424863632702333 0.028536992034485086
1136.5726565730972 -0.28460212634262283 0.3473854084909788 0.0362140921209946
1136.5737143398076 -0.32133210377864513 0.3802930158765982 0.02968798567291418
1136.5744867439303 -0.3088381675002206 0.39231412679887995 0.05559553610011916
1136.5790447172312 -0.3002645127091716 0.4002538569873963 0.13417180275287666
1136.5798946348232 -0.3141385565101745 0.39700890301042085 0.08484177119209114
1136.5874361256576 -0.3167404712532414 0.409718263021358 0.1261831859774989
1136.5972778699509 -0.3203959350814796 0.41416289981133314 0.1231996234546165
1136.590816702162 -0.30063962418813434 0.4667196787471714 0.01991573735802388
1136.5930894881408 -0.28499173300149283 0.43513007058095665 0.03188589543981729
1136.5992091734943 -0.2842970287984341 0.42697134543797516 0.15404251228586954
1136.601388730816 -0.28537915424010296 0.44732566286211334 0.02713224576818111
1136.5683976874677 -0.29625810837144784 0.41446470506368494 0.11519306277915213
1136.5740613726239 -0.30564686573830624 0.4313925987945246 0.1060984253127347
1136.5761376720018 -0.3132830091295722 0.4436015500412054 0.12760578407772916
1136.568415166614 -0.3175046430580947 0.42871389384878017 0.0326140719831843
1136.5859247842318 -0.3120955224446249 0.46545231681994986 0.025092435867217114
1136.5954162967207 -0.30401396500243727 0.4766333004768331 0.012785701706624407
1136.5731792800607 -0.29406887347499294 0.43362751961934026 0.055076832345223994
1136.5781252691079 -0.3068480107358935 0.44880654181623825 0.02228943223535812
1136.5718599249376 -0.30715094881126087 0.4123561207222069 0.11187174349379483
1136.571804970385 -0.30146017045428236 0.4108167180004066 0.10975101933420169
1136.7421187223956 -0.16443708430962875 0.11847780523521431 0.011677315848187144
1136.730096443375 -0.16431239349305793 0.14065990393592973 0.017803975766149525
1136.729311346826 -0.1628640860149938 0.12491615477592935 0.0049069017154894186
1136.7260063680337 -0.15521754130093585 0.18638746563796996 0.007691093496987436
1136.7235531122444 -0.1428872112987786 0.2126318050402364 0.04842013532506359
1136.7234735502964 -0.14467754614559175 0.2029521630932275 0.05559313462003547
1136.7132962676435 -0.1366607245713625 0.22233584787592692 0.037901378137753815
1136.7236289854582 -0.13883686452207944 0.11706261181164616 0.03013067204760157
1136.7134330336887 -0.13552581268120045 0.1329089582822043 0.01042674218300878
1136.714587068524 -0.13610452855521157 0.13316791036970335 0.012539378888965034
1136.7128871483958 -0.1275065711965197 0.15482272587793425 0.025758363370001078
1136.7066647851482 -0.12454577195579034 0.19869817662592648 0.025965336308473648
1136.7164949083876 -0.14236107495524294 0.1497095412469114 0.013820733261049028
1136.711349928739 -0.14592934908179783 0.17246819617694156 0.012697694291286605
1136.7102152424623 -0.12848331084001163 0.18676414918303397 0.0286323841093592
1136.7661891239568 -0.07058991512760958 0.12972685416678936 0.02550883867714882
1136.7302476644793 -0.0767266345092557 0.2218658504575956 0.05167387443214094
1136.7411397144126 -0.07371335927021741 0.13541640496827267 0.042422650190942796
1136.7424475112607 -0.07183491652963478 0.13954618997133791 0.02938785664430149
1136.7318581543952 -0.07737696426004834 0.1368307190068595 0.029835763953175144
1136.731425577107 -0.0765587941049173 0.20318152229504308 0.056641168976135366
1136.734644514658 -0.07943525589416049 0.15069791307818597 0.03121445967281044
1136.7440091194358 -0.06738018596134059 0.1770764469692264 2.521884719798081e-05
1136.7402281634866 -0.08564217986770999 0.11206771277431295 0.05563466168277915
1136.7193112826546 -0.11329234067465864 0.2179980064058892 0.036156426325432575
