x y z curv
0.7361742250281623 -0.7490613208065512 1.169777481538533 0.07945903146145222
0.7629336377431072 -0.7406115312121512 1.1702664555551152 0.016998748590302676
0.7488958326509532 -0.7616185372682481 1.128343029443907 0.05442474373937205
0.7453156242396531 -0.758128039234529 1.1418100400353968 0.045969869849410296
0.7531426724394986 -0.7629064381429431 1.110339181620542 0.024307697416794075
0.7645032061905473 -0.7579892321619018 1.1249853681998894 0.0005776900210983816
0.7799760772774472 -0.7523378633524637 1.085123744891649 0.009180090304426736
0.7529921179424152 -0.7714323368271908 1.0877497619313101 0.015565659230494005
0.7619408927052655 -0.7666827553843201 1.0882044420580956 0.005468431215305343
0.7511778810797923 -0.7687266020238105 1.0657337895469663 0.0019620432095945185
0.7542239837151856 -0.7812129589964866 1.0507051552548372 0.010029556093297202
0.7681619320971999 -0.7636954596491562 1.0671577672856611 0.01397593432205207
0.7743150093506083 -0.7640496030353767 1.0511725382456003 0.009384192004500374
0.7578722266042266 -0.7789158074875044 1.0304583358414725 0.009696110852504417
0.7609129269076472 -0.7739097525383295 1.0371113041432554 0.00813677433837854
0.7812099414747872 -0.7604534636000565 1.0205689693027042 0.001964905067088147
0.7826126539656597 -0.767782295438147 1.0055257695376896 0.0005797599072054876
0.7614782357624893 -0.7814881608695153 1.0026160751645334 0.010703358939760618
0.7748541820691357 -0.7690805760966462 1.008415782605866 0.00307257341801504
0.7729635636628749 -0.7898791283317901 0.9709449075103426 0.015522844480899661
0.7871059293742424 -0.7687455908459657 0.9772122090261961 0.006829712998814068
0.7580194505876002 -0.7856239852341609 0.9775992223806723 0.00214024742485479
0.7874563435807773 -0.7884187366433152 0.9475743366784224 0.01745991989093424
0.7747255618369164 -0.793185195537707 0.9403009806633456 0.008511996766417451
0.7730349710755103 -0.7993983047544212 0.9524639798602953 0.01222268742649349
0.7909513461511728 -0.7822238618638905 0.9549251228482782 0.017106894835534136
0.7794075654596259 -0.7948622849517953 0.9342964920850771 0.02397833200673798
0.784015993006599 -0.6965634465942085 1.1906457058070934 1.0277198824261994e-13
0.7833643433096763 -0.6993175039648406 1.2139278966167375 
0.7947010713835877 -0.6810931070622613 1.1975230327817057 
0.7843135456029445 -0.6989781926213869 1.1582733694715368 -2.863859922875001e-13
0.7913349384788554 -0.6951018088868379 1.1430448023373376 
0.799861804885388 -0.6894805524838873 1.1257419408671672 
0.8067629118929301 -0.7109407706129078 1.0813661047991985 
0.8143084515146274 -0.6982347197469927 1.0452778162288576 8.054261587787065e-05
0.805305605328854 -0.7120042098881881 1.0418634128134374 0.0009547478765802746
0.8076912816548264 -0.7101378415028848 1.0269282457995446 0.004079728179174123
0.8196523628657292 -0.7079513996995465 1.0021132863831794 -1.101362535835099e-12
0.8245267890032546 -0.6886992414869624 1.0160611870106795 0.0039335539853127335
0.8256584486296962 -0.7102810697747061 0.9915402963377761 2.1672627247452643e-13
0.7263598315721477 -0.547162826892039 1.2957345945321626 0.00010627333630715295
0.7337331861331796 -0.5582376570759278 1.3070346514664772 -1.0392695514374596e-12
0.7390817864086661 -0.5615088590966129 1.2960011403466287 -6.478809684901504e-14
0.7341683456123079 -0.5560166121453326 1.2866765824175488 0.0037353859518089
0.7580403308751096 -0.5630090292367481 1.2576128292427478 0.04179573177799157
0.744186382837137 -0.5551307424512547 1.233527553136537 0.03717307157145052
0.7346507526755253 -0.5394107573200548 1.250407017951171 0.0137407250224828
0.7392141642525638 -0.5478639913146874 1.2496751574556724 0.03842859802013189
0.7415504089449183 -0.549956221298266 1.2090731374954145 0.014799640811708023
0.7370402359372252 -0.5596830386834483 1.2259334302972908 0.008432226843651284
0.7373480788190353 -0.5540858022756248 1.2424405210756824 0.03190779239479549
0.7558632317011702 -0.563437015112886 1.219163812456623 0.03304186481615971
0.7360168721232803 -0.5420709594727198 1.1964190343948848 0.017036987775337156
0.7582445769407916 -0.5683004832825647 1.2012596824478348 0.016993416537308712
0.7377431796915699 -0.5442528211862028 1.2002361821595318 0.020591752650046386
0.7413100956136646 -0.541787261981871 1.1809398926070787 1.7331112593079344e-05
0.7477716819282948 -0.5521668599487558 1.1596961869662268 0.0011636303447213456
0.7422841634577115 -0.5482809204207919 1.1371614949632374 0.0210813090445146
0.7699603276325856 -0.5534488656302856 1.1440825656059774 0.0035194077491861086
0.7521234930255438 -0.5495215785965389 1.1374853104593614 0.02676988266551381
0.7449458650239381 -0.5340121050022152 1.1167125697595113 0.0055280205841593735
0.7497436943546639 -0.5427850880469298 1.1006143225096754 0.009127291747244116
0.7659684072540478 -0.5562055778529569 1.1132967695720013 0.016496727285598072
0.7616778550285604 -0.5440105352606068 1.096289256801633 0.01166218533589395
0.7499502785336088 -0.5420756433521065 1.1069226372211793 0.010189202829882706
0.7455654329259427 -0.5304754178879731 1.0775155813646975 0.009561272494958193
0.7705786316948482 -0.5460130045490693 1.083750565632383 0.005954486691174173
0.7528758190052176 -0.5353095759893158 1.069073820154883 0.00817763088560593
0.7539846981422311 -0.5370468455242741 1.055308172125602 0.011201101378259451
0.7645367237433253 -0.5450912762967691 1.0642302884355448 0.007983089108164481
0.7804137309523894 -0.5407227475046466 1.01874534325077 0.029728564918767512
0.7814614533987773 -0.5500970460920285 1.043800284409665 0.006120417258608079
0.7491244063716364 -0.5301399102186837 1.0252882735827034 0.02797156066299694
0.760478222130107 -0.5327139225894078 1.038143356449415 0.02069066164118001
0.7669410331581462 -0.5336863949533771 1.0405192344952188 0.008642057674009445
0.7660345512567465 -0.5311476659129082 1.0203429290887662 0.024347440839429784
0.7787872536625863 -0.5351995811065046 1.0150996655030742 0.027359880639786702
0.7550222307481003 -0.534866088441009 1.001850042325018 0.009459519766988129
0.7705867795435418 -0.5321711285488895 1.012814074121172 0.02724255083414937
0.7804497475668267 -0.5293926910943397 0.9996580518162314 0.030972025127671065
0.7671640712257725 -0.5231519732090966 0.9915563152372158 0.026055781369623738
0.7872605359744522 -0.5342380955956987 0.9851850264206832 0.025511608210631847
0.7721054763260734 -0.5215921267177763 0.9831201148884232 0.042145826418072956
0.7747955319658208 -0.5093183417492444 0.9676772846805902 0.03255169747931179
0.7625904145923141 -0.520761777470986 0.9515732234674795 0.04651024404456059
0.7873695800773955 -0.5242076001770033 0.9652159508119349 0.04634165414605934
0.7796047534062948 -0.5138622781581308 0.9656114543734593 0.043237491632245766
0.7676490823996801 -0.5110910075900275 0.9412610396505146 0.07298578838384112
0.7834366596424037 -0.5069158937888292 0.9364915395407669 0.03999385155873781
0.7868208825408872 -0.49603108080417346 0.9245416619614141 -1.692158033625325e-13
0.7863429539706854 -0.49620694586430886 0.9006272739182958 
0.7023851853384914 -0.5324610088911206 1.286220721744723 0.0023138298178089945
0.6996893737792208 -0.5353983059732694 1.2572314130304438 0.015512954728725171
0.699756759769556 -0.5330134653586676 1.247434263625253 0.017776035158367162
0.6882963736389943 -0.5199323899277697 1.254029745533901 0.0031183010860468003
0.6938761569689622 -0.5317997514559188 1.218855629256222 0.01888571005351032
0.6645856894525343 -0.521918388285261 1.2172716613733283 0.024412890511585742
0.6834572730340869 -0.5275217382833447 1.2205181757794679 0.017904990422650015
0.6823112635901332 -0.520298915757368 1.2359516692219787 0.018131603133038746
0.702263849559331 -0.5215857875800561 1.182440422624037 0.008109193585212188
0.6763893681940806 -0.518901844015069 1.1946442812080604 0.007321852350365153
0.6927536074251167 -0.5276352246259581 1.2011206438332196 0.016247864674923066
0.6831373576720996 -0.5230571437414249 1.200798187280729 0.016695169728246452
0.6738467456165598 -0.5166919553198892 1.1657424512352665 0.004401370520561994
0.6815502194951848 -0.512749379816657 1.174752309169816 0.01169211354590226
0.6923057257530637 -0.5164876467951115 1.1677113803528871 0.01282122861779379
0.6999229914589025 -0.5169311212803832 1.1524006891376417 0.01710768494495266
0.6957197851732853 -0.5074873908016565 1.1407078322171396 0.010901457461865542
0.67895544474256 -0.5041525139158725 1.1534593556186372 0.01110243490660752
0.677941180333958 -0.5045800333214914 1.1140771562217868 0.009137423816517257
0.7032888512340005 -0.5068444261489975 1.1024987078093065 0.012416585413977776
0.6984511109874241 -0.511934969876262 1.1174325666979588 0.007044033122618995
0.6950321103573557 -0.5109042509013147 1.122242561247427 0.00975903966757004
0.6923418671990137 -0.5082222152481649 1.1259375225132147 0.012464818745624046
0.6734704669380311 -0.5022361230185104 1.0815252968965219 0.013492541743494815
0.6963838126390836 -0.5032193022790902 1.0991830339439514 0.01246520202819189
0.6825418706042409 -0.4992245324006817 1.0869261050665817 0.00838585466911809
0.6741466639165167 -0.501785838919367 1.0933690037517856 0.01289285550488151
0.703879708917895 -0.5066135555587664 1.0798041168421577 0.013434301253273074
0.704889189591684 -0.5020690222673202 1.0557835652254026 0.02534217169935169
0.6745544728219831 -0.4980859140059857 1.0620678156249466 0.024440437947484014
0.6926483354288512 -0.5097757074478293 1.072537119050693 0.013053273695093383
0.7013574075290664 -0.498112698401922 1.0500720817442388 0.012497343387879183
0.693546067888115 -0.4853895280817969 1.0232105780383227 0.014884118775459261
0.6887302862178708 -0.49958575229894225 1.0507778363162315 0.0181104280940276
0.6953651785352198 -0.48950493490882996 1.0384639653009435 0.012133731709896057
0.7066817948984936 -0.49087378551335065 1.0407393668951894 0.006259026201916775
0.7039648273045026 -0.4832432396817381 1.004794305991472 0.007351740372922442
0.684580765626976 -0.4813053305391038 1.014155100404196 0.004495572620293378
0.6990460623337621 -0.48671603424909576 1.0111342185645602 0.007458441612668025
0.6882503646052051 -0.4860718772175973 1.0002731465170152 0.00723993627420087
0.7076186411735086 -0.47778538047986024 0.9742292614875399 0.009775239160501058
0.6872806479059139 -0.4736345464609647 0.9662547093425577 0.006864993850512563
0.6842644906553371 -0.47938101807921146 0.9785306195220567 0.011032513985811312
0.6949560256296202 -0.48414190146683533 0.9958294710431436 0.01344323626943972
0.6990768268562011 -0.48480634634964176 0.9883273691752458 0.009849478906365389
0.7164106537528981 -0.47243945390209524 0.9634436075184839 0.0072513880502868755
0.7107575292750603 -0.4708454026066955 0.9500404709695173 0.009898112700189001
0.7003076807375213 -0.45986906779688813 0.9428520191014822 0.0015356622327119618
0.7111995004931965 -0.4598337558815247 0.9185497915302449 
0.7260672902915162 -0.43999674066220207 0.878852291403518 
0.7226990933668954 -0.42582454427721755 0.8242621315160612 
0.71757867297109 -0.4457246091776527 0.8643614691232093 
0.6307160792570601 -0.5281795735685872 1.2407434432334377 0.003933102774079637
0.608689288329542 -0.5248221161231234 1.2581788043450675 0.010885526494244523
0.6220949499938735 -0.5236021787573436 1.2183990968187766 0.01412593344225237
0.6166449189709275 -0.525860710614949 1.2407949028851621 0.008193828172347964
0.6347948306677428 -0.524005581785366 1.2314472124893405 0.004855989562469835
0.6118116524360293 -0.5268667614036538 1.2236428496776888 0.008351614508907229
0.6028447389396695 -0.5243763927576461 1.227707499099606 0.019153586778943115
0.6069439257938869 -0.5237632162258435 1.1996918413763085 0.014866872446630533
0.634675592719575 -0.5284581542293028 1.1894348716972194 0.008182322259152568
0.6165937848764305 -0.5160928489374302 1.1913533734495434 0.007929928854805566
0.6299630510438728 -0.5160409574792298 1.156961167880873 0.027753522770093048
0.6159731128593006 -0.5138242813103693 1.1582571198509777 0.03119035732406872
0.6175863118220889 -0.5201830797021426 1.1810868315022847 0.01759056991749078
0.6035459861251699 -0.5191645285779632 1.15943582830956 0.02073679929310748
0.6038031701040911 -0.5138796309779994 1.1281493997743621 0.020326200508883147
0.6099956511651957 -0.5101802799532367 1.14680690240073 0.016980950307278753
0.627551169842695 -0.49815692715895976 1.136354533809174 0.020724842726578787
0.6147762011629607 -0.5057526086736605 1.1371774387184714 0.028711833996872053
0.5990245457432103 -0.5161384178627403 1.1192124082531756 0.017743356590150344
0.6245375480873487 -0.5010255865622755 1.123359829894929 0.02406541848474514
0.6287715362733398 -0.5052699285341804 1.1099836364899283 0.003945690216123332
0.6115116458384144 -0.5061453527810152 1.1098516092312158 0.01339386810834142
0.5953756573097675 -0.508234638327572 1.0901149379494426 0.01586180635455328
0.6230455929468346 -0.49125030395598074 1.0857179079522539 0.02322138887094116
0.6236185695891404 -0.4957299266385119 1.0988175604254709 0.01592248887031071
0.5945209962195853 -0.5018938669205474 1.0499451386452263 0.04603513190071465
0.6011343602756641 -0.4896032340620982 1.0548947599389127 0.03023538419804911
0.6098109280928371 -0.5003297612667449 1.0741187748966372 0.031305100065948055
0.6238399183857654 -0.49797602646285855 1.062884903885014 0.02858516895102692
0.6291591950694712 -0.49596645696103225 1.0454250195749784 0.027661128656487448
0.619970098874962 -0.4857777411805352 1.0349694820288893 0.0351401699940637
0.6215827415133998 -0.4856831322231526 1.020728809145966 0.013784111145634192
0.6035387854721982 -0.4964386523219692 1.033132306493596 0.02668671342398838
0.6146904079443609 -0.47455086845036654 0.9921960892011631 0.024501233609951933
0.5980366693699534 -0.48868648087858096 0.9970970675544463 0.018199745345094387
0.6089589698438186 -0.4899884506768307 1.0140437960056516 0.013072710113137003
0.6136162973420155 -0.4769784162338953 0.9682773884936786 0.014804605933462169
0.5808215600789381 -0.48647968990718854 0.983010879379343 0.07989271904028772
0.6160410042729624 -0.4723702066697158 0.9886547086685206 0.024294353179802507
0.6249143142827771 -0.47462398702600644 0.9847949361982747 0.03235331365841126
0.5986001377652542 -0.4660476693380262 0.9658281165392252 0.018699663018359933
0.585240824186977 -0.46771817352917483 0.9413067093473566 6.685143451291501e-15
0.5842580382163333 -0.4749431551115563 0.9171981857809416 -3.446023101449198e-14
0.5807461256833774 -0.46417687477487385 0.8912649904471466 2.2049208488005288e-13
0.5867971526677764 -0.4638855731372198 0.9023134958336136 0.003993067095472728
0.5881095695064861 -0.4466603083948264 0.8811961530054184 -7.195570193042412e-14
0.5867635988162759 -0.43935043029515297 0.853022604924994 
0.5728546559898275 -0.5491964719314507 1.2961524987594932 0.0025181975958476106
0.5637395645272578 -0.5589545776009517 1.3090958258693548 0.005875444123276562
0.5779945072010135 -0.5509182845624265 1.2780849562354877 0.0030655300549759035
0.5639788596654236 -0.55498639067097 1.2855166106808198 0.021711610559478206
0.5620516769101732 -0.5574076193584016 1.2441535886511164 0.0585725036798006
0.5643098848378372 -0.5573930914458688 1.2544740137610826 0.05178286658333389
0.5557805119050402 -0.5594351466378233 1.2631426372052639 0.019436134724742996
0.545440990076823 -0.5744002885027526 1.2249368617272987 0.14680269230029014
0.5736875729743968 -0.543747163276279 1.2313056382439604 0.0037733220465292635
0.5543953899842241 -0.5545344446681537 1.2156434781362468 0.07627559015097198
0.5616276453698839 -0.5541361497004191 1.2225148352253854 0.05972015117212464
0.5425874015467589 -0.5631361010060069 1.193410238728141 0.06351189983950431
0.5783989161465655 -0.5522377477214329 1.1889761548541995 0.04260354876941135
0.5556580477335411 -0.5397003146356751 1.190429170806262 0.014001951566254285
0.5396123270855178 -0.5540206253789852 1.2013375437015956 0.0021454591963863162
0.5372542713454659 -0.5602580040194499 1.1566666345411123 0.02863909672277806
0.5749004741316125 -0.5422014337890867 1.1626199908778942 0.04722591055752609
0.5543880881189938 -0.5467717884130198 1.157343821662349 0.040766604861044844
0.5397821468467101 -0.5530278100950399 1.1690598007609982 0.03085700175533943
0.5359713016873544 -0.5700683252327238 1.1253041638604782 0.031391517359726506
0.5595281972466549 -0.5394402242780677 1.144532579547798 0.03916060725690241
0.5449376427587372 -0.5602328541575899 1.1444446766405663 0.043853053966930886
0.5444955112886264 -0.5503270988087605 1.1382448868508563 0.0385773423989998
0.5498281866728068 -0.5457455215571563 1.152326124691195 0.037142053556680356
0.5474837005419911 -0.5477696063759895 1.1038075900385016 0.02331241822307427
0.5339033227391771 -0.5526455140986658 1.1207629205856902 0.025361364625725042
0.5565869188544234 -0.5388978101410189 1.1180056470585529 0.033957274148480904
0.5534148863978365 -0.5391708558640514 1.1145944720256353 0.037350616714774035
0.5430576075661739 -0.5619918312560747 1.1190949457998312 0.03131864664946113
0.5464653321418609 -0.5302015882783409 1.0973872008330026 0.021100579967338405
0.5375433679727012 -0.524178531146525 1.061355166627732 0.01677270005501736
0.5296536849976741 -0.5481974111191239 1.0724325327479238 0.009938863351480958
0.547374987798291 -0.5280491499356254 1.0710560464159415 0.022599803872546665
0.539217484219324 -0.5466178525539678 1.05587158340004 0.03061415136707879
0.558126405521968 -0.5274522176116497 1.026142603799076 0.0054177633621028285
0.5332144905859042 -0.5429315207183598 1.0377224500991353 0.06097524072862192
0.5408246324450813 -0.524408434168865 1.0423626865829367 0.09321139425238326
0.5368138164346343 -0.5197136604437792 1.000782018576287 0.041936851575833746
0.5145818746633226 -0.5415066220515512 1.0093049218392596 0.030132162341229184
0.5172835761499827 -0.5300201115445474 1.0096600362359802 0.01616517151098376
0.5366634117671801 -0.5163302488230818 1.0205259421919155 0.0573853788646512
0.5093687910552781 -0.5334507642358525 0.9802159288269804 0.013789358608609713
0.5255596989063808 -0.5057156849415345 0.9689243266876189 0.007278412711166741
0.5412514193600871 -0.5101798046165001 0.947550293196871 0.00048202999783896437
0.51818320670701 -0.5159184599825056 0.9483692417095579 0.046932659586376504
0.5148348110702055 -0.5268017678732562 0.9645616673299418 0.056063786246042614
0.5119172321932589 -0.525445147369727 0.944554984321634 0.04876441701919018
0.5195550016591688 -0.5014610157635724 0.9255108977125349 0.028232585608467368
0.5049317772929615 -0.5319322009647813 0.9214516043969627 0.009629187568051168
0.5242953237370674 -0.5040315564248061 0.9075379210676688 
0.5219679557004117 -0.6332766365952044 1.3355734513319724 0.019456800893592575
0.5190670536296668 -0.6322467645716292 1.3032490861471502 7.096464350838561e-14
0.5317056852792621 -0.6332093187828278 1.2737171256384825 0.03439626080597906
0.5250627441455296 -0.6188960442065705 1.270259757811511 0.02537263074677121
0.5305345173942887 -0.6344337534416636 1.259878525090677 0.006976870110603744
0.522462085914292 -0.6151085643648377 1.2533343225316855 0.011733691838726657
0.5185703524015907 -0.6265603270299345 1.2469453830635973 0.007859308267551792
0.520077476193639 -0.631969137304954 1.2294132318195818 0.03645704244449314
0.5323345485808724 -0.5992864176084535 1.2165034935237586 0.0018877350494041212
0.5196556685294828 -0.6162520347321746 1.2195463851449508 0.023912389153914738
0.5194708028925377 -0.6339780915426154 1.2282979374167928 0.026262391524325614
0.5192836450085372 -0.6009338304798758 1.1948123456142692 0.04635196750053967
0.5141322732943261 -0.6221821815608869 1.1878970735552916 0.023898163776359175
0.5116165316220725 -0.6203952307560175 1.2017619841096656 0.02621353480837749
0.5212236455492354 -0.6272378755312809 1.1831610137371054 0.0059174673310518466
0.509442654130431 -0.6033149692032743 1.1603485563112672 0.0072874385610664965
0.5087387069451215 -0.6174000508752351 1.1557291504535618 0.008668857419211183
0.5113740962063746 -0.6046152649379694 1.144311430099608 0.01685063730234121
0.5113159131134125 -0.61269222341635 1.140805867136407 0.014662809354845725
0.5085887261123863 -0.6308857461075992 1.1362992746884415 0.006741567829035234
0.5054395426079905 -0.6002248093693245 1.1206737576034072 0.010341935316300222
0.5095420908336774 -0.6010624668720945 1.109074635862209 0.02229756266464604
0.49976231343567035 -0.6199216354399987 1.1119987001918792 0.013249594908661533
0.5070194789648743 -0.625960502089789 1.084215246076135 0.006274323419394256
0.505975665065318 -0.6030981073690881 1.0908594967995864 0.018451530788599204
0.4990804900155263 -0.6217432987402138 1.0987843581263934 0.018876355349938638
0.500174829095931 -0.597358571533249 1.050579450385536 0.015513168750077407
0.4970890312845169 -0.6132672610480205 1.0552833025392852 0.018584062128081332
0.4887246627839644 -0.6297587943026524 1.0559406820865542 0.028125481766944075
0.4966397521009865 -0.6208765303471983 1.0686962186652715 0.02102859971385746
0.49847658354907093 -0.5978578104089178 1.0627018046812222 0.021491672923759857
0.4953935980437518 -0.6060930215030147 1.0639390451313506 0.01586207522281187
0.486107751139392 -0.6267323564736748 1.0343275410650543 0.007261398002710752
0.4995248432848808 -0.6013981767844463 1.0386418273589886 0.005772759127404564
0.49383211194925797 -0.5941986531676131 1.0335375839121381 0.011694374772119818
0.4889468650931048 -0.5959051772674835 0.9908246240208125 0.009273017490867055
0.48385246931566844 -0.6055436729941182 1.0099888251037243 0.008703747015165911
0.47851562530454933 -0.6157625418154153 1.00976950840168 0.009800519361121203
0.4795393202617235 -0.6080935781771741 1.0030494345454266 0.012839731459167895
0.48702374374543395 -0.5877759423429112 0.9803322019087474 0.01034125504774495
0.47484993012205395 -0.6071119149089543 0.9841085365312724 0.00814516130577292
0.4687469802399755 -0.6171636152340341 0.9763618915266313 0.004273571542138095
0.4699741897048613 -0.5996766063625582 0.9546574821722383 0.010356052309947858
0.46400691953179996 -0.6094543218420042 0.9716892845709537 0.006415017139209125
0.47009196707378886 -0.5942945298772442 0.9337752064915873 
0.4554588512082271 -0.584005394023058 0.9158486840617602 
0.45210467050926306 -0.5799508663852517 0.8765724658391137 
0.4438229199633559 -0.5856759411732338 0.858255949821565 0.00112040162042868
0.4235105346066283 -0.5956067322763327 0.8341559252793267 9.999719913343307e-14
0.4343850128575797 -0.5838735123913765 0.8313691933510114 -2.7798299444296117e-14
0.4262271799573938 -0.5864710947159393 0.823834350090949 3.098869214820046e-14
0.7825190428655158 -0.6054449204373785 1.196627498132788 
0.7887479016551086 -0.5941164114699623 1.1538411195876233 
0.8056343133202495 -0.6267094621536715 1.148228279684492 
0.7897738425298213 -0.5936210213311824 1.104750262706263 
0.8082399464286314 -0.6201887739512333 1.1243133775054692 -2.4791941364065027e-14
0.8001195954781014 -0.6065764509871179 1.0878902908469266 8.992979670689477e-15
0.817625052424536 -0.6009339325669361 1.0669909560668167 -1.3350270106378002e-13
0.8161841854350009 -0.5981848102327224 1.0288760555391572 
0.8224912333386921 -0.610485558680831 1.0334858439386738 
0.5345872731941389 -1.1118891528495416 0.3536555125936987 0.019922545303689934
0.5460400401947715 -1.112196955027382 0.344112357374319 0.02229933775593929
0.5313758576488138 -1.1105712686965425 0.35397363952109584 0.019803510313393186
0.5040741304048736 -1.1007934351502913 0.3533016771702815 0.052056816712577905
0.7697930695140801 -1.1072505890535829 0.35871225671472673 0.036979547889662845
0.7695635482912564 -1.1046600439952656 0.3451663943132788 0.059678466289408226
0.7530273003802515 -1.1073856422734736 0.35133791664927944 0.006053018263936345
0.7689193832186773 -1.1020346110209256 0.34062809248330034 0.006709386855845369
0.19485459120674242 -0.5108051017827108 0.3588104368375084 0.02507666019859292
0.19675427460781084 -0.5398906678197951 0.34125138779144604 0.007974025037376905
0.18984274399677514 -0.5443426773485678 0.35620420053861646 0.033442916214176846
0.19144367553436997 -0.532141488282121 0.3636916450835329 0.024873962995516013
0.19539317871088613 -0.7921128254248602 0.3634723926370689 0.042980242771942914
0.20220168053962542 -0.7747614513171716 0.3441085294180901 0.02239243623872025
0.19620297409358603 -0.7665729758126888 0.3391102504309077 0.011890767765232553
0.18830030246377577 -0.7757871333393286 0.3597968810707718 0.040982998698086824
0.787888447867901 -0.20019461927979912 0.3452137828373109 0.05069485325747009
0.76387874761562 -0.19723733453988185 0.33751723992645344 0.07898948263034455
0.7595625864799732 -0.18625836500302229 0.3586099684058156 0.029570234631957924
0.5052284332972006 -0.20172361327509203 0.3692027616750515 0.023868007707692082
0.5324967020707263 -0.19833039227923766 0.3397802158060254 0.03162875407919614
0.532016955504865 -0.20060920861317016 0.34662634487399424 0.04364336606943872
0.5142498795197181 -0.19693073655966423 0.34535430763140346 0.02966723972277203
0.524684769705465 -0.20529592525558718 0.3360735603575034 0.025737745202511153
0.47220465981288157 -0.6480743915452226 1.5299512758720395 0.01204548470818343
0.45948835302096086 -0.6414127443534221 1.5653545173388888 0.0796568654283819
0.45806175475326055 -0.6247849482424561 1.5564108350976378 0.026889801262826453
0.4611547137439922 -0.6575295260907232 1.5661775158921774 0.08386691021765454
0.4670229026147644 -0.6555841042040197 1.5406161740730233 0.037319154365437486
0.46689948716087964 -0.6566116648147864 1.5307418291490293 0.009988305770977663
0.47137427015488803 -0.6701274307184844 1.5271328589608288 0.012348447142268468
0.467915596721959 -0.6699524287443865 1.55931869062697 0.06122633089853791
0.4622477010455636 -0.6682921913439122 1.5593533166444575 0.0547291519722992
0.46324655299430273 -0.6753421081448105 1.5753210616374778 0.021899780218693488
0.47650745006125905 -0.6287244676911118 1.572010695503767 0.14744685036271069
0.47281398975664857 -0.6412458784628198 1.5380740520737617 0.03184166334523464
0.4820242300802673 -0.6723285329437308 1.5659224543037988 0.10247639334536317
0.45787842141830604 -0.6343436718029228 1.3846048895320704 0.0963229667293298
0.49926027807569134 -0.6251149569068764 1.359628186517272 0.04419693308024312
0.4583403166235993 -0.6288956093801751 1.3695829949133742 0.06407109447518293
0.4403469113667564 -0.654893414373063 1.373712588042886 0.10286649379277996
0.45141649956142876 -0.6465853094627624 1.3600661811218804 0.048534713957994524
0.46505279702836666 -0.6821200805211663 1.3703682784024074 0.013849899513472931
0.48962896133048767 -0.6790450589259901 1.3567777948321642 0.006977380890744483
0.47823995601489044 -0.6205812916129315 1.3636428345516034 0.07865018450704551
0.45467237460898796 -0.6631010330781554 1.366911191162235 0.08098114888981701
0.46334143718006326 -0.6492971276671702 1.4098980828991425 0.000788229694795804
0.4752219269279806 -0.6518924408529974 1.3566922055472985 0.05636784839435445
0.47932636396208994 -0.6607675941644312 1.3483416121310607 0.010588704218176991
0.512346159855538 -0.7260795269976273 1.2614344004817586 0.1207179216131378
0.4972047789657319 -0.7383661281735473 1.248310715072818 0.011309182581397018
0.49856673058980217 -0.7358699379504965 1.2675700698196597 0.09232371880187075
0.503758136377618 -0.7408714628186837 1.317861637692177 0.09817670860574922
0.5047620753636225 -0.7545740721419989 1.3315616491288824 0.03582614513883494
0.48944570151587813 -0.7371872413055394 1.2939959860388337 0.031145709633501058
0.5232877719954772 -0.7662729650545157 1.2879899710302583 0.02492436737867602
0.5196302766645525 -0.7469972666875255 1.2607066079355043 0.08798836736210314
0.5201063152233573 -0.7585078628510411 1.2687890145260157 0.07201770361099445
0.5312692482481165 -0.7573356902825882 1.2948561542222803 0.09097332713487484
0.5046181197181642 -0.7496916473077999 1.2948215889425057 0.03150574262409297
0.5230252095727924 -0.7569950447250547 1.3088536834440465 0.06390923023571257
0.5187454039777613 -0.7612787514107141 1.3315673065684785 0.038593630202251025
0.5333168916151131 -0.7515296432546821 1.3055675206137618 0.07354290800377793
0.5181610561645293 -0.7651793069729693 1.3421203490225218 0.02175743238210635
0.5125339786033187 -0.7508875178200571 1.3213319010618425 0.05808618489324923
0.5032888045787495 -0.7471018343272104 1.299107154839286 0.050646469673147454
0.4953489867176108 -0.7317272706634662 1.2730258963698953 0.09214475233794879
0.4900963930105418 -0.7199159232591431 1.2733877393223492 0.1373679719276768
0.48507827836402057 -0.7157089331935976 1.289014966012425 0.04211691608645772
0.48188517743518056 -0.7253588946658124 1.346834312050235 0.11578435282347553
0.4900860393563716 -0.71965630139079 1.318948537579745 0.09280150133672105
0.5056931775477085 -0.7075326582335499 1.3315386832741316 0.08302394272911232
0.49980519234997345 -0.7107082068679993 1.3372563903053856 0.07379429208938726
0.501179136382488 -0.7080188892216193 1.2928926500792342 0.05680464787206674
0.49059959440267736 -0.719477840643183 1.3280139707649377 0.10228604886658063
0.4808458227899073 -0.638036061207359 1.5889785490128532 0.0056284629984736335
0.490233991686811 -0.6577946586835565 1.5960010926144539 4.718106426249555e-13
0.579945899379931 -0.8254673027590932 1.374535862987718 0.01911729348445801
0.546696067438619 -0.8239644746739982 1.358466442712625 0.03930646758625756
0.535093829640564 -0.7929738660323423 1.3643335199630091 0.08836797855126063
0.5610453410733536 -0.8237938173653014 1.36634748608883 0.08019318459109305
0.581240178099297 -0.81977499830419 1.358614157029646 0.005460762175853949
0.5317346079900226 -0.8036017812931486 1.3616031809358964 0.10674646996741181
0.5876506293906674 -0.8098893303330762 1.3582263757728978 0.007662480027695377
0.5550281402330262 -0.8146796687157737 1.3984412097967205 0.04971938570564331
0.5523290013257681 -0.8128727650953562 1.3885143527300483 0.05461902616582722
0.5558462502010986 -0.7861719028236444 1.3938507073238897 0.0033631085515580424
0.5586031637174381 -0.7957005541518579 1.341732662645546 0.013040409852081996
0.5597418637299665 -0.7792178010364242 1.5516414152853053 0.07972186705364927
0.5426229736721535 -0.7974215378430085 1.5654649328093373 0.15079478820306172
0.5374775003938635 -0.807524167714232 1.5714139902294764 0.11989836145193805
0.5468016828435343 -0.8156584051543946 1.5564996143648695 0.15142299688863775
0.5427523445936382 -0.8229932091079573 1.5647682142086334 0.09362537894232456
0.5568264423999042 -0.8162742035190527 1.5333849621332976 0.06539560800629879
0.5534126600116455 -0.8030382580847593 1.539646833696622 0.13115848686764192
0.5448607086780719 -0.7888572048999537 1.5435310755454204 0.06508722047443834
0.5575286580490663 -0.8109652555133504 1.5291378587610225 0.13255715161353823
0.5794204043562623 -0.823854201951683 1.5594894962435208 0.04930390149664688
0.5876462101740689 -0.809513263806114 1.5426279523884756 0.07962623073094456
0.5450791653527284 -0.7883369679580642 1.5613667452204647 0.11410533492485214
0.5584495388989583 -0.8207959767828603 1.5586723854152884 0.15087433422842658
0.5868019350917735 -0.807950538637475 1.564366831297572 0.009117579195997738
0.569814801925621 -0.823032519637152 1.5657265418114337 0.12762074203506518
0.660677532606444 -0.821364829988796 1.2431438319864263 0.14357756837036176
0.6595337923896668 -0.8289657682532411 1.2497059565659452 0.0965010701468817
0.6559961363197353 -0.8258412734047138 1.2777645753813285 0.04368177722946224
0.6464195214626569 -0.8252895911034462 1.306328993230625 0.03872850408382171
0.6558336415335104 -0.8171321723487875 1.3321905574737694 0.029763236674763497
0.6628920313679263 -0.8209509331997872 1.2955796683452308 0.06813735570554243
0.6626698406878156 -0.8259417120416006 1.2841170629438212 0.06293017793615682
0.6818020411891654 -0.8072038067531109 1.2705523776420686 0.028311772641269415
0.6753044477426604 -0.8312147725342747 1.2671846528984685 0.04212768231638423
0.6671668021295039 -0.8241667568202499 1.281754544784846 0.05041670977031573
0.6771727866209121 -0.814562255413011 1.2939783679066277 0.07948695683981305
0.6755403181736543 -0.817237225564467 1.304982635061206 0.04367419755239173
0.6790252653695541 -0.8247413807784293 1.3363414399511582 0.038279505322143484
0.6758455135625664 -0.8287088991646101 1.3160926152612178 0.02850459426142875
0.6678467320811712 -0.8227967996979332 1.3138718419038395 0.03133989676718813
0.6794333873866242 -0.8082166868898452 1.3054188177325732 0.04092889359569412
0.6193456660745847 -0.809567265199404 1.285945510384979 0.04223561064358923
0.6402728447223417 -0.8201050908898291 1.252873837592096 0.016124067563982034
0.6208842290474889 -0.821525149232578 1.2772526433936149 0.010791805135968799
0.6279711189085003 -0.814808163494599 1.2898063039883874 0.023303687898110697
0.6241242883011767 -0.815895895462796 1.306858634007427 0.022514060120811943
0.638663412398596 -0.8214012899646133 1.3417920180069198 0.01947607439541109
0.6390157340150565 -0.8273565517302983 1.3226529992320255 0.022702134513429673
0.6364751043759508 -0.8288964948313868 1.3132189284802662 0.017071175871555325
0.6218215516130936 -0.8162473059929025 1.3279794198327532 0.03313329653201495
0.6199870999998289 -0.8191995781276673 1.3361028551252356 0.03686194210656238
0.5573709105981783 -0.7919597581815255 1.58777323294123 0.005381038347002426
0.6001039978549805 -0.7699866857985265 1.5881193812067125 0.057052878922129
0.6073065536190458 -0.7572756371459283 1.5858764618639325 0.08583328719993578
0.5790015900703364 -0.7617733245421429 1.592543562429662 0.0756928986415288
0.576719192933818 -0.7607138172978188 1.5732596072757374 0.10151294604746877
0.5897617191424374 -0.7504040937268833 1.5716345867631134 0.08659511501526237
0.6166853361417599 -0.7428293124691651 1.5707678758490846 0.031565004478775256
0.5803433695202523 -0.7540692437359346 1.5928107288129085 0.06366376430670234
0.5990374511012083 -0.7669200187496459 1.5940956938687056 0.08700419187065767
0.7324331923406402 -0.8213038386801411 1.3882549543433882 0.003119390122913676
0.748269034576772 -0.8285561841958304 1.3694131146703161 0.10470865221359225
0.7651191103985466 -0.8144990012966263 1.350078417220343 0.023543380171226095
0.7199683727057788 -0.8236407765061015 1.3613797563225916 0.04451472535613065
0.7777464697272574 -0.7968671379380741 1.3670664691973518 
0.739339249877777 -0.8298867115587011 1.3504875835761094 0.06826777849455937
0.7396075222881254 -0.8142443902892021 1.397650901791346 0.006028123146165678
0.7373206954285187 -0.8017069497093382 1.3451918928621538 0.060497969584329084
0.7080116135256442 -0.7893435687122553 1.5667074817190108 0.0031645926889823884
0.717361945861865 -0.8169791842913834 1.5579156516698518 0.009166530567925294
0.7406851323201511 -0.8251951535663333 1.566758370389634 0.03729477585205092
0.7436301278539512 -0.8188973888999682 1.5599127720320325 0.09005077949456403
0.7548892276799032 -0.8211857891393198 1.5474191895707952 0.0769061159248777
0.7368517515401066 -0.8263132740069898 1.523778290400579 0.009950970733465852
0.7588531705402064 -0.8153416715189177 1.546325805325256 0.031104973021967824
0.7629743084932112 -0.7882218869332437 1.538887629912958 0.014841249036484205
0.7573410201041162 -0.7963224583714033 1.5662484875343774 0.05668160967642607
0.7589629590102686 -0.795920774140121 1.564267368701056 0.05646528906705973
0.729763867777627 -0.8217691201367866 1.5653296836370592 0.06504944137971759
0.8055134453453566 -0.7204266357015628 1.2641645821942846 -3.124031511533625e-13
0.7963525239057356 -0.7273909253174572 1.243464812645617 -1.7633570380697543e-13
0.8072651990924736 -0.7386153812159082 1.2737852299107801 0.04713961225234109
0.8099283041817628 -0.7353289268441165 1.3129868214522618 0.015414796013887884
0.8217738417738388 -0.7104524103853465 1.3234317681321701 
0.8179034461978613 -0.7160492098744924 1.3363483845385804 -3.3136763094812646e-13
0.7779837396720621 -0.7457235242721939 1.2889195819352104 0.035844920872918226
0.7959293878986292 -0.7483788117427549 1.2804526818801 0.06005486750710613
0.787644807338184 -0.7516544185385073 1.2867593174009306 0.057499045712585455
0.7842496326948184 -0.7539740470671649 1.2739402974044396 0.06127224111464035
0.7894285159375493 -0.7615673614405308 1.2532327078350192 0.008847333408647653
0.782221364305112 -0.7551404322676616 1.2976482088983476 0.04980570425789729
0.7877854854050401 -0.7562583656412997 1.3023760890891833 0.05232455918649518
0.7920947308285623 -0.7611030414123287 1.3233939924387013 0.015019545575015017
0.787639862078019 -0.7687198316534636 1.3158268886177977 0.011963886734592413
0.686925459240736 -0.7366243911572429 1.5835613131130983 
0.7169641288314041 -0.7859354081651202 1.603104019867956 
0.7102962822916604 -0.7748335638947086 1.5987095244034792 
0.848559509744221 -0.6725435247878214 1.3575130363289094 -6.523759588232893e-13
0.8544566637023585 -0.6402370246463563 1.3574328620174645 
0.8502569843877309 -0.6483156759626053 1.3798458003905987 -3.0983585416790744e-13
0.8441287363309566 -0.6582198273316318 1.3932222543614792 2.565405924156641e-13
0.8228817902249119 -0.6780499475035138 1.5618677655898368 2.1989895923118862e-13
0.8414020621510889 -0.6707233746822999 1.5587317009654746 0.04426495120298351
0.8380058452440734 -0.6656160383957243 1.529951166017853 0.02689435055333628
0.8443203407819122 -0.6494399425149248 1.5263682071487978 0.0039545637315533365
0.8407185023868283 -0.6381594221300156 1.551295674923941 0.10458885077498672
0.8439342298499124 -0.6280774528912008 1.5609580775721612 0.08043983780185401
0.8184103974544527 -0.6262751212070046 1.5732628275549718 0.0009253022915838674
0.8425059859220303 -0.6350241042443776 1.5683880453905734 0.10754507590277385
0.8443659004234937 -0.6289818505129096 1.5615377971369022 0.08001912419024473
0.8486981538528243 -0.6537793139892131 1.5733464116845763 0.04037169454289079
0.7817249317076167 -0.5671726430155164 1.2367519681806265 0.017482417972175417
0.7873755779354006 -0.5561478274600483 1.2665693145920411 0.029399163118042703
0.8054948185289816 -0.5632303590088036 1.2621837205087811 0.007291559819247575
0.7957615438947512 -0.5658469542173055 1.2445905653820672 0.0053407689749754884
0.8017198487124327 -0.5611284126569036 1.2722738181304445 0.02935283823626347
0.7822596921503033 -0.5529891142858637 1.264839064253212 0.027399704874463353
0.782780595465737 -0.542362675942292 1.2782250933410038 0.009690409965739973
0.8009584660027487 -0.5482102198892589 1.2926191196214833 0.010710348934046352
0.7961916322246378 -0.5402091248778936 1.3391552855469036 0.0017474418314546438
0.7816865010710997 -0.5413615499596424 1.3049888753845806 0.0251384093818323
0.7766162727018314 -0.5346191896677523 1.3135383334892237 0.02875761456355284
0.8114843946701998 -0.5701024879455239 1.3073493340862814 0.0035924833468172638
0.8181908081186972 -0.589581423558613 1.3065108382440633 
0.760192093981569 -0.5077643293601013 1.3575521548464262 0.0016402062883241033
0.748041208742581 -0.46915840444833473 1.372072077109606 0.047806659575264296
0.7581566329718249 -0.47723095418086264 1.3689105725929311 0.09661555557486463
0.7160837318906889 -0.4806850825625779 1.3595051019461422 0.07319461385602431
0.7690187977074935 -0.49788287319870866 1.366746665818879 0.003593916430906245
0.7254783208382835 -0.474738981880821 1.366217716738709 0.07414309941325893
0.7602832636424912 -0.4897122455673476 1.367066390965872 0.1309382098534183
0.7318343901304268 -0.4820540334058264 1.3852098972816953 0.05640996948737083
0.747992542620033 -0.4909965981095605 1.402825136093167 0.03308326658930433
0.7315423813003087 -0.49890914989320817 1.3397548350071935 2.7133140750418874e-13
0.7556419713041428 -0.4932523337221989 1.547028427106835 0.05325144440810232
0.7632520260471883 -0.5069815577781609 1.5588076153146082 0.011314637970684995
0.7561711717038873 -0.48107083324099065 1.568570258454351 0.07470376438757341
0.752989646095858 -0.4931103748459003 1.534732030540233 0.03550125625559682
0.7550786271081211 -0.49898041904377793 1.53147536953916 0.025935957681897458
0.7193581911667122 -0.4855215591249881 1.5505508287923804 0.018714322076248447
0.7369743215373001 -0.4820934548289304 1.545794172836018 0.038687436210873484
0.7377145152701687 -0.4790600438415058 1.5699935754030006 0.08950458064366132
0.7371828808937327 -0.49075084747911196 1.5303623574386782 0.014895392641394889
0.7601164039445252 -0.48861694734468264 1.563975257074995 0.04038903342192694
0.7200564507112704 -0.48562157774242065 1.5625374754349133 0.10857490879213817
0.6461289229526114 -0.48360176554793904 1.27127420551618 0.017859454042589127
0.6545591852650258 -0.4889125592442703 1.2518576528991403 0.016394191831886864
0.6649308219854012 -0.48480253723268063 1.2586239308136065 0.0226740162750015
0.6451283850998557 -0.47567054100690936 1.3091109946745405 0.022367833013998507
0.655922478640275 -0.4825265245226647 1.3086002881605268 0.02870489762970982
0.6463366760928635 -0.4833949604090567 1.2835520485394851 0.020891361703244137
0.6250216164556501 -0.4813083898846384 1.2767875971475724 0.03323311164537348
0.6186768103484352 -0.478527242851359 1.2650195840568992 0.01828028755123841
0.629811115301749 -0.4812827374659022 1.2879917797112141 0.03370845836356981
0.6360431658644689 -0.47838941921573447 1.3075437071476212 0.02522273000581065
0.6127036042781566 -0.47369260960842946 1.3457918894706604 0.000581725975791743
0.6177944307278943 -0.46915683719844187 1.3200180357320674 0.02594687364621384
0.636347092620324 -0.47005314590972125 1.337143154422678 0.020206801924509042
0.6325518165024618 -0.46887206223629724 1.3115928385523412 0.01830822527032906
0.6233680972704587 -0.4871391543522352 1.3018816772076187 0.0105208354331287
0.6269572995922709 -0.47884610290251084 1.269108665283319 0.018711547327150767
0.6615557360577534 -0.4791586660345882 1.2791961509578007 0.01481957055651657
0.6732602862616581 -0.4785419151068539 1.2956211022962287 0.02029898636942846
0.6745336605267334 -0.47767033486464217 1.2661551523086398 0.015347913553518274
0.6752663705512737 -0.47582481793377396 1.2793181620620975 0.012669030099889395
0.6835759577155988 -0.4817868596915009 1.2886227671330808 0.007397877700110721
0.666181163518847 -0.4828393048943015 1.3061402900160153 0.0328294180096045
0.6693687662846574 -0.4805450547233444 1.346908168569746 0.027454374454949994
0.674393725789227 -0.474087845769959 1.3206881611514654 0.03364370549824434
0.679049147488069 -0.4849948876137846 1.3324309749554433 0.0054953423907519025
0.6726480728146116 -0.4750603980384328 1.3236032853589212 0.025006981320388328
0.6632293145544758 -0.4807030334838085 1.3143869350811406 0.027240916045477407
0.6814335626834485 -0.4726836990697432 1.306931990643234 0.0288296882827206
0.6783537261589958 -0.5660781342931759 1.5948597529428228 
0.7172070507286903 -0.5141003016028529 1.5903486377393141 
0.6806292002527902 -0.5785271292471136 1.5733257829522156 
0.546093152594972 -0.4934919904560954 1.379147041648279 0.05868088055823389
0.544063233575234 -0.4837301846497281 1.3695229436729404 0.10115728515089142
0.5428668108503646 -0.47864536904872035 1.3676810101162309 0.08067472692753293
0.537970797716903 -0.49174862890446686 1.360271282335484 0.07241371785828286
0.5867485704891598 -0.478763329811418 1.3704248320484063 0.01617322605788613
0.5642648554352035 -0.4679494007048116 1.3554585372960042 0.055819083476984645
0.5341097222195778 -0.5128030636174746 1.3741319373890057 0.057623303894861075
0.5493485752301552 -0.48530717521998007 1.3791301258028619 0.07812690161872726
0.5639394527601383 -0.47697066008492595 1.3907066158984653 0.01805251139303329
0.5601232737962873 -0.48110792188653034 1.379891373711986 0.07513902637634952
0.5480420735608126 -0.49868856191778566 1.4043814473058303 0.02725752699220308
0.560870783515885 -0.5050127858929016 1.3416878891768362 0.03396557394035219
0.5543587029796941 -0.5024356251483987 1.3537735257811425 0.10961346615564954
0.5814251873833846 -0.4920131361941448 1.557860589699966 0.11053785568572705
0.5855284743366688 -0.4955012799968074 1.558425431594346 0.1066061688715775
0.5491051192919892 -0.481906663451754 1.5606603078719512 0.0897872692327434
0.5726107384919996 -0.4841739109144499 1.5295386236236477 0.102640093243815
0.5459440421881289 -0.5125229472526818 1.5584412144659638 0.0675658056624715
0.5515336242197938 -0.5003859733577655 1.5252402119981012 0.046572624911515974
0.5573109341125358 -0.48887539960788323 1.5375628886717594 0.09600959522356116
0.5515983235696023 -0.5004806519831797 1.5407087345109545 0.14199978680631128
0.5450877543649528 -0.5082917922355201 1.572766516143194 0.07802104915783001
0.5574467065021961 -0.5265878690076559 1.5656558119442194 0.08018017993721022
0.5466778308075472 -0.5028832042443189 1.5693539238975829 0.15108618537980542
0.567002511906789 -0.48434984869720565 1.5606223352030422 0.0996402708122794
0.5587880126257508 -0.4775480924345165 1.5592169819604902 0.07695911180658549
0.5038895810469911 -0.5800371342493226 1.2584312772638135 0.045526064543029154
0.5087051985506456 -0.5643923974802282 1.2371154061669032 0.008907205669706729
0.5032944043772007 -0.554365806939912 1.2868797414875475 0.04369115893630967
0.4998080841236201 -0.5672868856045826 1.2732505510854584 0.050336210330191866
0.49788431246017695 -0.5680283484603467 1.3092102062213653 0.02617785256424928
0.49573356067443897 -0.5730485644047729 1.2966300361188188 0.03556716840552304
0.5003497048438814 -0.5622080475574275 1.292869409375185 0.038578086808597915
0.49686945194114085 -0.5759518695025921 1.3206783631022863 0.011480696290479661
0.5121095823786214 -0.5906176754394781 1.2573933630176481 0.07801839055861527
0.47881466856968935 -0.598778571406439 1.275352121169309 0.04143157750518362
0.4855351737775918 -0.5866202972734667 1.2862322918143243 0.04915497878251022
0.4883054007908425 -0.5950665875259171 1.2948938857414358 0.00732995136839124
0.49405676493572576 -0.6027839587225466 1.3338682705088805 0.06788671608658392
0.4929023610637446 -0.5957025526862355 1.3424460056329224 0.04567293780366318
0.48940665795076316 -0.59577091182788 1.3125852831001408 0.0033428344416028787
0.5020008380687764 -0.5768075164489127 1.336022306818668 0.031222458872080007
0.5244513554444669 -0.5564468470794509 1.2546674925581431 0.06625321747327097
0.5133107423354656 -0.5486298725377182 1.2720057389929473 0.048670531594216714
0.5146180032969045 -0.5448404042820488 1.283407004044144 0.06476227121186483
0.5107450972363002 -0.5498406710731191 1.2909003953774525 0.05135521902858444
0.5282805214170859 -0.5522001228066822 1.2966524790273315 0.0891978732220532
0.5173654920833962 -0.5486647666839698 1.3243770534450705 0.03785003747036747
0.5049407850613747 -0.5643072357136704 1.322456997788875 0.03263137855772256
0.5068462981230966 -0.5453102725020341 1.3091092283469399 0.03323419623248458
0.5108232650265526 -0.5475846829163242 1.343908067773207 0.034846145806389776
0.5229840608559109 -0.5480435035238115 1.3517758819782708 0.03337312197045489
0.5685458453697135 -0.502286593820548 1.588795320486645 0.11139470892734517
0.5581415187762311 -0.49759796711837206 1.585207866484126 0.12692865796202304
0.594330299869888 -0.5672863660667067 1.582530613124384 0.008371678763192086
0.619258170261694 -0.5780953188210003 1.5678716074618027 6.231820169823307e-15
0.6016355899065058 -0.5345160934094949 1.588097058006968 0.07337215909374548
0.5930744158940718 -0.5713608601076297 1.5797668018509876 0.0066746584868029755
0.5739361509968807 -0.4835916780084293 1.5534393020651525 0.10547453453905034
0.5660680515290407 -0.5307180315017717 1.5763615647992884 0.0561003619788145
0.5780876954060176 -0.5367791469030977 1.6014634439502051 0.046918078952927655
0.5947083694148816 -0.5283247354302391 1.6075936709540297 2.779489534148011e-12
0.556199710153258 -0.49070751764490866 1.5485034183541075 0.1445108472156664
0.5809112456966093 -0.5440272555903649 1.5898440855111764 0.08288463890022103
0.6106614535906073 -0.5631740557504227 1.5721098275460526 0.0030728762622001565
0.6075945920767191 -0.6279419721086509 0.0361719039049887 0.00443239202981928
