x y z curv
1.2208320155520467 -0.5647726450845367 0.3944651415302672 0.05142858405429684
1.237019167019063 -0.5583090610613832 0.4147448924582399 0.03913219709151761
1.226145975868131 -0.5587740649370624 0.43311540146274646 0.05785803854464845
1.2311303346335853 -0.5673798720161587 0.4544733275340943 0.048595131235713886
1.2397233216932566 -0.5918761270112354 0.37701882194197567 0.04747187328051966
1.2419082001640995 -0.5840048452308324 0.3851933729835368 0.04990521737622017
1.2426955504333022 -0.5975908069471896 0.3936599004704717 0.06127122763685578
1.2366023775252122 -0.5805775290842955 0.40428239132104743 0.04327385058257704
1.2497109993888222 -0.6051817270212725 0.44861993725369237 0.027103117116085075
1.2420667855131367 -0.599175420325574 0.4192274651862421 0.052397609210228714
1.2351009561267825 -0.5918107078980245 0.4358094443839361 0.042307584198816944
1.2337247395806974 -0.5773513455796964 0.45766954002948257 0.04942617919805383
1.2271162354457252 -0.5809751167381716 0.4176158748759741 0.038598153956354145
1.2260039432088983 -0.5781864780187397 0.4285417813868313 0.05455277076890539
1.2404172168236107 -0.6023015870737141 0.433756393850641 0.06061608959695555
1.233412786824638 -0.6096889806087644 0.38962578965576244 0.06820452481986083
1.2341002795137317 -0.615404107070766 0.377438207401041 0.06739977056655627
1.239508073673115 -0.6276057733352414 0.3859497900180777 0.03127087187064691
1.230060501895985 -0.6175709528186619 0.4018893969872223 0.04872175404777597
1.2442901244016051 -0.6111583820416072 0.4136558237669906 0.043594751588706376
1.237138247891531 -0.614557740239995 0.4398621645575711 0.0691994607122835
1.2279041534696702 -0.6239947351730425 0.44508129594544626 0.03675009570583567
1.224661111629842 -0.5838612532155539 0.48253926394644564 0.03797096810505978
1.220145546989283 -0.5684259137485428 0.48697950146149144 0.03984494413705844
1.2343837307042045 -0.6100883535603131 0.48981933769770053 0.05492808628375394
1.2284953443824678 -0.5771452288336456 0.502840615703224 0.022785243391217642
1.2346192278241233 -0.5942557944993073 0.4985679651943447 0.061840824727143855
1.2281043660191375 -0.6342051700035488 0.5027898370379428 0.07693641430258072
1.2402934121672495 -0.6100840820633243 0.5056275860380923 0.04950941866004975
1.2220524684762508 -0.5961682010698007 0.5075218922773097 0.05457757465255635
1.202333951233401 -0.5500461054740972 0.5082559186969049 0.031160985375758173
1.2311203291205914 -0.6159751882731299 0.4927549047040243 0.06691624515948583
1.2037074851106255 -0.6261857040025957 0.5414612706464047 0.03508679001047712
1.214678876763274 -0.6173147178591616 0.5485074594798774 0.03859813434449784
1.2102306627608288 -0.6200921889646943 0.5152349970646438 0.049828880103420854
1.2100749109256763 -0.6113061809362363 0.5354724622048147 0.06703020858605682
1.2238425845714018 -0.6002420937272809 0.5262366743695469 0.07850560360800961
1.2152180401743347 -0.5954366982148014 0.5489905935209286 0.06141221900907033
1.2167472849552703 -0.6049872555125385 0.558659741525878 0.06222962285118248
1.211750407631957 -0.593468658241934 0.5587899331419303 0.06850007710771884
1.2110933675774294 -0.5835965982017605 0.5432638157553293 0.05445265276514117
1.1982518080972495 -0.5778007727828044 0.550260156337042 0.03655308527313587
1.2057270575248082 -0.5860740429785065 0.5248303044641324 0.08008375833974883
1.1938014640717676 -0.5786664200164648 0.5256260180801994 0.04929935637027941
1.1789397155893393 -0.5647719889835964 0.5482818904441946 0.0055446801887775645
1.1983904050798786 -0.5683636256014839 0.568918449829376 0.044957662368395636
1.2207386477483961 -0.6126965176035278 0.5667139194932449 0.05216941992236681
1.2186689392658911 -0.636408292727994 0.5600148988236071 0.022886826462826883
1.2209484628433611 -0.6017697695198893 0.5777669574026294 0.04347721743550796
1.215073475218988 -0.6312755276014634 0.583160987827343 0.03811709407705693
1.2251984669605187 -0.590087080102757 0.5777106192674027 0.03238207786085271
1.2160183178927881 -0.5822329621267388 0.5755196174577315 0.0469890009324751
1.2089025372820559 -0.5820405218595112 0.5690041583594851 0.05565512169700058
1.1992893315967061 -0.569761312258248 0.5782054430121474 0.044323005739763936
1.1853444294379554 -0.5634067499610352 0.5815093365582369 0.05814976873161529
1.2187692362224625 -0.6268018976382287 0.5708078943500073 0.06648196856327393
1.1948654877371367 -0.5782125977654236 0.6430814821217334 0.07506230420724434
1.1963750828686501 -0.584937164792346 0.5926287428642778 0.04969200450926347
1.207499345337668 -0.5866860596883611 0.5386075211470756 0.09673662998573625
1.2051445979665498 -0.5902656368698739 0.6045853437995824 0.04339396084989875
1.1962615320923797 -0.5879821481486207 0.6407562239652169 0.04826837175150488
1.195358874712773 -0.5940847431261349 0.6234098933834545 0.060026476300366075
1.196555362333414 -0.5872747517700804 0.6470548599629372 0.04981112401987338
1.2128018861894796 -0.5990201828237861 0.5594938729923975 0.0635825553314462
1.2088871365309428 -0.5947644605001509 0.5913255285212045 0.038962430125691595
1.2105788051115636 -0.5918631657807173 0.5510621744447979 0.06518140128213563
1.198104883609327 -0.5965394262725374 0.6120528603482458 0.04104342731705362
1.2025766875901736 -0.6004274098837813 0.6332693116833932 0.04576028969405993
1.2034422615023637 -0.608014937815152 0.5983488093053526 0.046129833712797996
1.2036700070976643 -0.6098364564460472 0.5959884805792146 0.043991517700767584
1.2011205062274215 -0.614352824918744 0.6177730931191168 0.050484502573735206
1.1988334990645406 -0.6185690483889921 0.6307789854088075 0.04812263765540779
1.1899979216717869 -0.6124093536650593 0.6446368432199249 0.0749219351724645
1.1818032757341808 -0.6273396849081353 0.621748611529766 0.018143678019402868
1.1883378327160614 -0.5848725466344424 0.6540134834449951 0.0518407461825837
1.2098327306335712 -0.6027681407803934 0.6583088165009714 0.049498310371460026
1.1892796898132016 -0.6151984518787714 0.6572759590197477 0.0726518739456762
1.1866714632432613 -0.6216216915757948 0.6933487477419275 0.04971675570099965
1.197281828782933 -0.6060637342615485 0.7200937253638143 0.040058019881123404
1.197905393433679 -0.6098118029745511 0.7055584489691904 0.040561294564564
1.197908993336043 -0.5984063410601663 0.6998611812423702 0.032026116800091944
1.1979946686751706 -0.6090875609307015 0.6913261513059916 0.059771656126765445
1.196511551540213 -0.591849135808163 0.6645413628483081 0.07182423487085195
1.200718660735779 -0.6150364360120657 0.674889154200743 0.06782397270791843
1.2013449823595377 -0.6166329299378429 0.6846236064355387 0.05300605743817188
1.1947862783019543 -0.6134801015442547 0.6676001158779864 0.0611582950935422
1.1783767398447937 -0.6222435038983984 0.6651085398045267 0.09884992473174657
1.197139490961686 -0.5911678610183608 0.6676688106664656 0.07201767925283492
1.1923507417571926 -0.5898239327478187 0.6816264551496901 0.07280205705053708
1.1969602996596296 -0.605170463629572 0.7217740045809742 0.04088373881953654
1.2005560890337377 -0.5904457068226191 0.6897346625982395 0.041301729396313686
1.1935169205017577 -0.5862618900897415 0.7155093700245049 0.033640019136779456
1.1845265980618296 -0.6014210052168305 0.7326392818425844 0.002021664692491468
1.2019141762937593 -0.5922215414255223 0.23740315962265887 0.022522192266230083
1.2069914227917262 -0.594003398068841 0.2825167300485419 0.04833910790077261
1.2077480594710448 -0.5917329852469103 0.2793612552840246 0.04894247365590424
1.1971634699647553 -0.5741712950915535 0.26916342227675827 0.14435164225710262
1.2116586106439586 -0.5783730612827861 0.26232044570551805 0.10796265153608595
1.2299768755209517 -0.5860116008535924 0.25595705370236976 0.16565782245098165
1.2228371936883426 -0.597621212004052 0.2630890195098207 0.14369526250975487
1.2111913189458428 -0.5876790666793992 0.27277328466752976 0.0877819204099644
1.2182699589080799 -0.5672070162648445 0.2606204381609585 0.0886341921430732
1.1938310000102488 -0.5645681493164124 0.26777363237812785 0.029853390790581077
1.2288289568040565 -0.5927240262924258 0.25301097875591905 0.2196765331886442
1.2190018139604784 -0.5937506338050049 0.30528204136183845 0.026787961352222223
1.2258251133247082 -0.6087720123948726 0.2907621437960408 0.02009590964999879
1.2303632114883372 -0.6051865235045462 0.259922904004141 0.17450238566714324
1.1946626885891234 -0.5797742540891535 0.2943844973054408 0.030215464562783352
1.1933440248152496 -0.5808991767711102 0.2870400578574487 0.05202899281570608
1.0939222096526362 -0.25666673657312455 0.2302083522497802 
1.0945006939444493 -0.23652672195397656 0.2576076843446275 0.01769821109502519
1.142041758286113 -0.20783989820715204 0.2186181280016139 0.022907660246979156
1.119274909870352 -0.1963749515830774 0.23541411944088342 0.05097631317621088
1.1324778383595389 -0.2002301561042538 0.2364411925635663 0.05628515829580874
1.120752758567023 -0.19297506547892093 0.25211286332579524 0.04936517191659624
1.1386277991807459 -0.19630440542977776 0.2546994744711564 0.054699198388706356
1.124174704197262 -0.1889153128022412 0.28935678557772965 0.03636193901102956
1.117972282107636 -0.19412766581441732 0.2722070660111271 0.035080521867560825
1.1239671641821074 -0.19804049105905247 0.3007996613193677 0.04569564348521726
1.1161698365137025 -0.19835550440701674 0.2834722079641195 0.047566598228094635
1.1337373832561362 -0.1922261397246446 0.28155267058889444 0.030989533028488142
1.1592569419267118 -0.19293876032710816 0.23214427934034645 0.034173152351593857
1.1486073565518735 -0.1904171469884629 0.23826944091641322 0.03112933582162096
1.1643169526443247 -0.18868287553499896 0.2432898881782637 0.029123084329842203
1.1730797458883138 -0.1994359212988534 0.2474336314839779 0.025780207548513717
1.14631969246445 -0.19290497894704425 0.26221698944950195 0.02360500214936918
1.1585052395152577 -0.19648626548897674 0.2896211952476824 0.028709724754639624
1.1497956064896007 -0.19653200216889036 0.3061878254736436 0.03250915269668448
1.1579206164901907 -0.19822389212005856 0.25452208300142454 0.029276844634311152
1.151503086235841 -0.1851946061776868 0.2738993188408612 0.01175505094799105
1.1751912169469736 -0.20182745469668312 0.29972622528285914 0.04628371398328849
1.166968030052522 -0.19745542050238774 0.2794644275045069 0.025087677761321047
1.184548478969061 -0.20715372287837452 0.22345122754700195 0.02183363902821158
1.187471463701713 -0.2037882465065114 0.23153016504367155 0.04250638083553649
1.1951577401397202 -0.21176415926080583 0.25287099855125467 0.04751115049651183
1.1884309416090986 -0.20407970043626783 0.26668800247997976 0.054585901908521674
1.1885433100044913 -0.19979195953003742 0.30468657277195843 0.0679814860089623
1.1822086628709148 -0.19735683041471172 0.28445609935831045 0.04312642318530546
1.1848004469873001 -0.2030153041646897 0.2621165195268617 0.040973681889679266
1.1892983014323664 -0.21161001763670625 0.2721478103225574 0.07178980253803044
1.1965183171847205 -0.2118757974892867 0.29691921922559217 0.034396687690998615
1.1943064176324971 -0.2749125083139589 0.2448939994253932 0.01733290945944943
1.2011480914108095 -0.2709562710906011 0.2134981507794724 0.02101586709793334
1.196176051424489 -0.2723247539346772 0.24854218039907777 0.016961963620474904
1.202413415332466 -0.2833082963892568 0.2941684968413107 0.01858930936617738
1.1977889187015862 -0.2723492679685839 0.26878462493360916 0.04500844322369063
1.2100557428146559 -0.2611010014001266 0.28673733669616547 0.028260640164656996
1.193119320883813 -0.2605224176341986 0.2618053520480975 0.0493508768638816
1.1926414693743057 -0.26537881330570684 0.26071550040821534 0.042213255345802905
1.1912957075194348 -0.2796509285099872 0.26763147841013785 0.028423066604928594
1.1055808914621121 -0.2156371059324556 0.22281385547078483 0.04695915796162724
1.1053033532322771 -0.218730933432683 0.3002940827582868 0.025231116174813068
1.0978953041082782 -0.226559120363389 0.271875331337194 0.00893889520590874
1.1056211809732739 -0.21243150544875755 0.24701136817010047 0.036902983128528306
1.1107193020906045 -0.22044947172693316 0.26061543978173507 0.02844761215591265
1.0931303022520071 -0.2337738604116641 0.26774290640793774 0.012405138711127802
1.094714108376819 -0.23135852082292038 0.29315205247759146 0.011180299456475444
1.0947134797987985 -0.2366518924590562 0.3048066831361677 0.006486626168311394
1.1086027447784426 -0.20855657849060086 0.2862653572513045 0.016399780705002177
1.146078406013006 -0.30091541715184383 0.27014475796009046 2.850135972219674e-14
1.1790615250174457 -0.2907492191687702 0.2464301638138954 0.028348744920340146
1.1817541332837618 -0.29738761408347736 0.24043216848540191 0.03501055006168344
1.1853668853035797 -0.28966179015937105 0.2678871112598065 0.03621502833475017
1.188399495010621 -0.28305141052799565 0.2782621624271487 0.028472202410691066
1.172012990596301 -0.29656834433205875 0.30000406712296906 0.03169414132024921
1.1816531654693656 -0.293841800180551 0.28595632695654577 0.04003623284307978
1.1770306286218124 -0.29120372766509744 0.26425377298091973 0.06301325672059511
1.186483857673502 -0.28913074686212514 0.30673606401858217 0.034059795292674375
1.1969087431493524 -0.23347525041372855 0.221422984441212 0.017026205965023297
1.203329877120617 -0.25315785065920526 0.23174113035696395 0.028123034938708092
1.2021067656415036 -0.2397698628050023 0.29593376598830956 0.010826496626226438
1.2084228068091973 -0.22133005008215445 0.25192198507699864 0.00509310999505635
1.203315496225193 -0.2537706443414279 0.2484066804839987 0.03297079155709302
1.2066507555812174 -0.24746782371859552 0.28407966707076254 0.02435082948410291
1.1972695154050694 -0.22756818769441303 0.2796750692751515 0.04387491103653798
1.1968773167598719 -0.23627657012740413 0.2694420913274633 0.04446790795004759
1.20041499845919 -0.23722371851135063 0.28820533115482966 0.01690391828845492
1.198369880047795 -0.22729537784756026 0.2738001814108615 0.03521864326063289
1.2051328314183256 -0.2511754134688408 0.26814144133056766 0.03260423773719041
1.198640118101023 -0.2305679851468828 0.25805175634787864 0.034549455954210655
1.1698898056703622 -0.2866219259186723 0.3307638143084762 0.042029517881471745
1.1830211179248005 -0.28142106992219346 0.3282138353359809 0.036226858241570035
1.188048605571007 -0.26510848360976325 0.34391038205744434 0.04747118520163787
1.1990221961936904 -0.25375683243842156 0.3441278502678445 0.02755096076248158
1.2001250793015992 -0.2340722984835063 0.3329888896027529 0.041593483585548596
1.1794063552758727 -0.20448436994983596 0.32919587547999385 0.043550219506429844
1.120399953112143 -0.2111641715041523 0.332043244253076 0.029780663976881668
1.1393170727990014 -0.19961581009550053 0.3406156320747802 0.025466790423157207
1.1734368408820117 -0.20582479981628685 0.3481139330886966 0.015937106666718246
1.1428102873398456 -0.20639167578195375 0.35354305257149576 0.036366475655250745
1.1730753644940497 -0.28552248696878896 0.34645793843519906 0.04534299121848642
1.1922305789632386 -0.27619160090197376 0.35230308887185735 0.04516794225302794
1.168969973756582 -0.2011400852252591 0.343215279804626 0.013602680441350518
1.1557970510216051 -0.29744039303276976 0.34469372718442276 0.020654331826438034
1.177877396159034 -0.2877229061833217 0.3524528482852682 0.04784872722112653
1.1897415211532592 -0.257614207101664 0.34645456431403615 0.04491549571936654
1.1902800092640673 -0.22889199220198578 0.3499863617903371 0.030230672638954
1.1492255179249236 -0.200527097436621 0.3468632263048044 0.029074344340572485
1.1246008502532236 -0.21228406858896093 0.34864967104919725 0.0145799646382221
1.1010671088172903 -0.23438452002237492 0.352485118062828 0.05318333454433021
1.1138191329319094 -0.21176181545239334 0.342565593970846 0.0205400429022325
1.1956941430530277 -0.23497690227637813 0.34818360094002154 0.03309501384868376
1.1555688516384697 -0.2925473507173145 0.33726512942983505 0.05411248445862439
1.1473424947483895 -0.20041556260919632 0.33917426407068346 0.027191447634563628
1.1703597149343214 -0.243396139705963 0.37041794055854277 0.2071068345205409
1.1562412112338492 -0.21800083466514542 0.37335744842883756 0.11191484781195436
1.149658737297264 -0.2765609927451427 0.40461308689813974 0.00675031866585408
1.1545229536235933 -0.2781063064860713 0.37863296231582144 0.04230719001477736
1.1555199765427668 -0.27631877639984787 0.3909481942385716 0.019695315552124056
1.1742171075121384 -0.2587010552177851 0.38602797703416003 0.056988388909550755
1.1865439434463185 -0.24848058645243828 0.4000024165316052 0.03756014086663899
1.1797591173516786 -0.24569889062562375 0.3858450159648879 0.06789407534687152
1.1733293677837873 -0.22076872813363818 0.38708703948595435 0.05631288713963587
1.1810746556816147 -0.23086748443367422 0.4085845037723878 0.0764061122846049
1.1825568460916243 -0.21960192663802694 0.4160049975639366 0.049552410587899005
1.1458020407629739 -0.21236809082286476 0.40004872105581235 0.05247097075641278
1.1412478789872442 -0.21137944248365456 0.38674073168932 0.10488513671201706
1.1389654150912423 -0.222443517753013 0.39954843412111085 0.0678761995352966
1.1315711327251445 -0.22228699438946065 0.4125336451440788 0.053154057086577965
1.1514872576025696 -0.20970940704200852 0.4028774703323424 0.06201098471631192
1.1584556035343387 -0.2711268194393345 0.4046064516668387 0.05912417340114065
1.115911829265967 -0.24671251090328164 0.4123177490275281 0.09162995042764992
1.1186713186374915 -0.2427826161655537 0.40347639733863583 0.020512772846379607
1.1202916116644575 -0.23424451384921693 0.40874119585091506 0.05559290748629748
1.1237815506074267 -0.23450372172407238 0.39759172492657885 0.017191755197095426
1.1191766525863074 -0.23426876011321487 0.388347401315277 0.011620896635688839
1.1110352802181171 -0.24607011200777612 0.4255637092830656 0.08822489179089536
1.165171896080774 -0.2686223630584887 0.40608640204125124 0.06668228983964425
1.1792149507564678 -0.25377267271908804 0.41930686486246516 0.06225164410676065
1.178212293026544 -0.23821774357905837 0.42725512805192606 0.0691620855441891
1.1090414469814527 -0.24048634376379355 0.432007740469852 0.07803127026221779
1.1686942378796785 -0.2097865986843289 0.42040251689025193 0.07529195223917388
1.1784010531674218 -0.22125497953417653 0.4293421649424124 0.05817666122212476
1.134899826949905 -0.2899658413104951 0.42255198476080463 
1.1831363015438445 -0.281880024408614 0.42964965438788333 0.021952332211107838
1.1786612855538892 -0.2709639300254858 0.43353536910619017 0.09650370607921897
1.150035570578032 -0.20662160618477327 0.4253534775537901 0.030037547931817125
1.1443240476738612 -0.2131696923074782 0.43001160061374666 0.06201960523128535
1.1299223756582488 -0.21559524210434228 0.42572287955386445 0.047711319394683815
1.1226977473633177 -0.2219052186295841 0.4232654088456111 0.03776223403795363
1.1803251427725732 -0.2440787530128505 0.4180410802077253 0.07171681401567527
1.1407454092063456 -0.2236754907607367 0.3685394313352571 0.11301467177925313
1.1708230598297873 -0.2562196153292703 0.3665348813660992 0.06312989367353693
1.1858933756340206 -0.2502632051270036 0.429520435287573 0.05481794535724589
1.1292352555021248 -0.24166748105090446 0.4869528528796498 0.1499132469185286
1.1357930141474348 -0.23442140622933785 0.493014460821344 0.14471703860174148
1.1355634224416815 -0.24438514230077557 0.4436330910115876 0.11243296374044713
1.1380218010134748 -0.24243253277487925 0.46925731834394263 0.14983904146273047
1.1344579121387475 -0.23295045107751294 0.3773086774787182 0.1571062700020006
1.142010456491511 -0.23717925685309185 0.4547433672929309 0.1417844041205326
1.1405440501368886 -0.22560584498032654 0.4837817173090607 0.12496791243627836
1.1453536032442464 -0.2238762438623626 0.45538441497896326 0.12422038926101958
1.1565793729299665 -0.22965681086285267 0.4475475835316159 0.09932333159378876
1.1514713608780376 -0.2326014772415498 0.4955460627160089 0.1313544618159537
1.1591187217960732 -0.22583165465441973 0.4416013615419835 0.07518130109675268
1.155513043327296 -0.22775483488451975 0.49009886325339125 0.12447642867007774
1.168844456604107 -0.2322970900765139 0.38539026606300064 0.07621358587141103
1.1654436567420472 -0.22936105192041298 0.4511014722273119 0.07235056776425952
1.1615081469699846 -0.24002039582921805 0.4975623374733417 0.13582079741134642
1.168056665390757 -0.24659611100425918 0.466926979735696 0.09329785029428278
1.1732764509888969 -0.2463504573105251 0.4522195726088241 0.08857517430200545
1.1756474530481298 -0.2645107862122517 0.4104155358059932 0.07582705045735137
1.1601367327677299 -0.25443162088046717 0.49300046809121073 0.12334847385241836
1.165421348349715 -0.2567742708678235 0.45615131453836844 0.10034570158150115
1.1584396264313017 -0.2683078813330649 0.4614595099623854 0.07844663468168754
1.155578496112761 -0.25945671758957883 0.48993041622393524 0.12160557991210474
1.1568042233377158 -0.26210059896719806 0.4735670981284276 0.15333959667127836
1.128473212061985 -0.24941893869715223 0.4737508145404703 0.10663191082273253
1.1368000849802538 -0.23719285807721324 0.5079592948986866 0.15154220818865557
1.1573327378199527 -0.2613150185362927 0.5021745867909279 0.16472300032240314
1.1537056993658665 -0.24586321572840616 0.5126969796687242 0.13121230255983019
1.1458764512245772 -0.2387303154296703 0.5041197335692864 0.13449086523906476
1.1325856223040958 -0.2495968728649411 0.5091534895264924 0.15240984634470087
1.1477129006810718 -0.269730231403455 0.5326828490454546 0.08975191316485708
1.155811954005534 -0.25764371572315237 0.5508322602901223 0.15375814664643164
1.1663474138289431 -0.24540551865377686 0.5505985050270583 0.14520816702083025
1.1638807588227658 -0.24005297478373594 0.5754568773714054 0.14474575527032096
1.1623321214023772 -0.24162908514481685 0.5562297466315582 0.18490426533944493
1.1606992147378639 -0.24205864030445862 0.5416475807597164 0.1672262415389921
1.1634591347131806 -0.24081317223701892 0.5413131561766339 0.16544220412812136
1.1732607866084719 -0.23604416256515534 0.5256154054968925 0.06772796613561982
1.1599388056320694 -0.2388376532103136 0.5156401375682205 0.1344519618115646
1.1619822213896533 -0.24640015354803452 0.5219526144173212 0.14417777068706664
1.1576971826535982 -0.25489836901926516 0.538341077085473 0.1480078849928291
1.1621521389379816 -0.25416364195399804 0.5499622231692904 0.15278653693000258
1.165162147715338 -0.25579595694011087 0.5232201544453802 0.14671814161454377
1.142425926790369 -0.22629098562684613 0.5233826840077954 0.07407181785335107
1.1363369827224832 -0.2406740926597835 0.5272238262821487 0.12439465708561077
1.1260957732110528 -0.2438359265229502 0.5537657282135098 0.1519644528826433
1.1395344153847276 -0.24304775644630608 0.5487256522644679 0.15485344992971864
1.1449207077374774 -0.2586514084127531 0.5696831907091411 0.17072926924422285
1.1493981703391838 -0.22906683302730363 0.5622745381726096 0.1427668603968134
1.1475610778316603 -0.23354270742092761 0.5578006660947957 0.15994470910869488
1.1530849013425948 -0.252028130977871 0.5767989557110096 0.21068219443510386
1.1438521021630474 -0.23637461244437288 0.5635954061886673 0.18047277469128406
1.1317097874283246 -0.3583160646363618 0.44792835421028704 1.4798132025692536e-13
1.0941558706166905 -0.3721335906833073 0.4869261310807106 0.03445902725809638
1.0968944790503072 -0.3805016934617544 0.5101337230493016 5.07437041885797e-14
1.1480312537870845 -0.376714304408966 0.510597433882865 
1.1207225846361308 -0.3812081490738583 0.5417398235244999 0.0066209918568339065
1.104193058008624 -0.3898305127399678 0.5370128620637102 0.016027700643125548
1.0999653499165607 -0.39218108192455037 0.5590685255681457 0.029819268570512966
1.0895734170597084 -0.4015213263103866 0.5519165138091473 0.02966150044323511
1.0850894754812437 -0.3960059554518349 0.5710108798678206 0.02760675215243632
1.1429262632941877 -0.38599044881878997 0.5779809286857085 -1.3469963032575834e-12
1.108990922596123 -0.3896806653151379 0.578658593408973 0.02770057494188119
1.097413418796977 -0.39276973720137864 0.5723460287728896 0.0382992947011965
1.115918496955044 -0.3885826074687424 0.5795562889126848 0.018975035741416225
1.1039398203154893 -0.3928628144416881 0.5740352553900046 0.02945263254392369
1.0986122659098043 -0.40999960114068784 0.6227834645480198 0.04252939134007235
1.1060930639303725 -0.40927651249803493 0.6335836541501213 0.12721686264621754
1.1030221423910265 -0.40292761516068093 0.5805713665918025 0.0365427237470799
1.0992491530477393 -0.4017911117265503 0.6476094597028027 0.12992577983502854
1.120633274454409 -0.40340273685923395 0.6231482571739332 0.07678475516705566
1.1303448976722197 -0.4097313080874609 0.6311648208868381 0.14446076084342568
1.124517063490551 -0.40927705362483985 0.6450207949543845 0.11686288669888248
1.1325072205320192 -0.414927676292217 0.643415527585127 0.109828592574858
1.1276486580326726 -0.42718020903572085 0.6535107679148966 0.13791479276639082
1.1317477283619117 -0.43601088095748936 0.6289658946279542 0.0707594948693832
1.0983771912108629 -0.414827258470291 0.606809357400415 0.011376728543206708
1.1051823507122973 -0.40495394285623626 0.6654161590312935 0.15184323248445017
1.1162143924812016 -0.4366895192679271 0.6473311621699999 0.0788762658248662
1.1094398683432596 -0.44232082302187553 0.6932658338716453 0.18198673932878034
1.1163224591157161 -0.4406506382746681 0.6793432433383928 0.1520503770587612
1.123469996175157 -0.43760222588297953 0.7071553253183662 0.1449153761005591
1.1164489778613547 -0.42923888277152444 0.7191545065042627 0.2037748150961503
1.1291447582361096 -0.41052883216372504 0.701320775156505 0.13186861588183763
1.1188742302118242 -0.41108060209188946 0.6827828943323602 0.16105843357329808
1.1233832187493533 -0.41609522880200644 0.6646115142565734 0.1599996340362867
1.1203511531115597 -0.43091893702342726 0.6716321186815275 0.17107702400694264
1.1390169871894562 -0.42323547725806154 0.6806671195992621 0.08278923588437462
1.129006806121445 -0.427378861381894 0.7078060269424404 0.12862997577796068
1.1177365052099586 -0.44329353255793874 0.6767338688419497 0.1940090453399842
1.1171813273106872 -0.4115249668541935 0.661745455558948 0.14137279190000138
1.1214429981492475 -0.4074942962705163 0.680671107864492 0.1592626614365352
1.1028809345031183 -0.4214612603135733 0.6832180705714826 0.15158444149326877
1.0996907104752485 -0.4110473119139643 0.6651094552271681 0.13384508386087515
1.1168517358090264 -0.40903473995217404 0.6987037577810827 0.1290355687232439
1.0999986840284053 -0.39840608741823635 0.7057711341399583 0.0631829576652087
1.0955472082828592 -0.4152578256871121 0.7043777460299668 0.12905895730596398
1.1046624597484198 -0.4318718659136145 0.7311946629786379 0.11261900875314365
1.1153928480060513 -0.4238286333194297 0.7346923131426245 0.11891516132025405
1.1172055264016933 -0.41645582917696883 0.7089231378936777 0.1703473916991384
1.1152570158774142 -0.4073198298313279 0.6951019896374336 0.14802378663925533
1.1141182727524421 -0.42102550841634595 0.7291805248892954 0.09423402411591039
1.0960014165061431 -0.4144560304308377 0.6662396355697184 0.1156896128678828
0.90518332055693 -0.08478695621828333 0.21701510684734948 0.02764428583566701
0.9000665259433274 -0.07446764652209101 0.23490126511981135 0.026723289086657748
0.894967825285897 -0.07612411522672297 0.26588755595587155 0.04835743806800441
0.8990632909840044 -0.06650310233473612 0.24363484323523737 0.03483010547944523
0.9020553639845219 -0.05974293291656684 0.25920526039321895 0.03513869269799575
0.9025597942823353 -0.06779468834918892 0.2797580344500559 0.03335520142719731
0.8948968221453797 -0.08255745563445077 0.2860059343030791 0.0225691840153492
0.896563722034058 -0.07787270923933351 0.2841792753346829 0.021275551454806148
0.8992008880677274 -0.06378835454726584 0.2967414952893164 0.031518174630197106
0.9452787575638535 -0.055723527709042736 0.22713303548936853 0.08968407455243162
0.9343104838298752 -0.06329617746162812 0.2221308766637776 0.04435601072720758
0.9337975097918498 -0.039630364645650826 0.2421313542098764 0.059375155781825416
0.9377396629250792 -0.04164099709395855 0.24366437645690425 0.05749084410346892
0.9229158600220957 -0.057599633588014065 0.24400068915995654 0.07257292480840441
0.9301696065687451 -0.04480178407827786 0.279454257622425 0.03912743966457358
0.9165479928512315 -0.05681631134137806 0.3022876397703929 0.043672700142726284
0.9276447176369034 -0.061276493423770284 0.2643315947666796 0.06063007117710987
0.9221479740440711 -0.049394573087683004 0.2793889336642679 0.03857377471165286
0.9377621207071377 -0.0542413356268175 0.29405347252857805 0.0310455305149173
0.9373240574492558 -0.05653065889819292 0.2631796896765372 0.049289066537085154
0.9649007370546115 -0.07015352812595434 0.2226710408495064 0.024661173642288318
0.9556852261935379 -0.0593580361773575 0.23102520502634188 0.05679911428298644
0.9623656769387962 -0.05854206603817023 0.23634078636805855 0.035701192999330146
0.9776072102531272 -0.06485429204416474 0.24091678397830119 0.014284772454166494
0.9591989371656683 -0.0610101988380794 0.2467451139039259 0.056392539647805856
0.9678870426754392 -0.0549568821230911 0.2809551957346312 0.023717242610787052
0.9619483855169955 -0.04966417811898881 0.2643105617044948 0.041722899766683155
0.9816996078807564 -0.05605699871695756 0.29567971511919283 0.012576015128321572
0.9561731964323421 -0.05388156288600226 0.28429266022014826 0.02759151130298355
0.9555793652070098 -0.05115280724562813 0.2958396319795623 0.019475523557997015
0.9547190497705654 -0.04915598095774481 0.26684956771790164 0.043847552027683534
0.9771849564884572 -0.05982542270685855 0.26499886296772107 0.0251360467279763
0.9910300317537926 -0.11204055165987388 0.21582411805364707 -9.926809115200477e-14
0.9961948245416627 -0.09282992425686093 0.26547402573606044 0.008157840553085065
0.8906994754375895 -0.10034498862394056 0.23757014457581233 0.010298775520759355
0.8940007618368448 -0.09686950786583777 0.22075129927730477 5.756188633588945e-05
0.885038476652208 -0.09355956665166007 0.2769878432004324 0.01897916917159426
0.8822688098078436 -0.09529188786129697 0.26062386832606904 0.009193668942873226
0.9885779210190333 -0.12753948504304996 0.2129328382727459 
0.9816112010947197 -0.08296224160156677 0.22887546325760855 0.028297877446070072
0.9963127612001375 -0.08948659439556275 0.23684439560096707 0.011906904220878797
0.9987081261460216 -0.07946940646028537 0.29310983465187207 0.03253678477125007
0.9820509479301724 -0.07332248716618447 0.23513751619948697 0.024396557272030363
0.988089784444418 -0.07421738824701658 0.25467370374840337 0.016984045210718675
0.9970926502731702 -0.07488701121749969 0.28593881348887007 0.02148832214512162
0.995651938299815 -0.07164256617456334 0.2820104809147701 0.023724315876392076
0.996659119169287 -0.0849482969801024 0.28104503570985817 0.013725464789944995
0.9982344790505115 -0.09297213004491295 0.2602593371639679 0.01004879264900133
0.9639472826403689 -0.0634464949082321 0.33710379532626306 0.02339523882055935
0.9122806569252857 -0.0594821768737114 0.332900249925045 0.03638850515540536
0.8875653922915376 -0.11199601500437066 0.3337811075081937 0.00017115962015175533
0.9806567906085 -0.07430786336253399 0.33510797372516193 0.028174219689089123
0.901244085913625 -0.07823985780508233 0.353848847276453 0.08155031726749715
0.9984530084548742 -0.10279798463344272 0.3414577228659238 0.04155234011425583
0.9656872481261309 -0.06889164445044663 0.3404090042748275 0.028265077311808343
0.8887954657878487 -0.10298740680643023 0.3547769660364399 0.04698944104982192
0.9865035613606051 -0.08970268398249877 0.34949237977763703 0.026947002396344063
0.9901364628567441 -0.07130713406657127 0.3407481646997432 0.013848794533878507
0.9488115565790247 -0.056351883377341164 0.3398224826969701 0.028271220413135213
0.931024975477072 -0.06305062395757062 0.3453571906215404 0.035679564249746575
0.8992962063658624 -0.08648260285534004 0.3617178166674355 0.07233562576662488
0.9347930613293426 -0.07001440937155999 0.3500287685663677 0.057939562143517725
0.9229556509537867 -0.10069556822271845 0.36034798841204313 0.07905601981177277
0.946047308740361 -0.08646823436649728 0.3617619608254696 0.09462008862981737
0.9584622367365705 -0.08692734414647159 0.36776501516324855 0.13357706553764453
0.9731766694066056 -0.10834260268057996 0.40360369408184527 0.040415216476306304
0.9695984239415939 -0.10848685487245353 0.3914429304624926 0.02404082500237656
0.9664485161210751 -0.10535635114600364 0.38019817731399724 0.11806000521778874
0.9713606840503233 -0.09025230435178569 0.39953986018352095 0.10313344751438057
0.9679561979212437 -0.10620564884962526 0.384056558089481 0.08772087706681099
0.9651702617954276 -0.0931171063951143 0.3745921341372695 0.11406512462898973
0.9671396563046704 -0.08557979159192482 0.3890532740985115 0.07472059044618537
0.954210325245568 -0.08071007376202596 0.3841488483868653 0.09743198189552918
0.9562611177916361 -0.07512064479898944 0.40397102852487177 0.08209131370450234
0.9645566066572133 -0.083260209769938 0.4102096108303007 0.10056564565214512
0.9308349383399702 -0.0761911038990915 0.38224481563495055 0.09325693563582507
0.9359858202455037 -0.08682275296226233 0.3719896664253821 0.1405021236585717
0.9123380945628103 -0.10230473184315157 0.38880102260114374 0.04971660826175047
0.9360187546312891 -0.08711254627865943 0.39873086456088463 0.07388686269218464
0.9655714645958571 -0.09502948375820676 0.429088350065458 0.1091132218788158
0.9657517499998367 -0.08374082841613563 0.40644209236857826 0.11462322648863982
0.9528613061207234 -0.07412945241215416 0.42465195563455205 0.13298333023800332
0.9815732813005176 -0.0926467850383971 0.41959200947594916 0.10342337870024451
0.9836017015324797 -0.11404798711838242 0.41819548412749763 0.06770749695839659
0.9784221232481944 -0.07057703647878302 0.4310303055608994 0.03418259500914174
0.9517210481573376 -0.07670511939055939 0.4182654273486202 0.10715291120843815
0.9363655077120687 -0.06551054470709353 0.4284977315066725 0.14362496886947068
0.9205554411632151 -0.06855978491965978 0.4210549967491396 0.039015052957234925
0.9078369430935753 -0.11011363244406273 0.42621168035135815 9.997196232001099e-05
0.9279931080566072 -0.08956985609228751 0.4031894781826799 0.10303919042114006
0.9351107599113337 -0.08600466545825182 0.402524848628024 0.06959685325390864
0.9067238991657984 -0.11000208503678108 0.4252796534511649 1.0059581981696272e-05
0.9436480878388801 -0.08116631870793498 0.4128298154914857 0.07990038965835473
0.9287971497021076 -0.10803082763147812 0.4677452332149811 0.10203966407677377
0.9328486813549803 -0.10297474787246073 0.47537017497877987 0.1022158757903252
0.9248008670770961 -0.11044270666491829 0.4931940927428678 0.13878932799622692
0.9346196034656725 -0.10379086849685126 0.4607576532625574 0.09950545821544907
0.9242879762592653 -0.09866628410699357 0.48747649622891354 0.12561380667092392
0.9339374717637738 -0.08494899405786431 0.38776958846609977 0.07267927117290578
0.9258790796920652 -0.09719882850746576 0.4544943403988953 0.0411893786287753
0.9467186460841632 -0.09304823891998282 0.4695499890013287 0.09184314746949672
0.9503104486531041 -0.09963761425585102 0.4837372187898235 0.07551330715491716
0.9602886781690336 -0.09528045421828077 0.4582826219158366 0.08704715886762983
0.9472699840850378 -0.09741265289871139 0.4494065237617314 0.08799674170063669
0.9544477400617237 -0.10890289091194545 0.4821562884509599 0.09580731474810814
0.9578148994772169 -0.10424000776919812 0.4689840223855289 0.09293117669226295
0.9507778829198438 -0.09653256266094415 0.4864327294526908 0.085466395381994
0.9579669811275019 -0.10773289370182215 0.44728482927454977 0.06219244908592617
0.958092942719586 -0.11471707404092399 0.4867521102101929 0.0978183720138399
0.9547608656856753 -0.11462813520871233 0.46099435962280627 0.07081607722532958
0.9303710566216408 -0.08853950712307664 0.4992562587067732 0.08573717601020193
0.9532631793215094 -0.09432197294848235 0.5061472620817116 0.11148363523232811
0.9638415385659798 -0.11517982586824199 0.5011211496841974 0.10344459947852166
0.9301783259601736 -0.12177813747803129 0.5186617839182817 0.2232312185572795
0.9616443472054347 -0.11984660520359787 0.5274764809132136 0.15029251827466236
0.9490048772590024 -0.11091766105419712 0.5651853066988957 0.13658850973213343
0.95485405010269 -0.11622613617847241 0.5510453319325576 0.15246310036475114
0.9454279204608133 -0.09444875908003422 0.5705896245039743 0.17200689212858683
0.9545534092229753 -0.09762389207049411 0.5528275275018455 0.07175321200848706
0.9515857178412744 -0.09561272390262923 0.5361919285321235 0.12912005753254396
0.9512766011357343 -0.09167058918578289 0.5303327515124159 0.13270390556560543
0.9519098448459296 -0.10202484933320169 0.5516049921800955 0.07793080051426952
0.9481844139659658 -0.08796443509621851 0.522083572310238 0.1384459565546592
0.9579401043319352 -0.10259876603228986 0.51061475142201 0.14557925119024157
0.9586578350891286 -0.10795234706415316 0.5335305980475626 0.21877537385597226
0.9406546117928895 -0.09554873237875289 0.5188308081387937 0.17786278336010253
0.9327266899042936 -0.08729015226939926 0.5320302822494878 0.15688451252826832
0.9342893633762314 -0.08738400653731594 0.5298439577251869 0.15993691650052136
0.9245114413686669 -0.10380717480769588 0.5462864616338904 0.12949984575123924
0.9419478787183004 -0.09052747237081832 0.5718716682521855 0.16584156824360682
0.9416643139879572 -0.08937212626647659 0.546784821695103 0.07773014153908574
0.9340172174730914 -0.09536831092776764 0.5665288790984727 0.12733818220399132
0.9389933219382641 -0.10851036087183574 0.5784248266652853 0.18180211582875944
0.9255163647492713 -0.12627175630771678 0.5317255575252209 0.20411472302365055
0.9469120873488319 -0.09045487872700855 0.51830626846891 0.12664933538147194
1.0371849804592606 -0.2726758968324924 0.3862369785656394 
1.0333896192104175 -0.295589124079209 0.4859658213864785 0.014206920771463946
1.028099103931753 -0.2667734794112094 0.49602872915717394 0.0008745315640421962
1.0159052171168435 -0.25389000567388986 0.49899297221238836 0.019596967045186597
1.0183569023332857 -0.30794412385453906 0.49776656180456935 0.0017603577348259357
1.0219525728757057 -0.281397717364093 0.5016410135809481 0.014964322549829732
1.0092822161926833 -0.29504383665838313 0.5635517371078843 0.005432059731675159
1.0050491420183485 -0.29899924404079314 0.5450025695622265 0.0015975097987091244
1.0087357478584458 -0.28326032939149404 0.5548082287953773 0.005426862435433894
1.0065800086361931 -0.28900190727163333 0.52901268761407 0.006223357055666084
1.0119868846660507 -0.2607470971406339 0.5828085813874013 0.052403498473801505
1.0139116960323804 -0.3035210570162728 0.5746400950486216 0.02503732942215106
1.00962157238701 -0.28343872745869264 0.5812933566379771 0.06925835940858711
1.0096151478612008 -0.28554489270308625 0.5737167981567117 0.07274118353135015
0.9606110110738112 -0.28019878464445175 0.640577904551222 0.1430205507565221
0.9672089135022265 -0.26437363512541046 0.6252003998511765 0.08520144068072628
0.981450983690195 -0.2689251375862237 0.6371351103717935 0.21184693572439756
0.9833115254475951 -0.27522989719299223 0.6533335805983936 0.18095021003566653
0.9922763016843199 -0.26815635049598074 0.6180293417375646 0.12077047196157267
0.9946482936138549 -0.2713597498420855 0.6262558881153247 0.14545516680525267
0.996475453315176 -0.28744592471079244 0.6462073538367664 0.15492664403417478
0.9923748502575105 -0.2828040722989023 0.599220070883475 0.03231458934438421
0.9952274197744985 -0.2880385870363034 0.6259353523892964 0.154068357989027
0.9912117161108494 -0.29196601145419454 0.6205271426699326 0.16451433809382696
0.9851345876989644 -0.2937741052886041 0.5976403690077783 0.026596381592138823
0.9827521764696572 -0.3025812573443411 0.6173532995271795 0.14220986884388342
0.9746017398314378 -0.30770910286559205 0.6271101718238848 0.12704702990018815
0.9750374131491815 -0.3068414601457581 0.6356494616249055 0.20347959641279717
0.9811704201870015 -0.3004157541427052 0.6313028386530534 0.15065442747994892
0.9592853284768214 -0.28565151062597727 0.6479143314747533 0.16750350639343842
0.9643352203917382 -0.2766654360417731 0.6548855936857039 0.15886655311008555
0.9796644618926684 -0.26840178430706985 0.6660359075600318 0.17891287814953402
0.9804210163708572 -0.29755059068719736 0.6489804174921681 0.15326048564477174
0.9896554171810337 -0.2867083939679072 0.6976241005963901 0.14069330922649592
0.9817500069324557 -0.28788997512452785 0.7173471741888203 0.14670294664110173
0.9813030911177094 -0.2854229117369195 0.7262574942920733 0.06907295131336356
0.9790331867463742 -0.28200533245104076 0.7208970148681415 0.0889274402110273
0.9814737195289057 -0.2720617828078932 0.691824119472307 0.13411811703725635
0.9900592916297051 -0.2775033796323414 0.6771306760801148 0.16774098354079892
0.9880457718691966 -0.2747509772420183 0.6646556333953979 0.16768157183478768
1.001262374399777 -0.2808857846504842 0.6792323772192727 0.10364873416524667
0.9953494146458834 -0.3011222703786859 0.6911485775516046 0.06872342178486382
0.9898631746879594 -0.2766544138623074 0.7042836577916255 0.09359363135082249
0.975464872847515 -0.3036733940806663 0.6820150415780172 0.14545954121007695
0.9783790909978924 -0.2984576373502837 0.6659313935456431 0.15210670723044295
0.9803949345937322 -0.29889266041549006 0.6688872669211562 0.1536946109826544
0.9703731723457526 -0.26398496713024583 0.6798679402034727 0.13354099914007522
0.9601679670581759 -0.2786261749088278 0.695995141745445 0.14372655260315842
0.9572511490642638 -0.284455807019414 0.6798131942994369 0.13748788597480016
0.9638250033478761 -0.28696040217688434 0.7184316073693704 0.08833856306653724
0.9752351819667491 -0.2912073055887938 0.734327107025043 0.10378839675651895
0.9653589133713938 -0.2652985382826396 0.6887834881054631 0.0547829111779686
0.9729356385310997 -0.27612042630398803 0.7064231024729034 0.13068970388760248
0.967967559832976 -0.2742577899556358 0.7149031713634452 0.06761143847484247
0.9605135712372347 -0.26955429417810334 0.6754371397017065 0.19340681732193765
0.6733902194540432 -0.3178258246275099 0.7486302550044192 0.022030665277074934
0.7266083097650056 -0.3104942850361222 0.7603961675273581 0.03988625533915035
0.736625115848739 -0.32672076301061115 0.7682172264237106 0.018940085444020538
0.6960689030359289 -0.30676567317209863 0.7552304524731482 0.03792744595794718
0.6943185387742038 -0.3042083526122252 0.7515726285931768 0.034118792017711896
0.6564060108101097 -0.3034008447720112 0.7588944613995097 0.08884223986205492
0.7151152936409582 -0.30550999358868747 0.7473021507707404 0.04147267836440796
0.700767266759525 -0.31063520319664906 0.7556217074868729 0.026961274562906715
0.6787426083353498 -0.34425081053927636 0.7865132233490872 0.0556213327755983
0.6951563539822397 -0.3293630807652429 0.7821572796089103 0.09580148067515243
0.728366150213558 -0.34989935219292473 0.7966788067610308 0.03162650792858425
0.7288962460566389 -0.3417052123714532 0.8141565862717456 0.023804786067796402
0.7108690431526296 -0.33567788646860447 0.8119769527309834 0.041800376958765366
0.7203344473368802 -0.33785843116092984 0.7848040145725685 0.05687087931369898
0.7020473419639073 -0.32540992181329104 0.7941008567047592 0.07385673414266783
0.7108889553211654 -0.32733694277439557 0.7921998993947345 0.12284282735586065
0.6844124481688296 -0.3214085046114965 0.8113219248300552 0.05475016426259199
0.6983253870750845 -0.3184571796227373 0.8156819628555241 0.0541305874080638
0.6854622968538966 -0.3295430131321777 0.7985871395210798 0.06455850275600743
0.6723353403802741 -0.3276202432924959 0.8105822365294342 0.06022994378765306
0.6630115123084261 -0.35945953931838154 0.8180254921570113 0.016437876648515756
0.6636065700827554 -0.3386522389107808 0.8337615968705657 0.03892541572318798
0.7357299597970706 -0.32954661402118773 0.843701425738295 0.03783657893207413
0.7198345651685822 -0.32659833739103744 0.8424351698368577 0.07713588353585409
0.7227453841646253 -0.324791217984393 0.8328309593973073 0.08990857877056373
0.7045137536696994 -0.31322547417234475 0.8405177874136734 0.042167704571646814
0.6859277684816995 -0.32309431397222654 0.8362434325080477 0.046788428518846
0.6745387078338546 -0.33194624012271884 0.8336535159440809 0.0633694534746787
0.6617363803041176 -0.33845205231773823 0.8418815747957997 0.030263671389188597
0.6584204551577251 -0.3675661515020992 0.8288088824148225 0.016711805150748046
0.7164720230590649 -0.3324385470556416 0.8183817408743406 0.036559483092660494
0.6705595155656784 -0.3351393681841442 0.8264827028805029 0.04597342067215735
0.683201459177033 -0.3393848079273565 0.8724867006092724 0.03987847652399082
0.6838352938390937 -0.34194366661541636 0.8927333435998311 0.024757260056763028
0.685392463721539 -0.3416756973611989 0.9135453773632232 0.02704464758780453
0.6918288711839132 -0.34411386504323277 0.8661873848755308 0.027759062392818425
0.6992515326879362 -0.34355065926890216 0.8874548271152172 0.02851616110408814
0.7011251302123445 -0.3414453724755868 0.9041623513896776 0.021444076775503505
0.7033393294322159 -0.3372695594689685 0.8768751732450452 0.048466541900103126
0.7066819877473275 -0.3329166882120805 0.8623664683513707 0.041809741330753034
0.7073406880492051 -0.3346736948012213 0.8971277141650631 0.0186883785845393
0.7152577818915238 -0.34500651840196944 0.862824805526718 0.024913862510479483
0.7122318251965427 -0.34306563563260933 0.8982108969423355 0.02660655737728512
0.7129892054525048 -0.34615502162901834 0.8767661437494888 0.03317645533249686
0.7158529165296745 -0.3428634279135054 0.8885162976798725 0.025379523316521567
0.6910242562510253 -0.3472366246787978 0.9181645189191179 0.02134361065436699
0.7151587394131068 -0.34371696340405905 0.9151496278960962 0.0297382375720351
0.7055330237165444 -0.35157874697647873 0.9559554066510123 0.03622198977174933
0.7146798492594317 -0.35130103147239056 0.9794578784080241 0.05129528290788435
0.6987243739666653 -0.34354505851448547 0.9623166273631978 0.03478731706554204
0.6901149465199318 -0.3430885151491551 0.9354146804615652 0.028020586009440736
0.7091642682295395 -0.3410155785971135 0.9278997371798623 0.024276446306736924
0.7016899626127873 -0.34504362690786156 0.9579881817156315 0.036925137296614424
0.7032751348479105 -0.3424559363447983 0.9702684306747122 0.02631472841638194
0.7145405778722836 -0.3538716177492204 0.9361369021447752 0.01608726003590326
0.679220858844973 -0.34755977083045697 0.922578695982035 0.02702177693759619
0.682301227974898 -0.3523939817811922 0.9371656179700106 0.02848720320202627
0.6740780967311285 -0.34918734497858417 0.9534022614408785 0.0216549050144192
0.7023649206396995 -0.35423010125543425 0.9825609235179315 0.041631737219409
0.6908928660059991 -0.350581359566921 0.9873822598121917 0.04649078109074682
0.692227464787331 -0.343501297906255 0.9492935015952236 0.023629611617750554
0.6749475590531293 -0.3080236970989386 0.6567131430990583 0.004422189660361478
0.6712536569176697 -0.3102262843638423 0.6585634944910999 0.006169445995931372
0.6606353034604863 -0.3142573940503289 0.6562160234830373 4.8523131497270696e-05
0.6730078746590797 -0.30475473195255703 0.6971765003789233 0.03999771272143013
0.6632101800001331 -0.3116889968014638 0.6767411869564557 0.021641775809456747
0.6673975223029621 -0.3055875072489112 0.7147373267883872 0.07009926441113222
0.6781069668720099 -0.29590565615902714 0.703241556943495 0.03695356630838457
0.6911128193488064 -0.29581620490783933 0.6502869647276666 0.0725368288391198
0.6965833517361264 -0.28711049669873984 0.6547282329518979 0.055270241657544496
0.7018721704750378 -0.2983176064403774 0.6885353780800431 0.023948882407585897
0.7083867186301764 -0.29709981791059986 0.6930756954539686 0.022464293450136334
0.6922489012643899 -0.29021587296379797 0.6668815253297167 0.053904891609685715
0.6810914559803812 -0.293359261975515 0.7091546166701536 0.028551359238819286
0.6859361323335276 -0.2907582808895938 0.6788102263939122 0.05321302082114703
