x y z curv
0.6802881450085889 -0.33302436584745987 0.16902130095863843 0.0498703097735889
0.6823543577173111 -0.34750979781956004 0.1997875269628033 0.02522943084726703
0.6816461747136761 -0.3613046546307276 0.21881768049625164 0.021240809192021773
0.664459414816164 -0.31384147854028155 0.1390391791729356 0.03775703765711342
0.6597740096082361 -0.3143158113326771 0.13346246024934974 0.03034221012257774
0.6600580952361655 -0.3069744521102557 0.1410770503710586 0.02052210079737611
0.6765397301912165 -0.3136735938802731 0.14904317833649397 0.009464632044231725
0.6755197956747733 -0.31918880387525067 0.17473357081624374 0.02346274357882013
0.6669533584575618 -0.31130204166851694 0.2187183402901748 0.015100354889150187
0.6629189811170122 -0.3086625931281687 0.1943636015270465 0.007571803607380724
0.6635755957407268 -0.30574976108916185 0.18407695840805355 0.004863525646856584
0.6746097811742026 -0.3226362936743287 0.1970472126996062 0.025538539730296236
0.6466744631984861 -0.2970491520492081 0.12867828771145015 0.06024166135830262
0.6373865072762813 -0.2934169891127047 0.15108396911651417 0.016503949185097427
0.6471928435654984 -0.2835050782761586 0.16994780443799548 0.01658994611103521
0.6575647863207824 -0.29419928085761343 0.1703730036025417 0.014930740542604537
0.6591213962009077 -0.30055520860421636 0.19378686004468806 0.007399401475246198
0.6594718768313631 -0.30008613331775563 0.17808744114166397 0.019355644546745456
0.6504761309095834 -0.29629015821497634 0.21694764366399008 0.010830734457496395
0.650868290319066 -0.28938632940428055 0.1983549619211198 0.008113881525007492
0.6449874199317158 -0.291206173067006 0.21770553582124014 0.01252390987719415
0.6394295633975963 -0.2820465058525886 0.19773483714765094 0.0025632654333429296
0.6135709046898801 -0.40513011346693856 0.1510931684058112 
0.6337432702458102 -0.409219661783651 0.21253917181594814 2.538658429134934e-13
0.662459577185233 -0.3899272445960441 0.22605811969076606 0.022299222435844254
0.6474641843167214 -0.40067496375924067 0.22921974824183444 0.0002948329359229243
0.6738353879662595 -0.37050987638938804 0.2417093785315389 0.01767601394592747
0.673798138545912 -0.3836635572410083 0.23898517058036747 0.01590646182930312
0.6802588890750251 -0.33371458959801387 0.22568329436468162 0.026445195032523412
0.6801987283636817 -0.3512968314553022 0.2419352298459242 0.005215060671266447
0.664463022297138 -0.3021409814049581 0.2288452399712933 0.019251807066034896
0.6797651109698786 -0.3150202647936014 0.2413925811664353 0.017728828632472483
0.6693520543611413 -0.29988279598046624 0.24475879983161197 0.021509751794486234
0.6779030776898689 -0.3286841063870835 0.22967387815922333 0.02652629065899501
0.6456207302986161 -0.2858450978950122 0.24183985852847226 0.023797494980814227
0.6211402884161548 -0.25398193530432794 0.1050913296971559 0.00727321029767485
0.6184665208923186 -0.26356158170763455 0.060897768961590396 0.010151986715263872
0.6239603027885192 -0.26609044535878246 0.07755413967603839 0.009562454024098898
0.6271079708233303 -0.279064014461195 0.09007185202922081 0.0031160085679608606
0.6273716975274976 -0.2850816667575978 0.07676249639287985 0.0027485515314171274
0.6350380583273464 -0.2995099187416854 0.10377912113470689 0.008283207904319799
0.6316916630599549 -0.2908095255423682 0.10153958858044275 0.012170157163033211
0.6288672817692886 -0.27717047727596983 0.08550227793531774 0.009243834446190926
0.6464848986652331 -0.33372584313765036 0.112995796759055 0.038953008718836606
0.6374936916230862 -0.3082432873684466 0.1166239152976081 0.05865318142213293
0.6354365303139581 -0.3771038469221718 0.10532320877153376 0.034039936757499265
0.6487296768264655 -0.36203699469850664 0.10806897703904296 0.03813863013967402
0.6358663124924461 -0.3864542743369331 0.10749643199682934 0.055951758429863815
0.6217973700367239 -0.40563795062073144 0.09708310665699804 0.01046764275855669
0.630524685702871 -0.39806830387232445 0.1032797766116943 0.022414891073814534
0.6398228035941314 -0.3923513600525583 0.07732248165334477 0.009245309645566122
0.6357178900196715 -0.3862740070604274 0.10684952341643712 0.05592789301582293
0.610936391090025 -0.4291066488411065 0.07005855351508064 0.04755353572451286
0.6213654524067961 -0.4228994187744721 0.08258288710119431 0.05033642326195271
0.6206716251636346 -0.4176286494388308 0.06752438834667691 0.019847516971172895
0.605518402083569 -0.43218529431960134 0.09583276439015889 0.022976434863800837
0.6156559635898554 -0.4292543950789047 0.08568683823418705 0.039425513940658324
0.30574086496456737 -0.6707845867830337 0.24943027259643372 0.03257154891459894
0.36691322201270665 -0.6763384617684679 0.2527752831046064 0.03798277242032451
0.3196816096471439 -0.6759806683960984 0.25265125387153214 0.0272466915770809
0.3914509359820322 -0.6507146359251238 0.2708794834174973 0.00820395737531696
0.2998416841370241 -0.6488016306455231 0.2567490143413626 0.01503553891537262
0.3614336631333916 -0.6761713285571427 0.265347118216248 0.016457749005058003
0.378088561298125 -0.6677458073439242 0.2590167004895599 0.040068294535234514
0.33899149065296474 -0.6704816025097651 0.26270914744509466 0.012231899150281321
0.30740119229633783 -0.6249328121934098 0.3003123890499785 
0.3246944728589242 -0.6560875215309013 0.3105584313588956 0.08953131053866623
0.32771818263489677 -0.6624150734454298 0.31760808493111636 0.07699416093950381
0.31915145575248727 -0.6600733852547723 0.3222474177218644 0.06256015788244702
0.335095234401117 -0.6658439611325799 0.3144481023767551 0.03554109422617379
0.3462789094834011 -0.6563993041863616 0.29181512629989775 0.08596631695836175
0.3405249997493821 -0.6527468621294459 0.2972424114440293 0.07206992123082671
0.3481467169505957 -0.6540665612634187 0.3067118253467892 0.04331437595441837
0.3546113527844926 -0.6613092466942583 0.3191257593539585 0.049025375866496926
0.36080062686600517 -0.6481097934123718 0.3207957201935893 0.051378823087620346
0.3446819097686372 -0.6650436539708204 0.3186306179753998 0.036576525070440624
0.36772494255824123 -0.6542281951125989 0.33664377072433577 0.015585608805951673
0.3141784420867211 -0.6634711900372945 0.34265249366261935 0.03926945780170645
0.3093796686831722 -0.6420736866641367 0.33764057444836104 0.01278447707700796
0.34116424803397005 -0.6716472262278091 0.3411818753333358 0.046878052294452396
0.34879541250208723 -0.6628956126691817 0.3341649531126238 0.0690683838802401
0.3290373941399943 -0.6480421367502639 0.2894404201472997 0.10179655480474019
0.37979491290947903 -0.6360367296272943 0.3354806616723798 0.041785618092744066
0.3522672851633814 -0.6602633656920979 0.33462845112130596 0.06480025982026727
0.33774145247404996 -0.6557112367026268 0.11960285139587118 0.05543314547691435
0.3508394126625635 -0.6533347465053724 0.11703941039816725 0.11036283606496404
0.36075165225276457 -0.6579340776878818 0.08755222802195656 0.035064609252792915
0.34402759674506617 -0.654569535589323 0.076850270099448 0.0322971992705945
0.3351280432391822 -0.6521436992792021 0.10452374624866709 0.015082051570173864
0.31979221277763176 -0.6428351646264768 0.08926644538926387 0.0032126044247749435
0.3501185739129213 -0.6603662908697521 0.09416496682888137 0.019100346897734575
0.34597628860320534 -0.6717876708100066 0.03132612284687732 0.030251131600396143
0.31296866478350616 -0.6325555555421261 0.03658075126810834 0.039043778647629875
0.3745599029492111 -0.6651189188068538 0.026677652465038258 0.018383578419814948
0.32596161628827225 -0.6608368303312981 0.027771425942042786 0.01748547657766553
0.3522242546030673 -0.6732346883634935 0.04220513227241035 0.039414963756167216
0.38282318554760536 -0.6507136189973252 0.03335544379327495 -1.624299990308688e-14
0.3776126054701611 -0.6312278176070415 0.0234590689616802 -6.955064581727051e-15
0.32568207763729157 -0.6483328964320404 0.06622505437720361 0.02374428197267249
0.3209652185259538 -0.6423353160276436 0.05541677942589425 0.04007303166410964
0.33178591517548006 -0.6475826570754457 0.0675031955666494 0.02395283565203002
0.32895605593177113 -0.6600178000546499 0.04939012018015807 0.018169515444893473
0.35360587440362135 -0.6562657315036952 0.0722892205473207 0.029836485614482728
0.3376918459565148 -0.6407348775820119 0.01380280920453418 0.025238843727222612
0.35306432518077896 -0.646069710928927 0.0022751764317339904 0.015772014931208854
0.29831285150823683 -0.6432044233103267 0.1323099109869579 0.010847292269499195
0.28040052251124714 -0.6478659592007049 0.15820262558420495 0.03917562432371976
0.2855151340290729 -0.6387492262869807 0.2218599992990514 0.004816160668770799
0.28568972482994953 -0.6542233044567111 0.17046331192877937 0.013945931578085845
0.29734706435109814 -0.6529837382481959 0.19173715676233186 0.01627066109340309
0.3098960987515172 -0.6820065561319677 0.14367093675360318 0.0057571542902617075
0.3062315164562478 -0.6666794186895855 0.1368351061273959 0.0285266861544077
0.3052224176030075 -0.6623794649031419 0.18287296715129658 0.019892638252977123
0.3012312164076031 -0.669781983195352 0.1694708818111604 0.01587825153180436
0.32206967015865856 -0.6800790063091054 0.16852657718164596 0.019935942671866658
0.31651737723490275 -0.668868524697682 0.18311447859514185 0.01761526728717126
0.32827898110690346 -0.6756735856596423 0.20829226783762586 0.01710864885469483
0.3209254601150305 -0.6729657873322404 0.2112871957996636 0.014229517065942039
0.30521330341812863 -0.670387729187852 0.2135707400258324 0.01963063842645015
0.31817049014178267 -0.6706364503651037 0.20607485359177036 0.022439256110056333
0.34309833098400555 -0.6809968700940499 0.13366784236212978 0.01983385779832296
0.351543914308957 -0.6811771331123061 0.15421743804816435 0.04283136256021458
0.3397355788934599 -0.6814594654180849 0.1635458621697326 0.059236770542361414
0.3417771150702174 -0.6861364610272358 0.14829346077561886 0.021503513964790805
0.33133648571815405 -0.678752658287226 0.21254559849316598 0.046311772001006675
0.3409593856371276 -0.6842556179905562 0.17679187178727504 0.04391755113371098
0.3544385258886914 -0.6940941003703509 0.19026816358074225 0.02271297902870002
0.35385432339213596 -0.6823567698090064 0.20931803941508081 0.05236725597312858
0.35007522953109643 -0.6874656781668395 0.16286492210405165 0.0408212237276624
0.3329405588284813 -0.6753857680875457 0.18469907280969136 0.025906339555619114
0.3851030990247731 -0.6741356467543788 0.1418826231797646 0.038935881548681626
0.3595136731047154 -0.6760040028400061 0.15304206418535643 0.013608205918053716
0.37918623454567707 -0.6764701610492693 0.15110177184670556 0.028164309137474218
0.37240695202914603 -0.6792117161298331 0.18458208111455346 0.03981209687843586
0.373683576570494 -0.6812267819686202 0.18876181433065953 0.019788891073347917
0.36729018845026495 -0.673188233478602 0.22041987523624657 0.03101942763478247
0.3766603501531311 -0.6708039986584536 0.17193820178311656 0.03812079269916159
0.37888863042188964 -0.6719913713594098 0.20705021709441065 0.014795585748578989
0.38739029712638934 -0.6674241334994566 0.21252073344382122 0.016521767580291277
0.38061938552697316 -0.6736314630007938 0.19237283422633747 0.017732825328594676
0.4018298735747827 -0.6392779310085435 0.1519769978955194 0.0010885935024964784
0.3986971011230705 -0.649683118784 0.14962762417333242 0.009749049135023821
0.3934645710204736 -0.6563145805232808 0.20547138189142342 0.023894335760290087
0.39456601326391844 -0.6552319075902469 0.18012879024792602 0.007486581305028896
0.38636460926471006 -0.6632010740828114 0.21941021030153054 0.022474541615849063
0.40312116948859256 -0.6349565956290382 0.17739900400227424 6.727690182858571e-05
0.40593180569768794 -0.6218238867108448 0.19742833071445892 2.2685978360098041e-13
0.28321277700410113 -0.6237758793088444 0.24463755327767123 1.121570169615213e-13
0.29176495150349974 -0.6469553885384987 0.24778843554054883 0.0010353333878749687
0.3029937398130852 -0.6677351680946026 0.23955888395492506 0.034561715900308675
0.3132757983139663 -0.6803318161815848 0.23186779697979112 0.006941893685653457
0.3719509039638959 -0.672018894697953 0.2386965059232113 0.016933986480964596
0.36688562704382693 -0.6740946375568733 0.2238994945094403 0.02587477687013033
0.36157216145936816 -0.6853294765277083 0.2341397561680805 0.022453971899400692
0.40222886663887597 -0.6373714667332522 0.23799628893582872 0.008245816444756455
0.39528742471351125 -0.6597549757826158 0.22795933128177473 0.017872834375932782
0.4340936379190404 -0.6153714318589458 0.08643687688870995 0.021593972752020154
0.4112492648423876 -0.6291765271684004 0.09228976655605581 0.014547889186016414
0.4117809736632425 -0.6200661867705523 0.07375614826848156 0.012030927680495877
0.4384327842605815 -0.6153401527819612 0.07975531950638601 0.020514210374431012
0.4141188247942752 -0.6195986851913896 0.07583912581907551 0.010197790173399486
0.4237727517611593 -0.616910730750703 0.07635983075719789 0.018105687802553897
0.38552570209963316 -0.6320056919897356 0.1012649742293751 0.021926416873502615
0.3948723992509278 -0.6361546132506666 0.09245586671821632 0.016613663245320594
0.39044087860030674 -0.6321991179360401 0.0831135641445083 0.0215141550486107
0.40993642032829863 -0.6287488496591781 0.0915470298462803 0.015695581627818384
0.38360479970843836 -0.6320044528467873 0.11412044075766642 0.010520841208520931
0.36345905907013 -0.6489989774500651 0.10792009681064205 0.023726083149160613
0.31314734368569747 -0.6396313209451593 0.10444499376546673 0.014122827949798408
0.30760014949227815 -0.640184941142293 0.11943794816335898 0.047685525407621776
0.3066482344851653 -0.637303881267346 0.10984772791802049 0.0487364321864887
0.30099595538135016 -0.6329808772973634 0.10855531685582748 0.011173588651808623
0.2957927200918466 -0.6377269076716515 0.11746893726055435 0.07554499898246911
0.2977478485767053 -0.6342816514966879 0.0821230916848859 0.006920618866242811
0.2803765626954373 -0.6344864097815104 0.09333572810903584 0.02619443070463869
0.2726874795284285 -0.6244131951365235 0.07892228098597837 0.012754755829349495
0.2543785893231459 -0.6142730619895299 0.06837805184030862 0.009360377683768552
0.2634990415615228 -0.6136251831949529 0.06781562542895825 0.003658613967887942
0.2572875125511403 -0.6354504464414056 0.0865619600762911 0.0006652103981938795
0.36056171866412695 -0.008943397308172462 0.2589284277995008 
0.3467904675141339 -0.023250225004259384 0.3340176752776709 -2.6557280650529516e-14
0.35227854784110363 -0.023099867801278255 0.3363361612561666 
0.31306381579972636 -0.03676945233320601 0.3361317900932325 
0.37989294209686814 -0.031478299072321476 0.34670144744504683 
0.3659166309262422 -0.026894789798744705 0.02561038575934818 0.019052644844254726
0.33736455628015016 -0.019758917226000247 0.031608046603805076 0.02136540736267461
0.31859274472798443 -0.02237391859653448 0.038252863437782156 0.09287148539256336
0.3206989060440077 -0.03451334603159851 0.02888643101894558 0.06253434152263546
0.32065417064273244 -0.0668202595857174 0.02619808655494201 
0.3554601476372732 -0.02826403961948993 0.04803971129898408 0.008495332242127705
0.338888103390904 -0.022297876179658234 0.05055749596240981 0.05813692225466297
0.34314436911712165 -0.04498504721731628 0.006163518720502793 0.05007014174452826
0.35093894635587164 -0.042181642269259426 0.007878429458046446 0.014598294311951008
0.40944855396609586 -0.03835125542815154 0.15284329185932485 
0.37254543975807075 -0.006835130055854873 0.13333696673883283 
0.3667395144994896 -0.0023505797389794404 0.16640398229246867 0.004077795006670119
0.3751190655828459 -0.006074931875391781 0.15631372607843821 0.003795174692264157
0.3824125526522512 -0.013682596660381859 0.1985728854621314 0.00113497163102611
0.37457246257298665 -0.010563755668599848 0.20842802721707965 0.0010876569106183327
0.3809332713499827 -0.00919038294154046 0.1849982477120696 0.0026280696291879173
0.3806317166649005 -0.006541862992016364 0.17420821888325866 0.0011655329090820273
0.3870079875438181 -0.016363363604506312 0.21011231871480865 0.004537811402828562
0.3360414780648276 -8.038963190768345e-05 0.1597641465107447 0.0032289616881689773
0.3070655254394095 -0.014938707368339401 0.15136834703418747 -4.213466206359689e-15
0.31629033264958506 -0.01102125425070123 0.13604519160520342 
0.32921779439543836 -0.0026974459359637316 0.19223973878998596 9.399959668108233e-16
0.3065961627623943 -0.008901280808233825 0.2107110768021688 1.2845777807639338e-15
0.3050279522892546 -0.006309579156225905 0.17523784593820688 0.0009807724304465137
0.3723445760397661 -0.005178211123786633 0.24087237816358117 0.00019676851009624007
0.344464243782476 -0.0019757823131013367 0.23733004148459397 -4.2606039305100154e-16
0.3194548618633429 -0.006013677583056514 0.23912900709167093 
0.26306609445092255 -0.05802055988746781 0.09277693736975386 
0.2833416289244372 -0.046183839522065936 0.07745124795124513 
0.4161002527219212 -0.05567062579139116 0.06980566324439051 
0.09048994565330346 -0.13721421365535857 0.2420493385655618 0.022403630585670846
0.10544223041595571 -0.1731530830062834 0.2569858632073801 0.017384871708741263
0.09904329461727346 -0.12493153301646982 0.25467643854910554 0.015657540856837533
0.09873494168785026 -0.11803304231601092 0.2554681417855742 0.0058635922996925546
0.0900983440712274 -0.1520333797658235 0.26505745033520806 0.0006591460525280157
0.1235248183494616 -0.1834011357484561 0.26396660244755216 0.010827593072783533
0.134765143897376 -0.1952117883379164 0.25709536424518764 0.013894834813898447
0.11990112134727317 -0.09863289767336636 0.2655685077656281 0.005217474198673839
0.1167622886662433 -0.16309255801418585 0.29808999315221474 0.019334834874114207
0.12164142441143695 -0.16439034943697522 0.30812268140422067 0.062419808280169756
0.1445238320354811 -0.1717425104361641 0.3059688517914018 8.663926788492885e-14
0.1316463203306683 -0.1099789951638726 0.3012982883874992 0.018028690316467255
0.14259447724814447 -0.10051110980257412 0.327506066325771 0.013726903330214627
0.1251613895209648 -0.11876618993276979 0.323216830619692 0.03557003776857413
0.12368557326479422 -0.12246501881613962 0.3010878787177823 0.018084162132539546
0.12471688534813537 -0.11899859245901918 0.29262712595948265 0.021504510679325798
0.11144685533004522 -0.14033492249503166 0.2987450842619548 0.029003367863647312
0.1103894938217386 -0.15298005782065924 0.3301052787070688 0.04150843550588663
0.11579608951393583 -0.14841159237835252 0.3067602677679086 0.10075594549495516
0.10896336569449533 -0.14074240748063382 0.3116832622894948 0.030445557747900514
0.10890513536793148 -0.1527968723401679 0.3315022365404864 0.03912151273707242
0.11061010890764272 -0.11780053775079888 0.3429085546417966 0.034865924018831505
0.1170081120229644 -0.17031178851456782 0.3364948206229686 0.027014436319336955
0.12598645574162023 -0.1736814699900167 0.34241827590777757 0.05396632851680367
0.13104654986759473 -0.10260818765851033 0.3335369366648048 0.025109387833490836
0.11142370422061083 -0.126079394057371 0.3445762203693289 0.045918467208786486
0.11224776440230701 -0.13584822027743085 0.3334564702207423 0.056053339317646875
0.11615820439616766 -0.14670507297889532 0.33877690388161974 0.06188007601084704
0.11243156899810897 -0.13306579441688537 0.13175606662651845 0.029492125523759162
0.11975258346059459 -0.12364677252175924 0.11367225904069993 0.03670415811459342
0.1186376992856617 -0.14579296815527282 0.0943187823264625 0.023281264667291378
0.1308971961197445 -0.12132149501898856 0.09943309798555934 0.015982923134457164
0.1207900841767573 -0.10982841555777141 0.05587623642766534 0.09637248943682564
0.11623924749880028 -0.15048683799332574 0.05495447401383584 0.07249368368712142
0.11731942467610058 -0.146452277880007 0.04861559175476683 0.07443955197493057
0.1296247676876408 -0.1085059380988314 0.03208074174729757 0.0705028830715226
0.11028280531442163 -0.15318786162587825 0.027926792218056162 0.07720957672172322
0.10958712227650137 -0.11442282379926731 0.03891613387713329 0.08130388952949462
0.10201390683265973 -0.1253901865916923 0.03236189083305974 0.05024811449862476
0.10720237667437342 -0.14787927522907193 0.030724489881676302 0.06356144316183761
0.12877411589924442 -0.16294253487613702 0.036095736645175354 0.06595056730700377
0.1588684725189606 -0.14867748102777853 0.03216555901153283 
0.11680601018019382 -0.16089688014467393 0.03435995180793159 0.08631429302573101
0.12145172898782332 -0.14052827001076698 0.06212670862982579 0.0610864194599845
0.11480527092610701 -0.12981978799387442 0.057673422045578654 0.05922731069077363
0.11718006870327285 -0.12583077300211415 0.07005608501942676 0.019252753694671994
0.120986867871657 -0.11932631377658165 0.060635229176989304 0.08615559231734045
0.12277410763693247 -0.1427900390091964 0.07405108466829877 0.0304502301165319
0.12583507717509954 -0.14067381712570212 0.003101039524372592 0.006124205963974159
0.13318378390669072 -0.12306537899409807 0.0018708937073529462 
0.1304672759432741 -0.09062653923948809 0.13002532717358303 0.009335960588880516
0.13633853062474066 -0.08279110003145097 0.15082433950209287 0.006290139904110584
0.12580935473925756 -0.08312534105549352 0.19085776129756507 0.004931329544150963
0.13219851238712899 -0.07623846839130868 0.2057068680960607 0.0047187559215837085
0.10586415651453937 -0.10396728487022985 0.13713732755589292 0.02796845669390422
0.10316552509983082 -0.10575197621496125 0.1477882020962775 0.03450110141425714
0.10709394615535912 -0.09611034646127438 0.15047286102946683 0.029459599394696695
0.10028270190860238 -0.10307466079279423 0.19000689477417615 0.016936214552700248
0.09819186174798342 -0.10974211767166143 0.1921132516548382 0.041245723255931954
0.09547403430483214 -0.11242878483197093 0.21633227969864655 0.009923813538968072
0.11361393491072215 -0.08961171360283393 0.20827360565296607 0.004613044410821898
0.10644488535816302 -0.09681955319543442 0.1671221205478328 0.00608987220173834
0.09517308943278777 -0.14502837459506834 0.149877073128589 0.05002651884094307
0.08831530983554983 -0.13148331204851577 0.1459953751461302 0.05313889173668027
0.09535785272311911 -0.1323475225219513 0.14224708781757817 0.04483414411601615
0.09019936332277669 -0.14126916968005926 0.14216244243675558 0.05888262211936119
0.08713609226633975 -0.12150890774900758 0.14954532651722582 0.06409405683025561
0.08823090676858321 -0.11859773949538319 0.2184362913651325 0.009461477020422226
0.08904999797637642 -0.13239969759722023 0.17873527052351348 0.03520159570056476
0.08043358015450666 -0.1219641954182606 0.17676152056704314 0.038782307512387475
0.08709241432797092 -0.12892717452944702 0.1955538521433901 0.047657389403512
0.08468356197869512 -0.136702337622629 0.18884887431526054 0.03267151189038061
0.08787588397286891 -0.14465195341811024 0.21014365028661058 0.031702085902349415
0.09814159121474547 -0.14366064039198664 0.17678598768465353 0.024861898613466563
0.10511504981354833 -0.16640357514972104 0.13643212684105216 0.06117901173270583
0.0966726633219541 -0.16069908342679176 0.14228808388923841 0.04050635059139581
0.09323430238775421 -0.16543368464213792 0.16728347167746271 0.017162795405925642
0.09638614607028939 -0.14981275151632045 0.15796528873272403 0.03522161249850113
0.08957649321045016 -0.1586972081516755 0.18844272932185493 0.022891692535054763
0.09085399646854621 -0.16088971409293684 0.1977175607965069 0.020081170450394144
0.10129567161942345 -0.17053692332034662 0.21843017749126858 0.014660137397015984
0.09054450528265418 -0.16916328037774736 0.19457926966810682 0.026072529801058817
0.10160971151880914 -0.1765659691622861 0.18480558110495152 0.04656508752326609
0.10048176761317643 -0.17460960431843175 0.19870845659045827 0.03563081032826555
0.10322151063937039 -0.19595705867740199 0.15483104477380627 0.00011502975957828646
0.10660858371081669 -0.1772517588816315 0.21433776524419723 0.017339970084207606
0.1183987001699674 -0.19201997042795738 0.1920088512191371 0.006421375962991307
0.10515745206458524 -0.17537501052354842 0.17145287723661426 0.03818641151229549
0.14098023586656822 -0.07348566369848777 0.23579637522378918 -2.2029108999650625e-15
0.12494296642883608 -0.08933069801555228 0.23681198187287728 0.0017235863192289623
0.10074023135928648 -0.11076161756962259 0.24420668958058123 0.012088818116045936
0.10110908106869211 -0.10211142731885983 0.2254886359511844 0.006786236670190152
0.10995635922765543 -0.09664003983774806 0.22619980342405704 0.004281613224711031
0.10280643230035387 -0.10850299144642128 0.2401494574449678 0.01164471992205863
0.0878438888026179 -0.15140224693001206 0.23446787218274234 0.037056433628717876
0.08237437410165686 -0.13994753093772203 0.2291071247482151 0.02996750580959315
0.08964339793206282 -0.12866155660058803 0.24204419779470412 0.018370888037526695
0.09639534552060224 -0.1803600705360994 0.22931604523574822 0.005747332728506803
0.08606743179258008 -0.15371007912454365 0.2301984505368812 0.031100864414117118
0.09362582377307109 -0.1620864440244255 0.23944116951267416 0.027749697349329937
0.12129012202889171 -0.1906387989440265 0.22967034385853521 0.02169532232222638
0.11800397823526979 -0.19170923463888323 0.23811789473766706 0.02581766171640853
0.11282166452791093 -0.1891893454147339 0.23357848299801537 0.019927686975046377
0.14276835424292755 -0.19873516870328417 0.22820215813419806 0.0011601389610055171
0.09157808392658935 -0.19355154470478814 0.07846246087299694 0.033416332698492264
0.10212770347208117 -0.20029074133489155 0.06548135644891988 0.02645138207908688
0.0887665256426128 -0.2145393624358235 0.0763115512926404 0.03299071736958752
0.09081213659096353 -0.207527764916882 0.08592183011087993 0.03106041173454844
0.09707265698839504 -0.17394427379451644 0.09949940633386503 0.025679699428289213
0.09800640929475007 -0.16184523549829313 0.09111294217941636 0.03475345816443726
0.10527587816000264 -0.16593947831650455 0.07843258005301156 0.027993776732034913
0.10466682405660135 -0.19602968174655486 0.09862849457153991 0.01269516237369768
0.09449500260468516 -0.18164129057496062 0.09982264330404937 0.05664939203316553
0.11160834622735036 -0.1574988075244415 0.1308456547629029 0.0531499094339716
0.11158541365872765 -0.14551103384002853 0.10559034770595738 0.02555213507800545
0.11407262683682479 -0.15733518333623533 0.1119256046899751 0.0220391237834896
0.11451371638595303 -0.14690598212020897 0.11077373862830911 0.04387458471294921
0.051410201324844786 -0.397166656065472 0.24983382122639206 0.00424492305159664
0.02332728368166853 -0.37157510973433233 0.2507400225022724 0.007767507475247555
0.011374752819057693 -0.36071497281221543 0.24586977395417342 0.013418395917319692
0.031549067914555695 -0.30487047867137984 0.25772255720421333 0.04186822146650061
0.01393536768009168 -0.3608080809441858 0.2540975267056887 0.016502685460253238
0.04352546152407791 -0.3946963144887664 0.26971683455732026 0.0005898185649225765
0.03350805353584643 -0.3064502061666701 0.2664759833178305 0.02640510943764807
0.010281894506323663 -0.31378616583289964 0.2602616796151593 0.021395063273952998
0.013194727601860197 -0.33051494132862075 0.25853848020160264 0.0349850618396521
0.024258139547805736 -0.37276424389388946 0.25730969709047724 0.006251192941602174
0.017173358419612587 -0.36420729202247976 0.26653013541721937 0.01085940481580829
0.04394514059121352 -0.3105881629259454 0.30651104727157946 0.0006250890646087168
0.039188260343997916 -0.322215515120114 0.29353876024076997 0.03615117070191095
0.03316709459702342 -0.32165100978370625 0.3198182692470517 0.04081641211013915
0.02246504264942107 -0.34679869627869586 0.2966460383944349 0.07868167756354912
0.02687821785289224 -0.35185317518657194 0.29807499744840416 0.09833034903912301
0.023949897461042955 -0.34713499161156186 0.3030134277260324 0.06291812774733184
0.02956479242726276 -0.35178691504957105 0.3170303705136441 0.0748630648678229
0.0420053705002842 -0.3673796951639887 0.3110932244535693 0.011616876673068467
0.026175042927737025 -0.35219866081071843 0.3286527625231871 0.05968537889763512
0.0522415348257045 -0.3806613685889866 0.3223493664237354 0.02204803200173772
0.04949799329726767 -0.37613201944600744 0.31769858482843394 0.017135501476365413
0.050626305230213 -0.37818094909947425 0.323374604165796 0.022619384141885343
0.02098227390970337 -0.3383995527648583 0.3389124882585166 0.041141807837540095
0.05622482410119092 -0.3773353722021689 0.33811327672048824 0.01106436477714071
0.05617611062784336 -0.304837192490268 0.3421907302541456 -3.3236118789118065e-14
0.04026915694188581 -0.3156351843375763 0.3423263971426221 0.05566778846889811
0.02239501994910964 -0.3261862078197437 0.32732366117992107 0.022280447914417544
0.02756595544521708 -0.3526487922159276 0.33716653826763815 0.09457545571219038
0.025594420647869646 -0.3603071757962581 0.3370666677426952 0.02325504948086591
0.0355139003397636 -0.3688997168850782 0.33972646978097165 0.020398432254422505
0.028882180005142782 -0.3482401207358882 0.12956161016834272 0.022876337263633334
0.030865314105735325 -0.3314785216359925 0.12899423556593761 0.0037749073017879506
0.04311137518031566 -0.354504015026744 0.1040761250862142 0.01167555031291473
0.039747337432156714 -0.3578396169206724 0.08979198168374172 0.01165040733117722
0.03652753718475524 -0.3344598371826473 0.07610449683059084 0.023143876106625796
0.04040584152277342 -0.34222915635014634 0.1006969648390658 0.03822741587401208
0.035086144361193464 -0.34412213117754614 0.08289508202984816 0.011506082319531971
0.0385853047669064 -0.3482698278701831 0.09081816759291064 0.04283638374081589
0.023492195958949153 -0.3412895469105814 0.026566378150714654 0.1675988481273245
0.041552747600480444 -0.3211742790742314 0.06297392456697029 0.039015491770378954
0.0299159925276387 -0.342283921183416 0.061813761531624704 0.030216858499605564
0.04072411384308641 -0.3837971591423472 0.038271250270500747 0.04582334694533803
0.006448384767155351 -0.3254821931081024 0.031348183884577566 0.0037341118652075697
0.017389968798878892 -0.3590400266444034 0.036875027481261605 0.07160307018288223
0.032613944780306624 -0.36760709230685745 0.03423807679736459 0.09847211640976757
0.053102409237642346 -0.31227594576237283 0.030120665136654755 2.923012679218757e-14
0.029045255222904364 -0.32817527888916914 0.052150269675340234 0.13140507136997231
0.0321761465442332 -0.3539817609144076 0.06411738022202611 0.03167228505087316
0.022942463182029773 -0.33782186355315835 0.0437258155181436 0.1783387574648799
0.036522998384743155 -0.35888414436931015 0.05839417065369422 0.06316742474936969
0.032998248586158185 -0.33828205180390375 0.07115735284060892 0.01777587929008225
0.047571950735930776 -0.35896469480465476 0.023814389444190405 0.13153473893630735
0.05010451120224372 -0.3338381205174195 0.01981767855086936 0.08728774739676202
0.04295158467046611 -0.34653078930732995 0.008813756504606536 0.006846544241704378
0.04838479725334374 -0.2866636368368761 0.16416911145951044 1.650529822157261e-14
0.041224559020798524 -0.29155537993512604 0.13865876312997585 0.03288347896967536
0.03393343352887647 -0.28892356856759627 0.21150204644933168 0.015640385510943544
0.0391918256451938 -0.29676990392069574 0.19075362852477934 0.022540150677867344
0.04643581007855078 -0.2921953096172028 0.19841152983355623 0.010708109384365944
0.018436373538447216 -0.3128751703743118 0.13556703499034986 0.024414934538820276
0.006991865695522917 -0.3157365849639812 0.15189024011381147 0.040752599610107715
0.00966479779563688 -0.31151421569106974 0.15643013622129495 0.02490207609565958
0.015284489664286343 -0.3057072741845242 0.18512817434579565 0.0335720792907409
0.016570098073544363 -0.3059632707665686 0.20294872098111394 0.027817137227119156
0.014135912633284817 -0.31859408855257154 0.19583520362698587 0.05066292132471688
0.01324700287606335 -0.3132400104671361 0.17924125861847487 0.040218821116624094
0.00869417035069946 -0.30982850804563655 0.20339827139123692 0.01934140580628533
0.01221136424570219 -0.34680475972348224 0.14807969738192828 0.027635601662929495
0.004328961751860603 -0.33567419719419644 0.1564430486399565 0.03063446653457779
0.004698293006038665 -0.34243243267832085 0.16444781985529355 0.013886544706741548
-0.002631260419385678 -0.3360955282861407 0.20146762385139885 0.016047965258280766
0.002085897294085141 -0.33820453978978593 0.1835797508412773 0.015325551018738472
-0.0023052429018891735 -0.35795708939562393 0.21445489071663057 0.016347750434946566
0.004307226847172931 -0.3496239265189253 0.20455576814195262 0.02775813899852157
0.004536468334160594 -0.3541888335662596 0.1847657550629278 0.03058579193979396
0.001648553383582111 -0.3386400916165 0.1914405623755695 0.019371574361137792
0.01479840799533667 -0.38097277255149914 0.15479881692311553 0.031033657761570344
0.008509766804926027 -0.367327647287112 0.13947109555171952 0.010529135596169274
0.00862974064152814 -0.36355198098967084 0.16046074327608642 0.04127610864815469
0.005435740359784195 -0.3629773893163606 0.1866199225030763 0.010818739644249942
0.0006390571866974268 -0.36755829006865187 0.20879577771010485 0.01916919287408048
0.008750837463529513 -0.38264382233947836 0.19785700651752194 0.02755253677690329
0.018066881322711316 -0.3818313078590913 0.18418909617266865 0.0303419082979736
0.039410061811500766 -0.3898760968335481 0.13410205535328343 0.012579876680940945
0.03513730426301721 -0.40227991823190623 0.15788396629829224 0.0006510174804449417
0.0328920441466699 -0.38816227293065175 0.1502918145883407 0.02587921175368017
0.03904197246367718 -0.3929855028755514 0.18009399758351155 0.017922525871905397
0.05179249545169614 -0.4041169930097007 0.214473408069823 0.0009138022988524632
0.050478059586751556 -0.3983049767243195 0.1834943703383108 0.01976073698926318
0.040101410098327635 -0.39277804166614194 0.18714274063570488 0.016127148191662378
0.0456742633852787 -0.2892395074213455 0.2328336181849643 0.013889443181510277
0.003633096003127231 -0.31780972415202496 0.21767356057297044 0.016611453531136706
0.018553697493135624 -0.30686921925867705 0.23834368297093061 0.01711873392472344
0.009443992505145264 -0.31066867308828394 0.23993750442434655 0.02574322222193895
0.01900524122141285 -0.3074119540793509 0.22212159802547238 0.0179976040489067
0.007501781716098908 -0.35554001324345974 0.236439947977962 0.0199286876014817
0.0017766630785844423 -0.3440671841196383 0.23008627025268574 0.022950228956476425
-0.0008357454815364766 -0.33250692584774166 0.2393251473680113 0.029758649132028824
0.006747506089291932 -0.3669736480980897 0.21749845178023136 0.02179425106303056
0.016492049287793055 -0.3666905219607443 0.24147555334188464 0.01999642218241108
0.021144447071476544 -0.3771925901501641 0.23673330162650988 0.011409586930250884
0.0388627702979763 -0.3890717547438915 0.23601120147397334 0.005030157935351407
0.04361395451939681 -0.39542073910144704 0.224240170573355 0.002446262405467183
0.07843151740777514 -0.4400816274045714 0.08303819283035556 0.006641452618528369
0.06626524069547973 -0.4308355904642295 0.0921030141112637 0.024095234017033725
0.06687782704586846 -0.421332814344631 0.06497675290327934 0.009747299187840541
0.06048801373435265 -0.42420813725694995 0.0873489391217061 0.013463090627954234
0.05827285312891394 -0.3956016365102804 0.08103528697572518 0.014574931630035502
0.06221815773779843 -0.39816329217856716 0.10239401258499566 0.006529957291267429
0.05264392625064113 -0.3838336783789437 0.08560958423395056 0.013305735431441677
0.05646271135016033 -0.4029409378642303 0.09354111967721593 0.012372544347717786
0.04269259609393591 -0.3723878502713381 0.10227051629752656 0.015093384792978101
0.048519631509590544 -0.3759046914993081 0.11169277406704495 0.01401059172376095
0.044066601585854 -0.37041992889862774 0.11074655212225869 0.017945718738493273
0.04644134651753735 -0.31389333275608944 0.09703373369930679 0.02106841339179712
0.0533607915182825 -0.2985802231851644 0.11867662249708044 0.010791696090608156
0.03646813047888309 -0.31385991116754935 0.11563696215137534 0.035147117304471405
0.056136144763034135 -0.30220477932088224 0.08285966760247182 0.014355482940247688
0.058622961829753656 -0.2926958243441232 0.08055323751435088 0.03008626888672275
0.05609102230355321 -0.2812065824163401 0.10495792717494953 0.026250431830716566
0.04519545270196137 -0.30021395199739176 0.09272600515993994 0.01252166219750861
0.07451993140116557 -0.2603625346436227 0.09863794070953741 0.01783069383271922
0.07077011620381336 -0.27872219966185136 0.07349968690742567 0.026176574464664207
0.07283095729938978 -0.25275251068139853 0.07833065296951731 0.036605562882796316
0.06275748185601726 -0.25371615318589313 0.08760194982666446 0.012446987554054966
0.06468782577650432 -0.2705540818929453 0.08387472126047106 0.02342190077878384
0.1568700862081449 -0.5912140984192374 0.2519305223830316 0.038026627381892004
0.12048142965770739 -0.5865302073380013 0.25172181460098914 0.018203221943237553
0.18191882717558078 -0.5880899157684553 0.26042577494120095 0.021342752676302115
0.1316341637664337 -0.5902159852875952 0.25315901614402425 0.019991465846064548
0.1900423123552095 -0.5729487240634554 0.252500125810807 0.03532111197865434
0.10161391831792607 -0.5682897214770343 0.26269126342945476 0.019593063049744865
0.12577292209573201 -0.4994084374466956 0.26949024031695656 -4.269917122125207e-14
0.09711761571847986 -0.5179621822152971 0.2519054117525447 0.03063434799256199
0.10502357863387929 -0.5469141629956917 0.27187481531698166 0.0296988866570282
0.09230692886171098 -0.5631424573053662 0.2634755062344583 0.014708846130334186
0.11144069072727542 -0.5846230504349229 0.25001987551176286 0.007206416261108812
0.12692755380240134 -0.5812510745151315 0.26368652618794614 0.012750212453141346
0.14064859125811893 -0.5898192648858266 0.26209141174684214 0.009847198091560695
0.16017583397749152 -0.5920839753775969 0.2631489230556716 0.049610141722136396
0.16392991659935405 -0.5649939384167526 0.29648861820893035 0.05590936528612484
0.16274542938118053 -0.5661252559450234 0.29583770581030217 0.05454421396126013
0.1824138373183028 -0.5404607450321075 0.3267147558675593 
0.13696439852422565 -0.510445660063944 0.30656754967307287 0.01872915728435202
0.12175576892712682 -0.5169867549239142 0.30127245397203206 0.09710974925916217
0.11380517730080719 -0.5341298392563939 0.3022143488834587 0.09220122313598311
0.11364025108074102 -0.5367240293923117 0.3213173288969821 0.06629673171508027
0.11679956854328427 -0.5509905971144078 0.3302263327099288 0.0462634699346685
0.11476028981353152 -0.550202462794925 0.2967819449793666 0.04640275452327295
0.12146764597520698 -0.5657253385051839 0.29585735000870256 0.043949888383805605
0.12635642457500487 -0.5714178210089478 0.28877884651887387 0.09678208643474805
0.13064964335557291 -0.5721053475199854 0.3141979146832008 0.11512622584358444
0.14976863463410212 -0.5731871771467966 0.30115104798468734 0.1144815232270295
0.12118256380345471 -0.5623418561317249 0.32690890620989255 0.05764583080315533
0.13538030542811366 -0.5121725998822545 0.3150913975913121 0.05023721681043343
0.16551422075919314 -0.5667228233869637 0.32911431801165364 0.054180440177034384
0.14269143119019115 -0.5853192167582667 0.3184322795437099 0.038356899049265404
0.10560989549371412 -0.564143839288275 0.3385486211898502 0.05041912473433183
0.13646438108901174 -0.5079031301860341 0.3394818152447511 0.0532727480602554
0.17975615159481503 -0.5650366384792924 0.33572914042368973 1.2665513462484397e-14
0.16763306033840175 -0.5724283964803742 0.34700160356530146 5.514509246449312e-14
0.11445069586088584 -0.5196716701368109 0.3429547321795258 0.07527677174411414
0.10614683495633481 -0.5213819941771065 0.3343229603961471 0.057166496878640505
0.10995438930877743 -0.544190855265145 0.33690365626655355 0.05971079856494968
0.10450762219038806 -0.5518649908542728 0.3460334992009291 0.055947580016869385
0.12262739094576947 -0.5810138665321901 0.33986952765020434 0.05417086099370847
0.12923257229347057 -0.5836599196340386 0.33836988131031237 0.0790983948115019
0.1426321891617736 -0.5809160415172742 0.34421689615868123 0.08300642780690706
0.14465528494562657 -0.50834128258641 0.3260562554181979 0.0017511473692581408
0.1120186913090657 -0.5365216121581745 0.3351876091666274 0.09742114127933134
0.12340275018858471 -0.5705050451021009 0.1118947819128945 0.07857979381388858
0.11938242158572518 -0.5472645104453764 0.09977214782548974 0.06265755757763782
0.11789604259436823 -0.5527220500584763 0.10673558054624503 0.0869125413417966
0.13239498254497864 -0.5696833633294611 0.0857728583931494 0.05914441069298336
0.12013306037970961 -0.5662799576914133 0.10638265372297509 0.0783071401193403
0.1002207099656373 -0.5581464965092806 0.0382723835846253 0.07244130598535566
0.10530253547862195 -0.5418261533889622 0.0354155149784091 0.13567911786757417
0.16329450205505586 -0.5520210341160583 0.04313069797543519 0.037566522807214266
0.13314972545334985 -0.5293516961947121 0.030086809220121618 0.04595264792250867
0.12019755447776226 -0.5703630970876635 0.04394074614288752 0.10071588841670095
0.1611664170889035 -0.5639794048787667 0.023466925482890776 0.009282330132184748
0.12508900584054508 -0.5784433715908891 0.033382557995437344 0.018600551953927128
0.1413632006589093 -0.5802426315931456 0.03410035593438699 0.055048213433080376
0.1550342034223139 -0.5731810441027178 0.027432057307600354 0.07074377533504032
0.11072841717596991 -0.527686708107189 0.029062514664971076 0.04594199940519081
0.12010145908311197 -0.5381074740616691 0.0544960648420116 0.13559713282663963
0.13822546908640004 -0.5729121581034512 0.05559473779794784 0.16553872949453569
0.14700403527156822 -0.5758316740472494 0.04114504378303889 0.043704723119459006
0.13503784872101282 -0.5703887491588772 0.0616837795055826 0.16581245366794578
0.12958447881206997 -0.5733991761650967 0.059692848517840146 0.08860986464870685
0.12129102034351891 -0.5556583479640685 0.07369487301184853 0.07611260418365534
0.1037521357815053 -0.5574435182933133 0.042547242856563604 0.08639252935573766
0.12214431525590992 -0.5684669715444859 0.056928842143997835 0.08424663317418563
0.12466029820309389 -0.5700408032512133 0.07930732149603527 0.06058253654579978
0.12053895518207342 -0.5505756546438892 0.06586620672814177 0.0789825361992484
0.14545678283007074 -0.5608494887886553 0.07812623870383173 0.04219870371722984
0.12014063584453968 -0.5410457620884712 0.01820454850712454 0.17268705558133218
0.12461146993627893 -0.5565389018742877 0.005154932799415716 0.06199453373224656
0.08734482408659747 -0.5271084083612567 0.14438264649962035 0.040711779385858654
0.09208400777594201 -0.5175944311042368 0.13337669580745176 0.09302484723371165
0.10130135862528575 -0.5127329693365759 0.14393811718792804 0.08594013570668402
0.09929207915958313 -0.508538672253082 0.16245705032496485 0.03592529532751589
0.09032877887636805 -0.5204442427053902 0.20907377576226246 0.018896972372624932
0.08525267100864964 -0.5312011398039541 0.18786456630960802 0.02136186552739654
0.08866884762581431 -0.5289520812986147 0.18105674569811023 0.018094990234233152
0.09889614196124907 -0.5115128971312067 0.1988255947011815 0.014292197120559154
0.09230236680463368 -0.5138280931083246 0.18522229204567078 0.007476522779666266
0.09420964390328111 -0.5150227230273995 0.16708316148734867 0.03633634594818552
0.09831233842691359 -0.5582151496518569 0.13721581463950028 0.008501121875778365
0.08894770618704675 -0.5562858739580098 0.14742992951038045 0.037279710266705464
0.07952834254390856 -0.5602076602595583 0.16021339018967623 0.03548023672004978
0.0993977537685756 -0.5427136471870133 0.14206805287499139 0.034311345392012846
0.08453048053002668 -0.5418127998117362 0.21273990108207277 0.03136013210774424
0.08088703632978944 -0.547499552908559 0.22785965528648944 0.030481107637685696
0.07984492583158617 -0.5512579051155364 0.20314555565900586 0.02586171925756546
0.07572647593902099 -0.5407140103591246 0.1617162106157033 0.02583699284385066
0.0839782341818397 -0.5529432856413652 0.18399928819775552 0.026337558671691835
0.08744173847866285 -0.5629686274855342 0.19616427362754477 0.024424724512796443
0.08943260247363478 -0.5645716813180456 0.21437659457715913 0.008898429660087984
0.10420010458936184 -0.5838413605125053 0.14276148452819618 0.005454100968965452
0.09340312671463359 -0.5828662868303408 0.1630369270223967 0.015428376700622545
0.09587984155873622 -0.5824369596862211 0.19001999136795555 0.03190908642901452
0.10142772128040828 -0.591731891160233 0.18331653465720296 0.0390284889375947
0.1082624317213521 -0.5960887194182882 0.2130424247718708 0.014642641254637517
0.10649637588503535 -0.5904678994844986 0.19186080584445792 0.03649960592977091
0.1321213057332526 -0.5876324944162796 0.13594706524948985 0.02259121855962637
0.13354690025648971 -0.604801203776389 0.14717761841701787 0.019842715781136302
0.12065751716160841 -0.6078692878668935 0.16357018064274975 0.013567762036013198
0.13831896844269745 -0.6012933575981141 0.17719605513846584 0.03293054801189895
0.12320392663602886 -0.599206801753639 0.201877823088872 0.035814522257982845
0.1323325415445579 -0.600475305043009 0.19602751998511145 0.030773392835170495
0.13856220613810455 -0.602819103441606 0.1792498329089482 0.03172868363772725
0.1247977878255698 -0.6005476134565542 0.18191445820901078 0.03106856999017248
0.12630209128172293 -0.5958823829417003 0.20916168089785947 0.03384570640260178
0.16358704028021984 -0.593520223809011 0.15819813734363106 0.03968049111084778
0.15896589004148917 -0.5847840578221912 0.140104363039684 0.03273476838500234
0.16552882458362542 -0.590584961064643 0.1453587969139876 0.026874501311504366
0.16981075125042985 -0.5850895897737362 0.16340078134736533 0.028823149361610186
0.16123158968163806 -0.5915273996459733 0.15078497066836125 0.024866984333681823
0.17340313844237354 -0.5884306974606505 0.1746041866533186 0.030582131244367487
0.1643300875710022 -0.5912206465585695 0.20095899463342928 0.028838782935632374
0.18290196328333375 -0.5958868540068529 0.19132430345021265 0.014964063498169597
0.17397023121960226 -0.5917148508212132 0.198040668741358 0.036901521508055306
0.1585807843103298 -0.5929192615477165 0.1992368148545262 0.024885476206976904
0.1504845190989805 -0.6038226203669506 0.17259800655704463 0.020769385553007103
0.156250421131674 -0.5922581307737581 0.20655175669212078 0.024081086904251786
0.11626471251869804 -0.5018542033585828 0.14194818404874865 0.05485944146862728
0.12034393740122817 -0.49784264616575463 0.15311474553182383 0.00859173486851124
0.11262000397329815 -0.5005430410585264 0.15815692401985587 0.009624556194146029
0.11779575612854952 -0.4929547569522158 0.16338756803989657 0.0061063952214803
0.11559196583649806 -0.49557479463260756 0.19848778535072897 0.009201310769181476
0.0990783361322069 -0.5047936394400117 0.1700122251736481 0.009515342424129292
0.11183069082079121 -0.4949600411436991 0.2103684727553933 0.008806452949114696
0.1908759458980881 -0.5713386796579866 0.1386044740062443 0.019402275026955948
0.17610226491934472 -0.5764924046446676 0.1607491252078984 0.02815858562912585
0.19405882416302228 -0.5609325692708925 0.16007025714718492 0.016001388481870833
0.1963133271723908 -0.5662376970168712 0.1430132409267863 0.0031816615945853637
0.18329445844124512 -0.5734090240769018 0.14421255329528562 0.028252967059486128
0.1950364253418712 -0.5699649484591383 0.1925811507600468 0.03539548653823811
0.20429259356819604 -0.5622790312001316 0.19377640653441228 0.018006655704049235
0.18456909400105145 -0.5667065367539644 0.17195996331624575 0.02075107650568534
0.11205586889554142 -0.49284052684953367 0.24075200403956784 0.004854022957933291
0.08940229555696247 -0.5170765144975554 0.23665914884536157 0.021589791815763034
0.08099686277687039 -0.5266494884437767 0.2501853078731022 0.019794013743609385
0.09068177736836726 -0.5176623206571271 0.22071016795081147 0.0166097187831351
0.09649293512599633 -0.5053505143266114 0.21987154638245798 0.013579099099505474
0.07640141941474328 -0.5385727603926328 0.228884419350276 0.02968140993429464
0.0845450881159572 -0.5578423137097839 0.25024074821154757 0.025314667909853292
