x y z curv
0.30294050992286803 0.5642241654059811 0.09267036299644099 0.034982953052383296
0.29948430115240043 0.4894935096394635 0.07731528035266286 0.0020154995910247942
0.3005141485556688 0.5228451194972055 0.06579994467777793 0.0022880468284065957
0.30548226527794137 0.4950010934495457 0.13071958826924018 0.0013427991758823868
0.30186395784943904 0.47966558720558994 0.08942975818933878 0.0020969248573923507
0.3016706366197906 0.37819025655339567 0.11457975979619348 0.001662083317243918
0.3038137321434922 0.31703015051113587 0.15785746287002694 
0.29923192811194216 0.5559726637589902 0.20885417793572528 0.02073074247955283
0.30071208158325585 0.3260796794753623 0.13199751500125217 0.006458666368982764
0.2997138520782799 0.5351913813591889 0.11588055919351731 0.043477427063714116
0.3042398970363557 0.5197502474499405 0.13368568760497557 3.162487964781959e-14
0.2944566991579515 0.5600366460806857 0.16257132288613413 0.010668971353954941
0.29853710245356113 0.5553650550233454 0.11426984403662373 0.04739546831213315
0.2962613938959462 0.5478614551658639 0.12718137890023806 0.03146193826416913
0.3010274422739421 0.4600719027382378 0.12578778602045557 0.003692222616101034
0.3045533666168811 0.3989899717783248 0.10566748484132793 0.00039497164530265613
0.30300348685294837 0.4648360640724677 0.11859681126478143 0.008831758333821167
0.3006702324432434 0.5159726314585341 0.08431521388462117 0.0005932050037367469
0.30400846375404766 0.4361795706041958 0.1532981893465506 
0.30139905465505756 0.5075681086813788 0.055261605784613775 0.0019980213581972453
0.28935084055622423 0.5674107667380944 0.04576868554615436 0.09359836787420696
0.30902698362302494 0.5475013394537704 0.18156946872443644 0.00220737949889747
0.30006295627215174 0.48577062625716755 0.10426285421889132 0.0037725243306664666
0.3053476078010384 0.4274556206173484 0.10247941630716076 9.876258627678592e-15
0.30183006032311055 0.402279582646819 0.11785884728753093 0.0008466153552183535
0.29925122935797627 0.5391524824657267 0.08977503407593135 0.0059801058051977924
0.3047959710675415 0.45895545607877186 0.091568536363296 0.0006912751894091755
0.30404584237758797 0.42933337965015805 0.1526598608584902 
0.05440967132280336 0.3582467704290377 0.13833362472803654 0.0005112045615689916
0.05444968516900302 0.30742384547780055 0.15182030519316664 0.0011209674079061336
0.05864385056405425 0.3237781998174938 0.1363374214792717 0.003422961454883297
0.059129168013872996 0.30010772049430556 0.13194053032063696 0.004349037830266546
0.05198243816312822 0.24112983242310915 0.12798709103293737 -1.2325130174570817e-15
0.05659400299663497 0.20427362893686654 0.13567840850750515 0.002896687090071773
0.062459542855028354 0.15241654801969146 0.13876818867726604 0.014370695252727887
0.05559439477044887 0.16707930971198937 0.15726433334721057 -4.873056720974279e-15
0.05172264765413363 0.40010507259050937 0.15928829999547958 
0.05513151251928259 0.313737569762324 0.09558048618248818 0.0023592067538851236
0.0548547190174854 0.38582412933578725 0.13938204036008914 0.0026431001395039928
0.05442052154194626 0.2667519196572999 0.10376755275682838 -2.9312842338555265e-16
0.05727000985297756 0.2288992988926361 0.06606160578505335 0.0028547528445307057
0.051105748027790075 0.21680463000722455 0.15876930025765934 1.7665338739114897e-15
0.050456990377903924 0.21198180679543022 0.09833097424086851 1.3430820633379772e-16
0.060083637342063345 0.3427326294605765 0.12679957156158925 7.671244992503716e-05
0.05352949069540842 0.35671853498719314 0.1606671194020674 0.001330149133821616
0.050874520279951235 0.29264016450564423 0.08013529265234172 1.8161172085143967e-05
0.06031142981959802 0.20098144922938432 0.049483196901337505 0.006256963177871297
0.05109524044714513 0.1745057655914754 0.10980691830011688 0.0022079048316624057
0.059257803520833194 0.3326375005970608 0.09751867452933662 0.004181461209607239
0.05855779007819309 0.28368347784855097 0.12368494835797074 -3.0186121739910808e-15
0.05597312783980773 0.18908653502650496 0.1395776073681597 0.010778665000566286
0.05666270128614034 0.3334653622637655 0.14067104640944134 0.002016040934375437
0.06043121505985525 0.21954280900693385 0.05891433978025145 0.0004515135972514574
0.061273674722018376 0.40805312811960043 0.060348757923878484 0.0029649839344217006
0.060683855265760464 0.4194123109768019 0.13085108510156868 0.0002920335669091859
0.060164112165696566 0.3335591276046101 0.07170765433569742 0.00371570359835651
0.055041579252476075 0.4577822672827943 0.07544512133018107 0.003275559944576324
0.058694150229318176 0.5436204700639155 0.10323641809596626 0.011020158015029712
0.06258820863521568 0.5372449848320796 0.027859354070170938 0.0004913293155536537
0.05359574726102513 0.3950104833871568 0.09797741590670597 0.0037450561827837756
0.058420053684960234 0.5539028719474773 0.10408649603472246 0.10186158801660362
0.05918562520278462 0.3912283203855528 0.04259255345489478 0.0031658105338177446
0.05166125087772869 0.47176045604940164 0.1404823913943536 
0.05947562722363614 0.442846598016215 0.07056488744289141 0.0013397175583644643
0.04876422052900886 0.5223760955149066 0.15786673198491444 
0.05603849191216109 0.49053710084234636 0.1416483370251611 0.0003005320797788866
0.05627839560320763 0.553379604418614 0.12304428748101358 0.024214220258278962
0.059196894969007076 0.5199558265243661 0.1187896578007502 0.0007218025526881256
0.05010133681973854 0.48476668615133794 0.05407523041388822 0.0057493495163900964
0.060192683573744375 0.42869144261562453 0.08547742391373216 0.005888413534281592
0.055255434244212843 0.4858224790089148 0.08163244717902017 0.008602081006548006
0.055065593611130365 0.355014803289087 0.04567518509432323 0.003853889116602952
0.05842884384833167 0.2782597949475808 0.025191783705447397 0.0027332790213588465
0.058752030794803005 0.5609366727762174 0.06960028231300582 0.06547516976391692
0.0613622212184563 0.5275303696187578 0.09888394553837555 0.0019875361344896068
0.06094083716005931 0.40428327669120356 0.06207821273304866 0.001961033028645258
0.060042411964805587 0.32365995778317724 0.05310100145348969 0.013080291738036135
0.053566721886482656 0.37936498585512296 0.0651473917793862 0.004298070181861688
0.05650483584335346 0.29659616060504335 0.05196496799673684 0.003352124441042351
0.05381186799076161 0.25707525005957566 0.052355719699325086 0.00048491927610940926
0.05839035783461261 0.43351507647770154 0.10411360881255324 0.0076916886218925664
0.05892085491930585 0.44919894296205665 0.04586977107639123 0.0024547517462153766
0.05770735730911901 0.5612770985587362 0.06119650573709085 0.052612652581694
0.056971797852357495 0.3007834341706766 0.050179707663021454 0.0036619564923664766
0.05986723964907278 0.49729292388192053 0.10706443077665936 0.0010795066432713301
0.06017748052775747 0.49929496782273786 0.0693744628660263 0.00527135051220679
0.053894308034870664 0.4566763726412244 0.11895709337704746 -1.7574429321723142e-15
0.059336981362031506 0.543375523033964 0.05124661778828627 0.06258279494639109
0.055003281260403346 0.4836580318979324 0.029689934730338707 1.1961296523178426e-15
0.05566081275925304 0.30090162766344286 0.041095967342481915 0.0032179415132603546
0.0548366419534079 0.5571494158392383 0.17439415147872242 -5.475096038328266e-15
0.06129168382031707 0.41341495024416464 0.03600554850861905 0.0025621787954273586
0.058207415055028196 0.5302253851546307 0.07291369778318987 0.00213262141545859
0.055237812150545955 0.5392886276948262 0.08246566032237526 0.004952019703549407
0.057164205609387335 0.3033183152498605 0.02785701367375968 0.002739093365187467
0.05597755982537886 0.36525721477440026 0.0936541720769246 0.0004982437492661816
0.05408576129531937 0.3814998214552625 0.09659848254318264 0.0028366387223677262
0.062081451430300895 0.42963774070512695 0.03384402507018184 0.0016383233743708916
0.05702235959031751 0.3747730918677115 0.03678497729540767 0.00407254983998495
0.05881527150424087 0.4013020575274003 0.11929339033940026 0.0016822750473313433
0.05863872344052655 0.34805567555522554 0.07571698466755866 0.0036012553788529866
0.06017666031124862 0.5080447014319863 0.08682315977086974 0.004731756614411451
0.058779263294473284 0.5037033914179895 0.05344346218751132 0.006237239764160942
0.05740579805902605 0.5283313077215106 0.045650245006383115 0.002362817043029521
0.009546693756308655 0.20147913628699415 0.24953353970308134 0.0006389908582643676
0.002834896240924062 0.4667994264620665 0.2484042392389295 -1.4319802185684957e-15
0.013892084973556304 0.3511840843545013 0.2482071605463213 0.007109252128218069
0.007042131281830908 0.38456663569835825 0.24559006819940607 0.0015490675441388615
0.004588747161943847 0.41310459475494704 0.24800226209402723 0.002606162770408269
0.007088347385046259 0.1402434480742461 0.2470672058682985 3.665274361506167e-15
-0.0001677448950945029 0.438153959104023 0.24600907229975366 5.280999421281075e-08
0.0006461809410478886 0.24232512377960017 0.2506790007114305 0.00026051299041066425
0.004090494014098972 0.2629903338602921 0.2516316695288552 -7.639026899781623e-16
0.003923198696497409 0.5199813765054995 0.2534904180707174 0.005039561951513849
0.007889037595426791 0.36187765111003745 0.252441712632183 0.011593862481390473
0.005286816446458289 0.17548230832763917 0.2666517935940342 0.002702952515845076
0.0040177491732463644 0.1488202425052685 0.25175106850798346 7.74334016615135e-05
0.0006938858423273233 0.44643319044145013 0.26541581990204516 0.003295150647485527
0.0005573513479306021 0.5652544681968363 0.26018842218901095 0.04477128935376559
-0.006176092419816333 0.5452608773906443 0.254007608963131 0.04696937842020391
0.0031898720770226837 0.41085900547392123 0.25709223580978696 0.003551088389214764
0.005530944617232103 0.3528009611721379 0.30845248207760984 0.0037533204317269303
0.0006138956881620566 0.36147886556224884 0.3302945242291358 0.0071518237398123675
-0.003866567394875201 0.26950073951285053 0.3234764836729636 1.7425490898408111e-16
0.002535236645747201 0.12881960786077298 0.307341504130817 0.005510123644561016
-0.0002212013716124438 0.13401650390401812 0.2658502489339023 0.0020001603068183532
-0.005178293075224343 0.3005416647661736 0.31758764182831856 8.909382894564377e-05
0.0043058597578320805 0.14011202974008535 0.3167512924760608 0.003804845821800874
-0.00042460198262593606 0.3117032314569081 0.34596813296231865 0.010128986263335355
0.0031818813927615287 0.14719345248290608 0.31458288344879715 0.004955815426901115
-0.00384249362913341 0.4234735759690515 0.32855457912960545 0.02141164191463348
0.0023231248864877783 0.12069860311961791 0.33939000259652824 0.0018855752185731763
0.0007748807237916711 0.38983614593754284 0.3172288536917702 0.004690333119591375
-0.0026969967484151147 0.1835135505307931 0.33037382052141295 0.003967768738548638
-0.006917240325915758 0.4521577518546799 0.3379467090596859 0.014903510957065602
-0.0015594915393973858 0.12308374829663424 0.3009351287065515 0.00339994899834247
-0.0006460101247111726 0.19978976889204436 0.327483333101204 0.005449923934839852
-0.0028205304423363237 0.2267206453964196 0.30752778650142487 0.011343617383870281
-0.00323096546293381 0.18248796008654125 0.2863598354271567 0.0013819134600322567
-0.005584530797619678 0.22659359001201745 0.3027243021126341 0.011148455461070269
-0.00017612609545485016 0.2252881614862028 0.277882921055723 0.004451232085150451
-0.0034160603964897753 0.16512758188841065 0.2952984307266692 0.0043860983850573226
-0.010048645944588316 0.24060758232377735 0.30181756059959275 0.0049388375673588706
-0.0016978736413323049 0.4149104016448946 0.3343744957418589 0.006494125247768577
-0.0005129116148727521 0.39276866146928097 0.31524857112192484 0.006682981631741741
0.0045153265805874445 0.4988294672267065 0.34148906959012204 0.06302101671966079
-0.0023911766236255332 0.18716405136582512 0.3063692677439117 0.00457871231621189
-0.0018687038782903595 0.16544191110990442 0.33297159650597186 0.002761685774361129
0.0017070128938664526 0.13582970988376208 0.302010995029819 0.008035624133747825
-0.0014790393345915 0.1606239496895293 0.29830740908327325 0.006654301734751941
-0.003655389118484435 0.1954732084878967 0.3068371598030419 0.0043241948287880754
0.0014041653007469956 0.3379016290303354 0.3268701734149459 0.0074612785253941345
-0.0008727291225748158 0.2159990126970147 0.31223335478692116 0.0074126008058557616
-0.004964499271505372 0.484891096755639 0.3274290660906173 0.015190711061593334
0.0043038751924173455 0.2245329557304326 0.2642023028641572 0.0007930036846779809
-0.0010698598294666224 0.4586137394568551 0.29169502616819315 0.0031440343904400414
0.003466964971512777 0.5519359497853533 0.3135698372048337 0.07978734595041104
-0.001894983923412175 0.39033839674095266 0.28906999468570455 0.0070299465273298365
-0.0008199951427544172 0.30899447543488795 0.28296195939743796 0.0026967899508940968
-0.0023684500558111606 0.3323226758510953 0.2718228959333227 0.006597314665106948
-0.0011901000709863179 0.313818610422416 0.3043951604311598 0.003747064372112587
-0.0004819503718385349 0.5072617260497732 0.29831280737145094 0.0027427629333688745
0.003470616186312707 0.3829062726755076 0.300011451555879 0.005256718252366347
0.0024162310673049446 0.38836232527569586 0.2610433177178377 0.006312202853449828
0.0016394160801088647 0.5145014492356884 0.2657645546618481 0.013689059266709897
-0.005769091990942445 0.48160595247935456 0.30839697480533906 0.007275081482785531
-0.0035926617862317546 0.4819379253711114 0.26370774153010285 0.0002455602142628209
0.006823481489482272 0.36645748295633473 0.303231913206385 0.005452907126555183
-0.0009806059438637162 0.40776345539414044 0.2873957621064758 0.006558819363893012
-0.0019192051020747976 0.5034685925817686 0.31092830551417316 0.007286458593081659
-0.00876103169410772 0.2727810918717973 0.27715761846096915 4.1330374586983774e-15
-0.001172806061022747 0.5054586288720649 0.28260925367944495 0.003049531185905367
-0.0022152511195361853 0.29906568381782855 0.26390684885908844 0.008994685220458947
-0.00024207948632135653 0.4331131693553583 0.31267985065597687 0.0025050626411550754
0.0021905732993269004 0.3415230631155767 0.29526646086218905 0.0025103104186924826
0.005828892888404943 0.20806167508618997 0.25923980447893463 0.006624955815128571
0.0013824385686384997 0.5518147458690894 0.29287708330344164 0.11648273407018732
0.0026865895898461317 0.1608585906770998 0.2669991917485932 0.00503072442736514
-0.0015730851048980834 0.4172985525222332 0.2825693681563323 0.006320084022732042
-0.0014805126143426824 0.5192247955219372 0.2876526474260765 0.004604316273024378
-8.183056736401056e-05 0.5027445133425925 0.2715601064746514 0.002312996581729956
0.003774639026596645 0.35847917803068735 0.2722921570634784 0.021793401010975707
0.002285703406585249 0.19950868356796012 0.27883547358571614 0.004537937750899688
-0.0008419673052353647 0.5147997837989851 0.3334697573465848 0.03144007004167717
-0.0027330063750141955 0.3843962903154997 0.27788842560478244 0.004076468064710827
0.0041802067467051835 0.5218837721575952 0.30695840470309044 0.0009178932062976363
-0.004078581532050392 0.4312657273730115 0.29371269547434803 0.0011105079008324175
0.00482361726980773 0.5646402597161337 0.27338422915423316 0.044221822528262386
0.0016461846584944055 0.5286191887823102 0.3368532419772951 0.034544590074649884
-0.001055424838554763 0.16263549949786713 0.34678739888350907 0.0024267495463907995
0.002826124800154402 0.5265326979929699 0.3432959745695875 0.05509683944001126
0.014989141706572517 0.5594098815851715 0.35655339242071876 0.05752342523054854
0.008207090949862904 0.4704764730336329 0.3492703725545211 0.01685679080862862
0.01006875711622812 0.5082827944767778 0.35716176860071364 0.01942772224009669
0.0016071572279416513 0.4794170997486994 0.3474124442138513 0.022036160182087917
0.0108233015285572 0.5415074521658214 0.34858108546837197 0.0579363721339758
0.008241591488614091 0.5570814620547151 0.34471370607025187 0.05173532919659237
0.18656746989893017 0.4777462205049335 0.35957255601830157 0.0006541899982954087
0.16565879095707076 0.5445738662693229 0.35413420648259625 0.019875712993145927
0.14632977926126947 0.5397863676263653 0.35462310033667493 0.01476260618083926
0.03243378514004233 0.5623089334130958 0.3438024644127429 0.04206679641087885
0.12046452577551878 0.5215436773802862 0.36132988888505607 -3.2233732747543416e-15
0.13898378034873068 0.5573342487380227 0.35062723497823306 0.051836415927515936
0.13557486062835628 0.5263855017426111 0.3609991762902256 0.0032290400997825866
0.10618004750641444 0.5589810409412754 0.3455214939565509 0.08603298219373576
0.06493706158419575 0.4648966756158081 0.3592621864126884 
0.09433963062228416 0.5319793792489275 0.3590073594626791 0.021037635394532822
0.06822582269930147 0.4983708153640698 0.35459454049869477 2.8879845648735335e-05
0.056172364026375175 0.5293301537205465 0.35797664284459413 0.031363533505435276
0.07665589809849487 0.5572426224469639 0.361904701939822 0.018229672014378917
0.11548573660052747 0.5624719353006864 0.35370005719798864 0.02106403808947867
0.06325195537975939 0.5322823556753797 0.35950585612810054 0.030280151801219415
0.0314968568694068 0.551073709318299 0.35177027551827617 0.06623332514679248
0.17490928606354839 0.47599921509928833 0.35946173919920654 -7.162431141385862e-15
0.029003059566638324 0.5433560387691269 0.35405203979297895 0.06755212640425266
0.013646064343879183 0.4439869316269956 0.357267277852226 0.018757627651769446
0.03519155986762197 0.504791333033063 0.354995056965579 0.020714466097843942
0.021019532000655015 0.49545710073481536 0.3566351037640874 0.05008646991471058
0.012942113666236366 0.517910512940563 0.3552771351379306 0.032385859194375734
0.2955963980929281 0.5577889589308187 0.24177935300866804 0.0015967456196485843
0.292279976139594 0.22134249855341734 0.02213773182397885 0.014764844756667863
0.06713252294246116 0.3365267080064627 0.026615503559823922 -3.590453320589184e-15
0.05818174846446373 0.39404484452356237 0.029016664463462353 0.003938731422364818
0.060533435126587605 0.24468490693408607 0.02647888594635091 
0.05923486570787688 0.5251489651721768 0.0182892680620182 4.71912069749477e-15
0.05981956742709192 0.37887929242529783 0.02552238287940342 5.5342917532733384e-05
0.06824017129958393 0.5650005175299712 0.032598012065173994 0.01250731931099968
0.3004245796538801 0.33683466134644713 0.02554538351196075 
0.10700856422268071 0.5597645100380823 0.028289603173701088 0.0032171008546054863
0.22164033263936472 0.5525543940949255 0.021292854347997173 9.684997252016048e-14
0.30136980167084076 0.2716914551116623 0.02969163718902536 0.0031474782583617036
0.2955732374909597 0.2583144077224024 0.026090541011620758 0.0034186192708747605
0.13029738393968995 0.5659039781984609 0.03626924779338175 0.0004366415382933565
0.1953578121960713 0.5526295993444753 0.026267130456847622 1.0112804765016566e-14
0.26829763555692204 0.562487979716763 0.3610773819576648 0.02382705092833617
0.1551564733005668 0.560558028088515 0.3468493731685381 0.060750651751966436
0.0488922333610191 0.5595568022743593 0.3471279568146522 0.07248656968822736
0.1792243924827977 0.5642852181794901 0.3472550448021817 0.06408959238187391
0.2950916490206167 0.5581548350927316 0.34384436665272694 0.052467300850074554
0.022809488802639184 0.5621516400315882 0.3300162529537731 0.05511894720971487
0.0949334560116165 0.5667359814336007 0.29101451068697215 0.004937025812452598
0.03623523237151693 0.564307177047317 0.307088961305885 0.011107862569145073
0.1295630962004295 0.560909680427145 0.30909379205391896 0.0023489442389246916
0.05195922415259797 0.5632156238260883 0.3003651397459121 0.006810980351617611
0.12038499889378626 0.5626508181928954 0.33116042133148815 0.006496517867012546
0.10710714370146383 0.5637594723821852 0.29723847619864396 0.003530008817888757
0.006758907871315082 0.5626257404179063 0.3105321848800114 0.014464715930964548
0.2219554496273382 0.5651586629432117 0.3325938678072596 0.029712567827239387
0.17367071061306286 0.5621186165917887 0.33262996069807627 0.05426693692643589
0.13756369871590687 0.5645806058346261 0.3191731704847576 0.004311303630857239
0.0465241500202235 0.5606815596368067 0.3267910765273509 0.03426004587137173
0.06627011093529146 0.5602550486012149 0.34057189395294984 0.06368028305493939
0.25944754945429854 0.5600174781796523 0.3485978160216278 0.01879850087188808
0.16202708018503809 0.559392732429386 0.31376039750730134 0.003762139961391454
0.16271223158186318 0.5600943764655044 0.30207996821326427 0.0033885523720114984
0.08689844063464182 0.5648793632207271 0.2976160594565393 0.003063282408980262
0.19028961466482286 0.5656860334767262 0.33792666583288644 0.049912615423159445
0.08349213986355303 0.5642370520790141 0.28232753429560414 0.008513710147537951
0.06711697120248258 0.5673185631868264 0.3273088253003575 0.0032491598878339584
0.2716751959132304 0.5620907657090339 0.32629424229750204 0.004593428036914724
0.1465335503555629 0.5648660936993412 0.2860762919520734 0.0029641031310247384
0.14515591402303724 0.5628832837196747 0.30772598710647997 0.0033793986962092205
0.20627753100893753 0.5685174937043193 0.31418729513705057 0.0276712900609635
0.24743944795140213 0.5654842948788137 0.32870564702022037 0.007845521389789594
0.06530273389231288 0.5608364224807165 0.28540997411995567 0.003926561348394588
0.20788551787382256 0.565426325688429 0.3333870829774776 0.02846068138261198
0.2348899221603639 0.5648082604421697 0.3426430227269796 0.01937335910588364
0.18688925251885313 0.5633955300021227 0.31344214307345286 0.022494921289099655
0.031740231191582056 0.5635161141124325 0.28122693752953914 0.015605671332560815
0.15266474807932767 0.5609690668361785 0.29965631843554535 0.0037222889989824088
0.1515875344438877 0.5627676890230924 0.3372658394651181 0.04608325900320507
0.0997284339230491 0.5670815516048985 0.32367996897312556 0.00432405077297297
0.23751482808407065 0.5617053483898855 0.27844580092249854 0.002497535194279965
0.33467197888877676 0.5622835310337844 0.3280372932311151 0.06609724646933346
0.22286041154295821 0.5639592472066722 0.3151258440831707 0.02319892276843368
0.339703862629767 0.5618883637863629 0.29437267823734686 0.03332919231655567
0.2585515655154855 0.5674133255484483 0.26517795919427173 0.0009687769664655546
0.23249359464241906 0.5648265138728529 0.30916844334471777 0.0026641263219338647
0.28859205009397354 0.5659261429429617 0.29138647956818775 0.015337557765688539
0.27899270152538447 0.5640505415072736 0.28477393993718636 0.01524143629460429
0.31872628130261066 0.5709787003111048 0.32423984566624153 0.007853270127160717
0.3504942484087613 0.5583699035439859 0.33214762359123934 0.06927132946070357
0.20724956748525628 0.5630630965305549 0.2784113359169236 0.004232392577434715
0.251700296004662 0.5657444046821507 0.29111566458724436 0.005434663495950499
0.24353167109297486 0.5640199587356308 0.28719693385314693 0.00333405078082732
0.3028856406395715 0.5659489224263272 0.27691398419787855 0.012330828856845562
0.33724634049873214 0.5599464614187868 0.33395306884050474 0.06550025259043375
0.2251104780283814 0.560194015123119 0.25801689689286134 0.004693435301387409
0.053560806499772816 0.5675435953879183 0.26774254078983284 0.0017334934443899803
0.15985375292217896 0.564679335929334 0.2685327377354046 0.0038818044820772765
0.33430328178415103 0.5639328952460889 0.30235474550769176 0.03960109213128558
0.3346216483715401 0.5729979611577125 0.2740360918772149 0.05893488760811387
0.34088769373483985 0.5687026821396862 0.25423570448705385 0.05064364104618213
0.18068418293678853 0.5618927168973914 0.27197949241078806 0.0038723468594484027
0.13034026605457946 0.5671242275320494 0.2651864931097514 5.333231853097065e-05
0.316984972097056 0.5717990433907811 0.2923538190880544 0.018827905793890123
0.2857130178343987 0.5589557205842101 0.31095965309792944 0.00929539797299337
0.17264217975359988 0.5619564850723544 0.29566725842884 0.0056592352182818165
0.27249185676220133 0.5645737812344248 0.29642103181428436 0.003937061955295196
0.18494694706645956 0.5671674519713654 0.2606468256053324 0.0020516850418647843
0.3008011284900611 0.5633609380046444 0.30201925444960154 0.015584311916613875
0.026734397487419386 0.5617237373172274 0.2578466832201424 0.027701457567687757
0.20769513523292873 0.5600585654797897 0.2572115140392364 0.0039924111291231475
0.04229264151189511 0.560377540637682 0.2546739955887381 0.012710933729575519
0.29492928154951537 0.5593815539926436 0.2527165553044018 0.0038183588987229394
0.08814455558361835 0.5594420852358625 0.2454117067614241 0.012424432581867463
0.20615822110036255 0.5606396293194584 0.24708252395963456 0.00374455334787779
0.059304351336995915 0.5612974802874682 0.24466185216971806 0.010558312396755209
0.26193700104990264 0.5611530066454526 0.24532733721683825 0.011196142463350094
0.14445365174209357 0.5639785359064283 0.23739251168552214 0.0023578922300624594
0.10394724408638423 0.5617936691164563 0.23741274456440684 0.016783159548097545
0.09176358277718047 0.5624345375103031 0.23173212688039285 0.006797666302410668
0.22255158348010123 0.5639337197283589 0.2327250141693545 0.0018332086913251408
0.1778550668671723 0.5644840446690113 0.2350166392102945 0.00367183242423079
0.06760422562548643 0.566447515400699 0.2116472417414786 0.013212206830746009
0.18082368927296194 0.5632646424970494 0.20379094210666074 0.003166828536601578
0.2268358175059737 0.5627602090564189 0.21332830170768524 0.002308147357086266
0.09908352838987919 0.5684242132916033 0.07609069185499992 0.00709969225425556
0.1050496705337634 0.5621129108334233 0.09259193794589447 3.854981789659411e-06
0.16712345663769776 0.5706525603396482 0.19423163504425506 0.004503982179096971
0.07975141597627411 0.5641755976431956 0.0540052750615055 0.03986303436467586
0.08992598492465094 0.5650092190706623 0.08862979913161642 0.02215560053591805
0.19786936146782538 0.5640213839635374 0.20792134630625297 0.00435926617682899
0.18823871639671727 0.5662435720410552 0.1564063831552538 0.004833812183775495
0.07873573561128665 0.5610103247461511 0.13830375012472007 0.013307184445431802
0.09651384453695541 0.5605469053459835 0.147387441939512 0.003599758035863698
0.22221732134998406 0.5642937039482189 0.19708787311824819 0.002666916597282729
0.12917356505010993 0.5620080577494427 0.22028112466891636 0.001792959802367708
0.08383046558651223 0.5698899750786846 0.21056886553847037 0.006483047048019817
0.14322644010921445 0.5656368220071265 0.21216003208422207 0.006252541188227507
0.07656755287465701 0.5595064011830084 0.22769648808917956 0.0023084340625089085
0.14844313371125306 0.5613836131867305 0.16184623623618863 0.0034213400631413716
0.11174505865341455 0.5667223179677867 0.22202334100107723 0.0053134889913835194
0.1006077280609187 0.5660727882067886 0.17373714242973567 0.005384349673156343
0.27159015008585885 0.5585717046684469 0.23184421164077418 0.0034050347550468756
0.10086900956873932 0.5609320745447439 0.11425062963989698 0.0025455217255847306
0.12502549448714267 0.5672079128158599 0.19244741280399838 0.002624778993108318
0.12639314338619376 0.5696369021565013 0.14423114753817126 0.006000665793968537
0.2463729704882144 0.5662395836940558 0.21068763420399308 0.0036989767213849146
0.06796015880696434 0.5637973388035891 0.14462073824380994 0.004622975334109441
0.12428539723004785 0.5653838645020457 0.10209195406968745 0.0034471723628148212
0.14735517057249595 0.565528700681328 0.14045226011833223 3.8293634408884896e-05
0.1486265138890634 0.5669326091117092 0.11606679911159354 0.001382024798294756
0.19740661811239255 0.5648861705237451 0.15842561900656132 0.0056436799454659126
0.06559933016947687 0.5713126114775298 0.09625396763595019 0.048304700002608676
0.19648222937189758 0.565029696128034 0.22513134668220725 0.005108973668393534
0.200085960191306 0.568578823910766 0.19167659433935186 0.007238228460422878
0.06734052960486425 0.5633101509537883 0.17737180377565215 0.0065330342695359535
0.28915793859502403 0.5636038714040397 0.12047169338201563 0.09213143169631918
0.233205013984049 0.570862142497663 0.17713464319529507 0.010521592651963133
0.27284208569879714 0.5719216672692627 0.08115731005471025 0.0038408815258465963
0.2568641179190989 0.5751146470520004 0.16303020446541558 0.003964860983296432
0.14843080269506548 0.5667582716261524 0.0667488860170993 0.0002673769555378552
0.19721858216109994 0.5655531393747867 0.044831929474385517 0.012403744002580127
0.2652083820186427 0.5650202223564457 0.1961835302467552 0.004375331636910777
0.21956018354422477 0.5694627522879159 0.06208401338116112 0.0018111813872744849
0.09511735906223005 0.5608836965471067 0.027001462779981375 0.007179807092370648
0.21899231331705055 0.564623903895866 0.1327129766633929 0.003267040217662894
0.18829593433497926 0.5605414403977602 0.07347603079798329 0.001599220514410724
0.16283607589820565 0.5647060205295581 0.10721255113842179 0.0006415761804100748
0.2362078586662825 0.5637945265989347 0.03494852263143311 0.0010761498071044085
0.2569051486102036 0.5637653995181575 0.047004555727503984 0.0034469860857896883
0.28824337628292507 0.5645915224030582 0.18433531594941074 0.015847284210149033
0.29526375457923487 0.5662878996431803 0.06147939121332255 0.05655859750910274
0.2845077499613852 0.5677148758293625 0.03139229667887538 0.006497056542534184
0.2863854172304515 0.5623688353862556 0.19794924583353607 0.01842476087414414
0.14254178646510768 0.5618602997584025 0.029617476256729332 0.006574214262003123
0.20459317314897768 0.5627985939714826 0.15121828157883477 0.0030798254105137246
0.26075722812823704 0.5690262929492574 0.13772025139762065 0.010733659025678651
0.2603791293397284 0.5654992869559696 0.0731287272793616 0.013495728582091438
0.1716382461402544 0.5611528662805149 0.054767765057632464 0.00931684276176607
0.2923005136345206 0.5627217982135987 0.12601841068615638 0.07899697676322757
0.22300646557669862 0.5656899123935613 0.11201347232413403 0.002233102549618311
0.2901422475609453 0.565252550244762 0.15088405135999663 0.012971699733214706
0.21122442079681678 0.5679783275809194 0.1254646435701465 0.001587153589831892
0.255076497937206 0.5653822072312094 0.056936478503224426 0.005641466837553348
0.1530937981371918 0.5613349546702693 0.033182061130307756 0.00022106295538804578
0.27563430768032987 0.5701990368836742 0.18418091789632898 0.0054680664162807
0.18550847077234792 0.5653379982839172 0.11725751269748597 0.0023351312307351847
0.22159072481455516 0.5639305781198333 0.0934097171394571 0.009572147161780798
0.2528155501358032 0.5600815414327075 0.10032079855404331 0.0033200180798232753
0.2797992500816442 0.5676730656070345 0.11046108803636068 0.10078527437811555
0.08869544493539501 0.566039812575217 0.04608932079911083 0.0487670904189641
0.2509273279125993 0.5670817504528729 0.1896274317332376 0.004892722107478569
0.20437586408565772 0.5661746876649365 0.1283051464907365 0.0030456754649069444
0.19760537916518597 0.5635398008241898 0.08457962257938868 0.004279598378743892
0.03201595349643321 0.03215112314376369 0.3428447393437219 1.2232884746868547e-16
0.014956055028186262 0.04921518465865704 0.33382467772580954 0.0004731144086113121
0.10677238314576742 -0.007578694105433631 0.34304320116743164 
0.037671597144103744 0.04632631556106177 0.3038499742649926 0.0005806213767303546
0.06241944030941745 0.04001619803123328 0.28683068992459904 
0.029976627373602405 0.042901449666214356 0.32191161985266986 0.00010052776566993947
0.02990712978658978 0.06262390009160188 0.27346316836162277 
0.0019200776620643817 0.09045250273004624 0.26431212138258503 
8.332519901028089e-05 0.07493292739008663 0.30695690066048514 0.01650806560253504
0.07277364227296525 0.20398681976684366 0.024018387624603267 1.3655805293325942e-16
0.06110370519642673 0.1509823640487477 0.10760173024684008 0.0031931487318227264
0.061534301034429056 0.13317943942394303 0.14363512334671433 5.138251477392974e-05
0.0601007672771461 0.18752000748932673 0.05398441020629178 0.010630031625779834
0.062268212497323 0.16040361415004614 0.09288468244535895 0.020787336295191906
0.06517398259945568 0.1712228504686905 0.05839642023493428 0.0012406166192938997
0.07082389762428912 0.10976449671911453 0.1613656399264803 
0.07212320548842878 0.12665054026186703 0.12785937199909905 0.004999145426181558
0.1093408170438384 0.022792407928334382 0.2806420228205935 
0.09432241692166804 0.146326754869797 0.0739029148975734 
-0.004820437156651572 0.06450999502831153 0.34195719890689585 0.016080768827367496
0.0032666089961505274 0.06580437059846318 0.3202748155002387 0.047851885385878944
0.0029768087305261665 0.10141177458491415 0.2630943129084182 4.965744093066785e-16
-2.1996774085061496e-05 0.09756864666491542 0.3190291081457851 0.002220107337512639
-0.002953325215606137 0.08397250992953988 0.2882779801886077 0.0015164544296498985
0.30765109860621354 0.023738988069524528 0.34252579990819326 0.029242136939826607
0.32396246160974235 0.03420182630023512 0.3484584705511481 0.011107125355718239
0.3557581729598836 0.06377510596733112 0.34449536548229265 0.018768530462985048
0.2516809765901536 0.0060430249563282095 0.3409396390234016 
0.31175525071486176 0.04231051803875535 0.3028605066212714 
0.31651315091050664 0.05620187386835199 0.2754475120830223 -3.435101793793321e-15
0.3286764981810305 0.07364113466058976 0.2465953600682153 
0.348366351848335 0.08915270371888324 0.26211698692592694 0.00248209525703566
0.27916645240748944 0.04743002689230412 0.2595977784725775 
0.3426350736708751 0.05375072998294257 0.3263924557388252 0.019354866813888805
0.3011876471989491 0.15949468561832872 0.14186158059044185 0.005069407890873581
0.2989347675257202 0.17172726430386662 0.09248548253166095 0.022863828752592838
0.29928840642055526 0.1510130494110445 0.1328283840266663 0.011616420697593884
0.2987450956686202 0.17350181234436 0.08267082278624815 0.021258542914919406
0.2960093289099261 0.16122569155593539 0.10920372820204752 0.0072874902582509395
0.3006089344590488 0.17937967054174977 0.056847638166262454 0.008699783226180074
0.29786015707677777 0.11750573873681039 0.1706982352997589 
0.2917552498851917 0.1628941546175081 0.07177657313794908 0.0056070539650467065
0.2776048884978028 0.16970478938521713 0.039230267027525106 0.0028751951961788046
0.29923075346520644 0.13768401195466412 0.1268215357627333 0.0018448778094507015
0.2867721837049437 0.13239240223452273 0.11182068776565723 0.014253193719561099
0.2765375419744836 0.14997481294033016 0.07047737349329095 0.006579993130206771
0.2864589392755453 0.1863562068484009 0.023938917209301185 0.010678454669207473
0.25727042760134955 0.13156426027296292 0.08672714565125234 
0.28614620341651265 0.021888735215113187 0.3262792436794125 
0.3564445492268533 0.06811560308463087 0.32907660430386343 0.006417934627944551
0.34814068910740265 0.07086902606334564 0.2872662809564419 0.011456785490858153
0.35558736323921347 0.07008292173845655 0.32244104947204566 0.008430887267209692
0.3583237239038734 0.09657602871365396 0.2964051922062139 0.004536550520688195
0.36014661317931657 0.09377072088352834 0.30703331186158045 0.004771074886101917
0.3588929557498085 0.10770420668312096 0.27998221610752133 0.0046129696551791225
0.34170779057564704 0.05813132022896732 0.3114747088151353 0.0034467268748993724
0.0673987531478231 0.18267461679492583 0.028744256290597108 0.0014341296662621387
0.29980843568436 0.2000116469145255 0.03317455176388504 0.017975943653523337
-0.0002175823058815028 0.38757015271546025 0.3554411032590491 0.007357036045576172
0.36388012064969005 0.4168744636668005 0.34994921700045034 0.006190509054754634
-0.004210183298801314 0.24476961472592923 0.3508382686961597 0.013434019997060122
-0.015739443088442728 0.08463721633273563 0.3682233624723752 0.03945252081480679
-0.007075863077887199 0.3621748763599479 0.3515286867625429 0.022499781982623413
5.2492263544910956e-05 0.15818533792502742 0.35572942981362893 0.0011147289874281164
-0.0035522835331703102 0.22678555646703102 0.3675309721742504 0.07758410211678768
-0.005885135349544257 0.2770146178422896 0.3647937922290527 0.0061209675587904095
-0.0015593395543170019 0.12389271861838859 0.37239834145671286 0.04506744352026503
0.0006488072499486474 0.15022587463993028 0.36155055812576503 0.011227466092604391
0.00037639106670383593 0.1292615117983299 0.3541909936701636 0.01530677300899594
-0.007424876362211222 0.1975612403731442 0.35970079834215307 0.01821411663027711
-0.002225482202100918 0.18982677840819515 0.37998052798742366 0.06253953328916736
-0.004045312055021748 0.33539856391547407 0.36634954539185977 0.015784487817965636
-0.007655196848935898 0.3716272491827773 0.35978564487540726 0.07792905005079756
-0.00039406787824472977 0.17304854630244138 0.3633783146524202 0.03288829103578932
-0.0032085682199322453 0.3806409717772915 0.3675691697167771 0.08000523452352709
0.0004861839560475609 0.300740297431004 0.36663580060524925 0.056338014106490905
-1.798923479981905e-05 0.21993400749749872 0.3564524834054571 0.1075789272992125
-0.0034391241817139963 0.2406029867751463 0.3736728949240164 0.08197358798726906
0.0023269608953799424 0.41639028322467186 0.35178136888883105 0.05575094707192813
0.041107997679812394 0.03253130552106251 0.3762805502300178 1.1217077341448573e-15
0.17568724210540923 0.426419903328358 0.378412385086381 0.007998440960840248
0.26878306206702934 0.42083463085721856 0.3737073216948454 6.687916780611817e-05
0.22738446400171355 0.42915442653000846 0.36927796333315915 0.000121353713507648
0.11848918086746686 0.004147123609094458 0.37793433866161247 0.0004288033796028882
0.12747523147683004 -0.00550019285758273 0.3645976586883457 -3.784580184939535e-15
0.3065584891482507 0.017057305655406134 0.3584073611443475 0.015273715996822373
0.35415065552913655 0.05271170784893 0.3601835759903324 0.04132182950581326
0.35679011150291173 0.06015777724556006 0.3630316752716401 0.04780628902208576
0.36079081291149934 0.19761066203583152 0.3623853527797652 0.05017801771998723
0.3641917062692993 0.38074774927298377 0.3584534956723448 0.03428185720555407
0.36272383801697655 0.28246349516937014 0.3546470825380824 0.027858172485331803
0.3612528424289816 0.2590705712025173 0.35112885318183473 0.0011580289316753317
0.3574969780526248 0.16788559150180984 0.35541041050765093 0.03824642229323518
0.359357300905885 0.40987269195797943 0.3680160102313056 0.06806965582164685
0.36718767651714235 0.21473097209271297 0.3660188723205155 0.048625114987181535
0.3586172495313399 0.3479746450175248 0.3686208552147911 0.05986725668407815
0.3674099570209776 0.3216608082822978 0.366796191932819 0.019564167144407937
0.36026478320726135 0.10515401481430221 0.3572139074928284 0.01213277718516925
0.35763009444300775 0.40385900162441096 0.37642285393545044 0.0586820163799749
0.36230203228280433 0.20239524968341796 0.35896842264015444 0.050860340569059234
0.36258808879318594 0.24866482142439295 0.3647571745645816 0.039191112485554375
0.36218421292419517 0.13151364822068748 0.36792358698430916 0.07014054647621659
0.365497034897373 0.08919319466465207 0.3565902872365215 0.009573057025740765
0.0006581113716752178 0.054686476551433855 0.3740804855450262 0.06875560167063417
0.010450082246102589 0.4234545837514529 0.37695982802876093 0.05545400457405091
0.3656334605404323 0.357987412807719 0.365689933109678 0.0449563553148718
0.3565799266163122 0.08855740520678462 0.3649186005219699 0.02956740757317831
0.36954417648814364 0.14812799177270383 0.3662852850797706 0.025214257306741174
-0.003995271217724725 0.1072403043317253 0.3738385706189372 0.0980223326563854
0.0026998271843097395 0.41961924667872413 0.3653928802013914 0.050564711326902795
0.006329574041555021 0.28221929805897966 0.3792776620280199 0.012575185318435983
0.020929370574834173 0.4229051490276307 0.3762432558531654 0.05245907469924974
0.18124664559068981 0.42159588829184713 0.3850849725650763 0.003460664302527384
0.15801133306006615 0.4190408278135273 0.38237900310260936 0.0003709774870468695
0.08250182775159212 0.01590414333023918 0.37121418993170935 -1.5584142552787868e-14
0.2035742900558706 -0.002147251365533969 0.37341178202570213 0.00042264180925915255
0.24510275503286344 0.007849474481030608 0.3717011516133636 0.06103047739998917
0.33859304464181744 0.04466453671201532 0.36867711520224394 0.0515903728519942
0.35781311373742986 0.4166646833472577 0.3810576505304863 0.086093662779126
0.3645814377661189 0.3056501535260042 0.36817373263484504 0.024928153705471627
0.3655667034116143 0.26822532174513186 0.38284390798883805 0.006573527044106053
0.36563150576786707 0.20489760459912978 0.3688524605888346 0.05107605961268558
7.830231977485193e-05 0.3194882282203337 0.37452347116062046 0.0661951138528061
-0.007316641153695545 0.40371488460079696 0.3845030194881739 0.03942961669259084
-0.004687802263372963 0.25045549769376685 0.37676910888406895 0.06503418473830268
0.011393877421037833 0.055790026349549646 0.37957353605388405 0.01018342734134075
0.30059906347526866 0.0233235935992932 0.3703543012313833 0.03658334229750564
0.3582110751703125 0.06761008028969502 0.37792501457261973 0.051682298206959236
0.3562524636004708 0.06545407339522358 0.38420143263320294 0.056817381318107624
0.35458257706274937 0.3458965225782437 0.3748679223907626 0.06102249041705909
0.3585942002874793 0.22513953742937057 0.37626422639238444 0.0354525770212942
0.0029442005870718557 0.074385950562246 0.3742033186056724 0.060565489376908525
-0.0012016964590176298 0.134190558250357 0.38134238951246935 0.03742401890779365
0.001339494707101447 0.1867368610479874 0.38751995962486674 0.07243919156498645
-0.002047477408437753 0.1533133468450746 0.3778554909936389 0.025986814441408098
0.004867879852254028 0.08913079813021896 0.37921351101328654 0.004401815843763134
-0.007544883278147233 0.36312183418864447 0.3781527972731328 0.04269903544575698
-0.0025568293507481233 0.381759430330929 0.3762991620093809 0.0767383390607034
0.0033460672169658115 0.2610037595321847 0.37817261741047603 0.03946170518354652
0.0037648859621367634 0.29920848302460673 0.37714059581804255 0.04109435462594142
0.1240170352043222 0.4314711627034004 0.3776309615507189 -5.498246756439986e-14
0.2576349554371438 0.4204848977888888 0.3779591385899544 0.0002559186579468862
0.046569967148048536 0.4206976099833233 0.3829914705714249 0.0032593754674823104
0.07888713769278168 0.021507025232472034 0.38468644655557355 -1.5611536045197754e-14
0.1431667256635855 -0.002713850066251206 0.3776144578559801 0.009459194128579899
0.2281069308747835 0.006081736631541344 0.3779584929403983 0.004382486735784326
0.28238193964576674 0.03222656394985083 0.38600986408860655 0.034042047217596225
0.32246495317973595 0.0358129106265891 0.37684047938012244 0.015247508371302121
0.355316586580226 0.3140317540423013 0.38104228483818636 0.05397718854725535
0.3564454185062646 0.3737529619308324 0.3819370902946481 0.01842877620559517
0.35602403986133563 0.127425103206175 0.3853965045128415 0.01128358923031658
-0.00880270323072643 0.21401155622713514 0.38263268860624017 0.06508547644085709
0.004126599828189098 0.22678631954560802 0.3804932613781013 0.0669854272945926
0.14057277606754764 0.41859997681707806 0.38963900966239456 0.0005660444873050324
0.21481974778329951 0.4172075228432934 0.37939869409091276 0.003411845596536387
0.3382999009095959 0.4227323731386418 0.38484263241240807 0.05168816962736424
0.3581673358302901 0.1604081804624281 0.37968891979436853 0.0313032701909975
0.0023096405952823633 0.11351280599068277 0.37897838491422947 0.05436477990416106
0.0044201290923342115 0.3395118187688662 0.37624486106247534 0.05412976738360104
0.005987898739138999 0.34819426063081427 0.3815048955068828 0.044282969281040814
0.006223677647979967 0.32453471555086566 0.38354723743397146 0.012942569642591674
0.31348107796642094 0.42231432789629186 0.3773506314146324 0.003387368549167345
0.1731553982936221 0.001943042828403639 0.3852383837140681 0.0016058592366699016
0.2127018495802979 0.008218735686166042 0.38098311634974347 0.009709002227820155
0.26132789576483945 0.019583908025458223 0.3808778293716495 0.007675019923431179
0.2998332132133784 0.03399228119438688 0.3848338130805737 0.025731599676913915
0.34798566199310677 0.27760181935110584 0.3893180488997675 0.06769172001953098
0.3575056773763064 0.19782157591475602 0.3785007564646221 0.02579300989951896
0.3535019557684806 0.10657860770967052 0.37255741589600033 0.0483438765941065
0.35068887272072574 0.14934962155418072 0.3863951618173323 0.05879732598854586
0.35385709009741895 0.23350085135196386 0.38477938947798723 0.02379965540636163
0.027003042048279375 0.4147523352725414 0.38416986451237123 0.01945121250334202
0.21823723226161834 0.41091060491225895 0.3818106812333353 0.0030592770077991402
0.13688933136539502 0.2421107434492233 0.3870609331546264 0.00040525451405181784
0.00896287098530383 0.18740529023242938 0.3888335642658661 0.08173160579224764
0.03557422466969142 0.32907224839595106 0.38888602465238176 0.011462927869080783
0.18599899986214918 0.26570469970180977 0.3882265127580191 0.0002530340825218286
0.10328490192889606 0.2650986846049967 0.3867367294657019 0.00029964896326536603
0.12599508930616338 0.25538139572434926 0.3868317077021641 6.474081882283444e-07
0.08788943395947627 0.2387428200261871 0.3892514963486209 
0.02665653560689548 0.3917608777939263 0.3905333597022117 0.02055000425482933
0.016311023844666324 0.17622182455074667 0.39023889846235627 0.0799053120710294
0.02123223266590736 0.24978237496990185 0.3872155562796259 0.011769968680724576
0.2505573563158707 0.4007651604587939 0.38617119055207083 0.0032746122325065345
0.07960010835614181 0.3599972316889513 0.3909333176103555 8.553088092811754e-14
0.04369945768092418 0.26331489798218255 0.38883936079775305 0.00014716202781097146
0.0975401260049646 0.35159646960299334 0.39239280427299733 
0.22891103095717322 0.4013733501850077 0.38405764899366723 0.008095434172652632
0.05565400399812492 0.3745937986351296 0.38887540985362307 0.0049534527060455065
0.05761610576467721 0.4190934580561307 0.38133985746344556 0.004720549981421145
0.09092237497243463 0.18565537226251896 0.38785073548228133 0.001285623917031449
0.330517444244745 0.4004031064717353 0.383616896717858 0.017818450958360425
0.02490056036101666 0.25985270526476045 0.38519542983372385 0.006030836860099435
0.18076601173994558 0.2855480317558281 0.3872554697505863 0.000598234210381145
0.2821204647856504 0.36869024260291805 0.38640142768946684 0.0048145110173176235
0.022893520561746497 0.20524230635264146 0.38530893880035777 0.05889919716268448
0.0589770218559012 0.20836893629042552 0.3857656219154334 0.00021425771113443138
0.20310349410951253 0.33972690925463583 0.38772937118381634 0.00244552855200307
0.2958741620757685 0.36752641059751534 0.3866642201184508 0.005274796545072768
0.11722230078716393 0.21077642009306335 0.3870481430341686 0.00011634668632090392
0.07401161832655159 0.17505242691028056 0.3884254472779221 0.0012639277943593433
0.11528608809993782 0.36596643813767504 0.3898400223142606 -2.3002644817798665e-14
0.10699789658476766 0.29858436161940066 0.38625774594623147 0.0003284931419413216
0.06278997385379886 0.18644844560767473 0.3872443477881894 0.0012627635274121405
0.12486225939007609 0.38975399536693317 0.3893299114386441 
0.17065939603977395 0.3782741014448892 0.39389565241956587 
0.06679725273770408 0.4011342873577187 0.38673765182314057 0.0016692665112295843
0.01707442905077316 0.09435548000697942 0.3814072318100011 0.005179622436526374
0.28437161479875367 0.384557652667251 0.3825590074483067 0.0036896418978752477
0.2806626610330188 0.3780210112353297 0.3837730894980337 0.0053713646411829965
0.019568444717847952 0.13248655624925992 0.39629116972375183 0.013521080937034519
0.1135502529064816 0.20112032884312847 0.3876625819722877 0.003259224657331647
0.09079160069108178 0.41648111384070297 0.3869250268670194 -2.862612736330869e-14
0.08062094858333241 0.3065646042483188 0.3845914698852164 -2.6257251356357308e-14
0.17871657167062757 0.3199932265501933 0.38636717854574376 0.002566939974141821
0.024819225517668984 0.3581773378561408 0.3858312871357027 0.00837359427694126
0.0548747713150233 0.26724095481970733 0.3872125606492044 0.0003571437698448174
