x y z curv
0.314879789508235 0.5704100120403848 0.7678425386906355 0.0003153772672759174
0.2937702162746556 0.5890551543380634 0.7670506583381832 0.001003806071291039
0.2680084423606408 0.5949291363221496 0.7712043797282895 -1.2965113687932644e-13
0.22596464373271016 0.581471391087016 0.7716277618580872 5.025175547946397e-15
0.21455566894930855 0.5984091139270755 0.7766854639432218 -6.756734158504129e-16
0.2963672009894586 0.6061413581473517 0.7667221767023019 0.0047031219690173345
0.36061185956967823 0.5580128689424997 0.7698520661672295 0.01467067032983715
0.23681225070598297 0.553568335505975 0.7685614121050807 0.0002951389302840049
0.3557726228128142 0.4841037556977092 0.7659023703517509 0.02683021776833915
0.30571891358855724 0.49667174935701786 0.766929141366672 0.017671705173208468
0.38585869315796645 0.5283037958053954 0.7589327140059297 0.026639977139009036
0.3724979254396179 0.5224446643739467 0.7658442623936189 0.033981039959927184
0.32601400753262033 0.5199639597964791 0.7693020053909653 3.5989424886566813e-13
0.2738516722195046 0.4844367777091412 0.7599733676040913 0.06805607010717622
0.2319173768032531 0.47900915489191376 0.7610076104949979 0.04758505348323685
0.2253185714728352 0.4763192645831939 0.7614954753976922 0.08359916862988015
0.26768199700820156 0.511546738299647 0.7663053951309394 0.0037451427273588462
0.2674465765187454 0.5393154707534825 0.7688084555597732 0.0005399726140775832
0.2199923697681494 0.5337526512632438 0.771148229906444 5.890472926156565e-05
0.218798372983397 0.5070798545504542 0.7709862146211882 0.0036613200880031773
0.2872791170088759 0.5035787266783475 0.7644569807631099 0.02061934502200769
0.2902691250235588 0.5148265738497535 0.7686868487040386 0.002836353364426233
0.30044775760611114 0.5416357358013236 0.7677211262175503 8.949433057697388e-05
0.2937345847591732 0.5559245348108628 0.7685611342137707 0.00016450967072544298
0.24288050732682195 0.5162972965537389 0.7681214213773181 0.004870417213964288
0.37266947263388744 0.5494857012759276 0.7623305504892023 0.06789239276422704
0.38010344702046944 0.501068349421009 0.7663504004445467 0.05609352321079463
0.019009505336798464 0.5878518558620508 0.7702329230211741 
0.0231859194629339 0.5921614032281457 0.7711497525407031 
0.08628914600517024 0.6347512771544843 0.7655793806277716 0.009583402498030079
0.08396691994891209 0.6423704691196209 0.7577619639825083 0.03436998030049781
0.0653243922528832 0.6404178444731905 0.7641282875083505 0.014047949112077705
0.06622555026864209 0.6000927761425897 0.766040328794822 2.2647515781748443e-13
0.10087666058961399 0.6398621532974693 0.7685596733177921 0.014186645635565832
0.115776618076041 0.608512090578772 0.7740788802534467 0.001089099856607026
0.15011292146971036 0.6072709391267158 0.771080351193749 0.00599273064294961
0.15155371673321308 0.62096269782293 0.7667879737667445 0.001979117976771434
0.1095409861608146 0.6443621882939599 0.7646466342262793 0.03185445909064066
0.11742845447776346 0.6506868056475413 0.753764843063039 0.04622098292958672
0.1782158299727188 0.6234849772750279 0.7715559263254702 0.0021210988040208365
0.15475716348064714 0.6541352501009963 0.7609324860431584 0.02918494080554025
0.13522521176460184 0.6321147688908926 0.7674900783563045 0.01867147077897634
0.1726217145742493 0.6436808012233121 0.7632822551043893 0.0361279524974017
0.07854518676441653 0.5777028332223194 0.7698567889227357 
0.07909486780434404 0.5630587438339827 0.7705944679085043 0.001379294854334738
0.03518290998413506 0.6406822499426661 0.763233884042236 0.011399948697878139
0.013647895275647493 0.6292616077009501 0.7647914384102886 0.014987784402803236
0.04340977990395462 0.62723726101218 0.7661030623809388 0.01174348042461323
0.04997730955825786 0.6371187838333064 0.7640840257359826 0.012560422206383553
0.011513636402309228 0.5138469661643866 0.7669819534483248 1.7841713497252298e-13
0.022369326425093802 0.4881600287993351 0.76351645041479 0.07538833757985731
0.04744159898841786 0.5502712346582791 0.7718343564615008 
0.1172426127125709 0.4864398076765321 0.7577284870749474 0.027612746106416827
0.1923640550643406 0.5009361022127106 0.7739898057637149 0.01150307772058536
0.18013889763526275 0.488224983232516 0.7646738574031664 0.034396942531125685
0.14484497510990907 0.5129230526788894 0.7671710253692658 0.005893505635188666
0.08947943898533305 0.5065367736191468 0.7723936294630998 0.014759796532390094
0.14064071472912323 0.5454779494696582 0.7713014032981037 
0.12281672637346228 0.5546426785481138 0.7695340611314135 
0.19733369201097442 0.4769046817887249 0.7631059668607441 0.052499248315567314
0.07761720191065487 0.5341439958302278 0.7706622846464921 1.0041863029753434e-13
0.1119925211178451 0.49813859898078705 0.7665668756744283 0.015202873908955151
0.1389174406447824 0.48468246962885064 0.7601926451921492 0.060192779688811066
0.37141549373521754 0.6620486965139742 0.7512889804054096 0.04284151757518968
0.24663010805615418 0.6625025128020298 0.7407239878422492 0.02002582129681887
0.34790938467354937 0.6588628051570128 0.7521858108874536 0.05461543391769962
0.3084335946565493 0.6595451976248772 0.7567761464228131 0.04507358976564214
0.27984959212326443 0.6558864181880532 0.7404557465637263 0.028392668254657718
0.319399696921029 0.6590866708544538 0.7516997768107658 0.06050645643869012
0.39357105177233476 0.6565877797866403 0.7372484533848288 0.08812412468271541
0.21802637514802395 0.6624376066739887 0.7651208205372755 0.022559649782322576
0.34824540978986535 0.6597608315910536 0.742829000883276 0.03329394126729075
0.3323921240036151 0.6590096076051074 0.7501274027762321 0.0598321015237678
0.18892853622134825 0.6568108786421158 0.7474086045403866 0.07690752520628345
0.20017168135946228 0.6557630039836337 0.7597574988350226 0.04855222066975631
0.39231301387715045 0.646186659404592 0.7517273651433213 0.09545361895458183
0.39785738519122427 0.610122494070871 0.7541568140496079 0.03188124416713824
0.3856678725894526 0.5298976124900227 0.7539628192973507 0.027240104994009445
0.3890927932655638 0.4939576234515601 0.7516698328315963 0.06630659482704343
0.38995362889838225 0.5413686863825289 0.7495425852542728 0.034871376373214386
0.3857850627858193 0.576211720776825 0.7362393518778255 0.014657345598045877
0.38860822031503073 0.5529472206327698 0.740991530943598 0.024857653795846948
0.3920403863674656 0.6099620538685513 0.7335443309679327 0.04513864661150953
0.3907302780646612 0.5615120078714474 0.7472578558939749 0.03989579818028255
0.39157599708801705 0.4756858347010778 0.7484549169632173 0.025753522589926792
0.30833708080833444 0.4709979696414145 0.74377157565519 0.038370895441392314
0.3018502504182411 0.4749825647179016 0.7484834411717588 0.06666497852275943
0.2730687093154146 0.4636530643037707 0.7403679379335082 0.016793878596725795
0.2519235766003042 0.4715120807839145 0.7572250251989666 0.029285148675900992
0.2694130884987765 0.47051423644050194 0.7493260605446801 0.02040748972978046
0.34116982672814217 0.4707785286441849 0.7369070214846273 0.01098808034274846
0.34229475431185924 0.4708489444395724 0.7604909693136228 0.006890714849019763
0.2265952801792251 0.47573699132295133 0.7420778351446224 0.004081200721997257
0.20271757724418663 0.47340128280604066 0.7315513946813827 0.004211550355075917
0.35663039743351965 0.4800171194925841 0.7552298745063081 0.03851406107627053
0.10455331038388903 0.47845821565590757 0.7538210609052921 0.04955812549193811
0.11179066956308187 0.4724668500288572 0.7486366421035086 0.031951593809674404
0.11848991211304316 0.47082709307641774 0.7451338351769052 0.03183305814048089
0.14850688806638238 0.47323460669355566 0.7472318989773936 0.029980656441399172
0.16419353543138007 0.4662248963277083 0.7541603410197846 0.015495821353873845
0.07782269670801686 0.471758899761532 0.745356026695403 0.009235702009484256
0.021876975089892746 0.472290520728192 0.7520697476136466 0.03441521961323713
0.14176512077679193 0.6642560307838882 0.7482297454019079 0.045134500463440246
0.17139554208933572 0.6571259458657611 0.753813465001774 0.03229841700400299
0.0575771727457383 0.6531172103507642 0.755562824101549 0.010240692311644893
0.26728651399341247 0.6554649719235923 0.7528669184175012 0.03550638176565065
0.1814146262646888 0.6585972507541704 0.7392265494531615 0.014772735903988228
0.23229308168089624 0.6603627305659294 0.7448888261121773 0.022809391477830038
0.1025358764373912 0.6634143432757034 0.7534409850007334 0.0572473602100897
-0.003751095713047044 0.6593606921779951 0.7445381098128183 0.12677220318682528
0.0025623211982733073 0.47797804001963246 0.7480554722015139 0.09186374069621997
0.217367882953525 0.6562488446802681 0.7448440504921292 0.033893869032683835
0.20786491423247377 0.6566457023434168 0.7347090203514469 0.010591668037230658
0.0775344933833055 0.6668525278431332 0.7466136971722592 0.047122895045069904
0.39068420259124925 0.5056916788955693 0.740190912616655 0.032605544711271514
0.10378198898861306 0.6510109230879811 0.41863426556230665 0.019091552133648753
0.06400591076567565 0.6510561097180316 0.4142089841557864 0.006252242239200309
0.1425590498194416 0.6586531356368134 0.418542779752754 0.029942490619786998
0.22649838084346138 0.6528144499690934 0.4154599915997296 0.008522870900277129
0.386390409627198 0.6073940138378195 0.4237809001153199 0.010923167087839298
0.3775242473613972 0.6537878852643465 0.4585991830461305 0.070874264185963
0.3851613195560628 0.6678358256808137 0.6524089745005869 0.03903962264939141
0.38696699019621605 0.650404355563468 0.5290323068475707 0.08322267607015266
0.3872961521672019 0.6532371517756632 0.6939179996936209 0.09986341464902583
0.3898157966626281 0.659450057620024 0.6312123403321975 0.05659600227988377
0.37978055951925654 0.661367976853318 0.5696997783303537 0.09703539016725062
0.3946856711584027 0.6675634408783266 0.7271881413247326 0.019522938593999676
0.3875965248450201 0.569144606515162 0.6364318516328907 0.014378174172751217
0.3839765358124574 0.5731102622661635 0.6830736382107144 0.014240661005231943
0.07022860004628907 0.47606722264251716 0.7129191449532253 0.005753222788837391
0.16417571446257712 0.4731763202005372 0.6721746743808266 0.0026821357112339034
0.25282090375032545 0.47546325577454573 0.6903664960182521 0.006298782794867968
0.0901793617685131 0.6561935210782748 0.6517830250970169 0.004202855040560254
0.09836430468125532 0.6579548693830929 0.6826066995473435 0.0066150781988794875
0.037128982797044074 0.6515713274462839 0.6481295230576076 0.008495509136906642
0.3241692497275562 0.6523857406826786 0.4673464468147357 0.012482127125938363
0.19683898992054566 0.6495566724052071 0.4920582010156911 0.024781724461771692
0.2918439031369209 0.6533548407356208 0.5864214442546966 0.01740589489289123
0.2928834376890032 0.6586350230639326 0.6555982897729014 0.019707111347463658
0.36167671086802 0.6508268834492263 0.6949647143483784 0.04564441463355507
0.32917167204730896 0.6565860656514171 0.735004810591427 0.024249044932230852
0.15926749657724276 0.6593769720261782 0.7089242774198264 0.006305063463244462
0.164493381883369 0.6538456997962612 0.6774241588507075 0.0075806049685122005
0.1521438003720274 0.6543290059392757 0.6719334264964166 0.005715324342419209
0.02748226703127102 0.6556661866416555 0.6584907713025295 0.009610099978274809
0.10435255672959873 0.6570454296974646 0.6629171308456233 0.006222040947009451
0.07993437672142194 0.6615447400665805 0.6568737266625495 0.0031510763724794367
0.13359385637849172 0.6585489299555036 0.6838278041064308 0.007174819340908422
0.03286993756166004 0.6633294644259979 0.6962925841961326 0.01531881403695101
0.07130504332650055 0.6594031305786615 0.6441242036814766 0.005366409615778197
0.03199346071293869 0.6616904487416372 0.7036680918426874 0.016374383703903036
0.044222744307622575 0.6635309672270705 0.6816094741323667 0.0032100303773191434
0.042206524910686286 0.6620156790430518 0.6872886086243981 0.00540930139200996
0.1092699923420593 0.6633757589618371 0.6966928387913687 0.004873094353427125
0.10784844453999247 0.6611718541314239 0.6915247192634567 0.00606809817418758
0.07096883414249233 0.6563702569390198 0.7003513214772168 0.008373962482346696
0.08690609700380621 0.6582315356192419 0.7094584593501781 0.008374861894296589
0.02811483812368832 0.656471645089885 0.6272259690934635 0.012683539787946126
0.12623280623597785 0.6575634188645864 0.6962404508486132 0.007244221954993544
0.09172829932940343 0.6554268360492616 0.6880918318929222 0.008017882015713719
0.06325104898704395 0.6591862803314499 0.6943648018871293 0.005810805716744715
0.055083804018681765 0.664353757777376 0.7146571520053929 0.009789599365463858
0.08603214244498528 0.6542809080036608 0.6781736337433912 0.007662785195461045
0.07298634092434998 0.6552182134870005 0.6809524416586396 0.00920130645203612
0.048957082543599754 0.6533677422289075 0.6533790302503435 0.009783455874029793
0.11964643328245027 0.6600644975902817 0.6722928734457008 0.0075752748353246375
0.011390031609539001 0.6575808810358715 0.6783554785146293 0.012267670483350444
0.012873610395754785 0.6593377881056266 0.4251420170427016 0.044468140213830595
0.006172484418862392 0.6577937364176188 0.5147297152987005 0.012777833263857494
0.011592905372021876 0.6573226739046321 0.5114795283473743 0.009162706421936846
0.002334087860932541 0.6544907348840546 0.48357246828932837 0.0019729153867238487
0.006749024063212492 0.6543277099043994 0.6277196273528334 0.011528061638379798
0.00552512402553464 0.6523951710588867 0.6100257602619229 0.016394675332884582
0.012884991810855034 0.6541500755498548 0.5665727946813501 0.04409697246572455
0.005734344777308274 0.661788146973695 0.5246232954551203 0.014155047201856405
0.005189615629198446 0.6565830021335202 0.6769352861134769 0.009161576389657602
-0.007743511087717677 0.6500544495966036 0.6440009686259293 0.006798828693950561
-0.0025261745418724228 0.6207719910295368 0.44589823171581205 4.456954743715506e-14
-0.009016395055280822 0.568849044196606 0.44466754470019487 
0.0016189029671272248 0.6341445888491671 0.41920908749604524 0.0002918921503197503
-0.0005275163912847778 0.6490881189734885 0.6968859119014809 0.060863811684856814
-0.002439825836113104 0.6457417612740657 0.570255061324255 0.01683846566287775
-0.01163281202107268 0.5486070042874993 0.6173712513381339 
-0.009136796522493329 0.6210991719493142 0.6917965170126239 
-0.002822978630706515 0.49361231042805603 0.4855167832440979 -2.466168049235189e-13
-0.0032517028462158612 0.4949204793942925 0.6910785765541149 0.005605889211363552
0.003444820680834322 0.4826657599710299 0.5488614002940939 0.007565358713408747
-0.00539609119064955 0.49239959459243005 0.5965823167958132 0.001345949078407444
0.17855953638456376 0.4705178707503436 0.7385622458395711 0.0257398476644346
0.002708449898812557 0.4791961051405098 0.701659456141778 0.04957988600188473
-0.00326286124062138 0.4895339391136557 0.7275740822009504 0.016126446485416994
0.005181449437577933 0.4768433371928203 0.6551122608261138 0.009672463681546246
0.0006924224019203788 0.48143498162297504 0.7315169164345101 0.03325296813692213
0.009184007107250272 0.4844499662281261 0.6307085068179323 0.014049616876048467
0.0028857620648460426 0.4768251226065424 0.6695825959228997 0.047092737999458595
0.01381826018936333 0.47582595623604024 0.6557642230904062 0.008858372854930555
0.0007949578037878598 0.4899645498003367 0.6182214814254744 0.011723162909189786
0.005874149642808205 0.4855013349115757 0.5897412416647804 0.012526078027636
0.006675349494276224 0.48187792623831305 0.4957787707146321 0.03191711259742871
-0.0009976508575326622 0.4855806323314873 0.572749285097592 0.000797266979122182
0.008987282255611413 0.4851516238001713 0.5173738555862551 0.02345210269224281
0.21844093000719939 0.4764451682650918 0.6634442773368144 0.006220397627996393
0.213168373985175 0.4707009984391475 0.714758350591798 0.005964514173146639
0.22622843822038102 0.4752818189869814 0.690631377127812 0.006862261327797669
0.23526425008547083 0.47913301304567263 0.6116557576726228 0.006597578194943752
0.23973609416516914 0.4701640271867383 0.534237687096341 0.007092496102676466
0.22601919112942437 0.47699389935745035 0.6414068319353414 0.0072470748115962685
0.23385521281499522 0.47591048644102957 0.6838815160336637 0.009004514373718034
0.22348775441816543 0.47704197593848785 0.5408572833040242 0.008654184035265546
0.2003733103376523 0.46804649230371875 0.7122830043091192 0.0034682343274181396
0.2129069032007882 0.4759501802712414 0.5948083625099551 0.0039773462714645805
0.22016458030037103 0.4740658052091037 0.6894641918041177 0.00912021128393753
0.2063528769425567 0.4708592627037061 0.6768195994161964 0.005726897774889014
0.1899281302097776 0.4738600879632091 0.6040917038574469 0.006909294780811641
0.2130821800794137 0.47304061038283624 0.5644504140062709 0.012696930908232134
0.2013876397355683 0.47063006582519873 0.6381274459038353 0.002123715689591633
0.20688100734662554 0.4772415330587936 0.5304081640251971 0.012194541719745136
0.21105186446488186 0.46988411874722646 0.5794698303227982 0.0058839183865306436
0.21862242776466664 0.4744424122629078 0.6080956897478061 0.00675417861226419
0.27087961439697605 0.47899009531627346 0.6502955910452736 0.007334861454403825
0.28557064154927664 0.47670545057368363 0.6699250249927811 0.001788310667584241
0.27438157436398924 0.4740339190410511 0.6094653534116817 0.012341418545390918
0.2719012896605057 0.48037931118602634 0.5747376314166563 0.005356198879472429
0.2758107016120488 0.47604535203071463 0.5418287987531833 0.009273405250949454
0.2812481390805205 0.4772997717612328 0.4842392212416296 0.0020720159498385945
0.2620195473544162 0.4695889987173347 0.7268982159052619 0.026799520910064746
0.2789615992354932 0.4696534812587575 0.7173158133159291 0.008639953214923536
0.2581382223325516 0.4724925907945429 0.7275133451965186 0.027927870606638004
0.2799871338371715 0.4767790873216309 0.6337689484472004 0.007660128459927731
0.2786083832927878 0.48172736421126194 0.5087220899540307 0.002697308441874057
0.2665727001130471 0.47798734782050406 0.6847741845530373 0.005577195435206423
0.24791234267906834 0.4703754599370671 0.6477158412156511 0.005615752348538266
0.24358184524122117 0.47262043107659835 0.5690517299589826 0.014183342159800563
0.23777879751240727 0.47120319177643666 0.5020173019907365 -3.166158428974912e-14
0.2637415970036345 0.4774726831671105 0.4994095092000507 0.009689513344670895
0.26056034901126707 0.4783735289606711 0.5102740420931379 0.004525653193694691
0.27276599191177553 0.47905485054192865 0.5258154097148228 0.0029318118391204275
0.2430456833567879 0.4701371666504706 0.6706864997128122 0.006975217691407877
0.25102234884689534 0.4752253645259211 0.6211511429866058 0.010996917225595362
0.2506573268327592 0.47137687590710725 0.7169412493543807 0.007691418745912967
0.25704552290152494 0.4689257158820582 0.5935762766756232 0.012757979653339644
0.15126025292351652 0.47866074457071833 0.596587582680125 0.00695400875391312
0.1681912410907867 0.47038536907323575 0.7130376365180967 0.006380701033321396
0.15413895457792326 0.4763700051524902 0.5648973130029269 0.008793909532894176
0.16260763856296204 0.4740286788400212 0.5399538853319069 0.01257732987229384
0.17849666664881106 0.47089987945794615 0.6385619390342201 0.0031929401151324734
0.1492474350144049 0.47154919005876034 0.727867394052907 0.021215996850908934
0.15856334538005049 0.47485694168769316 0.5198692649625882 0.013486015967933144
0.17024353271064505 0.47163275112341224 0.6634930624317874 0.0030417191195694524
0.16332727509035125 0.4786865159442206 0.6027787056701049 0.004532253163251369
0.17230882952188922 0.4732466720303318 0.6770533810067486 0.0023385231097347073
0.15240725762967994 0.4781279070172526 0.6216453530384366 0.008609562139383919
0.17097117365337042 0.47187798209726084 0.696735153926016 0.0028664640531122984
0.18954783658017274 0.475637328717691 0.6824573403634343 0.002836679569263606
0.18487807600035353 0.46997978518453304 0.7186176079875645 0.004606156377685847
0.17573082981774016 0.4698300817915454 0.6346457759838844 0.0027864959540687927
0.18932323288818 0.47296848801973757 0.702258245923179 0.0038688925067878713
0.15857237582690853 0.4727314129020305 0.6335818122327671 0.004597734499976264
0.14933381495949774 0.4729592313243358 0.6746268604880232 0.0018076919546028052
0.17988205574162514 0.4725436135863387 0.6584381981938975 0.003474460820291282
0.19057117374353966 0.4771259083751644 0.5244368706688106 0.0033069486700100874
0.1756766962707718 0.47218899477856013 0.4891314598875372 0.007525513699239832
0.18296803267822043 0.4727657316138387 0.602548959373186 0.006444914129885703
0.20180210481057426 0.4679607460216952 0.5645405693453334 0.0057557505634329015
0.16650145329650515 0.47375390066010215 0.5357109698768114 0.01460808521731078
0.16907853162081637 0.47028706701870676 0.5489729280765532 0.012580167190978769
0.19220347432852067 0.47518270868580303 0.5457355204565847 0.002097986464017966
0.19696616527942296 0.47273993779003703 0.5030776158144766 -2.7936187529644977e-14
0.19316611668180983 0.47305307544836767 0.6568280678253876 0.004505729919065811
0.17740387950182665 0.47399118277198143 0.6010841984121146 0.004048646530487575
0.037147805900435454 0.4817063312390884 0.5187586874600316 0.004142537452396698
0.016282867842968902 0.47759812793599243 0.5461955276415428 0.0067905628480916065
0.026266173405805317 0.47624242024162433 0.5331795689802811 0.0028446698100923905
0.11540656662762909 0.47898506281710185 0.5466196403421383 0.011959997508794225
0.12912116151560496 0.46994038383011216 0.6572294331963484 0.0014688519661632843
0.11160816228592829 0.4683398437135862 0.7328954470613616 0.018954227143955782
0.12177527325441835 0.4681504016830821 0.7102845433953036 0.004925537330264837
0.1382979362075477 0.4714378922420536 0.6863003728658217 0.002062223727274158
0.11934486520255908 0.4783787793382086 0.5850248589985675 0.011818674317191571
0.108453500707509 0.47174379218535895 0.6485783852921851 0.0014630906029859782
0.12540898668181838 0.480323146965565 0.5712242935298217 0.011536063978780842
0.10377567386108447 0.46844017244075054 0.6021237414125161 0.005858425556784915
0.10946802767252993 0.4797021700573053 0.5219404172893246 0.013431272191406246
0.13822812070677357 0.4650716650036126 0.7249170371556685 0.004373122002236716
0.09657279240157852 0.471877820906742 0.6777317042736368 0.00010365879727202688
0.14674942592066015 0.47079688099302247 0.6917463487321135 0.0025525888192893657
0.12051281549815951 0.46973915554917983 0.6889353389896907 0.0025699340450069195
0.11966585201869165 0.47710144721726705 0.6290644861341051 0.010470984935137952
0.12227441417267007 0.4707874505380464 0.6041489784068746 0.01100733016179593
0.12456592980107047 0.47700256419394615 0.5194591223646852 0.009445872426873546
0.13778402396015563 0.4793728484502148 0.511796879007538 0.009263832113855248
0.12946117259135545 0.4822589066305065 0.5541618514686372 0.01525073560307579
0.1286894005680124 0.48073110792865553 0.5615962014322299 0.016691454398126044
0.14497050945784404 0.48267223358531475 0.544817009567431 0.0043416510994783945
0.14346380207278295 0.4751924704564828 0.6392423469247664 0.006319259824214783
0.13740654500963811 0.47483641029321744 0.5960962961335914 0.011436548072266819
0.14168888350202272 0.48103346600352653 0.5032746491026948 0.0022573929433299844
0.11600883284869311 0.4820212629175528 0.4909345206143264 0.005955630035448491
0.018123834576335256 0.4740176053519216 0.4835610315602508 -5.43066810532567e-14
0.3208955211832658 0.4709625513581537 0.7309634636599652 0.011218133552556925
0.3367738719984142 0.46760874691743465 0.7172450707279369 0.0015529778975896119
0.294396908442735 0.4717804716550777 0.7283850594928282 0.021639453813943253
0.3717041674686571 0.48043684230719774 0.6721751798513158 0.0344384862990454
0.36558066788250615 0.47594413542808855 0.6277176897879313 0.0180346173677184
0.3171289355843559 0.4727097748975072 0.695231717145385 0.005351292385222483
0.3517929263075092 0.4727584272837997 0.6549817958894198 0.004611021572790017
0.3468990659923429 0.4771210804507017 0.684488989185861 0.007084552292821087
0.3682421892749132 0.4777648742287564 0.6469685055587422 0.01322604086545983
0.3316094788648175 0.4738456024698986 0.6838420131808763 0.007020451248659626
0.3650596028163161 0.477481336123641 0.6179086841151729 0.034396228465134224
0.3851504019560752 0.4858757563412708 0.6084852920313447 0.04352721623928435
0.3391254215775027 0.4744595228968598 0.6601768744549421 0.0026097428389952296
0.3759960446122966 0.4728083609253144 0.7190535771003582 0.056227268110574644
0.36505114323830423 0.4775769968125119 0.6980479655282043 0.03751486361666284
0.36884928071762235 0.4791554073320524 0.6942297855407725 0.08167504536570275
0.0024888200257141765 0.4841284076138927 0.6450214221754195 0.0147504352563268
0.03563671219470215 0.4774480174252621 0.6935817598964524 0.0075118586716760765
0.030958490701753376 0.4798812027982469 0.670530373370238 0.0048875241745215525
0.010192043354680984 0.4829197531934572 0.6004440456247074 0.008635714917563427
0.028718033242986617 0.4735335433812643 0.6042278793541901 0.008941596831832993
0.04033053571530163 0.4768034513516813 0.5537727450551666 0.00606126553820314
0.057459397472723245 0.4804873272140107 0.5418710050287099 0.008661078741208703
0.05225560261189844 0.479188246566994 0.6009720835572453 0.006625338927501854
0.06416305546177264 0.47633157161779094 0.6143569403007441 0.004090909108298206
0.0856998993286755 0.4742015689571331 0.5239381407394568 0.01703870553495467
0.08929049199650813 0.4688705722354469 0.49665979118443904 0.007580745520176706
0.05336077157074902 0.4825906901323465 0.5088899114137616 0.012775536731531312
0.06593885397401475 0.48299586890048746 0.5683176675777156 0.009426426305059419
0.021731864047947073 0.47668212239217844 0.5722764336126123 0.007335069573085587
0.09049088541700474 0.4771607595836695 0.5880084538169582 0.013549511888460389
0.06866702696362004 0.4776397917332626 0.601190694361896 0.011031347552079053
0.07315253563817674 0.4755135405349032 0.6555308834763399 0.001378413544270791
0.0424450709641952 0.47652131575731754 0.586709146394497 0.010259775028628891
0.09798764225986312 0.47006280420562024 0.5607581286777725 0.007071029894929569
0.06271072442874957 0.4814762737654374 0.508253753086014 0.011894803419920275
0.09542072510793763 0.4772373773142032 0.6263275609253988 0.006838991731009994
0.061049703295382465 0.479411075404028 0.5796854057485787 0.0036850693578957525
0.08070633345268124 0.4811557324619783 0.5533459995073056 0.011643376218125638
0.09785182569235654 0.47186658288968275 0.6805529335267008 8.316780671778503e-05
0.07274638074093116 0.48119307524886207 0.5183035788659734 0.013555303301342279
0.052439454870500814 0.4791593654788704 0.6452866119919548 0.0032279533207006978
0.07639400125031698 0.4783392255745236 0.5954703114139946 0.01082005874111155
0.0766640803783126 0.47282706310783773 0.6942867968029675 0.005721309793724115
0.07903551805611442 0.4751479444788083 0.6127898890370352 0.009648259913091003
0.06006265916229319 0.4774157728620335 0.623236215315181 0.003927628258154741
0.03999874585070772 0.46968531599427354 0.7246894281782669 0.004203111138829462
0.006229985078375962 0.47486803706203057 0.6934658828144585 0.028531329049080584
0.01894350811711947 0.4733350564291001 0.6994385587458465 0.029662667955138725
0.05521727502360311 0.4760837363025926 0.6898407614582668 0.006129260354905271
0.03781792439451315 0.4755010533813108 0.6365378543094298 0.008736971646432496
0.09517866807317754 0.4678321139593599 0.7211673898242116 0.0080835964215425
0.060645411761828194 0.4755511532388277 0.6573260554949409 0.0037076077614053692
0.06518207427682847 0.47451687649797647 0.68379035114225 0.004137196267151863
0.03917331610149307 0.4759154578541604 0.6519436261905535 0.007569458319378974
0.029303742665766318 0.4802321340006924 0.6223156337705587 0.01224344483250436
0.048394324602042536 0.47102135739384043 0.701355956637415 0.006107461794751409
0.301024824615718 0.4718186125907348 0.691300676628346 0.0025603694148716035
0.3709770728698999 0.47409708161972264 0.5850302286712022 0.015444002994544098
0.3028056174079645 0.47525035803625576 0.49280565681964333 0.005073874497087342
0.33723642758325395 0.4810131758458585 0.5586577698551171 0.009413879706022274
0.3083066180741047 0.47868269119695045 0.4993646751065641 0.012918120368857368
0.31491549467428814 0.47351062416263295 0.6619841860364204 0.004596551302841979
0.30784249791204604 0.4762702553974464 0.4913840581725218 0.0057787259382027275
0.3054366143583941 0.4729501767202462 0.5798438437102653 0.006592098392293593
0.3080924475357438 0.47426753589113474 0.5975605528188592 0.012760621147466228
0.29391856538963573 0.4774786309796583 0.6066991506685204 0.005944464801861266
0.3435003179059088 0.4801825018396999 0.5678035436007666 0.01622701280952815
0.3143705130646084 0.47589664656014036 0.5630311391122622 0.008494473879839665
0.3401163646253395 0.48127363860790556 0.5860603495698176 0.007106534238637044
0.3277703478849281 0.4710586908532304 0.5330846669558443 0.0016390403854304448
0.314970959193875 0.47680848064883197 0.6000287189806819 0.017026555906036214
0.3047414414029247 0.4796070350047724 0.5211611533577327 0.005416133584291389
0.330437557752529 0.46877230845196477 0.6262059120361723 0.001263346599049372
0.30808976993625004 0.47846537558423824 0.5280110782043327 0.005297610998634452
0.29419023023261726 0.4760826104876253 0.5389229044970119 0.007052067736804915
0.2990850644996906 0.47265451435631184 0.7151133266550586 0.008117943955655009
0.3546749580019519 0.47887160719220384 0.6184775743959746 0.02178801332135266
0.29963298247205833 0.473389824923797 0.6476440764727976 0.0006360233483387378
0.28584514547810896 0.4777600661222168 0.6343829073983375 0.004537392132515234
0.3113696784660835 0.4734675661513366 0.681910574852295 0.0031684656519900124
0.35779791587939136 0.47542088912026553 0.5601435296547498 0.022115332592423792
0.3400263202009076 0.4828529995266466 0.489934696181033 0.0029424397882748207
0.348994102072157 0.47892667259771715 0.5337541724911848 0.022922875728722657
0.3588103845906061 0.4823512268832534 0.5336719249878228 0.09026771666457611
0.3467069862134404 0.48071318323375706 0.49304498152962434 0.0037392893453236853
0.37017282143125785 0.4761810737991041 0.5046887656609893 0.03476726806261512
0.37739912927856134 0.479302428338659 0.5527774753159688 0.05440659623507206
0.3760337263764185 0.47939180000781706 0.4953903449487047 0.03653805419961578
0.3836470863401747 0.4837958206308625 0.45266130853616654 0.015837685878562102
0.3783966765237163 0.48387270814771605 0.42439587288845126 0.007593941931121354
0.37825672119374726 0.48194395657667577 0.533488598957479 0.0789380811699071
0.3789740947166828 0.4853186226018856 0.6501224463119599 0.027767770266585775
0.38370625222703975 0.4828756737021801 0.5822929798281963 0.02558667891098493
0.3880686950611629 0.48068772864315984 0.5380968551643321 0.058340892117978806
0.38735118713578437 0.49007695271108864 0.567333786242193 0.04246193461150066
0.38746517926818025 0.48706485497489255 0.46061666627949716 0.01306057817982367
0.3863756912548965 0.49227746875894557 0.5759638559423059 0.048967809554046345
0.3829281872247484 0.4912624124789161 0.5299081696683875 0.08927636385538826
0.3906504805780751 0.4893220421675776 0.615538752885117 0.03606937397839569
0.39490588930662734 0.4865672545137324 0.6676498219989356 0.02951326181112666
0.38023401268034496 0.4761192489277015 0.7380943463406883 0.08802379389315428
0.3867103515310866 0.4767533960049087 0.7221138919208363 0.052419109076594375
0.3868739336461391 0.48958768813114956 0.6322136384415505 0.04056685420530463
0.3821431532076259 0.4861605202154953 0.5917990116299485 0.032858054458604236
0.3858161728389107 0.4808744564893393 0.7024604549592253 0.05456493647309116
0.3864586295429336 0.48451933922510554 0.6881146781252083 0.05082261035996526
0.38370303747910184 0.5455043308468551 0.41395803797201103 0.007256101950735254
0.012860517144607723 0.6587700995157099 0.438432499320075 0.055777300478603485
0.006856654429828227 0.649233579080484 0.45344719261130195 0.07720649977570311
0.0488795223214004 0.6549191434700686 0.5093448369113363 0.01040570597370208
0.023801374602791338 0.6503856175184761 0.4513082699087676 0.10578360703865976
0.02868548249773431 0.6496765442380503 0.47694391723022117 0.0041155621931271555
0.03106892679421499 0.6513308825090778 0.49892752390772055 0.007967792135523313
0.0584936311435673 0.6549215189692966 0.5219298976109739 0.012170629911999032
0.041941484681957374 0.6554967242262472 0.5088952795594667 0.009320484067226418
0.02140176319592263 0.6628946340920433 0.5323166921728834 0.007318754456339872
0.05964769659423984 0.6518895378359469 0.5558133764574579 0.010531108146691878
0.07894929933689819 0.6588872267500566 0.5821899869155095 0.00858121764977788
0.14221525797292167 0.6580913517026291 0.6534607512666541 0.008521778877594168
0.03761231814616362 0.6545182541315053 0.5273869528264903 0.009822728060863003
0.12151211289658846 0.654926164871939 0.6229693744181186 0.010011252723450105
0.0914752953224687 0.6580476168423882 0.5872491583181366 0.016394390091401537
0.06810602530783662 0.6515176356841881 0.5482550567736921 0.008552726099619452
0.04482166227926605 0.6538003798639427 0.5257554867465466 0.01350866631524901
0.05873157328121142 0.654699973693845 0.5448177202620008 0.011200782972526078
0.13291169716817652 0.6591310835661165 0.6699291425663751 0.008854783928977037
0.05190527833126042 0.6590906788622107 0.6049928428097027 0.01191785385586137
0.05623827539561415 0.6593946242479263 0.6318186908971692 0.004515439968175378
0.018303170773774323 0.6634219637364825 0.5891102608608962 0.010352832404381845
0.05086766002812776 0.6575319283309479 0.5998638341054513 0.01217278093666631
0.036565648446350935 0.6545905720769363 0.6113858691905026 0.009462248515329383
0.06763492394569784 0.6573632440535689 0.6200297079508178 0.005624868794873452
0.10983455641896783 0.6563173206748297 0.6310577453156485 0.00904646833198126
0.03024414883935756 0.6547719429634508 0.6034029368754057 0.009747195183874766
0.03799221726814847 0.654069885247672 0.6233342967013801 0.007404342952649009
0.0781649515498086 0.6622705186073883 0.5990218708076537 0.0071976053582781556
0.26305275078083246 0.6536444864008303 0.575952596470124 0.01617405981501491
0.2623573587146768 0.656263483977362 0.5892104737010226 0.0049841527098152625
0.2382610638459327 0.6579661334425773 0.5939198297314894 0.006779340383296478
0.35382975800593586 0.6517748961449124 0.44695081853725044 0.03404238919542252
0.21786093161061737 0.6599462392133795 0.6760058212694448 0.013071379485691828
0.2485397462034508 0.6578464505800513 0.6035011810297617 0.00763441221183518
0.2001116302636171 0.6614025304149436 0.6614146991632215 0.0028053780110400203
0.2068331040815588 0.6621411435549025 0.6271749564003917 0.0043233713386083466
0.27063054139511916 0.6630358883314365 0.6078635234131488 0.007481637945954224
0.23903934831633628 0.6603188615150177 0.6189365177514184 0.0076063305948300885
0.2771228932016185 0.6539708799875233 0.5811902861611828 0.018860297689862533
0.27682279467800036 0.6578506592817465 0.5416994777353309 0.017160467162012326
0.18734872941329067 0.655012001688071 0.6802133788319137 0.0039508056473168745
0.2650719668597247 0.6637691469509118 0.5467723956518243 0.0082706135170877
0.285522351896404 0.6507269163943302 0.5601662338670947 0.015803762705155083
0.31861754625620536 0.6565099857210387 0.49565622585825464 0.008536195919939716
0.2837567171159107 0.6524034535039355 0.5183867236967183 0.011320580751086306
0.2316786314151882 0.6582171522123685 0.6358839263307904 0.004332311901325111
0.20741482392991525 0.6584574231606625 0.6375092719183005 0.003850064892574218
0.2446845528988161 0.6558869605361394 0.6298196542227976 0.009401519526020351
0.18180618442803753 0.6545245831186599 0.6703485271318661 0.005748537393695908
0.20668792530539729 0.6537361443649166 0.4214105718596903 0.025936903197927325
0.19048711742561744 0.6521160524079808 0.4702481966111028 0.02844132266260655
0.24006283438550935 0.6498069507727827 0.4568450726837794 0.0048473626561401926
0.20694036082032496 0.6602453458707227 0.53350272712715 0.003931899427765131
0.17111261374096096 0.6592021596201582 0.4767658152187392 0.013247400321407908
0.3014156990344247 0.6513001653529211 0.5010061464138751 0.0061591624601082615
0.3112596925458276 0.6533756596975772 0.4846708397166355 0.017251040171884127
0.09486753402828138 0.6559718138501724 0.5184917791110488 0.006277555920777921
0.14206969341452988 0.6590332135244786 0.526065425857113 0.010706278664906541
0.16323072353722576 0.6567783871882742 0.5200970030642943 0.009201748019568086
0.17240360339869057 0.6633952990700391 0.6057879039751374 0.005432014501740913
0.25617556685707027 0.6528200770887916 0.5199594860825725 0.014466025567486869
0.1925715062394426 0.6624441085636597 0.6345589172756807 0.007592711842813111
0.1928199356089818 0.6577692869467741 0.6497607184897668 0.008186976900754955
0.24875836317979222 0.654389862641422 0.4925944746879724 0.014559982999767409
0.17463728983754445 0.6591329685399552 0.6519925526243351 0.007296018934529069
0.05668722833171789 0.6559742985063489 0.47989827236633403 0.0007330368160521156
0.1926180323904061 0.6613489435276095 0.4529039293080431 0.007073615507887683
0.18036438324408474 0.6579797425677872 0.6267891287459733 0.009043257446260151
0.2630885362469384 0.6513731737776629 0.4325652242889143 0.007671512373759251
0.12531789831100107 0.6571093061012531 0.594183917935372 0.009384699018159677
0.3034054370045898 0.6512192176606679 0.4851001763063929 0.010753838716874554
0.2257807641561488 0.6514055738051535 0.4628078114895577 0.018933146205112338
0.14422816812009498 0.6577560381760506 0.5401709120875892 0.0048180257535477816
0.14321116779565957 0.6590259382523783 0.6037646283238458 0.008215149614494835
0.14271271479827086 0.656358434685093 0.6105590202855388 0.002658337688275525
0.2834265865364283 0.6526052557099896 0.4800463906488544 0.008009650660361706
0.16931082308463705 0.6567062945979506 0.6607866288103087 0.007127409086475546
0.22078535540677008 0.6565946546346845 0.5941117898681595 0.006002720536645769
0.2932979241420798 0.6581526326925361 0.4602696602581302 0.009329911387265424
0.3332585209803222 0.651247053247046 0.43026437588257127 0.004730797600741624
0.1367311699639311 0.6623535020957652 0.5078799020675946 0.005414215221908982
0.2835834383173279 0.6540533936735847 0.4493859295209061 0.010818053871221868
0.20826234836734508 0.661576955998906 0.6027954016980148 0.007321123695207748
0.2677634468761569 0.6537083895950763 0.4969872908019164 0.00662902030278706
0.18779200711979288 0.6587914736844954 0.5264404642001699 0.007097741678066102
0.22295018401927827 0.6538897089670737 0.46984267001824265 0.02527101052170008
0.18951421323572215 0.6641653221995427 0.5778243126912844 0.005781581080362134
0.15768913911220975 0.6564616601565392 0.4404855539722417 0.016037418220507197
0.09017244890604426 0.6523320840708277 0.43331074130152497 0.007675499779854251
0.21526266818461282 0.65150749852652 0.5087171882276529 0.015343971624484587
0.21653045313710922 0.665179227495478 0.4904124007071893 0.0016879513214048904
0.10916632471277053 0.6571150574445099 0.5103635290205557 0.00580969523233506
0.04632508524527581 0.6580124559827158 0.42815378930045267 0.01378718399418334
0.10096799143623392 0.6490060330619052 0.43865417877953333 0.005899372870702688
0.21484813472651276 0.656232466043487 0.544216186294582 0.005869137176653265
0.17079461945691812 0.6502707825431557 0.5002225638065564 0.006397283233890473
0.1408303690152308 0.6591351664613819 0.42374288175732283 0.010048840820589846
0.0787372063113301 0.6586973394459756 0.4477791466768859 0.0022554579613397042
0.09609383476616545 0.6613960468372435 0.49277937471569183 0.0025727255917571464
0.15649205900330035 0.664113259383182 0.6445490371896885 0.004781468387008922
0.11289894329963598 0.6585016233245296 0.5784609015898345 0.00801162473714495
0.2528716984563145 0.6577330365732371 0.5729891739968245 0.012452263695640354
0.19957832071014805 0.6530922261275199 0.428855191845098 0.02767816836865149
0.33985621983253167 0.6551737554238435 0.4237327056355115 0.005066025004826087
0.18110025473090946 0.6511622390300941 0.48826718052685864 0.022035276555472036
0.12059503882590727 0.6561958902561309 0.45775930798451325 0.006061305440342999
0.14382051837929868 0.654889080693485 0.5709599092818913 0.0025527437221635465
0.07894613367373278 0.6569867998680087 0.5183152996785341 0.00692200856237054
0.28463513740826035 0.649306253380675 0.4952717910823808 0.008224349134258598
0.3162740804248293 0.6496576673397992 0.4563463704612872 0.009084201851260293
0.2186112416220506 0.6569302276929161 0.5613728014838801 0.007896876326778745
0.15864353775693324 0.658304962269923 0.48765268643888937 0.007993609496949583
0.3591236956657844 0.6559211651492749 0.4353527424967915 0.05169548783568317
0.17709540875790858 0.6502670486412907 0.4299271022000195 0.019320608465178066
0.2354655557858272 0.6554295206201417 0.540392856335048 0.01180971884670476
0.21073702639064376 0.6533677854541324 0.5533617889377807 0.004228670901025937
0.11608475755438093 0.6586832904399498 0.48698403224820763 0.0059957947462305605
0.08039892895803771 0.6592865542625233 0.4878398861964116 0.0030738451864367085
0.3036550523557857 0.6571413959455568 0.4359867312743733 0.010196698362997234
0.11932237045510048 0.6555320486458467 0.48036410296371423 0.003657956195935478
0.2609179239540032 0.650979514819809 0.5037529210177231 0.007797749017555296
0.12313715752252408 0.661281584934574 0.5382017008385237 0.007658990794527704
0.18772296007874142 0.6563191338172948 0.5975141996716866 0.009059742800399225
0.17594747562220392 0.658736381418073 0.5540125455113907 0.008387606977530646
0.16864775895127063 0.6592711537050225 0.5716369839305522 0.00918343752397957
0.13841219785421233 0.6587291976182977 0.4962619898906377 0.010296118349720657
0.3109107348895533 0.65165874749797 0.4734630601270239 0.01219614880136898
0.09046845886599401 0.6548228200344575 0.521798246286998 0.007057273738734144
0.2121492648567412 0.651569821293579 0.4447636361342591 0.011449144403284978
0.26370198530970373 0.6479926323101114 0.4377677258519916 0.005960078475444678
0.1645446268894748 0.6605747882267405 0.5621922856695509 0.0026424805940880227
0.14742003256218653 0.6573089353183575 0.4725523759218246 0.009356965063592368
0.21479083627091028 0.6568910332432086 0.5856990055561018 0.009508159519138273
0.09198915122842541 0.6626249179415913 0.5551159752743444 0.004509977132332974
0.2375928985090025 0.6508691294882399 0.45143803515513115 0.008878536023307773
0.22677579584752314 0.6462509889553174 0.4401618899466066 0.00589241338301913
0.17306009933420244 0.6517947430463251 0.44828677282853463 0.013110576135429753
0.10408545779633631 0.648427223876865 0.4301727199693487 0.01658545848838896
0.22948117203217802 0.65665434117647 0.5638469306341609 0.004759301231970262
0.24439250274737492 0.6523862641534305 0.44746713751284894 0.00713271968295149
0.28929620983744303 0.6507350567194649 0.4244013496236089 0.009440744625539092
0.12529465887125332 0.6550017271251374 0.5665958619186716 0.0032837402597141263
0.26279671860385156 0.6579969585280643 0.4852657370866763 0.00786364944326506
0.2338886185407187 0.6543867602252158 0.5791932769516893 0.002647418513698401
0.1559728571699321 0.6564658891704241 0.5962211492705315 0.007387027641639489
0.28723571194596687 0.649827225593261 0.5022269280682501 0.007813582836713932
0.18047612548376943 0.659053609083514 0.5245841740500253 0.0035706072444058015
0.057496642829147314 0.6559221740261656 0.4622243716578548 0.0015815272083242714
0.05900659668207703 0.6540180829443767 0.5891862436124314 0.00615493007252777
0.12229845897675204 0.6582753767947601 0.646059567630367 0.008060554710764703
0.03062350592192284 0.6559008909444606 0.53973953094516 0.006984934206251226
0.047454949107200224 0.6581501101115201 0.578855103797605 0.010641090828450028
0.04416970984634143 0.6489108703559843 0.5500947045837971 0.009423206754174027
0.10272007514069406 0.665956737856287 0.6106134021995502 0.0022742742114549635
0.22692938705815052 0.6599189840018943 0.675716519438767 0.02229302092856685
0.28494943335944695 0.651068909251712 0.5758640467200158 0.022009475324340028
0.3006705747225514 0.6584767659251854 0.5373465969232757 0.017634901978059572
0.013849050733115674 0.660854713185229 0.6448245004044755 0.005290253497555367
0.25681151823395404 0.6594549657510492 0.7433492356163657 0.012791980603127775
0.22848967925778824 0.6513803581291061 0.7049430169021129 0.007053889445305089
0.23098726757192425 0.6636326636707689 0.7361432039873055 0.037954263279044574
0.02061206562651488 0.6629392325779987 0.713231239407141 0.00499453886166589
0.012472381390736332 0.6567932855959521 0.6641387804353472 0.018457590935164636
0.3758470288381231 0.6538515276429377 0.6254069859352732 0.107003620840905
0.3786462577720447 0.6604216805765475 0.7103406269904379 0.04195864400064084
0.37667748847645893 0.662737843403031 0.7426919294447418 0.052688231551292444
0.3711416312626171 0.6601263610474007 0.6431766281338955 0.0693975723727525
0.30746666333924544 0.6583439795567869 0.6387025722016989 0.016421416395237975
0.34955884995678227 0.6586330092737241 0.7099462893352739 0.005889235176402636
0.3368512656208039 0.6656127307401692 0.6368084518090172 0.007470577139128615
0.3560299845746063 0.6578476536317983 0.5886349132046873 0.011800548140730019
0.2807201512510177 0.6589491797952173 0.6933367937165694 0.008034280360862704
0.3572558869298053 0.657503739190091 0.5977983945132012 0.008238819432257703
0.2871639950653615 0.6631058059107666 0.7074482192874132 0.012599446445771418
0.36084311483364295 0.657325847613736 0.661411210522905 0.03295550924203118
0.30847007367140233 0.6564577595455382 0.6938710024999748 0.023907188486031853
0.3478877189189606 0.654662433940247 0.6848532409036097 0.0223562489855682
0.35881318718384486 0.6526506168486759 0.6187633341835492 0.04160940025530611
0.37312012456953214 0.6572704721308062 0.5982213240008758 0.08635769514545116
0.3418478721657504 0.6535683384796438 0.6089204125116252 0.014801887738609893
0.365788083236223 0.6588507893468 0.7234414256861423 0.034097694589589465
0.3416224531081329 0.6583544345928758 0.722161216051536 0.005682119471799569
0.28931060319884805 0.654834866890527 0.6706114190603968 0.011200227384522013
0.25881360099215756 0.6657205965785193 0.6835405206561088 0.023398247523392483
0.3607804106971883 0.655191218907631 0.6706818516664157 0.04226172557495024
0.3166414626518286 0.6587340193787752 0.7155261097666678 0.006452434688933865
0.33105210252731637 0.6559402641983895 0.6986002314399402 0.024357330083066855
0.24258539978376345 0.6622125671884013 0.6768448134392915 0.028848727912153985
0.25955759398248346 0.6614849828016951 0.664585260906665 0.011041140689537326
0.27675321268613773 0.6573522332515521 0.6615141243857284 0.015655132582611253
0.32835235420411046 0.6684050411019768 0.6711956725772954 0.004890299120920065
0.3063098075848512 0.6550965910868665 0.6668806305195535 0.023292081791679766
0.3388437233544164 0.6551313115387861 0.6835613053132352 0.01693293367792215
0.3240381782091005 0.653702334686754 0.5919590174191862 0.014858477537355804
0.35375799784636053 0.6611178282514338 0.6534517591013496 0.03701498984462883
0.3168301918973461 0.6621517574053369 0.6211632082635321 0.010947014168988106
0.2999332330698897 0.6521006308160971 0.6857537342726765 0.01626254820811344
0.37028854294242225 0.6612928181249951 0.7146569433234466 0.03421719788137501
0.288423427558642 0.6633668417669126 0.6518631694147634 0.006819838387623477
0.3293873923096092 0.655377356669971 0.6117160075911847 0.012004860049792555
0.2977714345281223 0.6590347106091824 0.6172580405452316 0.009013281837680234
0.35384399615561 0.6575651495557725 0.5288887678529056 0.013312537085699296
0.2867983412823374 0.6594264198215537 0.6011679231551407 0.008669781737541208
0.30425210066248504 0.6539311476574892 0.5669575530117512 0.015076122850605786
