x y z curv
0.39288539256394117 0.5362240973093325 0.4479442488025819 0.005970382480055585
0.39164292243903576 0.6108122142850407 0.43640052258119366 0.010019926147673018
0.3943886038277625 0.5743554076158568 0.4371088313600381 0.00504139719635757
0.39467487451182887 0.612958704189551 0.5453773421201688 0.014556909547972863
0.389624789103717 0.6301057626753963 0.5879935566206013 0.017871000298427444
0.38407407797153664 0.543379262901753 0.46902343574749394 0.007294288727504944
0.39230450750053736 0.6433505736483244 0.6347754312350536 0.09547044815409765
0.386319544723328 0.6521617811158553 0.593940494250283 0.10527638863700803
0.3889475348666325 0.5474635886956033 0.5012024494748706 0.01987579543447932
0.39393713153285653 0.6069360706861832 0.5579959514450504 0.007876357710611587
0.389257575286324 0.6440649377066624 0.6703555981121544 0.0746153395735935
0.39806549423102766 0.5902733716564567 0.5649804696389713 0.007198193050667027
0.39446385546752494 0.6530961342719863 0.6974177956991325 0.05180323736977539
0.3862083143256415 0.6148428631329615 0.4163724521680808 0.00452726487868678
0.38849742780474733 0.6366134100681294 0.5724085196961134 0.05531850583985196
0.39386021582524644 0.6057004408473391 0.5111816427523566 0.007523275847481472
0.3876584725525951 0.632895306427151 0.5571320935869287 0.04667787684746756
0.3881118696485361 0.5871140535169956 0.5202789383286569 0.010828820108790991
0.3925484631648346 0.6336535803786372 0.43374751482080043 0.0077524651621077405
0.3900929331265944 0.6303378426354008 0.6115801857981669 0.01117071221277379
0.39010776798219715 0.6153228004255004 0.4615860731015721 0.00200493262389532
0.3969010405733845 0.5755003816684687 0.47099770253445533 0.00870685083733583
0.3938036962042618 0.5902977523783522 0.46728924613594475 0.009466712688013463
0.38990544177214176 0.6552928749805218 0.643539113355403 0.1212914900931152
0.3900334240574705 0.5616317084454885 0.4286646417645783 0.01255787110853982
0.3854820470567478 0.6332652487454229 0.47916046184391325 0.018688902932576076
0.3892696537144423 0.5900376529761526 0.5408399168366662 0.007850261256823123
0.39321484405521284 0.6065200493006125 0.5775902062835703 0.008026732752100122
0.3928773571165138 0.6067407013648513 0.5226643423976245 0.00939203623062222
0.38841277028527094 0.6444775285436495 0.5129601754617261 0.07978257526017281
0.3866554297539327 0.6261014860364367 0.6417996122951611 0.02516961003498085
0.3889006293037516 0.6570550478301801 0.5347760856746594 0.09340040021284866
0.3924468737394966 0.5992734295297031 0.4556978865226361 0.013334988354862009
0.3747998891308531 0.6604315950788207 0.6332957253303974 0.15524952982791523
0.38827085085197754 0.5575428555742029 0.551219174562885 0.022039026274500204
0.3944711819479377 0.540393719388037 0.5601004116179576 0.010482147994157694
0.39190618898359386 0.5747261883984206 0.6537593758538075 0.004321294367000412
0.38545975238747915 0.5131472706970724 0.4540763953973715 0.009920073668285661
0.38770324411560825 0.5071940022681349 0.5793379660384457 0.04669386031692745
0.38527204629918027 0.5117255573967034 0.47745968383883997 0.007423228644078181
0.4003782555973752 0.5925984440485327 0.6888989261363146 0.006497411125104281
0.38791014139156027 0.5418465920891895 0.628022573489312 0.011520742753035752
0.3923990395435264 0.6210473790360644 0.7230846031171471 0.009183913829511347
0.3880763016530231 0.6058857343349634 0.6476664475829953 0.004904074237365514
0.3908883204736309 0.6286043075996087 0.7047301195285693 0.009042691682780962
0.387795605113779 0.6324075510964933 0.7304072906602973 0.03354745331322601
0.386821761824887 0.5819403751694827 0.6363991892331589 0.0037182339353770094
0.3875104394657876 0.5393840016085719 0.5986774834019641 0.00954087994029298
0.39227613866792455 0.5723441269549672 0.613655520881304 0.004525724460867861
0.38392963313587486 0.547030601784319 0.5296397749413237 0.014480562312066837
0.391897650572774 0.5514703237043626 0.6360982667700337 0.010555088659655052
0.39636468246476686 0.5298354228889793 0.6764308901718018 0.011930670985257378
0.39633321073247557 0.5200001157317068 0.6121971549004689 0.021590265960274906
0.38401102765355277 0.5243476700056164 0.5766142655931388 0.028134910061714428
0.39340873098775797 0.4971726406279277 0.6563345340854383 0.043875621759745326
0.3960306493171446 0.5287718705342362 0.5301358623025207 0.009414425031885701
0.3907733605577318 0.5684607419985518 0.653254917628977 0.0051143577760028175
0.3877873229379916 0.5469978080185265 0.5775574299181095 0.008224696954084896
0.39338697682574963 0.600942232662008 0.6859339449813269 0.011733990701420267
0.3919817326474736 0.5470081454497638 0.6799873415903597 0.025101971750673323
0.39099037165816347 0.5278556085572165 0.6092402348699281 0.012271626454457537
0.38945449721784015 0.5238988074230967 0.7352083073876365 0.027390142636421477
0.389663488570319 0.5876208394553893 0.6134942553583936 0.00500297139877447
0.3917196676536086 0.5087699653585865 0.5639135286075918 0.02076839105104224
0.3918706370643999 0.6135830015144182 0.7322327936771853 0.0308828292071607
0.3995771994756873 0.5478899369384654 0.722088494457886 0.008008148340169826
0.38831011571678786 0.5410458311642364 0.6150254014893096 0.008973643990880154
0.39760398028630767 0.5277088811587791 0.6574688382415338 0.0055710722896392655
0.3926542127560885 0.5467837289808023 0.7020947894606724 0.017464044109541287
0.3899812100048732 0.6327013814899497 0.7211089520953422 0.014873690109472362
0.39371070361330196 0.5829484484143816 0.6026023374895022 0.0074195789992602375
0.40364614865291365 0.5650899866485637 0.697800096489199 0.0066699024165357956
0.38691497934839625 0.5081514439225269 0.5096322727768993 0.029997807100845868
0.385797041796257 0.5203251002422956 0.6983243008583224 0.012332447236883055
0.39893030298340676 0.5972697782445618 0.7283348070875902 0.002181726200584768
0.3847780796372662 0.5060153883007116 0.4915980285713904 0.01230748709000744
0.39191727238354546 0.5982890737233288 0.6537092852681751 0.005417601099736538
0.3922664169622798 0.5919306028098579 0.6103601054158064 0.0072001757120057795
0.39398900806369586 0.5072284693743667 0.6887659281540967 0.056027873244225174
0.3873120733269598 0.5485496534807499 0.656299038950949 0.004460423363486222
0.3904356658448686 0.5638996289560397 0.5679720573794783 0.01430213365710843
0.39100243412572 0.5364386258368373 0.5095133366283858 0.019369268388251922
0.38862584118268934 0.5726385450860114 0.5822298567622786 0.0063054045652127634
0.39179642546599874 0.541135356208181 0.6469684077832129 0.009017596827857029
0.39216003059477184 0.5849049728492838 0.6689484892484814 0.007357022228515643
0.3920005085967584 0.5579522415769228 0.6173779414212004 0.006971023092496284
0.3976386469456524 0.50749192217311 0.7222034547216368 0.043223185133417774
0.38239252155302467 0.49948861106451664 0.4382251572710506 0.008017614427556928
0.3887626424319022 0.5266991006521147 0.46895313572258573 0.006517374705184604
0.3932035937874922 0.6306273545532727 0.6752470424470831 0.0074531637238613785
0.3903284827420579 0.5594407908479353 0.5913143649590845 0.007052566227871584
0.387451380914706 0.5195227437120036 0.5472376547808421 0.02122261196880057
0.39406432520760826 0.5631961062616618 0.6776496335330469 0.013040501212593902
0.3807143954385856 0.48637095636058086 0.4566783302137205 0.005025138775736039
0.3893513170646735 0.5086806626904944 0.5360122261137398 0.057244434703515305
0.38619586363221964 0.5028234756300172 0.4807441241140757 0.0016721695594281237
0.3830457256508072 0.5007740124994635 0.5005299214939994 0.06490375611632053
0.37675436836564397 0.49227275139221854 0.5969889348157464 0.0719144854001046
0.38503425540832414 0.4875745986619667 0.49082673805046106 0.0216623535039854
0.39659658442462015 0.48995287892103284 0.6031652262053607 0.03390893121544791
0.38277855115004283 0.48578508389071384 0.5436738942974347 0.03245998144204901
0.3851939743409103 0.4993247693004202 0.5181639672946133 0.056058581140019895
0.387312145205596 0.49893391249024116 0.6329355938743778 0.06411044334820826
0.3891330129940271 0.48683106424528994 0.7104161026852989 0.03944549082951849
0.3950074677935611 0.4975681120615927 0.6945652627517075 0.05304272745932242
0.3759839511917592 0.4881800226948936 0.5664090684217692 0.05384746384674004
0.38353431600161325 0.48270666697484843 0.6256004344878703 0.01518298536604584
0.38429076998139866 0.4883807832875124 0.6563001591377299 0.023959280765667966
0.3805531945877592 0.4852296743454675 0.7439631937902355 0.03494100113411518
0.2181793656985884 0.4870740242788923 0.4898982644947947 0.004220300174690948
0.22281015064558424 0.4844688847271631 0.48571347584648344 0.006190237496125351
0.2197983219641522 0.4848669448477365 0.5142079529245163 0.008267089228549171
0.19829445193960166 0.48255805458573464 0.596232664418335 0.00783861195579954
0.200554987296159 0.4753649707814808 0.6727961076131369 0.011509552885130558
0.19639815354374474 0.47941079561640393 0.5272415336332403 0.00977355385840565
0.20724949902196355 0.4874859445333509 0.5062207142431505 0.00713089917277572
0.19979722914822584 0.48300899113931345 0.4809206570729193 0.007018494110499919
0.2434696744141302 0.48159626703690295 0.5811051799491653 0.010752805165278833
0.21122448587419276 0.4755509311319793 0.6927191324091888 0.009232706368219868
0.2672104023252125 0.47477251311023627 0.7318872632464336 0.009908178307152557
0.24605200335112593 0.4805856558415878 0.7304067093228448 0.005133794254551111
0.2323508477145777 0.4839993245226792 0.4862803350416655 0.006024506578404236
0.22896144421444997 0.48049934962394125 0.7308575478776371 0.011500196970038828
0.21750286309734534 0.4787025912550036 0.7192924911310415 0.005932866396592985
0.21868195518193514 0.47869309236598756 0.591649127438875 0.00295248408590809
0.2117450382986988 0.47843990412467724 0.7118647247612909 0.004632506844952078
0.24272144192749132 0.4834410842716662 0.6327785190411134 0.007808411348012166
0.2209276721083169 0.4803579636352407 0.7075069436330161 0.009564004404437573
0.22587467829620905 0.4698201583869753 0.6712305461803152 0.006985804721144956
0.2766998516049886 0.4830966839157872 0.6734359599080985 0.005254601761989637
0.22425271042482492 0.4821358017422582 0.6034144079937838 0.0053248980505028794
0.22732658771810066 0.48901270241659145 0.5375670397571323 0.010215392562510025
0.23981748418946572 0.48130730569266195 0.5179836051246889 0.007916207330879221
0.23347216621757713 0.4808953922886401 0.6866856382648575 0.007350091145216555
0.24442151469979873 0.48162016483331227 0.5763412108634511 0.009474651662466914
0.24842921188219974 0.4866008446575994 0.5881245189754934 0.0068638093742512405
0.24890672577861975 0.48209317699300797 0.5569307880599329 0.013526915213481318
0.21580352699753919 0.4787838519680205 0.7062626163975828 0.006518856650475907
0.27076339223077756 0.476901586752701 0.6960334560386087 0.012502236378850883
0.21796961557848596 0.4784882290750068 0.6536990857765265 0.012703707748527705
0.24779119380447603 0.4768882107565039 0.6523116191995513 0.016726007004472316
0.19817188923216486 0.4772121370476134 0.7294982073259415 0.0059130632684845745
0.261683197511916 0.4709517039812417 0.7108886748250899 0.0016673596047222525
0.2379790176207231 0.48402154389454205 0.5271592588606606 0.006787175231223441
0.23528042973163493 0.4841473105847955 0.5600768690406374 0.013118373421333464
0.24576658842745777 0.47360609306386137 0.6674126699723111 0.013562822067639544
0.2622985654934796 0.4848566706103985 0.6178826639761509 0.0077691476190268555
0.22322166260648643 0.47859281322981756 0.7264282929512617 0.005962830042004386
0.21497987231726454 0.4807472066993938 0.5902537729309577 0.003936502899035707
0.24767173813439153 0.47715221401109537 0.7237048745029682 0.008630733360368266
0.20121800984919647 0.47765082394842256 0.7276040487462639 0.006352070995840266
0.2500648554970574 0.4798271205669804 0.6270374849752464 0.009120828712154517
0.21881881370910183 0.48328468174549377 0.5738184478573793 0.009321366059514119
0.23652094619226158 0.4865186681330067 0.6254820576769993 0.005453286892657377
0.2344851844883381 0.4838760441698578 0.6011393423781195 0.006825299958986729
0.27424188339620287 0.48565647432220604 0.5067314052128817 0.004056022895729206
0.2847094893043574 0.4824493776263162 0.5927850834641395 0.015370235190715231
0.2772343644858656 0.48614599566355876 0.49219879905704855 0.0024379342286729587
0.279273378992019 0.4856795788479747 0.5144626336848656 0.003919556443900524
0.2844152821781626 0.47834125874792005 0.6375655386825515 0.007746312797599244
0.2677619439072943 0.4858956088650191 0.49368468859483544 0.0013020419161982235
0.26011318813533596 0.4767960902235242 0.5402938318914113 0.00807714152617193
0.2866709282622275 0.47699342313026233 0.6278160648059222 0.006518685163531519
0.2665410392063822 0.47752817022471955 0.562549021718929 0.011421136194162003
0.28651017550800817 0.48596942571515267 0.5576721500889175 0.008768115467564863
0.2538191384588164 0.4828025047999229 0.49898929529128166 0.0020862751332834713
0.27113573380911066 0.4827078499094703 0.6540900601822599 0.017615549131221
0.27089894124594555 0.4878443429981306 0.597979363763186 0.006495111270857741
0.25652195105773407 0.4838563572459766 0.5195920387917422 0.010034421146341989
0.28149914251186625 0.48030378679220415 0.5842612474890668 0.012843259677216667
0.3578418625888066 0.4872276890281649 0.5438833072245531 0.030216717503374638
0.3532808878616939 0.48415725230592926 0.5196761445527378 0.021013246410587296
0.330451314328305 0.48327461703359076 0.49198397026841284 0.0054180404726445934
0.10400472009867143 0.4836795154870019 0.5523010721868208 0.004065134341768065
0.12193466083132395 0.4870590804151143 0.4815707233516712 0.007750749128307605
0.11738240624969663 0.4880039236208125 0.48768704307404026 0.006881995022152351
0.11032471662646955 0.4867840868853162 0.5848993933123214 0.004558632341735932
0.13506054299768033 0.4904553394143197 0.5088467395825687 0.004237825753983528
0.11430365304634268 0.477605591731973 0.6785736292712992 0.005752872636850594
0.10749663399356393 0.4763785279335252 0.5289898785995819 0.009494504325155952
0.1632426190451906 0.4734493757885898 0.6021213931449596 0.005329317833755903
0.1250163734819463 0.4783685009189358 0.7029847191469666 0.009163973330543754
0.12536324032416973 0.47920476463072403 0.6519283578710204 0.0053914409204960465
0.16039617399983755 0.4844321426674422 0.5126372411439604 0.008068148305965575
0.16196671640972457 0.4785822441805434 0.6364439240768666 0.011770862364847891
0.17980490481183084 0.47569514850964745 0.696663922497423 0.0024572703650767884
0.14815774013116767 0.4773136555523063 0.59409651408896 0.013000161465940886
0.1584137992275575 0.48360722033254677 0.6643078873048093 0.00450786948298289
0.13543308965065268 0.48189509066378505 0.5944147626979859 0.0132444363887705
0.1505313011531393 0.48312164492666443 0.6218471162979312 0.012606615682110094
0.14461991271986585 0.4812529347096355 0.7052419997410994 0.015117822752507839
0.12520749780088813 0.4766953960108049 0.5642191406382652 0.007490002903942107
0.1821618629831907 0.4793052867996681 0.6589410867237556 0.004830162909267094
0.16148874083794754 0.4810430499838371 0.6862880088092209 0.0053024027902564145
0.1360353507457485 0.48008752769039587 0.5830803075232533 0.016162520522059434
0.15395805196437748 0.47966915140364874 0.6855024116748349 0.0052782986751318504
0.15138211676588204 0.4834317659522227 0.5683027199806353 0.014887057963257459
0.1709244351151653 0.481596126641289 0.6163469832684164 0.011915572429059563
0.1838115293416106 0.479673950588949 0.730250970959847 0.004292231502564521
0.16417612166801113 0.48002583561196344 0.7000822913808313 0.0059786308851751905
0.14577270622001828 0.4840419556122126 0.5202885187296321 0.006774008929881305
0.13869437513008792 0.48095192871690823 0.6832187367603073 0.002393511617754686
0.137095426563093 0.486628603645088 0.6281307751747237 0.006891059919157243
0.16647959826353748 0.48382002849966776 0.6541424890710115 0.002838575835956625
0.14802457231191893 0.48695064899784596 0.49100235171977386 0.005234615329845802
0.15145131901355965 0.4818064308105746 0.6571808637665777 0.006555457362821344
0.12089071819263067 0.4799021059501955 0.6891457755604794 0.009442634284060813
0.12339390450130357 0.47058977258543866 0.7264749045435118 0.0036649847705665923
0.01426319720280043 0.49171688842717814 0.4868160981445767 0.020550700705364813
0.18705856972087312 0.4834181515928 0.6130619242459764 0.0070057342059462015
0.1922886011101945 0.48184355914411653 0.7146167508782085 0.004904194907847993
0.1724894280475027 0.47934668573877687 0.5186286872435899 0.006649321242304068
0.19655168532014658 0.47672052507130513 0.5497304954481688 0.00771973484326688
0.19073980860934447 0.48373073251888155 0.4974667542551201 0.006950603864837185
0.16716592609812195 0.46971654968169874 0.5491302270442353 0.0018996160199033817
0.19274213940184773 0.4800142694467783 0.639592133441712 0.0045199753005785845
0.1937649169126085 0.48258950614371143 0.5969688357464231 0.009390843749445954
0.1786024250281614 0.4797393566548732 0.5769254727052725 0.01414768427499626
0.17574090417345836 0.4785803136462801 0.5313652428551209 0.009900476516150423
0.187658956357022 0.48085484364511427 0.6029926687258651 0.009483147238528855
0.34884378688261997 0.4833088052992787 0.6201510631299357 0.007508900066143716
0.29910361279037473 0.47742304125399776 0.5748643895733632 0.012596631707651795
0.36635669190153675 0.48693966116262577 0.5595426073166085 0.02789741758957786
0.32979682397409227 0.4745770466991043 0.6504367514285075 0.007451755948718972
0.3143642551753502 0.4844785272011281 0.6184319475650181 0.0038703843507275158
0.37147881917127634 0.48861469631182464 0.5755872408221161 0.09313621702125609
0.342391169502137 0.4778942402122663 0.5394061194507952 0.002674520278210566
0.30674091982277885 0.48709762225753556 0.498545992214273 0.0028376669099787733
0.31563465465444696 0.4765228349254759 0.6715710844890809 0.01360145644100384
0.3492385674111626 0.4834253161601826 0.577601974449522 0.009640441919419264
0.3024055095908756 0.48070169389276407 0.589499409645158 0.009240137700059003
0.3231119913811232 0.4804028043367073 0.5490777312571579 0.012622152726815833
0.33964315531953604 0.4862849966044189 0.5960811239395768 0.00828820368946639
0.3232776044599109 0.4884931749589645 0.4995195054583259 0.001415818105356463
0.30412550333746313 0.485762687013497 0.509027274264886 0.0029230901772030558
0.32381046303102284 0.4852005735583431 0.6019934965676332 0.004118163268470515
0.3057637862286477 0.47591070779457545 0.6914029032703113 0.012010259523077445
0.3066240100763256 0.4877194618985598 0.5215717998060795 0.005608918713358853
0.3569374103794364 0.483032192784721 0.5941484964960042 0.007412532804686906
0.32834520990737576 0.483462018073469 0.6197846762336222 0.005426666729548257
0.3385243658290506 0.48598138629120124 0.5846673950785671 0.004473938987423633
0.353533586880336 0.4843983532103035 0.5887673202025929 0.008129007698974388
0.2848243405510435 0.4841721643667582 0.48990211895123126 0.002688618054522187
0.3172572402917387 0.4816431352638023 0.6319473916594107 0.005128429592449464
0.3030423386400022 0.4867211097964915 0.5396846048982546 0.006051789791328271
0.31226801495656453 0.48302507671564976 0.4810418019299887 0.005744412999742399
0.3715545926481962 0.4825459318347939 0.7023021483554994 0.033756389629812325
0.3313481652895965 0.4748987159229932 0.7160785239289863 0.012660911418590019
0.35025409303212135 0.48725153851432834 0.6845431304284944 0.009985877921031202
0.3729341976747029 0.4879103532348856 0.6735774020825052 0.034554090778982895
0.34034574705787374 0.47695632373366825 0.7193654474653125 0.009102023555007548
0.3661778826239766 0.48258712324639386 0.6655809677325901 0.01477682201053465
0.3622031824745494 0.48069685862352535 0.7026465665183649 0.014516610481416968
0.348863393508446 0.48645420855802524 0.6914918383593203 0.009328990796739425
0.31389006360969307 0.4737247843028313 0.717548103570994 0.013199906986091602
0.3725868880718758 0.4782225312384068 0.721022368389 0.03390487977178983
0.3508944771084665 0.48008491637031003 0.6355982573371429 0.007931658008012592
0.36096828312843726 0.4820560827742764 0.6358332037728442 0.0219101415416194
0.3491464513958518 0.4829256812664638 0.6547529980527604 0.007749471027189178
0.3285339923206145 0.4853456956668893 0.6832379499626158 0.011385064733729043
0.3626372863448127 0.48156249055628747 0.6148875132132998 0.019027378830348593
0.37408486003215197 0.48565641319268327 0.6629122953771682 0.022564306223770623
0.323823340807707 0.48145767767357 0.7010908576182656 0.010747085530157905
0.3659237431894779 0.4865136165049778 0.6782450302466896 0.03697487142482253
0.019749947044506864 0.4856884382561737 0.5518389360823917 0.0077364356536055575
0.042519152467891355 0.48965150967095106 0.4922003079935698 0.0021046651306109495
0.03310485464118113 0.48666989845684705 0.5098327559514859 0.004729067758404629
0.017709949398032034 0.4905224365800816 0.5244890148264596 0.015451847665967012
0.0630421116675951 0.48544528468184306 0.49141837739563105 7.877236910144103e-05
0.10779170180558237 0.4853534956875963 0.5096242725413421 0.007641132882841188
0.10507600250985556 0.486023966433909 0.6048801329301802 0.011580465254402787
0.07015544669005684 0.47997366988210477 0.6746823281176851 0.0026875283438413397
0.06068656246863169 0.4800965191811009 0.6489906435776964 0.00265732111670404
0.033995422160208164 0.4783756710370498 0.5465300585777445 0.01158834141006012
0.10818113154421491 0.47634124509783526 0.6600631253399991 0.0034987634002185404
0.10499186111826744 0.48028976218467445 0.6743581660455031 0.0051021764503507505
0.06804687080688267 0.4887871582421072 0.5465160482513207 0.010414833540446873
0.07702965028539341 0.48584628742821867 0.5632626964561204 0.012397373281937765
0.016440658072836612 0.48959069791241105 0.5665972560855104 0.006458591879932665
0.03812214839937658 0.48266627242776894 0.5673578613017417 0.020874318059116853
0.10196515787708801 0.47855355623668894 0.6622865122643264 0.005160135036710729
0.058496899911945704 0.4821621537338205 0.6299217389511729 0.012989094678829362
0.07163750659776567 0.4757643443105807 0.5882485663382675 0.0037429948570075816
0.023302535489937947 0.4849054547128784 0.5933780286230035 0.013537086411149389
0.09381018825944731 0.48055961931348873 0.5117695643240299 0.017796642099673077
0.0843973033147551 0.4857159461726168 0.6207196167284676 0.007061038686470282
0.04290935683064289 0.48191417918232826 0.5908362968550354 0.006854361809860103
0.07396424072163901 0.48204171630652726 0.6425012466991195 0.0027864833481647997
0.08369125360327972 0.48315293893053207 0.6513927193315118 0.0060032969533518775
0.10684445750564665 0.48308822784017325 0.6323314815491935 0.0036920894060885195
0.09415394421862423 0.48264532093494406 0.5730463224333711 0.02111708581152374
0.09576728203894891 0.48758138271311524 0.5915603046877417 0.013503446877036338
0.10080877664963855 0.4775285359101902 0.7127092802762826 0.008144592924444933
0.08849922108569569 0.4830161529726912 0.6897439861643886 0.005315453559160688
0.06314168564391419 0.48450879223251386 0.5570624160839593 0.013125983935609948
0.042906765508133396 0.48157789326293293 0.5432618010700875 0.01414017151440022
0.10093892126955278 0.4835569270528779 0.61465047784317 0.0011358059693830644
0.08887680812695556 0.48057474232219904 0.51733584171001 0.010898890832625444
0.09306813967594826 0.4822144311083529 0.5479433793692688 0.006374579671895751
0.06828128363736602 0.4902711615834789 0.5316603338209891 0.007595231085042917
0.05759415150678059 0.4800519557771137 0.5749057790320904 0.014536981005858604
0.03659243546511599 0.4851203975862461 0.6312189129667153 0.009687859889636047
0.018045641813607804 0.48573812576265163 0.6328700199414573 0.012645466025423298
0.035442060478742 0.4824461169069161 0.6735129522189545 0.004862204826376467
0.02795129501500561 0.4745752856158455 0.614920569146838 0.0018888961967109524
0.03150694931168842 0.48382174683529217 0.6525219421637719 0.011235705721397779
0.019919994710408187 0.4724683469407833 0.7206769489026945 0.0060547042299189105
0.013818814675118342 0.47843802725944284 0.7050603017570987 0.013458063820536973
0.04611892027149125 0.47981647338158445 0.6977333872037039 0.006604386467753497
0.06879057705758011 0.47274388091136316 0.7147601578033215 0.007061617041051224
0.027266099940179964 0.48623366985019695 0.6680294583424471 0.0017562374438683261
0.028012287439256066 0.4825649716193114 0.702650912458617 0.013302928981496221
0.015739580469053535 0.4871929457540177 0.6737760356505063 0.004058133152458729
0.04867199898996298 0.4785402753987223 0.7212443912049998 0.020017339515849764
0.013980290848838095 0.48209238362119056 0.6875688742487357 0.008847978072438296
0.37221074717640357 0.48361413135968334 0.5148455514236595 0.04500678145358178
0.3621300328470149 0.4853611661368975 0.519867966392846 0.04556518862770043
0.0059113862965033785 0.4883793103997525 0.6278969024412588 0.02566370611495998
0.015114690609203294 0.48639587034734777 0.6467015427339377 0.010375115059884138
-0.0020816975492280445 0.4849852462375968 0.6947142030255402 0.00589022132338196
0.009588292106793142 0.48389140088328875 0.6198840877249947 0.02107070414427286
0.007990062019992358 0.4940146271322471 0.5812909150270481 0.017365210523095465
0.00561015550896732 0.4891698349982723 0.6657345325813503 0.0031702929736891596
-0.0017864620000166828 0.4902676939798856 0.6419084483336485 0.001987672543982086
0.014166626230778719 0.49348589831467904 0.4946673142188262 0.03677677847612697
0.0030361569982582303 0.4903910961594065 0.5239186152214115 0.011229862264132301
3.407764357099812e-05 0.4918415564229981 0.5570922681036117 0.012386648648171922
0.00340509736623396 0.49715071628311147 0.5064846821778486 0.033196624296091784
-0.005076511308115848 0.5074265827145867 0.5237530049188971 0.015509431148539653
-0.008457814785196058 0.5048002894509462 0.5988921845473735 0.00418987592618409
-0.0018220856505531957 0.5059792935516949 0.5066380418371983 0.028263974236754315
-0.0041867920124520844 0.648937356511233 0.6256455506077844 0.02360697596164707
-0.004885434720079835 0.6579246472626147 0.6510245469930287 0.03195732169119747
-0.004446902573706997 0.6415590360965246 0.682716689507354 0.014777760831112886
0.0026977035030087532 0.656874649817671 0.7226793049928562 0.04350609033005429
-0.0039803905411232255 0.6500918096560963 0.7229357664438766 0.046450343900399864
-0.0033663418868226324 0.645437726060816 0.6998029604479916 0.0539963982651907
-0.0032257544938758672 0.6532826212596652 0.47580598283196474 0.02678581738558279
-0.009419565148379893 0.6468456502364042 0.49591088314772125 0.025363803746480434
-0.0029031960629381792 0.6544314502724315 0.48330053148201196 0.027462715068341453
-0.009339899699934727 0.6622159075122048 0.4395116070365913 0.014194334024420475
0.02486699800826385 0.6623606243395471 0.4489042313331384 0.02393386035286409
0.03127633734436529 0.6593604029284645 0.42568584236585766 0.01929226721504392
0.3641455371505689 0.6645460037750942 0.4356505147768531 0.01531372174140704
0.2526668062226504 0.6510458606893189 0.42652058522651654 0.006911410123858733
0.3506354520455676 0.6613358920455673 0.42340034495268736 0.009557855657821787
0.324894961683152 0.6561615322698784 0.4419100246628611 0.004669250118758382
0.2550061573198327 0.6550324530781908 0.4427219559350948 0.013843140117629858
0.2671774597464739 0.6605508350384124 0.44368974927644633 0.01416178325132181
0.20053219621162907 0.6648518061621204 0.44246287988183497 0.01052797295724739
0.158497528966396 0.6580314979885173 0.4254954446429222 0.007684840518290938
0.3007734724557164 0.6574841843986985 0.4425336200677901 0.002536540773060179
0.2791718874323643 0.658100515283784 0.4372499552360176 0.014238910410177717
0.23185242966647593 0.6543124842374635 0.43238081278487406 0.0106094495947612
0.2726508330745964 0.6609653342168526 0.4279155587882104 0.013975406214909713
0.3014068315350545 0.6605361311072057 0.42642652672381287 0.0024981994563611134
0.20076428458573095 0.6621946694603779 0.6315724559132093 0.011505491949627702
0.24976355813166912 0.6627836017982178 0.6142604690310408 0.0037255050968428667
0.15165235684431227 0.6632261110038287 0.46972082716113883 0.012428130589685928
0.3346218134873059 0.6581079030253884 0.5098212321404527 0.007926937564542755
0.24359378350650182 0.6627484952908008 0.5286248280062039 0.007924701101701924
0.30492208155644734 0.6667326100504255 0.5360463501635934 0.00582113776094498
0.31284793284229323 0.6625758748183993 0.5513879727320996 0.005937227585659661
0.23223658715007467 0.6588623123401919 0.6109473524708883 0.00813389825444365
0.2588443445922823 0.6631440911893902 0.5736159356277817 0.009683856988882718
0.14023121760292298 0.6636576689216578 0.5283520500718478 0.020120607062931478
0.15714597746540618 0.660695663847395 0.436802794499881 0.008930128911526478
0.10898126506362449 0.6547073937401618 0.508334131105337 0.015324005231893615
0.06610128850602914 0.6582359064595117 0.4367714504045113 0.007869305565930206
0.22662666880362722 0.658366257930842 0.476614082318091 0.013355788315259217
0.3039297861066905 0.6658353238981413 0.4968729135911748 0.0073255578311774055
0.21885469803035468 0.6611884378720293 0.615964502345371 0.01065349895741412
0.21307516622882847 0.6588100834462425 0.49420929356898713 0.013310959621171684
0.2319533279912686 0.6601120724607796 0.6279404933702032 0.005222273309688874
0.3028105178383015 0.6621186369793306 0.4678066577524777 0.002116043520706802
0.2375804513742507 0.6599525173732899 0.4750571061380851 0.014196150381012702
0.27741807193592116 0.6600838902413636 0.566929154089745 0.0054444925765500815
0.22909508584665925 0.6584259166831969 0.49986996239415304 0.014168933015062104
0.2472748186675625 0.6562186349144447 0.5090329810732039 0.008492851731857596
0.13159594207013398 0.6609414370742419 0.49911976398946534 0.01691979167662301
0.15390756198561834 0.662352999529894 0.49510195016507225 0.015855145290668976
0.14492517184246442 0.6594747922027742 0.5437563849083483 0.022026961873805814
0.2743895479245564 0.6636329844887032 0.5487162461805706 0.005170009813875656
0.08694371780307138 0.6573107249432938 0.4338917627771903 0.022538952081054234
0.21775458023827415 0.669826926693408 0.583061275840483 0.016185296520914556
0.22002513032923787 0.6647467862681292 0.6532343163849482 0.021787485556294072
0.262954494546353 0.6649309937978497 0.5348837781529286 0.00964401478314257
0.14810080540665993 0.6687881682690872 0.5079007342202259 0.00641183621962698
0.25045302818885506 0.6552941414302944 0.4562393141778454 0.009687675609243761
0.23531439160678647 0.6592851168973326 0.5573893293356746 0.008546494147592551
0.21139935559372525 0.6615908560686318 0.6054091404131744 0.0065570312911619084
0.20570234525833206 0.6605578379343368 0.5341430203963727 0.0086717890507456
0.25592317470683534 0.6635146821858234 0.5992114300583878 0.010350671289285525
0.32450036552625283 0.6587996091874735 0.4825330353599429 0.003303258221451879
0.24509006348961346 0.6649464980639612 0.5545122844265308 0.008269534600797629
0.19287478995516905 0.660741723495925 0.4640097388196865 0.0060656027045028664
0.16604140855181398 0.6602753014946324 0.5258611807565278 0.014709767602815421
0.34539077899109577 0.659754141334756 0.48646368500560294 0.004957260496953959
0.2698366301510709 0.6584861638176434 0.5036201836547968 0.009236344542905377
0.2765205207350147 0.6621705625128048 0.5810684958383141 0.007150803422008069
0.1596047593827412 0.6579174999621908 0.5555838604837383 0.01814787216149358
0.18132210833371032 0.6653554503284166 0.44964276674101744 0.0072750321076761595
0.20268003956171485 0.6679754598234952 0.5860293011794065 0.02333627368223934
0.27646839454437977 0.6626190326555631 0.4635069323388345 0.009406013630185553
0.09822164121674502 0.6567138734068432 0.45055712966481193 0.016013394569106134
0.19067813103981604 0.6722747705347255 0.5400093754512229 0.0002442556177631557
0.19352630044679156 0.6667209347372005 0.6090930693007629 0.006951210912628351
0.2594703087039698 0.6651225087323681 0.5519376761484913 0.007726735719722663
0.13822673209439046 0.6631977888131185 0.48144496171983375 0.018469237270859418
0.24927420364531483 0.6666259677355787 0.48598352334874517 0.005213734698181808
0.33523967091335205 0.657052001511438 0.47602765896473026 0.011437054673454522
0.10052009000136111 0.6547089722550343 0.48322167570475183 0.012670503383121421
0.1719417197327053 0.6586100352428785 0.4713736036601253 0.0025569306456311412
0.08932053457558846 0.6600274421103139 0.46413662734995 0.02105667345594756
0.2339398937717528 0.6601405385667921 0.5940341703039768 0.01344649112759667
0.21362851297539615 0.6684084648429728 0.5965354580197357 0.00428172090382084
0.16109999905191963 0.6678166376733247 0.5854775209547598 0.012957067703287566
0.36070248834373714 0.6648558608341933 0.4559987730635211 0.01589039249145127
0.24127807113582617 0.6646518853700855 0.6621432771821637 0.026874931417939077
0.2002115722084483 0.6624775476374708 0.48698888944780594 0.001492205597970076
0.13189800823494532 0.6594617531388294 0.45567630735076003 0.012419112980716693
0.23164481675481813 0.6605611315168815 0.5991604887247142 0.007688279579950609
0.24706726789596467 0.6641333002065923 0.5755220256455538 0.010084616410953687
0.19280892540529235 0.6621879603993823 0.6272198550725804 0.007526457105318749
0.17323108412099825 0.6686377313873852 0.6033811777617115 0.01244886182516602
0.28230174172788414 0.659176597885196 0.5336012528359741 0.005230891403828774
0.20696121232251005 0.6645945692519272 0.6362605155215878 0.011164202871820341
0.22665099130828334 0.6659726010900398 0.5838767933015462 0.013862756874129153
0.21805745013132632 0.6604406956642955 0.6339387560166506 0.009145822655857668
0.31619495027031097 0.6618266138128064 0.497654150913313 0.0040657005678199345
0.21346827244591327 0.6585670277220781 0.45692565239441163 0.006820040688151395
0.24590747175130512 0.6677191294967941 0.5669168232719548 0.007457315716265713
0.32709678251937413 0.6593448119968568 0.4692606971147833 0.010784864121921398
0.32903061189073457 0.659471863214931 0.46331319844509405 0.008768160816902957
0.127577459273791 0.65512014371498 0.5229828016442432 0.009964938449126194
0.10118806545293108 0.6520630312814724 0.4281234104571153 0.011552040036217227
0.23076461777363155 0.6663989070981908 0.5277158995560403 0.005497640724242493
0.29275391541541373 0.6650912917610169 0.4794367796511172 0.00609375043422367
0.16049051754075722 0.6653762149025007 0.5129630606024246 0.014932523416915559
0.25520964764038157 0.6648714256990254 0.6183874518087921 0.00325579276071071
0.22395631060533153 0.6633554100106611 0.45282389814390694 0.006041671685060622
0.29326586095950474 0.6639887474827323 0.5639567127292042 0.006841325113038117
0.24660031267237079 0.6630271023985583 0.644885912606309 0.004273642440816431
0.15918582647615698 0.6605986578257088 0.5324144208327494 0.022064869968400087
0.11823372381870466 0.6692146185979216 0.4724851855938763 0.0047958071779531574
0.25118563796091287 0.6612944951518754 0.5287959159181873 0.009119859119221325
0.16903440220913998 0.6620054011716646 0.484521890271975 0.00720703200990162
0.28216960365497556 0.66276271732394 0.5160434229063454 0.006984500411387842
0.15044585656755005 0.659039017959746 0.5876452077771127 0.011782933596561644
0.06620918571780905 0.6526684937507097 0.4477208530724179 0.004454512808017362
0.13702017643156772 0.6634829154086382 0.6158099175857003 0.014082848993913596
0.12195825793902733 0.6661906472569646 0.5597353142918072 0.015693522633150023
0.08804145032604521 0.6556514056274305 0.4913687460671492 0.020058316430279718
0.21503815783450322 0.6632650735710833 0.6732096381350556 0.04763887173467292
0.1844712573436575 0.678207234770996 0.6701797145002313 0.01918573866477976
0.14160814297341123 0.6587851831627556 0.6031699819542697 0.013192765020594608
0.16007780596761312 0.664044501983496 0.66537023707338 0.030311001571983215
0.13806266481637955 0.6645085130004004 0.5551142501378997 0.01607509941158374
0.1699700085566552 0.6701363228083145 0.6168620295857357 0.010815617029639993
0.09244254637354282 0.6581172104285842 0.519645355868707 0.006010166870829322
0.12650901637583334 0.6620423193193228 0.5687201519349795 0.01621438134847844
0.18565320807041644 0.6675169372878405 0.6396693771346316 0.02091969168653764
0.20206915568145978 0.6687544395264913 0.6543198032606325 0.054697279876194084
0.1507794906594933 0.6642840823481168 0.6280161631819339 0.006028804935681853
0.1535765696866749 0.6643107066360533 0.6460080818631904 0.0017437320626157197
0.18225270632542817 0.6601451061970814 0.6842756559661581 0.05149284779643478
0.20877496467487677 0.6742259292660533 0.6664258653443119 0.0439316189032449
0.10585598094879586 0.6570283878715059 0.502579301950588 0.015416182393498824
0.35361192049196766 0.6605984442459422 0.6253038908209031 0.009096453288933824
0.2501318992305786 0.6629694800826221 0.6473755528116268 0.004317956596210796
0.2961960072185095 0.6653732836212647 0.635766233852786 0.004200596494037452
0.2559714860123691 0.6653004872983448 0.6401727540981197 0.0032050489636007364
0.31490492829499883 0.6708509818119449 0.5917812315262138 0.005455771836715489
0.27886296429533647 0.6666587283674 0.6523800333615972 0.0037166380147823108
0.2889142750749006 0.6631258343332006 0.648796733228993 0.0032269700743150155
0.34563866339259686 0.6613832994793506 0.5928717237769535 0.009493915353839118
0.33794483239511375 0.6619347295868094 0.6038317218595901 0.0076174239369823475
0.30622545022089365 0.6628409476728381 0.6393565769334576 0.005096363997500222
0.35430285742043244 0.6658563335960197 0.6050908830017752 0.018664991042410723
0.3633294389606053 0.6661592525190897 0.5911497530564856 0.03520252692870379
0.3230548299030544 0.6682612299869743 0.6216588604329335 0.005461831583864169
0.32368309669903417 0.6661231823055643 0.5817977902334297 0.0074285304665588124
0.35791757769840077 0.6559957268503781 0.5669086267190641 0.06617176815787056
0.33143942273539473 0.6662720047628494 0.6389040842537165 0.005612565400264004
0.3490154249172479 0.6607439759014102 0.6334134618224827 0.008821386972288452
0.22412405502107074 0.669551503461518 0.6673593473500978 0.02770541864122245
0.3270345045593697 0.6586512027660671 0.536194912095496 0.0063617988995428145
0.353758868977944 0.6631608067901605 0.5113966234045244 0.04050596114736699
0.30038901061474266 0.6631407276914243 0.5603409855188332 0.007700535198486061
0.2850352557050986 0.6641445127135529 0.6269743535911995 0.0035977516509354563
0.27112549734244556 0.664109342777071 0.6242957408402253 0.004304413341974192
0.3156797870644023 0.6669783891766001 0.5806818735619935 0.009943353890397043
0.2832770128726525 0.6698371318153408 0.5946443781593633 0.0027232256882742077
0.3453601460546007 0.660245971608334 0.5302596366635435 0.014747926160952293
0.3011496113055451 0.666306672588052 0.5830492709417223 0.005193923473926548
0.3235445968657921 0.6665813004985031 0.5586924566238363 0.00800172226339694
0.34083774978991693 0.6633915069072036 0.548121657272919 0.015808590987905612
0.3387139742627679 0.6624080685753369 0.5544434772435188 0.012565982178371838
0.3550408020690128 0.6615715428379985 0.5463005275793593 0.0173696832577178
0.08348651494485677 0.6587453097122712 0.4810351123659277 0.01993888223466142
0.09389061385773927 0.6694910888968378 0.6166490126426499 0.019881154093263378
0.11677858011337207 0.6660098666389948 0.6079893392315964 0.013987849195437219
0.04285894146703857 0.6580844438693284 0.5444580500956703 0.0072106426166651865
0.13254636673905645 0.6602193881443119 0.632319877620864 0.01933384665394275
0.07729787407770176 0.6661220561145453 0.5773519793589086 0.0026169821422215725
0.09722481635943564 0.6567640564879634 0.5412110861777996 0.005539359180023166
0.036632658781537986 0.6658620231135789 0.5606633683144587 0.013343182584590997
0.11035618107558702 0.6678139249909292 0.5982752773953836 0.009198393918962456
0.047843581743597506 0.6526493679044723 0.5129460731485573 0.026548320613737467
0.08234158895852106 0.6621231168960247 0.5219913863852285 0.008622982622789753
0.057377659441548955 0.6565426620039072 0.5353160191203192 0.011124311604721153
0.12054450713900886 0.6592793413954098 0.652399300020067 0.018978430131600034
0.07285899687820847 0.6646837947077537 0.5455343336624663 0.010849668051964287
0.14661187466332246 0.6596041408354232 0.6660512671451977 0.0050740694460441466
0.11538182353556785 0.6597578748679851 0.6288803861972508 0.010908934708262978
0.029068525132589992 0.6630698469098549 0.5382748695297298 0.014205040043521749
0.04675384394547986 0.6605614748436954 0.42796592472172207 0.016777536061219196
0.038925837592557154 0.6652783610850672 0.49464475848771877 0.014247673389794172
0.050808867687494486 0.6621562005799134 0.4869929981763318 0.022252885946278823
0.08004460127496446 0.6621960719277818 0.5660417561426625 0.00852171166306468
0.06801807067592375 0.6617632828038214 0.5419924495280332 0.011170891739606436
0.050773011871905145 0.6545046506010337 0.506116493786286 0.029611916969746098
0.041835184058016416 0.6547982345700024 0.4591605707875613 0.00995121617315662
0.06945261575429218 0.6585402170803347 0.505141476122982 0.016127763252992755
0.10717059657675446 0.6618009391321189 0.6391404876965849 0.00992930096767518
0.04544006984191714 0.6667659914732895 0.5760193023862316 0.013368541744263215
0.05731766797275987 0.6653511413656632 0.5987994823320131 0.010915173507065643
0.08408392960391398 0.6630509019198283 0.6619258186319811 0.026941295116103794
0.07047823024629295 0.6724894770591459 0.6878279957209279 0.01595275429458397
0.10965869214676979 0.6630013902756264 0.6689303539274801 0.019773618321321643
0.09773056945208561 0.6650701170068771 0.6967127934408108 0.010440457897454465
0.08462450736141774 0.673540905497132 0.6232159493266175 0.017736329463365726
0.05521443368052895 0.6701823797529438 0.6180089698563187 0.011495087652161909
0.021311102127529142 0.6635765172519242 0.6700024792597192 0.02873645118401348
0.1265559918892126 0.6698589919053911 0.6789830531515236 0.0077866660340534365
0.024374376863889085 0.6612045319022868 0.6994160526778671 0.0338901385968189
0.030835271426083936 0.6653248276451527 0.6604981615392426 0.010184382636655493
0.06704583337777402 0.6640054326319387 0.7060607153833894 0.0140645666849293
0.03994359029101682 0.6639567778193494 0.6559131032236464 0.011449677905346331
0.04053306721771725 0.6677716288648832 0.6420166952707075 0.011270854564951598
0.029201579439908712 0.6618925786689579 0.6065090013813985 0.010587410991042141
0.09725859344008185 0.6641120973086617 0.6541228746639602 0.02465389740657781
0.041432399988846486 0.6708264767597524 0.7034276846278075 0.01180127785338294
0.0966976878773613 0.6731744576084322 0.6326013779508437 0.006658093648375251
0.05388824851726797 0.6602783082855712 0.6452459946192053 0.010100990598210851
0.08779940218269663 0.6709213180049922 0.6448548639894943 0.027572237668338117
0.13021127863322676 0.6691531468007695 0.6931106303007296 0.014928997260947803
0.08130863482327633 0.670387635494994 0.7097243085253845 0.01257165192587929
0.07293401167043335 0.672481426358874 0.6819703582566484 0.01322211555449565
0.028605829800436505 0.6604081691831828 0.6209926511909177 0.02457599469058741
0.022626231409681785 0.6600405901189748 0.7271761637636465 0.023607567503184868
0.07690620210267647 0.66930633002156 0.7196253993194275 0.012166120584940682
0.008551394287395118 0.6605979678976889 0.5025456724967967 0.018621279055914097
0.029450291149647156 0.661299467068716 0.4709874658968899 0.034317399624907874
0.021865620395474128 0.6655457466090297 0.5064901991530171 0.03458895140313527
0.38628354377074287 0.5406887294727771 0.45685061635524077 0.008220775787897802
0.25441951292879134 0.6690103773399222 0.6729194121474322 0.004421849565119881
0.29444909267221536 0.663580881313777 0.66116600143678 0.004314764768398808
0.3373138447427245 0.6614711636911401 0.6528623441244893 0.005973659395600572
0.2867921673303649 0.6617539367950421 0.6747185277600732 0.007041556444389122
0.34931515656532847 0.6627428384802236 0.7189325288011645 0.01307876712022193
0.3032644941202137 0.6694422065907183 0.7030928267441842 0.010511076019944778
0.2982639274362308 0.6650249515595629 0.6912659647955557 0.01063520693017744
0.36271814629269916 0.6694018900989203 0.6916293147233564 0.006763728056382779
0.37040833537682993 0.6663697600107988 0.7354812226024835 0.12653911624121525
0.31079238977785345 0.6684691937415791 0.697948283756208 0.009500580579327391
0.3258091638504381 0.6638070261232337 0.6840767757054066 0.005834000731310612
0.3166211436637105 0.6662678236483035 0.6724142544619841 0.004905117528865311
0.2711296203504012 0.6655326124231237 0.6921125729484398 0.013100993708118885
0.33966598882460763 0.6650155314161975 0.6864707703071795 0.008156348387740084
0.3660672561935959 0.6661870454204354 0.6693955122736783 0.02430264525657747
0.3266467097411272 0.6658762209357051 0.6934232064576487 0.006855480084765827
0.2884349210871063 0.6754962477136691 0.7089397770642935 0.008822219320605187
0.2565379554095221 0.6662569980896114 0.6836616168656463 0.006148839018655269
0.34410910418521806 0.6646768428961486 0.6998751295957427 0.005335073633775652
0.2787509736754144 0.6682107745727186 0.6893061927941242 0.010705908340267014
0.3473608726460922 0.667165938421883 0.6733771099628505 0.005430419836188378
0.30932727781590874 0.670871756885944 0.7117147084571263 0.007201931357675625
0.3428385634591901 0.6628095380439709 0.7220821544609859 0.006104864882033319
0.3295368464587034 0.6681902138430086 0.6633373086345106 0.003635343511424253
0.33723968268090687 0.6659064823577361 0.7082117547901522 0.007510801725817516
0.36384557629580483 0.6615399647999789 0.6565869014706124 0.02373223939767797
0.364598966444118 0.6621630189771301 0.6420539456945075 0.039710059134057285
0.3266879911836828 0.6658008277191422 0.7273264432313267 0.011722487459546122
0.250438167931107 0.6656139564428459 0.6821667643143772 0.017257452932696978
0.2736786059657231 0.6689351272649037 0.7048140562252756 0.01501498886596374
0.24021355591929405 0.6663527904650617 0.729763625041179 0.018839476824299796
0.2770422568173424 0.6657137593036553 0.7268685005582689 0.01524301040811431
0.2455337550828679 0.6719057884369656 0.7129886692435911 0.00495072206624816
0.31944024272477245 0.665256621194031 0.7240233295482803 0.011898192966171043
0.3024802429942478 0.6731120328574048 0.7324260655758481 0.010388988817225659
0.34139892205988276 0.6675516068895021 0.7371386438099747 0.016193519058790913
0.19807846314236163 0.6627965074602932 0.6764273092320986 0.059521449492010534
0.11707909693964146 0.6639214137397271 0.7142692431535449 0.006731254375852581
0.127813469546921 0.6683092884764928 0.7091478820475343 0.007156109793417698
0.08798644746979446 0.6666992294204942 0.7226587087102846 0.009631871328529761
0.15094842181788334 0.6730588437266498 0.7032321589547639 0.008908388775163183
0.09580410698775081 0.6693625005785001 0.7155499245309629 0.007163675719348794
0.09288980541753218 0.6694399403058982 0.7341519170295016 0.02966987688880729
0.14462684378338778 0.670729620776653 0.7338236469585177 0.009854988468645388
0.05756577272818741 0.663922285301798 0.7298817278393175 0.010361154293812217
0.11888534071840401 0.6665589359079049 0.7019266353654515 0.009787952905333118
0.03797019531893487 0.6629531562226935 0.7256257755142259 0.019049906891680207
0.02389108321798969 0.6593589537201399 0.7379697121520589 0.03798226483675208
0.14941341745128933 0.6700222374192605 0.7080804622328447 0.003915197279540634
0.15957857364099454 0.6670854891430527 0.7379866927307976 0.026110528823616704
0.38546874182370433 0.6647449107777716 0.5453672159580735 0.08101170347692987
0.373121537973022 0.6651908611124596 0.5159383706392315 0.08414138138411198
0.3785506709468269 0.6695508341627884 0.5565744836454786 0.10874988754666266
0.04405072687208879 0.48409075962687775 0.7393636994712467 0.0042706224470836366
