x y z curv
0.02870921960383539 0.5155914176514101 0.3613068898341698 0.03762317548825639
0.042755275926849155 0.5199824824496476 0.3622183423814115 3.648848675055094e-14
0.06901575121150129 0.5658242144522696 0.36121620134791554 0.060694309144227084
0.10573132733055472 0.5764405043955743 0.3581602011063709 0.028722928858879164
0.003423146315981308 0.529590742890057 0.35692169700095994 0.04660864599075049
0.014552596372271413 0.5190761836193203 0.22199504765003109 
0.01351970797695903 0.5132391642134109 0.27728661179882674 0.004070770410679747
0.0018380292627070732 0.5124812586855806 0.3451979386766904 0.09357351691849833
-0.0004883840642338861 0.5145911716779723 0.33361188714451745 0.015883030357752057
0.04536845033424487 0.5145053503778768 0.07339966543098683 2.104717478210985e-15
0.012549066261414532 0.5043446783589484 0.264724851237295 0.003293546116049482
0.03965000338436093 0.524358364529923 0.11548810220574363 0.004011879507841453
0.011599365479439315 0.5243989410103519 0.29336066907793706 0.004197819923400348
0.038914702184650984 0.5193187071703814 0.14388773499473864 0.0011708579091739889
0.013232532523500252 0.5344735253706131 0.2833698899066356 0.003581573149292629
0.03074090552280187 0.5478698436130748 0.16412376921649158 0.07127132231565457
0.011953434976467472 0.543148165298207 0.25744936892062 0.0411285369019717
0.015210136434975378 0.5474712651354491 0.22462931414001944 0.022084636851393842
0.02256455752847908 0.5486180008715349 0.18269424392914338 0.09398030996253032
0.018792662131443708 0.5665974906194069 0.2271421453358212 0.0354103447857237
0.019299230959423725 0.5603967447072091 0.18453312785097856 0.10045436193739268
0.03438327478240169 0.5615650169558207 0.14482899017270146 0.0332258745013701
0.032040509646392074 0.5265036677150442 0.17516703336226466 0.003438423999294748
0.04666086977489206 0.5430105364782366 0.0809254613749483 0.01982451475305814
0.024024407966743107 0.5671990465051766 0.17699059127879463 0.055229507579922385
0.03677259392087631 0.5491849263401533 0.11902912824831055 0.02839151060966519
0.036584142019366675 0.5609248250801955 0.12694870627366814 0.07960765175627484
0.03963537693272567 0.5651023098797802 0.09424380484975496 0.01745198071370297
0.043067971831638185 0.5737663604435703 0.11571664560104024 0.03920337057982473
0.04039433188316595 0.4850813342097049 0.11648654687166551 0.003919001789166659
-0.0027952540493986896 0.4873889323562934 0.3432199926268596 0.009388137120332252
0.003945293050290199 0.46626407701417355 0.3331679667244737 0.01021619686946188
0.007909387097747671 0.46202221303363245 0.30997587254849873 0.012721424471005046
0.01530592150265073 0.477455634240117 0.28373661688520235 0.0031627352569525737
0.0360834080452614 0.4893085233462071 0.12374530431380747 0.004603353627410296
0.01766403857042599 0.46699579518404216 0.2625998729888035 0.005961255141380282
0.029419108813666023 0.4721286355635388 0.20218928957370286 6.321600636834614e-05
0.008648800691399214 0.4938116097697702 0.2936065054538273 0.0031786000823934846
0.030131331746816627 0.4939065449839856 0.16741728226916486 7.364900447655331e-05
0.030479947596054588 0.49646817818245687 0.18234889657336031 0.001075664787708124
0.016356478423702414 0.48230280820399074 0.245789614478821 0.0027171887929298205
0.05310732153002701 0.48691072184496126 0.06382500497231794 -4.531895486553946e-16
0.0281712582899011 0.48698706482335363 0.18836347604027626 0.0004375386357572648
0.04458470786194106 0.49036102183730335 0.1038031445191441 0.004032992746430476
0.006368074030483884 0.5056350157422097 0.32025477446709744 0.008534362350080382
0.012574634038372988 0.5143072903021655 0.24602128659423084 0.0008858382388861453
0.037971754915623566 0.5017277304959253 0.11978077672606396 0.009375960256737552
0.018930730403838893 0.47125204787758335 0.2507874510741484 0.0018662959507662804
0.04433071799182466 0.4614798787962426 0.12030198421873954 0.0007593035098598959
0.03213236322166167 0.45484554503454994 0.17031590989256049 0.004917443668901482
0.048020352464169816 0.4666519696655102 0.09869426022379119 0.002209311517090623
0.0041335950266381 0.5574619679837384 0.30370068535704625 0.025837552155441038
0.0004385666743048069 0.5343156551496926 0.3257069637465425 0.00794812907795231
0.017880411703848388 0.5648392003780753 0.24451719814195358 0.047263141497381006
0.008104600399083416 0.5570007445763602 0.25335842452000357 0.049813823169120273
0.004630379155285936 0.5518686410318211 0.3557780699394771 0.16546998689541917
0.0032527007582083415 0.568599573125292 0.3258853900161066 0.050755821789830805
0.00027340339617206865 0.5397795275085967 0.3472523128841145 0.09826781917489169
0.009467941016329286 0.4458276632616138 0.28448332520334235 0.004993886828854128
0.024940010774192167 0.4479946866302297 0.1983918500836413 0.004110798351322066
0.027795452675832687 0.44249155463034096 0.15852022512742658 0.008495189020307952
-0.004920722924517892 0.4324224260635531 0.3136418266922907 0.0028234667045468884
0.016143327230469802 0.4463055077962553 0.22883660556022692 0.003796712385056731
0.03611913296845297 0.4393267584922344 0.13589305953177183 0.0032609419039247496
0.05115537161682369 0.4449600569489372 0.08734616382923048 0.0037671696718820083
0.00937162333917772 0.4277097538408076 0.28372249881023315 0.0017957554226803718
0.017322342069288565 0.3968169058429384 0.22551593215934235 0.0008526444687213324
0.014156845006937487 0.4225387708574936 0.26447735757657487 0.0007118484390016169
0.031538462568592 0.4289522562555556 0.180198621853157 0.004057557576491872
0.018990494353682538 0.39506995781794435 0.21708324620816377 0.001876662925050733
0.009890658077936475 0.43384357390034145 0.27549090112010194 0.00015131307547371471
0.0485962798753571 0.43162890883737015 0.10008657940912487 0.0012547228256038175
0.025001387695045847 0.4081821908382116 0.15096095683189384 0.010146844994585204
0.0469510156833555 0.4395574759735268 0.10739671964592162 0.0013295109690842054
0.025955691887669295 0.4133079956585018 0.19752159532286045 0.0007983290180888341
0.024683991718516197 0.40751469120345346 0.1937356586228532 4.1281200909466676e-05
0.01786746738146337 0.42851522602087144 0.2527950828328248 0.004540458668514117
0.0021619752577143616 0.4069036858415649 0.32055040374866994 0.0034120989860958154
0.01798199846492044 0.3917670760988302 0.23981730659031275 0.0004848148810678705
0.010709146260595714 0.3904712709264545 0.26975905139757944 0.002359224780584139
0.05381895006078739 0.42767171420815026 0.07299245171234169 0.010912041265993032
0.045350947393127394 0.4110874753632652 0.0999394186472143 0.001229415009622285
0.04449257806723407 0.4086913305611759 0.10142416356959762 0.0016022651465957287
-0.0013263109276185217 0.4029443151646317 0.312408093426628 0.02129305574840159
0.0168608633153894 0.3588997698541535 0.19612745099354817 8.879103936541329e-16
0.020036469138415926 0.33802381903325623 0.1887555668107169 0.002333986556542676
0.025659819891568347 0.3530146730486254 0.15879103207436904 0.008956397050370836
0.02765634544349453 0.36292666011291574 0.1398350565926026 0.0027898773226462115
0.025871451914684256 0.363712585000618 0.1548724664735145 0.004620380456965657
0.03140279903645175 0.34156546268089355 0.13203215277415284 0.0010687556144288843
0.040349762403204564 0.36454081121569476 0.10515632088424429 0.00014671643831564292
0.014941034817809116 0.37332878551649445 0.23811472599230005 0.0012969251600269322
0.014157129409675517 0.32104401686122797 0.21629029122303073 0.004804661323115668
0.03494724068164791 0.29115148088481313 0.1321226291291782 0.0017239343486935392
0.03062426196196375 0.3119567509255366 0.13801171413548416 8.869222964197246e-06
0.026552234805369893 0.3048206178276694 0.15456385008024132 0.0005067147481192684
0.014448147242258421 0.3110768068025538 0.19328541166799212 5.057360919722202e-16
0.0277813926133368 0.2736904400483428 0.17450278540190794 0.008078686978470485
0.026551599166589418 0.28036406814621734 0.18942386613998793 0.010243809130056273
0.016487958049691265 0.3127990091084758 0.23612047627586302 0.010402755788505448
0.01770637748768039 0.276226802382783 0.22135350521559785 0.003788707688654585
0.017991963617434308 0.29553623094833825 0.2347732844786272 0.007073143871876778
0.010954652571791793 0.2698162802550531 0.2384171672112785 0.002228933937842642
0.00724576695251239 0.3406817856245322 0.27916696115631884 0.00528745163168235
0.004161571233003155 0.3630010032472936 0.2974700877364651 0.00686624868740474
0.0063311662348261525 0.3412539592858146 0.29887299055986793 0.002621638985639739
0.0016996982497399886 0.30554702078957335 0.30189402599866205 0.004193081561812355
0.005257949364661296 0.32729030115532765 0.29537672744600263 0.002723447530637226
0.005463444988957445 0.3077548624667136 0.2688611974367896 0.0008694306112829387
0.007825636437509867 0.291348341365177 0.2887782792530977 0.005116092924748602
0.007445821860692203 0.2737372497884738 0.2950182595361617 0.00322984959032365
0.004283741484962852 0.27966002845006876 0.30289511947349357 0.0013637889428811123
0.029745493178475104 0.2669248230285903 0.1623775298096586 0.007148857398159707
0.03839537014671493 0.24447032704593008 0.1227833970969725 0.005984041881035609
0.03595675701068942 0.2600494921579791 0.13150445968291258 0.00672484813351418
0.03362063254651776 0.250928801237437 0.10438394329105352 0.0019362508897925155
0.03530175653687881 0.25641780891527294 0.14634369343582196 5.537883147124841e-05
0.021662259833200075 0.27222036081089884 0.20940446902671883 0.003912451047389938
0.019634305673445346 0.24246742489235973 0.18925765165794045 0.00029132695422784345
0.021893376006688496 0.25163183557974994 0.20433085797655243 0.0024467634007775537
0.01889253423389342 0.2578378687046441 0.21940719548298676 0.00865190719584435
0.01003866632606398 0.2584495825542201 0.2589384086053867 0.0038644714864481573
0.015513272885060849 0.25363608315488817 0.2445003167182866 0.005984801818558729
0.010471705508394834 0.2567768699097851 0.2927978123875897 0.0015129431920946552
0.01120020604404558 0.2462120161307685 0.27793301645930546 0.002696532440925937
0.037002459873269146 0.2205191327273428 0.12623161565845833 0.005659054312396438
0.01047667897955973 0.2187849767067105 0.22905790498449352 1.1451929089298007e-05
0.010537837723793742 0.22568235551621307 0.26097232650546814 0.0034468491084460144
0.007485446294861198 0.22261833945201087 0.3071337003037556 0.003314647046203353
0.023573140503754815 0.38304938073102063 0.14862644059927688 0.001180807840299912
0.04260566504879683 0.3535504159934242 0.09645307625227835 0.0006595932656359604
0.05072286064631119 0.3193448316841035 0.08086430080594005 0.001093790873593405
0.053021115675657024 0.38528839853588004 0.07034006175943593 0.007775069909937635
0.04651654563894339 0.37687756443152737 0.08590876624401571 0.0035636446274844285
0.047265944723599115 0.40026917328672124 0.08233727009199973 0.008015938764947609
0.02683963065855491 0.37723741332817207 0.1846981586902598 0.0038896295311532728
-0.0005675961583837194 0.37520090762353625 0.29721857461400564 0.006429678574827193
0.0049874406530616465 0.3757358690810758 0.32198509778221435 0.00788620502582651
0.005064083865858631 0.37929419815662535 0.33338627682693894 0.004567182640315705
-0.000565035681831999 0.3574402873069701 0.3201819597677131 0.008520596431186456
-4.621341618281458e-05 0.336077657153051 0.3178338285328584 0.003431455837823863
0.0006858203743477544 0.2966367153906246 0.31162065980532755 0.0022875261138377563
-0.000934519585930724 0.2971533665280204 0.3286321848791369 0.0018363707919796038
0.041564594721546125 0.23689835844266136 0.07686778330095224 -1.779624619372943e-16
0.04651012059769557 0.2830925067001522 0.08763480144145645 0.0025423447828452216
0.0377706038644339 0.2158050976043089 0.1182056013243227 0.005517213563144025
0.0335684885150666 0.20922022485434938 0.13618934039513728 0.0032899794637592556
0.023515521959221398 0.2114359535946879 0.19232312454453748 1.4633966708252526e-16
0.01029297330407581 0.22992885930762672 0.3286546493632703 0.005975600738989488
-0.0001957960392920833 0.25638928415491974 0.3313861458370845 0.002092777457185825
0.009531919793600473 0.19551499724952368 0.2545256249266838 0.0011191867213110418
0.004630465081265319 0.19713497152576054 0.2939719691160489 0.004144117042664628
0.0006827981403810402 0.19817982369801787 0.3250692147059599 0.004362219218847418
0.004551915162222767 0.2074586779417541 0.3444222232110966 0.008988120812288163
0.048435019158421626 0.1958833162856299 0.08574150484672377 0.0020432348113695533
0.048641164196555245 0.18038621148681488 0.08944960050241875 0.002048555747242422
0.045423105968269234 0.18326434195213798 0.10951085826704314 0.0007507633921005891
0.06154823098358232 0.15526328484228905 0.06693625779134363 8.576703297080106e-05
0.04003397334622573 0.16100431890262784 0.13669816565644516 -3.0068636509514173e-16
0.040333249406831445 0.13436035537969143 0.1461118166024598 
0.04034667365441919 0.13539720462959534 0.17924388288442794 
0.008805122232442484 0.15935945498991325 0.26898523382865963 0.0011387199842799944
0.02820471295698798 0.11684971396239478 0.24991800734197867 -3.520062488406119e-15
0.011990330523569 0.1353247546777929 0.3103416313341484 0.013692874009918681
0.029425794636007058 0.12639790923135838 0.21673806413180555 -1.2979818563149717e-15
0.04067813755511664 0.11171209176861722 0.19987634285912778 0.00253016152355343
0.03420761125620604 0.11486099479721419 0.23512860794993704 0.000507357422552755
0.044108420434263974 0.0936234289909168 0.2552626759316285 0.000262313311777247
0.024730060536399735 0.10787352307294652 0.29395512402975765 0.007728421448141442
0.07917713055248847 0.10324456665921147 0.10901893978995851 0.0013011131002996464
0.06850319284329967 0.11297310750533353 0.11466390983730605 2.3763912486127653e-15
0.06848443908837912 0.09874968297613339 0.13664720010214698 4.749363310506725e-06
0.05738543362080856 0.09746173108110597 0.18424165887733887 
0.05725693988512073 0.0819425173396035 0.2382488888295078 1.018141767311081e-15
0.0640607228301431 0.07276574499921609 0.2165549486158705 -1.66308589934373e-15
0.06171716261208477 0.06861910842727043 0.2651162654361132 0.0008182626666896505
0.05629993728040236 0.07316444593768644 0.2814329983026868 0.0008916017403937457
0.03897776906670146 0.09158702125962291 0.29136372365092766 0.0017820261565321429
0.057265647740805795 0.0538917627037995 0.3165667112350271 0.00954091344509733
0.09645810124343113 0.08476190640708882 0.10873016763905566 -4.786309863171257e-15
0.08751365186120037 0.07637371352913264 0.15100921937289521 2.351729939706968e-15
0.07769419708400259 0.08810004949619411 0.15021898796141284 -1.0157215828228954e-14
0.07894604239901619 0.07104031997009046 0.1820080085221274 4.796543635669451e-05
0.0815570705620881 0.04929588883726881 0.2348630508402804 
0.05934572634202407 0.06243900581767294 0.29425986478277766 0.004498912318724743
0.127779701645866 0.04251963089715847 0.1582886421394483 
0.1002576768326812 0.034159118764143244 0.26074022954833764 
0.08867343633242276 0.03570717660411165 0.2911983720548791 6.0021337459425906e-06
0.09251207477277401 0.029843008577057014 0.31886266726498447 -4.201681004286232e-15
0.15203601527815186 0.029307916206204584 0.19925361730325541 
0.018850879810235078 0.18786533838161984 0.17801241039660382 
0.06128428435804761 0.1476049198462502 0.09031701795552036 0.00840406290244988
0.08389458507474862 0.10768318963594635 0.08603276113370974 0.0005841436095278285
0.08889926460852772 0.11719534790982529 0.06843429324210713 
0.08138050942537099 0.12867604405835584 0.061727531116852766 0.004016191719038365
0.018563339207071757 0.17197233840024903 0.2139335075715273 
0.011978122542946074 0.15816962291556347 0.2473528765033477 2.7904993860015872e-06
0.007539383776969524 0.1641941840030589 0.2749291623782316 0.0011673107308226868
0.008483561203083356 0.15053740088796166 0.3016797849679043 0.006561652891359502
0.00814585944045546 0.17073917039851502 0.30841024186174465 0.00844330595528573
0.007134666553399273 0.15865175175532012 0.32221814535813365 0.008788516099408205
0.014731932366615727 0.15628363833710399 0.34441638221050996 0.004355643367529483
0.005225799060869998 0.1739777338247157 0.3334946743210647 0.01042441061000429
0.01788168670058445 0.13873033292593517 0.3258340368073887 0.008644748252632702
0.015600767273480972 0.13147142051601263 0.31583539384211334 0.01126257501648313
0.017026601782434897 0.11291251015376652 0.3195094567568722 0.018885095474592207
0.028908109358078717 0.09882206517128334 0.3182294582564606 0.006984180896882488
0.031151159338831145 0.09460889784313896 0.32702504066702565 0.0014146457704735363
0.027535230431763806 0.08938896342972288 0.35152404334614795 0.0012158105827076392
0.015013057770389469 0.11160388336498862 0.3555299899725057 0.007673687955983905
0.04633548079390437 0.07001729715964537 0.3182401579923521 0.0031739781972764014
0.05443730287672804 0.05799540021155257 0.3163265960106183 0.008614690835712244
0.057529559339206456 0.05708986342993935 0.3340296192769877 2.25982012091219e-06
0.017750846751873873 0.14237389079598137 0.3299838826529089 0.008575234923533556
0.1320805162425318 0.0826425605872567 0.06341287374017107 
0.137369153245026 0.0682435402559832 0.0828301203877747 
0.09642175683093236 0.08788590539928376 0.09768389192373576 -1.270954266452254e-14
0.09751727627782923 0.026108766536139017 0.3146648687411835 4.0714460832945595e-15
0.09586474040525084 0.023823378241313288 0.3357320705094199 -2.7931413731588302e-15
0.14410126369881443 0.0077606770108527325 0.3169724696588786 
0.009490373223114816 0.5673292051665793 0.280155271492114 0.08645904352345121
0.01534270614228364 0.5759947313338143 0.30184978993399364 0.0217556308572495
0.029414175858236857 0.5690290494173004 0.19807132733401117 0.030284265267451375
0.03539839291106839 0.5699636430519035 0.13978014256203553 0.03633156636486622
0.05901606980632009 0.5755046796374902 0.07255033231499773 0.05271359204063705
0.03245712089813392 0.5703039871663783 0.21697922597285094 0.026847659441009756
0.05330563409269768 0.4634597258729523 0.06733572041250316 0.005816666931927394
0.05830877390797928 0.5675985035504546 0.05992329227001104 0.030084820709173586
0.060508264973857605 0.3734402738097872 0.06082086332910725 0.004206089263130923
0.05946761129008749 0.17654146722867337 0.06528927471766868 0.0036589225403290296
0.2799048873376851 0.5614252479732723 0.3621073864767001 0.001598984322571107
0.2330118618365242 0.561667202560522 0.36501652604245055 0.033316253725661084
0.19569663117615055 0.5654219375065271 0.353150407383763 0.039939998919278616
0.22960097104206317 0.5730957914606926 0.36078545416153696 0.01998370146998811
0.26997204757346305 0.5743733323307822 0.35499986638881675 0.006662444053433955
0.3573878830378528 0.5233613572755951 0.35781906489899706 0.02998352367076618
0.35282118316658995 0.5008039783408584 0.36119023667269345 0.05569793925040088
0.32223277638650605 0.5708176770405118 0.35622128887160603 0.08411011016417151
0.3625278888774814 0.5604583600213892 0.351818442026734 0.060867358334862606
0.3518876466580473 0.5498701142081466 0.3599070301193149 0.04366349483549102
0.32880713754049123 0.5540201453099505 0.3657686519815307 0.05467564912261174
0.35547408636312655 0.5408710026163586 0.35773953743466863 0.01881151627879746
0.3758139487274821 0.20853266646761168 0.3497813176615509 0.001977668314056383
0.3780880350680516 0.31326539743744214 0.35281057587768694 0.018836515156948584
0.37677671634815857 0.333344003018979 0.34931459422695493 0.008048584791124025
0.3628595260340194 0.5189063817304106 0.3562643697485274 0.03741820943948487
0.36892808377431746 0.5604219366431611 0.3497298754878237 0.0699812876641532
0.378083937398881 0.4922085190622329 0.35210854126218816 0.011297103400239131
0.35927508919383394 0.573099418765891 0.3499705883768364 0.06111562197420258
0.2578428065346293 0.5729321028490271 0.36577924562841413 0.013943947449602567
0.36812418886278514 0.5598818653653834 0.29503719922643046 0.09643092546776794
0.3773335112447147 0.5577946525957854 0.33923229701033286 0.08349241885251021
0.3777851858784311 0.5415387540096293 0.3333029779052451 0.049373904107089174
0.37627905324446104 0.5444050178686611 0.34169548953380735 0.03746000543644341
0.3669567323289538 0.5013363085409731 0.3079347441484732 0.0009450371091134611
0.36596796282892463 0.4537392487357428 0.2640428216971913 0.0003709800758333625
0.3593468762222842 0.5408127339978464 0.22747862689534237 0.001867866852028759
0.36969615211558704 0.5021590521635543 0.2870579010104513 0.0021772923501845306
0.3565371517083371 0.5297327434889865 0.21078819272410226 0.0001770790874840597
0.3714864845768119 0.4730576826364843 0.33437673036362553 0.0007356635093407782
0.3635293800241196 0.4343102305874204 0.2451629406569349 0.001239809908342453
0.3553177302697041 0.4292402968777671 0.20997994930462047 0.007791777371514161
0.35396262347527113 0.4400333084940929 0.20990343128273264 0.0019030084392504909
0.3688678063804821 0.4905431849516768 0.30782830604748496 0.002908518365618665
0.3624440818995033 0.5355949613277313 0.23234538374250172 6.354599880230904e-05
0.36722655521798564 0.4633464483048207 0.30497709428857134 0.0026697898555787876
0.36552392938195194 0.45977042808794577 0.27938291889807865 0.001356117038516357
0.35487871703998974 0.41931614096889097 0.22986352493801424 0.0027813818801804857
0.36065784873805395 0.45988091152263005 0.22587920665267994 0.0020273798458854044
0.36546805827767664 0.48541128972269276 0.28140731522325496 0.001006659490789311
0.3598522947392103 0.46954058669132326 0.22100862970681262 1.381776804210242e-05
0.36572605209582904 0.4848971314303506 0.23332766223127913 9.820592637002688e-07
0.369620515712295 0.5141888923360599 0.26829338757994137 0.005651606198340096
0.35333164767124786 0.5523715427198497 0.21483848849695122 0.001414176608110864
0.36605354658258915 0.5205161847644665 0.23973783684927302 0.0006652328054118886
0.34477181992249795 0.4319436774964123 0.17042655829111986 0.0010819287239724044
0.3358951023242542 0.48801555927047824 0.11778020657254912 0.005264007708394213
0.3405597452025837 0.43435211944181634 0.14607147666664724 0.0010428549153709563
0.34143758122506834 0.46885785388138346 0.12691141125872005 0.0006964771889159672
0.34069090060379364 0.44435647604033934 0.13457741813269777 0.005296463340553836
0.34982919379853533 0.5065404328764039 0.15787249135232828 -1.8248255885455875e-14
0.34328650906206365 0.4449395901029164 0.16154229464446718 0.0016701911806645286
0.31614754908604614 0.4857452512321185 0.06424987904936107 1.6901029108340185e-14
0.3439929697891653 0.4578355916583711 0.1542087568947702 0.001990674501501148
0.35602612550074547 0.4904927843948888 0.20022773077929612 0.00023003080287733137
0.3486954526701304 0.4602443875560916 0.1761585860892528 0.0005676577934849724
0.35471473260617464 0.3967200086585116 0.18732402475956064 0.0015387788151679177
0.33209008317708744 0.4759803256097154 0.1018635919052397 0.006422304122095764
0.3509376788911991 0.472782756840551 0.18201342866639328 0.0008127435199121322
0.34571922250704923 0.5219468551619922 0.1734857625437363 1.5099767720419802e-15
0.33648580765917135 0.5075202891363991 0.12939351149461553 0.0049737099460208985
0.3438279803959212 0.4804111345779414 0.15681518449950552 0.005686306019544796
0.3255393909851003 0.5060370071703505 0.09478212645430531 0.0034529522986114247
0.33023617650135667 0.48721560596572827 0.08649721981582323 0.0004969667174456678
0.3292743460742765 0.5440357089712538 0.10720223947962142 0.01019417936057052
0.32345042086283754 0.5349295236436131 0.09055542648338889 0.0009714600334072054
0.3447461215986291 0.5724361918559512 0.1679281905094124 0.03001025377028773
0.34965941013150875 0.5725026407411083 0.2012984402472376 0.04535833562877049
0.3531817203082364 0.5519336869061182 0.17308863686544118 0.05196464244013869
0.3283555105345994 0.5355610155300004 0.11078364237258916 0.009966285988387046
0.32762831653718555 0.5509071739970368 0.10135443251451084 0.019359532056735008
0.32344044947161554 0.5379372960574331 0.08912631665908519 0.010940291783478518
0.3175978032612248 0.5409450525677848 0.06396682024113953 0.023694291800237584
0.3391324027817761 0.5678482964302152 0.14360442862680314 0.034673275434781804
0.3236240619044137 0.5700691285504815 0.07827809030531123 0.06403361831017335
0.37360190963446804 0.5396781466452593 0.3096312255518862 0.002910767393174012
0.36963574131679017 0.528389257548851 0.3529380907019831 0.024275045522865753
0.36436973499205827 0.44468606292251683 0.304990035214283 0.0010867823891728375
0.36257279939785936 0.4102141645927664 0.26294437102950113 0.007730974360631582
0.3561978837617762 0.5663752976809489 0.23532953107362525 0.11172461041834987
0.37005857516795176 0.5365917307315005 0.2956057888373209 0.007415015491063056
0.37169884488510024 0.5095025770074674 0.33180739352222466 0.04849114982667873
0.3677812323463184 0.5666983708941855 0.2766511642429799 0.08372126496085829
0.36300082019694585 0.5495438289540305 0.27265604974126045 0.05012891270748077
0.37313507054110623 0.45838816563087803 0.33614025478791626 0.0057171383974355915
0.3565465721728268 0.41082685402214353 0.2392120599332706 0.00490329132449326
0.36401632621375435 0.42972980494722457 0.27266098511628695 0.007549252906353782
0.3780611869287891 0.39829601920629265 0.3289111284930102 0.006660238937271199
0.3665734348959113 0.39332335928344136 0.2627494179497974 0.0036862679542754235
0.369344760051407 0.4139468167258621 0.29363661793855805 0.002007053009122148
0.33267563906830916 0.4573399458632154 0.10433387944824707 0.0017430299489373817
0.32455833439168447 0.46358663597744443 0.08069117664363704 0.0029981822561657794
0.34394321910523845 0.4079122775618726 0.1381376568552217 0.0010137850505054175
0.374532097557152 0.43775670593972216 0.3340282088481543 0.002257751974419041
0.3770689711786092 0.3944528172363237 0.3217619927388561 0.009754661026016824
0.37698092783494086 0.4357740004399119 0.348732801729633 0.0035224117974423145
0.36977473494493485 0.42816292959273017 0.3169466715621592 0.0019003729256620455
0.31879272174172263 0.44445762405557054 0.06976738444158703 0.00364155231931767
0.32077330335161547 0.4354431004801622 0.08026318176386632 0.0011850615107766743
0.3318724484922706 0.4227620750145445 0.10809761306568257 0.0018251715943895983
0.3248051454554256 0.3803162030686659 0.07761870946854739 0.0028057651564890934
0.32238347817467666 0.41362625752255217 0.0747352216263328 0.0010560793297054961
0.33355415309832964 0.39639212606145385 0.10072984393681877 0.0018883881555351479
0.3337073626312853 0.37212993170545 0.11154110015457776 0.00323817103645208
0.32948346007366813 0.38727286405975836 0.08679784925077377 0.002556119012286369
0.3303543500629496 0.33975579550111673 0.08959040257771539 0.008511932911861315
0.32419031584405406 0.3534556157215249 0.07910424498877953 0.00951862009898177
0.33497800498505603 0.38559842933370064 0.12384966974916634 0.0002442629345125086
0.33091073303320717 0.35015367694794386 0.11036130113485385 0.0018656460339762646
0.33707919969435074 0.35104350896587716 0.1296531838295888 0.002142036375402346
0.34803398293905 0.3606219388469073 0.15272641727733696 0.00014369827529861007
0.3459329069559108 0.3834816692155446 0.16062087051953985 0.0037802471182718862
0.35256274859143344 0.3319780483131016 0.17284123095584095 0.004687474988244589
0.34345466700283483 0.3152268231224381 0.15053239210713917 0.002560573166698467
0.34230492593584533 0.3249376510371962 0.12829701067010085 1.330343686522794e-14
0.34640479393752305 0.3030038773393465 0.16816111959710894 0.002390260790918177
0.3422385313050925 0.28318629654335276 0.1588093432788512 0.002504712690278139
0.35572726944632244 0.32443248541771125 0.17613083142251448 0.0027518853427160564
0.36198309137678486 0.3328442432927753 0.20900421171160122 0.0014943120845835386
0.35821464685609955 0.35298499578530085 0.22152877151944086 0.0081470960787808
0.36332361369187627 0.36886157636388517 0.2388889164336296 0.003931098693420707
0.3590920806630314 0.32673700599568795 0.2226273875273428 0.005324991542034104
0.36124810286075887 0.344660882138379 0.24265780726732838 0.0032057235643930394
0.36228125958713425 0.34184605577972466 0.26429024183046307 0.0017730366359465252
0.3628724579398762 0.3622056940742417 0.26763480263961453 0.000575084618177729
0.3664526413240459 0.3201166266252199 0.2718769464913464 0.0002390102634776822
0.3715295465898124 0.37702437695546265 0.29962805721766433 0.0002789495469968666
0.36610353378409055 0.31689967170187466 0.3074286576804702 0.006251352851384307
0.3664344667369762 0.3356748772824283 0.29569281576829143 0.004429883210774342
0.3503552678640557 0.28374027864560664 0.18670972999632152 0.0012566043985151334
0.35399815424534153 0.3028597528834966 0.19924665483812365 0.004294748935032231
0.3586460663867061 0.2998762363358049 0.2445124583618831 0.0043127624555693396
0.36485467543020894 0.280396227296565 0.2611211344840729 0.007161056652449458
0.36118036012316446 0.2983564705361473 0.2786411941699333 0.0041278939325410414
0.36839226652443896 0.2757009470817241 0.2760546377410918 0.004476180646193965
0.36796306677427554 0.26962547988536384 0.29004140173238013 0.00744680072806357
0.36836266346385904 0.27766119177927034 0.30224257199874005 0.005281390301301992
0.3669411531172236 0.29494276192616387 0.3044531079734212 0.006710645587788567
0.339918428270498 0.27174587228722263 0.15693109979639178 0.0007242928017127782
0.3387380919034682 0.24946226148024728 0.13139160439915992 0.00036199192848531656
0.3412922499061761 0.24877688687909763 0.14832918989089666 0.0018628355009321456
0.3515653877975277 0.2656229397901486 0.18780306755664566 0.0062511966698940895
0.35008819244922906 0.2419373339388136 0.17909808198324698 0.006493695898364661
0.3568222326670434 0.260889311063002 0.20316982717113768 0.005177277275727807
0.36011115926025344 0.281274242190756 0.2212456265570972 0.004105660770995881
0.35538648321588856 0.24170935950077393 0.23736083596111512 0.00817190271618531
0.3543277304260209 0.25961162155982714 0.23719431715594247 0.0016999702873565726
0.3666453324698485 0.25545418522124047 0.28893171616672975 0.0007289994730970773
0.3433314677726926 0.2239561264494329 0.15555943170046405 0.0017874347154466436
0.344546780374852 0.21692930624110127 0.15360130973846356 0.003903384727771086
0.34864504701348487 0.23623560452739495 0.20649774099526688 0.002827558450278
0.36410858879755226 0.22603004311880953 0.27390498257806856 0.0009650651635840782
0.35944186524319893 0.212810428474584 0.25464654309391194 0.0017742361430084987
0.3642907136770302 0.22656035933143648 0.2730163816700053 0.0010545877416552666
0.3648975745871935 0.22297367225023432 0.2888477682367574 0.000757425536969135
0.3288664308028247 0.32110557706070925 0.08160694268587534 0.0002396826596656277
0.3714868720832355 0.3737396284912829 0.34459734819419674 0.00027113356459144045
0.3600809506855138 0.3721099040540709 0.22857302924254577 0.004677187449449032
0.35362460548204117 0.38422337374268273 0.213774895536354 0.0026333162592470888
0.37089924998176654 0.3258609104732338 0.33143537598577166 0.006731999951690624
0.37556283029460896 0.3485661528026676 0.32675022695036227 0.00394840382024757
0.36486269900117474 0.29640640247961264 0.32308028109238895 0.006667614902551405
0.3274043561706096 0.27400366727484604 0.07799014248852448 0.003410203661748488
0.32349127323682 0.23393954425847024 0.08799567498967491 1.0730281705917224e-06
0.33435554148908353 0.29288628511481085 0.0974543021885012 7.8157883526423e-15
0.31994858034206347 0.2149709288669867 0.0757254063739628 0.003388097866801175
0.3266727948686199 0.21131125084267097 0.08943708798653355 -1.3740088021170764e-14
0.37153293893383793 0.2213347744520668 0.31330815439230936 0.00041745726568088537
0.36950834072945293 0.2789527206550521 0.3471240709141226 0.005543291823685006
0.3751594216939188 0.2515785992475637 0.32931175915993766 4.3727826124608754e-05
0.3711289314965712 0.2061784403368972 0.32226381465217935 0.0010626161967398956
0.3684730897616324 0.20020673777484052 0.311098490872753 0.0009917367952404577
0.3675689385845791 0.18635572271826337 0.31796237406051353 0.0011171199136166235
0.3210820658673047 0.18717839302798836 0.08945995919367401 0.005383811708406706
0.3185126701975213 0.18075709669484655 0.06440438705387411 0.0030579970478478756
0.3172683727657888 0.17006696734418592 0.08301096041198498 0.010665435425548073
0.32389554890922456 0.16799706798273845 0.10993246974260237 0.002503735558122759
0.31691228873954846 0.15236020618205032 0.10160935435707176 0.0029184651866603693
0.3238050842901779 0.14368693048076447 0.13014544359949054 0.002787089918403355
0.3318752061714222 0.14067052906138675 0.15912475026008796 0.0016772232895519209
0.33908418280678676 0.14014444229317363 0.176667301371327 1.4351075333123302e-05
0.34768764618836573 0.13678668822213097 0.2502873196842396 0.009820136903247097
0.35498295682763503 0.14712043357154292 0.23160648023750213 0.002275748585435425
0.3575428080569105 0.15328004254809424 0.2753738923180857 0.004006736325678331
0.3537261008641833 0.1391555856708819 0.2705119996365354 0.008523972448909668
0.34117740616062475 0.1249487292291277 0.2468939728273276 0.0032945142420416243
0.3624005035465931 0.1376545535948763 0.29777441664188453 0.003247025531841599
0.319070398511039 0.13590074451995524 0.1155120941449708 0.001041610525871054
0.3131649675810844 0.12321903243641683 0.11890175429789242 0.007367895154331287
0.3183074446929997 0.1242882895176892 0.1350173520043566 0.0045562351623276145
0.3200819129751309 0.10867627017039197 0.16398823503213691 0.0005946431921761672
0.33140190021427735 0.11893053222356469 0.20349131014532154 0.0007199198326581194
0.3237057919009101 0.10159352744596424 0.20309769604194947 0.0002642731834721705
0.3290915471671377 0.11145614657642629 0.22140122417874977 0.0010625639995600217
0.32896762423441306 0.10687002829885614 0.23385729926726218 0.0016103785907383558
0.3326948394748546 0.09930082286340332 0.2609032664365875 0.0005538830532337758
0.32798968373180376 0.09663341921455991 0.24453390454832044 0.0007231331343408233
0.33417280557535695 0.099228944622502 0.26675127348696215 0.0006698491962212266
0.3485703320152928 0.1150206935460053 0.2842460875210817 0.0003433367033607618
0.2939993497102687 0.09773750702645795 0.11867144613365543 4.113560894296449e-05
0.31611041806850937 0.09683102880545286 0.18666512071467667 0.0017921002060948031
0.31291334059522014 0.08821358443829506 0.18729266894064242 0.0027584838493776224
0.31617999866746455 0.08876278863579812 0.21296030822566425 0.003589392857906347
0.31270759480441784 0.07726070411816051 0.22932335860228328 0.004928760179977052
0.3123711328057721 0.08036917822293387 0.21690997826902497 0.003834437649692061
0.3166029634582713 0.08521841821343815 0.22053614827547605 0.001957294172680111
0.32996952144838104 0.08663279438651682 0.26715740433100654 0.00044463159075513586
0.3354691945567158 0.0830035872515637 0.30003160012053515 0.002743588108552756
0.31271376256550476 0.05832172433790333 0.3071575306320627 0.001185699028609924
0.2923073732178516 0.06475171253712418 0.19321884599406963 0.0013897685526025822
0.2997229818090915 0.07114347512518682 0.1896616444129399 0.004094942666913683
0.30095122288694776 0.068110137117772 0.20012286545398694 0.0017493530002499276
0.28836639807826736 0.049196251258392464 0.23185397112969278 -4.608510456273153e-16
0.31096381566918857 0.060895022655237496 0.2653438894745596 0.00010797083332918655
0.28990090926643747 0.04360959792031856 0.28209161193614335 0.004273233189653612
0.2969435679566329 0.047995828308320485 0.2881443878793813 0.004885901190420778
0.25916572137817584 0.043024172724426775 0.18582747387499857 
0.27728777443754404 0.042845312701065646 0.24624839745975055 
0.24207253526131778 0.0672898796474335 0.1036329945785425 
0.2455331488318768 0.019481888259778098 0.2580654038272391 
0.34696503557428376 0.16924475263033395 0.1829942327736748 0.002039338254119115
0.3537933150983484 0.19291874252194408 0.19945869731260357 0.001583823452184824
0.3429662508267244 0.17661834466521678 0.15722665687298354 0.0022092993040343945
0.34516781825020393 0.20685861980887146 0.13862415646378895 0.0007879886842044588
0.34683076070055313 0.18489774725826286 0.1738525111600029 0.0009349237412252145
0.3042985368750358 0.12125259595659509 0.09695073501315002 0.0017493648423544273
0.2915915690435673 0.13564995957931453 0.06731545933653481 3.9804051843857286e-07
0.33341968450758747 0.161959730124539 0.13333933810017373 0.00095191742018918
0.3310679510443981 0.18408699840138054 0.12129132025670783 0.0007703917955545626
0.35587417996130755 0.1687725779889502 0.22755612007112846 0.00232567058969123
0.35398303494516836 0.19661964801920567 0.23121113793760784 0.0006670946264106448
0.3593026772319893 0.1882936259941126 0.24752465492782852 0.001756184760771192
0.3580674476155071 0.16756973584503773 0.25448695463256865 0.005736375658363656
0.36271695929144243 0.19369317734366526 0.28174854680893174 0.0004801727247098874
0.3633478675176269 0.20080373197610177 0.27118758978564184 0.0006854579468764187
0.3638169434693032 0.16758662454195453 0.30054692826484 0.002146665968376745
0.36229452541639606 0.16013793470591237 0.2885804377821756 0.0027489387948234447
0.36488321316767097 0.16044390290963306 0.30022066362751026 0.0026056441123506724
0.3644530647140805 0.16102526862398586 0.32600078997629006 0.0019002865865067541
0.35897035712876246 0.12011530872446158 0.31899424327159315 0.0012090358211504402
0.3597060903730465 0.11982744725392022 0.34456486691981636 0.00043647758762503056
0.3433679782745921 0.09014618189017459 0.3187014662221786 0.00012950357768809598
0.35397288577951286 0.10974090954286429 0.35289730328803004 0.002680173414436896
0.3259617662026589 0.059025361725283686 0.35455610271962 0.004036300367433098
0.32258148858010854 0.06267493307096784 0.3259566222979364 0.0021600396870205553
0.3336569731543377 0.0786777676854951 0.3253659912103575 0.0009441732363712556
0.31590677709731657 0.05318514362348588 0.33353864196105965 0.0027466686821091477
0.36851720550345474 0.1454579517940519 0.3389453619125093 0.0056063404042467615
0.2336325974491188 0.08250850143920611 0.0652884423847507 
0.24473715383315295 0.0775706532912079 0.08329444267805657 0.0014731108119771794
0.2609027298460619 0.10199524220881888 0.06339544654361702 -5.6630595950866866e-15
0.27464493527533784 0.08666159610324721 0.09788264704076767 -4.454483788890748e-15
0.2172413128721778 0.030793389795314513 0.18371498334590333 
0.3045837085385926 0.04286566850202453 0.3455658356495605 0.005385022503669083
0.2870339427456109 0.02946753811847504 0.3118699612796693 3.6381380256258294e-05
0.2957485842231813 0.036004783926565594 0.34001378889214096 0.00412241469832908
0.18375951993457648 0.0007304599055605494 0.2661676228091721 
0.20964153495997298 0.010487322794331936 0.2511832681035806 
0.2112358892650713 0.0007611306627283388 0.3431244641465827 
0.27782580296254494 0.11191996560258405 0.06601773757668151 7.894742523127789e-15
0.3612860420691264 0.5749858259597852 0.24723395714856364 0.0997152813833379
0.36435087961983736 0.5804599512312453 0.27020784502592216 0.04786678198297042
0.36794214079564497 0.5724964704312913 0.33936878067395504 0.07780296629729158
0.3676217425268839 0.5680977724804538 0.30380994384647414 0.09030382653030189
0.35224837473772136 0.5742476866428609 0.21255370684771907 0.07973642242332879
0.32197432723993674 0.570435294816488 0.12510797198106124 0.06580136343818922
0.3359510431560783 0.5747312517366812 0.15844997843436245 0.02294594334332761
0.32136605716195815 0.3815405271567001 0.06553784549523956 0.00033417848163044784
0.3120763291088952 0.34010766840582235 0.0607937704738157 0.00250142104497372
0.31771630312746124 0.5378226641936493 0.06601957149486933 0.024867492577809354
0.31017968097537457 0.5713324129038859 0.06914361881095465 0.09771419215785807
0.3195955106151553 0.24599345435817957 0.06771325805486735 0.01126409355242016
0.32318276581587824 0.26444569321191075 0.0704561810766268 0.01886695725356652
0.2967572450848594 0.14397841432436392 0.0695744755035141 0.0021528251459654673
0.07426123774037892 0.5695337093663027 0.21023210083049573 0.016194728677289175
0.07979331778705351 0.561005761673402 0.25992747820508416 0.026045279696388417
0.051890088347328944 0.5737134331725612 0.3295481916332543 0.010505114476365884
0.09172072428287195 0.5845150769719886 0.3608552769454536 0.017937633094271904
0.06899827667295176 0.576045176818347 0.3485221371733578 0.08504576115215308
0.19560225540411 0.5705333709938629 0.3434834429677778 0.03815349689958023
0.11935543329871734 0.5893917091742944 0.3434622905243336 0.0006634555461724845
0.14683803308732588 0.5723883609922662 0.34087043014196255 0.002133563291403013
0.14620739938311383 0.5554651182426217 0.18061844332160146 0.01642586076806555
0.1811003880706105 0.5555404875311303 0.23109613072870366 
0.15884637085593697 0.5525476997703159 0.1951864326279783 0.010574384993732542
0.3044461686881403 0.5672701527727914 0.3376383807445209 0.04356265159428191
0.2628332205711312 0.5765174872879535 0.34391983741536486 0.0191330380068427
0.30975240094471834 0.5752400524402638 0.3136942346625845 0.0016040364697186582
0.2992824999195542 0.5790521168574437 0.24773536953209238 0.005777221508459382
0.30111758940038424 0.577331860099604 0.2383673879846187 0.004784275257913615
0.29231683983534923 0.5687114835638438 0.12243000546009737 0.006339526223125633
0.28839609539512523 0.5748323029008258 0.08902088511836038 0.009098765255752574
0.22677159491998403 0.5504961243011756 0.14563237113516436 0.0048055047316611565
0.2404510500222599 0.5494881360308967 0.1718929737918029 6.369807303626008e-07
0.24503981687465395 0.5466544104917793 0.15281555192073207 0.0007244090473080028
0.22359086678737392 0.5517316748864544 0.12327664238119208 0.0004197565984106151
0.20310140799074541 0.557040668778998 0.12486062644022154 0.006787012399179675
0.210944678008401 0.5631273869905666 0.2075653227042503 -4.491991715876985e-14
0.2389552171234734 0.5747860188120133 0.05784123262526478 -7.044806444530933e-15
0.2691275267791146 0.5756867710586488 0.0607850932137945 0.002406926596083777
0.23523393217466254 0.5623008885992269 0.08086032549986218 
0.17265239515917738 0.5639207651373299 0.0795133234609888 3.321729367622514e-05
0.22317569356242264 0.5776924847484183 0.0730996201822597 3.250129647163173e-05
0.05789526264115398 0.22289925221790305 0.05735231471943555 
0.3088445904228302 0.2802515715473785 0.059306267132082945 4.78436072556455e-14
0.05873695163554192 0.36655609064460026 0.06244464604165045 0.005191877301250837
0.0681860336561867 0.40056114623930866 0.053778755271123815 0.0004504092248175681
0.0614670796154716 0.45223444469384605 0.059182626731467916 2.860174174760935e-06
0.318004928434519 0.32632186094659404 0.0684040785701157 0.0017546451227724144
0.14604369214917556 0.5692722891851292 0.06167925392209213 0.0061469394700602075
0.2840017710594874 0.5715939383436647 0.05696705867908504 0.00351328790360446
0.10713204476386894 0.5768571629757948 0.07189567575590097 0.020447927231690456
0.15764962256040746 0.5708571812661999 0.0690893124449551 0.019243336068434064
0.05137748387948436 0.5770474297571017 0.1365525793767046 0.04668201231846929
0.0569539955300294 0.5734829735189425 0.18580331041602305 0.016201395710438254
0.04783552202168497 0.5759471231919713 0.1298204427108789 0.04700071613071472
0.049837762945305134 0.5790360195570697 0.16817762834177935 0.03637528596578298
0.02541362706041282 0.5739989090193512 0.2714281405794577 0.05170849104530533
0.042578865798845955 0.5730232690169054 0.17368999905786486 0.05231433697241529
0.024829704176468088 0.5785885783771781 0.3373061252697024 0.04491511040947695
0.04152006516025015 0.570813769129246 0.28479198579626025 0.00811993227651464
0.05551388284305852 0.5731310443726807 0.3080874216894602 0.005974065407111356
0.055521698338636453 0.5756771788981948 0.26017048717079155 0.0259845518018591
0.030814891883286132 0.5705263784481698 0.2332006311804826 0.025243475780472126
0.051667303333592846 0.5769320203482133 0.2287673971207638 0.01620442614116862
0.036289613497911904 0.5729397085118433 0.2519760586420694 0.03843969193805881
0.04962243763650465 0.57485740694656 0.2580970574865543 0.044385257803091924
0.07119773226460498 0.5740980934655814 0.22350521256536662 0.06119759124729588
0.0639218836140443 0.5780051549143641 0.07759906532090542 0.07294808391623467
0.07590982480629531 0.5780296454200153 0.07856651570546493 0.032596985343098364
0.07210588107988157 0.5781946852674892 0.18198228836637848 0.004697148962257866
0.07509930956479245 0.5761045306867904 0.14217818173418925 0.005680456951390666
0.06831846362726372 0.5810341348147422 0.12810742505537587 0.020589604652330708
0.06453942199998652 0.576673190606278 0.10141769106796156 0.013265760802657978
0.18433737850965728 0.5756074765359926 0.07128262307570608 0.0016431984213700864
0.06433375650417623 0.5834944913674381 0.2360814905534987 0.024676594070123032
0.1292599296422201 0.5738241560017217 0.07106649714181265 -2.0244583481255146e-14
0.19398462018457888 0.5770995198087532 0.06683994888928883 0.0008208601379906551
0.3075481409735495 0.57572658849028 0.08918894796686103 0.04248492403234024
0.296263536858398 0.5759214898265214 0.07246991174734972 0.003818061026431449
0.31809076452702917 0.5718833256245275 0.1313408643831333 0.02442493275584958
0.3252108076760447 0.5758775741868172 0.16763336926795433 0.04946020306273307
0.3165385609909136 0.582010609348342 0.21612884317543904 0.005640766759642973
0.3112669120982043 0.5791377773049236 0.16969853662847764 0.014869544699265326
0.3233686665912013 0.5800031569143973 0.266907293268967 0.01280308862067752
0.31363174056047255 0.5755911885057031 0.2785154526088088 0.007546142320868312
0.3271671383850137 0.5797617570768099 0.256235077005351 0.021013701275680197
0.3308320595235969 0.5777290663111907 0.2601972602368353 0.021977913548512605
0.32194865419442176 0.5719407791659968 0.292496953857254 0.006626098916846132
0.33035337316818675 0.5714724888050039 0.3103623711135175 0.014237464052812612
0.3439493891200442 0.5706793196300763 0.2765536246554133 0.04565210411895648
0.34520284300346815 0.5737265786285594 0.31261702507864114 0.006551686542145395
0.3457554879320017 0.5729705523924719 0.32832083616462016 0.0445280932477463
0.29196990385199195 0.5733174312669219 0.09604577041552505 0.011721493093048449
0.3136362364241621 0.5731886107728876 0.08215790948664621 0.09420161568966404
0.3074761435165264 0.5800406582785033 0.15866714940491936 0.009654383857956843
0.30911349526490206 0.5771640099010148 0.21136541734993958 0.0016392613577266228
0.3293006572862781 0.5800848940467299 0.19469496400941358 0.0073179348092729584
0.016658188391676522 0.5741868389264476 0.32327887374366127 0.04163454713184773
0.01042929917271831 0.5753020443479684 0.34472609289258693 0.12399297911860448
0.06758308442939163 0.5708894262782231 0.24972285825628962 0.041778422859521255
0.05691482258055075 0.5746730991567932 0.283442965155953 0.01438666722708192
0.05998731098434832 0.5709846838313803 0.29721939618067084 0.0007429208987192929
0.022531293091215706 0.5747815146314073 0.3531009942038397 0.044772497846969704
0.17273362280053042 0.5727235992297057 0.3522697432531945 0.021177597991944765
0.2175090792950367 0.5719728967428878 0.34289652705913537 0.008944314304690852
0.315167032399133 0.5813255595094527 0.2632282660263864 0.011632890383336867
0.3229560842664246 0.5701773372768045 0.3583102446797166 0.08130476228912369
0.335581416500508 0.5802657188983383 0.34604543860233916 0.0459461215091978
0.20448507670104743 0.5587369650278287 0.14813299847985048 0.003361015300254218
0.16732673684887775 0.5610330861800623 0.13590050720422364 0.0023858132779892866
0.18871656011064916 0.555774885264479 0.15005518078050664 0.00936756098418187
0.1718118022510882 0.5653008743080629 0.19117930834627678 0.0012826043255370618
0.14374024842399344 0.5543607733127499 0.17522141822691306 0.01131910520333653
