x y z curv
0.3873203027348938 0.47914539280329815 0.4275647119325119 0.007142266687228261
0.3866615254337937 0.43607026337705773 0.4177934603903886 0.011527356940691711
0.39328249992002773 0.5271188849601677 0.4172545517613143 0.012407126699466914
0.37524495274724046 0.7143129061999727 0.33953419982970007 0.0014306227446490535
0.037836188095483565 0.7160938291969184 0.2965434143041007 -4.4057419962155434e-14
0.015130910191669636 0.7022961818351251 0.4189424197190833 0.03655883991653677
0.010742545947891305 0.6953178792538015 0.3834352452011753 0.018236457684527394
0.01504577557159534 0.6598210834290247 0.39968307186006874 0.01122767542413252
0.017900733964823334 0.6805759105010386 0.4067791526358336 0.010642357345447183
0.017297062622009345 0.6687747227327627 0.399968945672035 0.00808615397583201
0.05048812249741557 0.6865120984674586 0.22691400695442138 0.012636568028575915
0.04368277835961588 0.6275447899940553 0.1994018112565449 0.004599795276270685
0.03889843837001654 0.6129087429580231 0.18925243440796236 0.00604900098421087
0.056748282110961445 0.5481825368148792 0.13715165790988562 0.005412346676481036
0.04667678747089556 0.5743261177233432 0.15605709423109324 0.006799139155456616
0.053923321351708825 0.5909639158656151 0.10621985634486109 0.00772665338394336
0.050147393480004 0.5608693453772423 0.14659642935280226 0.009009344223243503
0.05271080448528574 0.5375367992491547 0.1565031977391134 0.005041727416256565
0.05090302340688468 0.5855688661295619 0.18435226496865265 0.006094139063297375
0.05409893389163491 0.6019727106319586 0.1280220049151325 0.005169237163114283
0.045363361610765186 0.6049423311500594 0.17467484151535054 0.01204766593941987
0.05070565582705098 0.5901666538036919 0.15782410159143725 0.00791585057795056
0.05612524945252879 0.5449754557670894 0.09127516545484231 0.0035037525428813854
0.0537215812822511 0.563241106702863 0.10539538776365867 0.0063833972128491435
0.05694075222724702 0.5685630530874051 0.09367126364661174 0.0041912853292098646
0.05059142519986114 0.5625500827185574 0.12508883315966732 0.004396489979486649
0.054739376904354875 0.5558233586046819 0.12227279482774343 0.005037967949865203
0.05465441572291426 0.5682222932513905 0.10420247947169078 0.005303687556175277
0.05406138632087681 0.5443972209109201 0.10537836342713482 0.006170414204851004
0.05694213688410236 0.3610028966849911 0.08085205030911224 0.004353091683336492
0.054975069295347664 0.33882429662465935 0.10625091088091118 0.007460283170439501
0.057291056268714016 0.3008643673536176 0.06977470003895468 0.017432964549643378
0.05104252253939272 0.3514490478978908 0.07110307408441409 0.003443387219543821
0.059839292880573026 0.3136906608655718 0.08012924683504127 0.0069724818423985485
0.05394521658681399 0.33629639533780914 0.08860754335827474 0.0110133772494863
0.057019128750226064 0.34777590386174423 0.09035693409497099 0.008068325241023421
0.05415944690923453 0.2619078867930074 0.06627028965613352 0.008015165780554648
0.046846110447477725 0.2810719735687715 0.07561134376355315 0.004467230889313782
0.053540521720402585 0.36656565780883466 0.0525370414530702 0.013599452994419248
0.061248082806561584 0.24562259267839853 0.051169097678229004 0.0016146088650339295
0.054145475432436814 0.3181546364701275 0.055531337319881156 0.004427177338358768
0.05970876697934753 0.24434486901400115 0.038348182952736405 0.011342793141289125
0.37295480689452953 0.05125523109285533 0.37143536288740736 0.005972949662910022
0.3858387593801576 0.07375285488298147 0.37036688558600317 0.011604052342663138
0.36345799887900243 0.17406734386088296 0.23985050082796275 0.0022195320213594058
0.29897176054287333 0.10153522482689475 0.12996389332988517 0.00335056551799261
0.32858356610379874 0.12790139908514925 0.11116278762795516 0.0062667012616845885
0.35374690484367277 0.12575920867580914 0.14563381061711733 0.012762410602873583
0.3413745598919908 0.11107629881780935 0.18178536555486588 0.002109372848274162
0.35758263464405027 0.16828737349658515 0.07996378792004394 0.022471484996299355
0.34091676199864956 0.1544038642498576 0.07576007436953212 0.03788516866296834
0.34907295847115877 0.14863231237646818 0.12207109647076643 0.025814993796365645
0.34805050869671206 0.18947868328443487 0.08883804925677705 0.02395127578897749
0.3468753542218162 0.15636983582092118 0.08802379360184134 0.03652151382802226
0.34942578502407506 0.1617439085461447 0.11427587845506572 0.02404289824444421
0.3499729399851691 0.14411719512310095 0.15793181809905932 0.0056687484367663596
0.3532842355410897 0.15190372702406132 0.13957182799025888 0.018115852644316446
0.35248443550955105 0.1877040357333895 0.05174511482261445 0.029188891677081493
0.3499773766156681 0.19138858912607626 0.09774083921193519 0.019805483994941676
0.3536233195042859 0.1803790245787508 0.11386961986236835 0.02123293687173783
0.3589701624398182 0.1760383056942987 0.18128703037224475 0.009808513538109688
0.3581346170273819 0.1777350448008794 0.17019035787101203 0.009178243242022058
0.3629785745231267 0.2114575301889793 0.1849587215765213 0.01885436874868701
0.3653544372705266 0.18276777871976788 0.14226576611156821 0.00865822160258855
0.346091690557742 0.10456037213150697 0.2220252815870595 0.006523775241670705
0.3520579583327493 0.3966724486507536 0.10279534921457194 0.0035393348401214267
0.02054682626767218 0.11143548980703369 0.41870714456575325 0.028661928016983
0.013143234156671856 0.49844213495251455 0.422974082366034 0.010977512965150813
0.015831208819648907 0.28264215960705297 0.42020535561080347 0.04878455513069557
0.011061397994032936 0.5158441970557207 0.41365491676088123 0.009082389968720654
0.010116202803811326 0.5380818002630309 0.42359528821010833 0.001685103227584846
0.008593380026658787 0.186235939824211 0.4175315959454801 0.013332033258081345
0.015917963482885614 0.32305896665114625 0.4053861504882259 0.01139689208478763
0.008890622146437984 0.08303276507274673 0.38053596928771255 0.02086109190821264
0.036148187144023194 0.13762211379452816 0.2943930960638335 0.0024319638610157423
0.06159923411867986 0.19090981244443012 0.039342864319838626 0.004843384137455293
0.05893922204531365 0.1815104061574686 0.07128925155474737 0.005621465127304743
0.058352636707793004 0.17118275073331124 0.07923372242637393 0.0039049808758699414
0.07167023593775437 0.14739494508720447 0.07358517824809528 0.007720902281114177
0.08053566779573297 0.13033102964179344 0.09677158171670748 0.004376557567448627
0.060928026696570485 0.14827388643818515 0.107584386844399 0.0009716328620091498
0.13197589945410332 0.08520585471064293 0.17026191009827718 0.008586959059011029
0.11866754073886782 0.07537639479564612 0.1849612857854337 0.0016303821051604859
0.13279432186222873 0.09437713936805774 0.13709547465752442 0.004114132680060497
0.14834071516495506 0.07795164019799443 0.18153134454411687 0.008029629160036774
0.04757547564613828 0.3976238941258955 0.07410327600592216 7.43341477499534e-15
0.3478472858364592 0.7206109854698621 0.2163993971884426 0.00018725308440344869
0.3500383966315581 0.7210975241318197 0.15209865056353813 8.912326452223095e-05
0.3563999679281914 0.7219018291463151 0.268744221596304 6.134907822301675e-14
0.35822747256510556 0.7194030183137946 0.14410705663869333 0.01203610290335063
0.3595706373111304 0.7129714500573426 0.16518064545506111 0.007594152619842399
0.3572881215203393 0.7174070256641326 0.12540901324512835 0.009915743448486825
0.08063095912564286 0.21423919443708028 -0.011883590550181452 0.0026152770202726764
0.39664946667678247 0.5113703465659463 0.3790032840102546 0.006662663267450014
0.3943179779341873 0.5237771724200725 0.37436857072580565 0.0059796719635180455
0.3989790121239785 0.547061681930354 0.38663447779155047 0.009740416094758753
0.39315756794133633 0.529450608875105 0.3686159654222347 0.006905567920281627
0.3700822106935334 0.3627480153849747 0.28456271493049434 0.009512026676439177
0.37112136453114475 0.44472297512339765 0.2905727348800911 0.005529894119466987
0.35820301283975664 0.34453049723595225 0.12336724222449341 0.008213171310500185
0.35734698921918756 0.6076482855167004 0.158744101589426 0.003972141774632251
0.3617090093589999 0.5637123860731692 0.1611118963396969 0.00422353303881905
0.3603459795697417 0.5814823985168236 0.15527435003141482 0.0012577879650188426
0.35988861564967684 0.5959858720655711 0.17087369888678108 0.0016193316315618496
0.36388103788986215 0.5469186676688753 0.1533233611525374 0.002544334315589651
0.3620571452811973 0.5865235025982063 0.1677413985913692 0.0009461187379626495
0.36495890311795537 0.5661026070149123 0.18026772724062148 0.003565832766034222
0.35276103937270603 0.41406459695919495 0.11371429688337978 0.004464245541139341
0.3563903746208065 0.4314714695077903 0.12439561822531744 0.010863535756903655
0.3595475347828895 0.3481811576560104 0.15869252941457912 0.007594510108115526
0.3667645509674262 0.330275613326126 0.14036186151337662 0.002263701261581456
0.36178056362069255 0.5265036810793731 0.18628683706830143 0.004940574108319621
0.36545093415839686 0.5536479154377546 0.18304212817588503 0.004774980800833991
0.36177329680085607 0.5328135214564469 0.16736846399217806 0.0017855936549645995
0.3645107098493593 0.3177612370517111 0.1733898342197201 0.010409353112190734
0.36137304150770766 0.3280310188002999 0.19046936736991385 0.001849191535372099
0.3641448935629556 0.3745470077037716 0.19054625668747216 0.003710216634842718
0.3639926656030071 0.3475177455339447 0.17614609688736887 0.010708070171875552
0.35028009692823886 0.44980875187420966 0.025994391343136507 0.009470723792114949
0.34724611373541786 0.4241344203530999 0.024726942244685697 0.018996042547386245
0.34670023923509635 0.28202601467083804 0.0006398456290529625 0.004079526457941233
0.3481912134815112 0.25684579535992996 0.027839932203736133 0.004738852641536344
0.34733991553464294 0.2614850165848534 0.0251124081145461 0.004727581287028367
0.36495861736588964 0.2424940094112308 0.1553603765825004 0.005123462086865519
0.33973998632802777 0.21506062310633423 0.0007208496869484486 1.8615622503190333e-05
0.011663731394840619 0.6555905598890039 0.42966818842174426 0.012301399350685546
0.012635872388032297 0.6164206947264278 0.4102531687210921 0.009835633821000575
0.008465201677596516 0.6378375498985323 0.4186435235613346 0.006033263376164615
0.013250615462760126 0.6339398282172174 0.39260719926352494 0.0065264489071437054
0.005916879212956574 0.6283642857124245 0.420359839719334 0.006509353793146778
0.012028899582170766 0.6750055860610906 0.4223694020667375 0.006505996163350267
0.02235095580740235 0.4223404020854274 0.3266854700737882 0.001967747100475551
0.017655042541453256 0.402763047032494 0.3637732022687434 0.011863219442301742
0.008206310731893741 0.4779845747942661 0.37456149201120587 0.008877492717848318
0.012315040439964503 0.42759834187550844 0.3591512453867533 0.004862286662995422
0.016365696068122618 0.3930531684674231 0.359194461104855 0.015973906414777205
0.020450033998931742 0.4490816349350662 0.35887240966060313 0.0054570292469177375
0.014601410756288319 0.49111880303988403 0.3694955221285718 0.01592347279270055
0.026301166957189974 0.45986126197773636 0.33779518802913616 0.004291271879652739
0.021690780520268106 0.4952956697883089 0.33689130586470944 0.0002591241336836275
0.035561448869031606 0.4569950769416386 0.2925657345989852 0.005028145503874258
0.031009192764704506 0.3845041738744285 0.2884739524314928 0.0014966822568888527
0.048369065980849696 0.6855765159412867 0.18621902075154081 0.005177128347010882
0.050032579101601485 0.6955081093183589 0.15954268797047017 0.007635006123632034
0.049179656439215486 0.6909161988773526 0.1992951649366165 0.0048824298208521065
0.0443197384787028 0.6770430411890394 0.20252680791959438 0.0037856908118582373
0.04397529129835547 0.6643399414319351 0.191096280250975 0.002606729663715633
0.04942092535509089 0.721066397871162 0.1467953085127992 0.014479072613947182
0.04973792597075916 0.6490649647646933 0.14944919990493358 0.004698808108393691
0.04927414152023931 0.6662990207743608 0.1631555147249285 0.005051204245412221
0.05232781624155788 0.6992937221757225 0.16915203344644275 0.004167712801578936
0.049342799101998555 0.718895628472736 0.1589667850164572 0.017621311796288158
0.047594044266373 0.6485193231404536 0.18634296003163442 0.002608757259147763
0.046214936720292324 0.6869687590539617 0.16187739091592138 0.005269715320132757
0.04446950451481559 0.40545304710328056 0.1731884267408379 0.0036948768407601917
0.04544632233620043 0.4208066055087689 0.22385805096011535 0.006890123802349471
0.054217863198312566 0.4168096028162608 0.1930086193869162 0.004908317226854639
0.051379296056745224 0.4288001479079244 0.18901657855418796 0.011182422484247558
0.04698782347057364 0.32260878076946736 0.21773509373569616 0.00791379812813472
0.04848416314706047 0.31040143782641094 0.21173920278900457 0.0030549210193723934
0.04793421924885301 0.42522240624170105 0.12396357517947304 0.0008908027229671333
0.0500279350884491 0.42136195703194657 0.1539572541266237 0.0061301329529526525
0.049886987049507094 0.4118747343584103 0.14984307036817243 0.004285814943914292
0.050496013731331904 0.39671373216801387 0.13838910136757965 0.0031281546999551817
0.05086447054214213 0.39774179656929654 0.11521125356354746 0.00292740311064948
0.0487125415840398 0.4143270746401849 0.1267268846501716 0.0015047285771867499
0.05064782103000358 0.3182031296354489 0.1141340096168548 0.0016721286521889677
0.054087108063340494 0.33071388198189605 0.12265292014231662 0.0012422152641866921
0.04944807348114536 0.2822487117422422 0.08264138715743509 0.02630742375907361
0.05480230583307828 0.368824006069747 0.11224286405755252 0.0014656399337190627
0.044068694332966875 0.2982847888175675 0.2102884820139039 0.0065534819784470845
0.04482323304920569 0.24125805338909098 0.1835157533061633 0.003200764744337889
0.05148029195461209 0.2593847060395489 0.15553706280894303 0.008448627452707306
0.047763311332147715 0.24915552531537602 0.1848663727485085 0.0006695298773874504
0.05374672522364733 0.23878663968731528 0.1498294591667352 0.008551836212888233
0.395569344305567 0.4793696657143225 0.4118316589007149 0.014546411906559989
0.39123232332198304 0.5111256069375734 0.41587427703373275 0.017929777515743112
0.3790863404947768 0.14570036112977153 0.3164791218149116 0.004282546465443382
0.2872942398074574 0.016033905623180307 0.35718360757879514 0.00293695425767574
0.3192981785093412 0.020185859542143202 0.357194098083307 0.0030154998333762665
0.22171594889623505 0.042547933712083895 0.28776557037283845 0.006753928088118482
0.26237668995346064 0.05361012938435093 0.2642252084969525 4.719541223461428e-16
0.366823973864925 0.16148376990135227 0.2926097017155205 0.0035061590296168116
0.37403962861291173 0.18864104917243385 0.2989637299281846 0.007390406845122313
0.21762550948289597 0.051164538199542704 0.2637200908612479 0.006048956449727744
0.3516088660190379 0.11059345065486773 0.2542793197107681 0.009249528556692768
0.37397758612315074 0.22448846653497206 0.2524074737985443 0.005871667584887708
0.2766379567965506 0.09070376683257443 0.1619120200035276 0.002318640798260726
0.2649118080656742 0.0858659994882281 0.17049793166203073 0.00955563184349212
0.3201400723266098 0.12535846260095712 0.08788556687891623 0.008992136466054087
0.31273340084754225 0.11918797157604359 0.09272300990344087 0.005692554985219331
0.3154794709742842 0.10399706774653525 0.15459573988816358 0.0018727914539536658
0.2864986573751533 0.11795023466293217 0.06021077642800204 0.005413023917050678
0.2930931183097665 0.12157857497308548 0.06374396361770684 0.006174007228174732
0.29512839807376 0.1251370525041171 0.03661017798033455 0.006668478041557652
0.35389479557884107 0.22694052978796625 0.0162174695517775 0.010374731537586368
0.35280040839471927 0.23622345689896776 0.05371315696280036 0.009985709849237414
0.35863304287104447 0.12181969051191067 0.22549828828698606 0.0018060597823999253
0.08929674212410663 0.018588277776662058 0.3710412350845867 0.009763695468671143
0.022316296878618982 0.13397841175249117 0.35680892563561334 0.0039034464909830867
0.025640502675943387 0.09757198754472537 0.3493319335645654 0.008376878991437253
0.019743412464072144 0.11503671348374525 0.3680180446550851 0.024163332102948805
0.022788697907291457 0.11002131027243688 0.3492835977416229 0.004821261033698531
0.1005928670849532 0.016106555195202057 0.3556603011380108 0.010666209877908771
0.06056430722320017 0.07381919146833725 0.3013547465220947 0.0012903423136928385
0.07615432301981347 0.06184040561551257 0.28559885672155466 0.0012759193147135913
0.050480545460562055 0.22626727596038895 0.12189771817456652 0.011286386048025685
0.054513092776407424 0.20617846878044094 0.05880894568204894 0.0007204154174290419
0.07699517440688852 0.12453896550040197 0.11832990548809051 0.0031780089514167435
0.06970265275037717 0.1077894735422801 0.1694331694980843 0.021568972559229904
0.07705888637887334 0.0931123069491543 0.1907098626692158 0.006795533480606845
0.0901309948195023 0.09984025108008525 0.17101006233885982 0.00012348136504487358
0.08957951114383376 0.12800923703891115 0.0788762300925251 0.0017174341833019668
0.08788108469015649 0.11397208542439437 0.12289596703157034 0.00016082721833609166
0.09956355085986325 0.11761360672921299 0.09967647580567453 0.002765639665758076
0.11454376633609704 0.10156808829037682 0.1235622204800589 0.0049624590839376335
0.11339706092950469 0.10980858628726237 0.08547734416931131 0.006303930125766184
0.1174197395067623 0.1037760457417342 0.09364233776868681 0.0032905184469427416
0.1514098224808683 0.125701258591223 0.03748291318585942 0.002122245802401305
0.16772759693642383 0.13244746694569243 0.0020602845338367516 1.02885497634438e-05
0.16526719184335534 0.08621083023221476 0.15272086470657217 0.0008357403915009128
0.15150013401022017 0.08487313917007847 0.1660263931271736 0.00316405832645833
0.20149430265062288 0.1094348923291993 0.07121988761453099 0.007656158137100693
0.18353429614733296 0.0707562315650062 0.19698957811856327 0.0045792795042358435
0.06621581217411975 0.18065175661574814 0.02712371370121691 0.009666780300976478
0.05191733758605622 0.17887404192730783 0.196433860676017 0.0035681871282686405
0.049683415196033504 0.14220268274547757 0.23727096809887194 0.01346243863443587
0.05029900118774841 0.14877269345733748 0.22265629613468604 0.0007044964139022789
0.15926460485919333 0.06825384407100926 0.22280037937092867 0.0021939911841647964
0.04593846486677164 0.11769395838066714 0.23168431176647653 0.014202822812755471
0.04667894138898467 0.18749311888955159 0.24562969044874933 0.0009191424151456898
0.06944292352264174 0.45280579084244793 0.024572639958001675 0.013294198336146569
0.3942805558824873 0.4233975541205582 0.4749770324753026 0.040620338004751295
0.38490425149688073 0.42193316280336207 0.48529672593448653 0.05678620615655872
0.01743418865364698 0.42555166959284413 0.4681101994302906 0.07434919396491063
0.011532983068385103 0.40258387334835116 0.45203925117671173 0.022863961298262014
0.006820232323191561 0.37991402673684 0.44133478874269894 0.007171418234167171
0.39868980420459266 0.4104151940930229 0.46796559259969595 0.012877674597114003
0.3963932130703555 0.35571845757237414 0.42087576484928846 0.013239517199035615
0.404103388816252 0.3698336414208282 0.44411193817112593 0.01544504016327994
0.07429809189675747 0.40549681635322643 0.47158640063169344 0.005280345378544862
0.09247067310356072 0.4200251129905868 0.4828920916670548 0.0072015391267018815
0.060625546392862856 0.4093992404492396 0.4740910667756707 0.010004800065497215
0.11016065014615875 0.3909795307002193 0.46560938840735344 0.005531788485570219
0.0738128404488552 0.41741302985780765 0.4781121081438968 0.009298087625991557
0.12028686433953839 0.42268861995502693 0.4819786194646783 0.0038211535571032722
0.04008041013545671 0.4164980713486756 0.4827738307114403 0.04405658996219979
0.3776127629706208 0.3941199952358488 0.47205807016731266 0.080220427317997
0.35594415163828275 0.4279010354126128 0.4889525292491419 0.0010082842083552499
0.3988999625329215 0.364818786099036 0.4519013088388671 0.1254437029289996
0.349621204985017 0.40285062195250615 0.4764922947183139 0.004360852546923928
0.30818058632391615 0.37716461243484173 0.46496431235652114 0.0009004667475672164
0.363580456540714 0.36819124570704714 0.4582525892537847 0.018826951371556003
0.304642729595329 0.4023323347967399 0.47239310897881504 0.002348633443484496
0.31166218235470594 0.4112579915089082 0.4747741422298882 0.001348474502971482
0.33060414026238377 0.3729341284028182 0.4654066611458207 0.0025049525086103773
0.2155834858196546 0.3666470623913054 0.4607253451156856 
0.2682116621881335 0.36448345766925666 0.4540872379916237 0.001657987958305344
0.10194890520571555 0.3660311970673332 0.4546835522259115 0.007155282481386892
0.09940525295926733 0.3883753067289075 0.47032196200168425 0.0023026975862388307
0.04103177409627571 0.3763338129781694 0.4639641077972377 0.0022010722818158624
0.07880244703163607 0.37115617614620733 0.4567526694066716 0.0069343405834151285
0.02586051631650861 0.40619821330650036 0.4694905300094882 0.052299872917827735
0.055214320365635346 0.3871171730853554 0.463140611537423 0.007710515575849083
0.018290591806450714 0.3809018052649726 0.4593600430718953 0.03378447673907897
0.016258666997477546 0.37780855931109203 0.4525139915072693 0.02510106640139061
0.38616377589299994 0.12328960755298916 0.43983107117237547 0.06542663973261419
0.323019737688338 0.11211458052976792 0.44220786394017675 0.0002844837919682705
0.2970783457281126 0.21476761766798189 0.4463456787061228 0.0006849167421304857
0.3272842085797582 0.2756396775009775 0.4474686950285982 -3.8130640699888587e-14
0.3323642001754737 0.30549985546885705 0.4451976317665805 5.977254328461165e-14
0.3406555533090701 0.13541399777017854 0.4435610046393724 0.00022861415402816517
0.1973271600323678 0.11015221192945612 0.44222178589888894 0.002398244858345493
0.19913630888644832 0.2319399494586969 0.4424548067760172 0.009550013743527812
0.11031948612880216 0.18000124409158066 0.44636578273604366 0.00040958525479744585
0.11591031260766095 0.08887649988317707 0.4404922355618625 0.006739105783848473
0.23809003666553022 0.18933491453987927 0.4423128452973564 0.0012592988541234224
0.26584245252162814 0.17811173888207318 0.44296874727554963 0.0004999315307439136
0.22506629494209796 0.17474611292940978 0.44504223877024757 0.0013636618124308047
0.013901603209162377 0.34764849058824365 0.44652589509797647 0.011233387977855074
0.11991750719207728 0.34460787859050335 0.44824952549797853 
0.17650600865361737 0.339974396648546 0.4482533251942383 2.3105842503172378e-14
0.1381042108515486 0.3479023873085101 0.45104159048745035 
0.17851339987308046 0.01310242437812021 0.4401106743513911 0.10208969636602368
0.20060769040110574 0.03222265234724958 0.44284434920796684 0.011171156393939388
0.17764717295661747 0.04987675654804355 0.4415501753085553 0.005067806343977091
0.021918056235216254 0.09936964884129533 0.43678528741993117 0.05765699272376243
0.009138931326150686 0.34702724577919813 0.44266103028225084 0.007585561438861413
0.011701744936872892 0.3622096231461329 0.4343641104322432 0.01077560448461499
0.013301104433181178 0.32541267603156604 0.4368124844366899 0.0916955153108301
0.009271799019635173 0.3006380249448932 0.42523067564114414 0.021052055138639957
0.01009930157089264 0.265320622764921 0.42673460003294145 0.0324392686563163
0.0036386296476359752 0.2452550784023037 0.43156021882692897 0.010944042865336833
0.014297603031272635 0.17152041865014064 0.4290423384508345 0.021307138984148648
0.007837741781291752 0.15039244471928107 0.436511846070088 0.021460778720449044
0.013027840239692862 0.13530404047054942 0.4364140404727303 0.030938513415843645
0.014839680676562198 0.2013719959351868 0.4303446196521583 0.021156523230282092
0.01732694956094073 0.15142706135414927 0.4403607424372066 0.04132985858849617
0.39892408545410485 0.30518578027531096 0.4366189672396362 0.05542864090437698
0.40003562123358016 0.3355147537526734 0.43004820861682225 0.012048750673825744
0.39768272732613724 0.3155636185593848 0.4194759668811052 0.02341966407134982
0.39857467425588206 0.26369415581790734 0.42035293387487255 0.04456920122466226
0.39805333871275167 0.19186627400829298 0.4167047634448669 0.02163756521117106
0.4052285909770897 0.1560503165843568 0.42816201402598847 0.014136378656478531
0.3963913338409389 0.12209229234851533 0.4311964639169726 0.04179959978654852
0.4009581158380886 0.21724385795422343 0.4232739024640879 0.03485528644760094
0.39256990307694273 0.22466582445872813 0.437655721105528 0.048600888803280284
0.3655094435874436 0.2891557314270744 0.44508514997921556 0.0060597001886568734
0.39478994255992017 0.28564524304452743 0.43805556559302217 0.053069179517587425
0.3835968067264516 0.2966675100506883 0.44417265738708517 0.07368083299728435
0.367337083006706 0.27856363383169563 0.4445095643774719 0.002549027492718667
0.3806963348262323 0.24611836578111052 0.43602351590360955 0.059527076424457356
0.3892108999704863 0.2596770957507039 0.4365993276254847 0.05505682268543603
0.36806225246447194 0.2507370345258586 0.44278999383140855 0.0026278565256993083
0.38482293973269693 0.19685233496132956 0.44229389564392024 0.07338185760999671
0.36364839771419766 0.1730503547829181 0.44473522716376696 0.031215243018106954
0.3678873861876394 0.1978230501839074 0.44491857428037773 0.02476459532416392
0.3866101416089305 0.15357564588608794 0.45196682119277476 0.0253582189254751
0.3975384913024196 0.1415584017040669 0.43351900697947143 0.050554627695334246
0.35677486131326375 0.13185078652908688 0.4435860318170755 0.006515207038543771
0.01870347490225578 0.31452323964750994 0.43791230839746953 0.09173697299613878
0.02293217650231105 0.30415929117310536 0.44255281982976685 0.04514819267872855
0.04627298059570397 0.2523857172412917 0.4500425280815282 0.016805511713360647
0.030112794383126716 0.3060200814828694 0.44307639930556153 0.05437483339360225
0.04241280891068156 0.29089080568718617 0.4460935764771677 0.03497136032305106
0.054793699863320416 0.3014093908916193 0.4522061135462947 0.0010622720264489931
0.023933143811119564 0.2342327660514723 0.4435394374670207 0.019354374139892744
0.020692127757989887 0.266211843399308 0.43469936079098215 0.06080625463334558
0.015123655148305996 0.24718127873627818 0.44315194921713086 0.01246586265003419
0.03729651789848958 0.2140614700566089 0.455364458241654 0.03706152592596219
0.055154616577655545 0.17591361122886118 0.4469659813781727 3.580543551741349e-14
0.0325265079792635 0.18939968617140898 0.45258507342668197 0.02840923873232852
0.06669901286325086 0.31916796975150036 0.448572027500566 0.013202341981749698
0.11209121120768531 0.3034248436597647 0.4478838348587195 
0.10235976020232507 0.2427303519356586 0.45319835340426784 0.0004989361731869961
0.26009260855509786 0.33527837042454384 0.45025647153750825 3.966286447613651e-05
0.24102969312063477 0.31835815777442705 0.44608948471828835 0.001254617047475214
0.20702030272816555 0.3277952529335277 0.4537567014379645 0.0010290887707087618
0.17827702278139118 0.3208336695578211 0.44612314130971653 1.7908139674607202e-14
0.15718090979317478 0.30319533235934665 0.44774118169815663 -3.7179143653218243e-14
0.15476282501609195 0.2687278777211276 0.44557003106932624 4.9377444913719966e-14
0.2639770886542755 0.3182181874833258 0.44642676814272414 -7.241924362197955e-14
0.2472446003272421 0.30068941425309104 0.4437768530950355 0.004674494938908513
0.22411890714622212 0.29535708571366065 0.4482922773627282 0.0004460151655471054
0.3263353854147765 0.31844909131696847 0.44921621167205256 
0.3021553468675455 0.26666753602298526 0.4452522221017296 0.0028657939322563656
0.2837814411065179 0.25924113612840394 0.4487265022485516 0.000962797228854808
0.28292436832050416 0.004957104862624009 0.4405942154808546 0.1120470941180763
0.020353640513667143 0.2815512235688998 0.44319694716255087 0.03147608241761393
0.014853691055733562 0.28740622364511986 0.43091679812593014 0.05609954573259773
0.01976506449706137 0.11681515563681835 0.4413021877364062 0.035414845813318774
0.018299955863997533 0.22053054872460356 0.4383932538347504 0.04233844965902947
0.016616699065512167 0.2080395769278505 0.43777030142027 0.029464976967879482
0.018312030381709463 0.10939323909731924 0.4421093026458548 0.02860461204448655
0.02287675025075941 0.142400233798074 0.4411786712971187 0.04759714135115424
0.028945336341043473 0.1345268272056287 0.44219753998466194 0.12098256671835395
0.012167187834444714 0.18304393110752235 0.4392336747127601 0.018338017177024206
0.39776134632219234 0.2183552376029952 0.43118687543139067 0.06396707137884321
0.00918101933914642 0.3470354690812615 0.42409871725440573 0.004375994793886101
0.3874457349148727 0.059437832423075244 0.4213829144398154 0.019046090389217278
0.3517941725339663 0.02077951831842421 0.42131185176590547 0.0922875814583312
0.017677121869265816 0.06932945948879737 0.4233375560624723 0.014602294047993842
0.02732614708027106 0.06080068445378357 0.43675076148618264 0.07179729120465343
0.03705249712074674 0.04542566228996133 0.4269869158672231 0.02598540644593472
0.057944288942173044 0.02633907905774329 0.4421247519414316 0.010557871855133887
0.10424230205180506 0.0014705173243914566 0.43285464940591006 0.07173189105583015
0.40174728623748523 0.2543169831400656 0.418227641858365 0.02317821797658904
0.3917733555924996 0.31426008008501505 0.44307373329554334 0.07516784811655608
0.39730848367114385 0.19027080507297206 0.4420563237767369 0.05306478375717857
0.4006612729654618 0.23543465455823248 0.4336594718520042 0.063031728625439
0.3987241019701771 0.13943433983481646 0.44482198727104666 0.010699811472254078
0.39640676531914365 0.17198629606170648 0.43239580504966985 0.08941083855664568
0.3974505670978872 0.09037119447829728 0.4185261133862068 0.040139845866932755
0.33125561084307775 0.011642928133452428 0.44525871792888516 0.0790371477911841
0.4017688330612935 0.1123922304415271 0.4246776643008494 0.040403618058669044
0.2999150460231606 -0.004287485615187313 0.4352637657855732 0.009813316669606298
0.2831628555642425 -0.003999389836157033 0.43791645476538116 0.025391703441394187
0.3781023887214314 0.1101133118233611 0.44270787753586077 0.04460005739180764
0.34865250442395107 0.04659987675868757 0.4438261611276188 0.04608812906831872
0.32414114960126217 0.03239297584751756 0.4437067812913949 0.11720817424476267
0.3523492508508882 0.0933629142319136 0.44219068733384864 0.003226946236435254
0.32505338401079137 0.14405779486562295 0.4428972173923173 0.0004624575953208394
0.29756533338082997 0.13881251226558144 0.44467575089167993 0.001344297172973085
0.3010813012366881 0.12230442208606043 0.44399766353890247 0.000984941997190287
0.2924550248304765 0.16933294881982036 0.4453669947677012 0.0025606493742211613
0.28057277414428367 0.20213670719665505 0.4429768231697698 0.0004248971762559692
0.2984054798464116 0.1985009396211059 0.44435255857574635 0.0005881902665494758
0.2827622478783336 0.16918792412776512 0.44502397565923474 0.002555393070519158
0.28450024705932836 0.09186411494517484 0.44577073470676487 -3.53717662445277e-14
0.2472896402163225 0.22104721081519194 0.44242152309607635 0.0009135634980111867
0.25074626299859626 0.25378252535470286 0.4450976270572545 0.0034092480868604808
0.1695547671353688 0.2432287608253476 0.4493265147876456 1.4308321701850627e-14
0.3453204325075232 0.16409613535088324 0.4430375617745224 0.0011891647740517937
0.3355529194298582 0.19537007479838708 0.44934028372108203 0.00017947326164776713
0.3160614275689518 0.21895521636090412 0.4465255076537648 0.0015139897059512062
0.341419467870635 0.2278916913363528 0.4470373831520875 0.0012507190492865839
0.3325934685756004 0.12374390221329146 0.44342000456032254 0.00043213511749718613
0.3139720389207612 0.05547321777269214 0.4486946327611271 0.0002871529736795116
0.29872553036535227 0.060212122936234506 0.45056243303946236 0.0033914926238454352
0.2751321610001493 0.03388492817268233 0.45315571355899664 0.004632642065467788
0.19223719256112723 0.19874873654326786 0.4532564653305963 2.5796717092453475e-14
0.21326334708897102 0.21089230880490245 0.44727210607588624 0.007921151873564616
0.22727406581503626 0.1529543758576155 0.448049581809964 5.180366734676865e-05
0.1703397832421474 0.16366323796765653 0.44506151255383614 4.903661574538913e-14
0.14187723854736853 0.16946269795271468 0.44659944254023015 0.0007243892366632621
0.12783879830977285 0.19261552655174374 0.4469746292277093 0.00039965865823711147
0.10223477279609958 0.2192664022652608 0.4467374351205132 0.001972547021310206
0.10197127096924971 0.13175988338084874 0.4462398639455405 0.0017420190643827843
0.10229658973904587 0.14629466058945503 0.44635129819048575 0.0019477645750745527
0.13919620468617394 0.14052577629686366 0.448573837639889 0.001783997559804886
0.07557039944762124 0.09013487164350882 0.44729448310465103 0.0017861913951859485
0.10400162545066416 0.11205810526948921 0.4421078036032424 0.005591508178251987
0.1043900859639098 0.0976116284689353 0.4410539612062842 0.004456737741071809
0.11982976596271325 0.11175998891787453 0.44337169893455525 0.0007756135371448457
0.13635696016331883 0.10431395376005782 0.44560122553309384 0.0032987430471716505
0.14203836471436332 0.09261710363070429 0.4425658024643606 0.004484703186336204
0.16277335333597792 0.08197329957462399 0.4413519747884323 0.004129882896450591
0.08357376500704419 0.07429145095223706 0.44637388813002976 0.005498712033456358
0.14824471605132136 0.025429853137488762 0.44922374766707235 0.04567569242545976
0.1687954688514613 0.11367026489191193 0.4395560307933546 0.003682477122076516
0.1830978252232214 0.0871375523152438 0.438829766558865 0.00041176836212159656
0.21285456638219055 0.10430412796019754 0.4440127747270378 0.002191635987975639
0.06702729444195313 0.13133410554057623 0.4452363199771964 5.671146225526177e-07
0.06636189165945795 0.13979149202103375 0.44436770780119744 0.0010231288439484854
0.22280117739769983 0.1296345896380613 0.4420688077779245 0.0006525901344541766
0.21072112959286224 0.06131508404406971 0.44422919779184455 0.002404418744282989
0.22522353338256365 0.08173124373012494 0.4478271368692306 0.00020151797828889956
0.34608652899652986 0.1252593453648308 0.4430319042307994 0.00024058850667172033
0.0818144856850631 0.014678065571950514 0.44619427858358673 0.04868283985575244
0.10223435782163835 0.03811099585899697 0.44421070653102274 0.019279715375071994
0.06297032983307232 0.02874168021621798 0.4455020011154774 0.02194248913730395
0.12863488896559455 0.016048158406463765 0.4404512261414745 0.03301036858729533
0.09986559008844276 0.015724525902134294 0.4381961473597599 0.07207801469226825
0.15296870138012364 0.006505135263115584 0.4425314155924423 0.0733048610333195
0.1546039329719282 0.023586779302249516 0.4461282335495749 0.0449938473970658
0.18800571342179365 -0.0006496701326921105 0.42219206880476456 0.043422065888850385
0.022631111322843688 0.08268810233169108 0.436230386979352 0.06831593267784099
0.03087417277666682 0.07788816984693354 0.4444849382744483 0.03960206511089052
0.030559442556376146 0.04881234656038964 0.4391440724814276 0.009737654238934896
0.23971147637681214 0.0015188019420237528 0.42568852672481605 0.08278881083635645
0.21569975047750176 -0.006727056899923187 0.4347979402909788 0.059741060692262496
0.20585028502422734 -0.0012063607382746626 0.4326529339256706 0.09371879462287144
0.19956522890398531 0.0017423088533765328 0.44102748302723893 0.11687844281025322
0.167362609888395 0.002849829891513029 0.4377576756053779 0.0783822050861314
0.3916728618558923 0.09589846439304338 0.43869958236281714 0.07365271457532722
0.3161873726674737 0.0053985643581012715 0.4444040436025326 0.0809420995458114
0.37828855688645785 0.05863252705013283 0.4491240620097557 0.04622601101664608
0.38076936251722304 0.07716531220767305 0.4427759051544804 0.08221418742107069
0.36049444559469707 0.034837135189971016 0.4323233687875306 0.06413244453535026
0.3654720520982311 0.047164588255609555 0.4411289274081089 0.0456126117632942
0.15679723576468496 0.0005331688138471061 0.4433510362601666 0.04187828652035125
0.21925915541659843 0.00022749695683542913 0.4417552729747743 0.057678957274842874
0.25752030601150655 -0.0026858546367935256 0.44236397877868855 0.046685172750921225
0.39038851578308803 0.34067374033105363 0.4584457459058285 0.031894815817823524
0.04998679775056746 0.08394703737278592 0.4437591728692609 0.007343793125872399
0.13640958592836774 0.0055697714259423554 0.4370783640115086 0.0644807113897657
0.28110211714380323 0.13910138195288438 0.44881644584679214 0.0003901632147830829
0.26439719202190876 0.21245608176400438 0.44397975935063927 0.0007254191134358819
0.20418151786272543 0.09177546998468483 0.44419153434987424 0.00045400102895085234
0.04830786317165736 0.3190323019164063 0.4438429753625657 0.004247995495028246
0.024169966799532618 0.15156815777218466 0.4402628743541954 0.08746244368556189
0.1310642793523337 0.27557289539917573 0.4499257230750318 -1.63704085638073e-14
0.08106751826781732 0.24503842391849764 0.44743311371584743 0.0007271439923281156
0.07436611014714538 0.21918071551026225 0.4466168561198954 0.012272350279299842
0.07939530926435821 0.21298054071463685 0.4453599041206353 0.008664410376817214
0.09628489240599533 0.1630332659410531 0.44498691797524964 9.06106128257032e-06
0.21210560202124315 0.27454162990719044 0.44351486886801167 
0.11244976091612367 0.024829398746425327 0.44077582997701226 0.04655111954618283
0.13128767606043595 0.07032800342109127 0.43993802084535205 0.0001947399251212944
0.3385959776175149 0.25005612822926937 0.44610907062879934 0.0016280181778312102
0.3008335991893207 0.24335444438914558 0.4462495475685263 0.0023489311691536146
0.276228546320533 0.23346608102853178 0.443458248785715 0.0008363298909382493
0.2732675503488931 0.12093961567434286 0.44749115157873104 0.00018951135693183186
0.2843380917671958 0.2748041786489968 0.4456295372902459 0.004071061540221869
0.32876805998100495 0.03918700798727031 0.44353366471441374 0.05343178011942973
0.16406215020670833 0.22512463451722994 0.4456018583464325 0.007900744673243382
0.13466263956975247 0.21977348769766303 0.4498584046666162 0.0032034505504831873
0.17089703532371628 0.12993434632936113 0.43988657726588176 0.004819033289926554
0.21119460406998333 0.15410614058439584 0.44844045729084864 -6.449976155001918e-14
0.05432974835966464 0.024039311726712344 0.42177135046584796 0.006753185295284608
0.014975186683509365 0.09554568187938975 0.4252158072616424 0.015676507196832536
0.03153367515498008 0.06449956146376555 0.4411498984206359 0.07459612453980671
0.05994017656407095 0.03635027409991766 0.44608482571078784 0.009151174349642292
0.14926020564678513 -0.00250741388834921 0.4246682021135091 0.05135695646712744
0.39382577491687987 0.08276081639711179 0.4393702237036141 0.034533247216727764
0.38763410399913867 0.05552124858685081 0.4420613668596649 0.05602995964652065
0.35043402812003777 0.015346628323558821 0.4313973251190378 0.08582441634337269
0.24680951537336585 0.029061846787191155 0.4447299492471405 0.03914760129603385
0.25382321890510434 0.009105931998895166 0.44735870321211346 0.03528225468514703
0.24486808584354366 0.051754647913999245 0.44819587606868067 0.001909231456183493
0.20187301765733806 0.020842844288516668 0.4432925182939365 0.03407756536015697
0.23667350062926773 0.0017758398053333698 0.43126026610288315 0.07384026186120196
0.18395142741141754 0.032186886687213645 0.44487497003223153 0.007717383503685505
0.20975639215653866 0.03795617568824398 0.4437793993652559 0.0016740846420630368
0.41225963583247793 0.5687132311945458 0.7752880319735846 0.07094050368018376
0.03939888502375144 0.5583590807253507 0.77585609564182 0.010875745879246623
0.4086364252468631 0.6788092623748079 0.7767000381673099 0.01954733108732115
0.41032487682224006 0.5997867602632835 0.7625211826500037 0.009492184967657118
0.4080787797194953 0.7117896627774585 0.7047067564630284 0.04412027218778937
0.40041727948381495 0.7166987459010362 0.7235999163437886 0.05743504923481527
0.40247641471362183 0.7160750894184402 0.6324792798895739 0.047638357544590934
0.39973880453247124 0.7148335069403373 0.5051259293495352 0.014260343944231486
0.392171054249858 0.7093516527895642 0.45249679089188916 0.04603890651036403
0.42373318339167826 0.6786567278303747 0.48895428544013625 0.000986242113624593
0.40335297640161843 0.7034158888612 0.4968159250417456 0.04730895182574346
0.40418721790353196 0.6990315131883161 0.5881583145391744 0.03785806818491869
0.4058739843328298 0.6434580966456523 0.47231562895635354 0.0086966147943417
0.405571429092691 0.6600410534491539 0.4548496955857972 0.002016944402163739
0.4030692551984313 0.6865923118056142 0.5119740490338104 0.04387165684448002
0.4052131419154564 0.6861340627459265 0.5741401185146515 0.02188996879740669
0.4037705425830039 0.639572204950165 0.46281877125048726 0.01361010787726145
0.40154135012786546 0.6863386472261841 0.5626670427095363 0.026909587169312906
0.40642135045699396 0.6782670084874144 0.5330493912602244 0.01974244250990483
0.39961365015832845 0.6452806107100967 0.49802326317751894 0.013029049545729898
0.40929388440197034 0.7080221425023128 0.552760085449493 0.008634541481894282
0.40532216647258545 0.601544583814976 0.4812335450557814 0.014047230015890559
0.4018053746911696 0.6583656882387463 0.5113036957917242 0.052265907892858815
0.4013159753826149 0.5942483577781185 0.4644718138533632 0.025655738495921867
0.40643664986363165 0.6317080861216561 0.49402321869204885 0.011861277173935007
0.4022871192981099 0.6978424848280765 0.574024959913644 0.019340258618756413
0.4011122149400565 0.6584165384370428 0.5275711065550639 0.005366686111605505
0.39898042286015384 0.7051555802737102 0.52007504857707 0.02392004743856554
0.4034416039218258 0.6661723970735972 0.505261094370934 0.04868255970080125
0.40225601169504743 0.7068256535643985 0.5821671069612109 0.04151886650753305
0.4058854119797352 0.7045385502545252 0.5379056733331261 0.015321138544543318
0.39965141793460623 0.6156442597580295 0.4776444220077502 0.010798482859715703
0.39939928501968347 0.6143182007986315 0.46387996671596043 0.012321444895449058
0.4031163079257389 0.6962698497252238 0.4605758843315382 0.03188974181245976
0.4038062848876713 0.7116771571187254 0.5955019464951039 0.02984987837962683
0.40455803472283397 0.6700923115223183 0.5129970425058623 0.061521771487747165
0.40652349606148275 0.6380187683029197 0.6521505958417875 0.012826386058847306
0.40756259617401736 0.6115002949220654 0.7137476642100931 0.016165345617385855
0.40125751591897796 0.6602818011060231 0.5821567254343261 0.014980218588489655
0.40899655020209985 0.5995758464564752 0.638068145361232 0.005689841557138005
0.410343852855895 0.6163260392562002 0.6705109690599574 0.008647730050707758
0.4061800045693222 0.5767094177517812 0.5831481988627183 0.026686087856249277
0.40832060708282225 0.6711336700448521 0.6368855343101273 0.01467173326777123
0.4131973506612001 0.565150043040508 0.7229782938488056 0.02489667576355266
0.4043584688318828 0.5808938417533817 0.5064315222592335 0.025906615790860087
0.411415710705665 0.6650970668483548 0.6336286276504358 0.010742897642094133
0.4076304013930597 0.5901008441640517 0.5439481256050305 0.014845268011205701
0.40915463337173763 0.6381026510294229 0.5515780448183303 0.008124077761967429
0.41065429437165013 0.6297637904333359 0.6368635217283575 0.011140259794706415
0.40390354073904716 0.6038034877834355 0.5764948779812349 0.009722372372673668
0.4092661954626975 0.5714929925294359 0.6524030109466772 0.04615172436164193
0.404628286431198 0.5937024611368635 0.6038243269495142 0.017352875985437336
0.4091893413084695 0.5833275111916678 0.5395092050791328 0.01724273430392297
0.4063375192412884 0.620722441722438 0.5451712878059264 0.007511759050904629
0.39897690931219326 0.6126021860965137 0.492637391930784 0.011881247082235698
0.41411524200371264 0.6557830547633869 0.6271070303939424 0.00681689263061009
0.4039717295847469 0.6560042973785697 0.6516489142466476 0.011531849305881142
0.4068509150209678 0.6329789355791184 0.6616977363423249 0.01542804909530008
0.408369235810067 0.5809604934644711 0.48466503301541225 0.023576968098153395
0.40462250942249395 0.5975951862062102 0.5411777420700384 0.01409015720549775
0.40854072699589344 0.6876594967096027 0.5860559969643622 0.02206121804287164
0.40621017606095866 0.5839750997965647 0.6133304352985628 0.01652827154376603
0.4141741013733178 0.5828362515626863 0.5617570332537853 0.011225177407555196
0.41048253539299145 0.5780916748728966 0.7077074371281556 0.05147365790828831
0.39708452718268233 0.6563031529122418 0.5690675662180296 0.010554104254262203
0.4065003974789553 0.6186207126103578 0.5629153507135297 0.012237015463094272
0.40856046584779954 0.670063037822313 0.5516775378042924 0.011882577334876802
0.4028623094345812 0.6018606791020289 0.6557416467874927 0.004052337060983003
0.3992866824644838 0.5930610390616304 0.4977143500463006 0.02110620469733686
0.4002337577613949 0.5698703084585139 0.6063455660036948 0.07728503114770202
0.4035263181910219 0.6763899890569296 0.5809564994008716 0.015953875088500956
0.4102861410099377 0.6268861746878122 0.5168248431019881 0.006429066955128456
0.4028307901985156 0.6293536632480254 0.5617447307411941 0.016124479017617085
0.4062926480921344 0.5884892973496486 0.7171202441682699 0.047298962063312765
0.4087530966883931 0.6237026778788701 0.6668531006845251 0.011609332207100809
0.40890808659273836 0.593810192725252 0.579985243529898 0.018590251834800904
0.4101084175450153 0.6344009949974349 0.5988137857237482 0.008729222673812978
0.4079971853018769 0.622580165467983 0.6819425443392403 0.009129764686902173
0.404741818461965 0.577309899949424 0.5211671740839594 0.021903086107521834
0.40275039577782396 0.6043063750195031 0.5126725429723037 0.00986437877651452
0.4072508053246383 0.5864470411905379 0.6323397833077664 0.02344424028499618
0.40696452810282974 0.6055398545427785 0.5297576592685533 0.007933474723912372
0.4017242968250306 0.6409266733168091 0.5830871730126553 0.016671537474752165
0.40248079812133364 0.6199935973373335 0.5842579336184588 0.012824910550835613
0.40145799736824783 0.570099892657816 0.6154402037303905 0.05865066468943246
0.4144117872242339 0.575396171692924 0.6837229614627731 0.026201258185152718
0.403076022884611 0.5741727454862375 0.46509969568224174 0.02051487559002311
0.40584771068197967 0.6228351198941329 0.6337237091011522 0.01017667134312097
0.4130320955862602 0.5983701637538785 0.7060705454089359 0.011809035674683619
0.4064096531135891 0.5957042480671519 0.5865317666291759 0.024732997015928175
0.40892760629146924 0.5815277777597266 0.6359805294733236 0.029503647077438376
0.40444246202265116 0.606277908247585 0.6044433114912574 0.007230298152782593
0.4046070267400867 0.6177991610009487 0.571706173786309 0.01281994159537029
0.41317855011594035 0.7020329524091885 0.6113080785988498 0.023007321310362833
0.4092324702024077 0.6730049743028814 0.6012172900312355 0.009725138774386695
0.40308692246436867 0.6821678091253324 0.6139495449108365 0.011856151507259978
0.41154131056931287 0.6143735299820582 0.6603891476056313 0.008895313810551558
0.40808226690596805 0.6046277427648322 0.7189062338955015 0.017931370166006263
0.41443553683109585 0.6615503239282785 0.6814129438641826 0.006431558779046482
0.4141865794961926 0.686780608765886 0.6875812635377214 0.011470741904827652
0.4080701933054175 0.6825616767673187 0.7226647515865169 0.03621623098698531
0.4097197044783414 0.6918819202736057 0.7469374355100462 0.03153296263747124
0.40944775699586766 0.628752225123546 0.7468574383234057 0.015448352874587084
0.4076012464803639 0.5896652901554695 0.7345468202695202 0.014743750499490907
0.4103218316057716 0.6838922332985471 0.6970570620525035 0.02352948976144016
0.4042377005831469 0.7044133892433275 0.6434866260881945 0.05150135579719448
0.4160190970397898 0.5648707648363234 0.7631362713954198 0.0569458102453024
0.4144731902443316 0.6298074214521618 0.76786090346216 0.0165382493765677
0.41042697943224676 0.5940525096862227 0.7605964427423288 0.008473584556353445
