x y z curv
0.24725615132516285 -0.000692131559350829 0.39171015195493386 0.04179340376530257
0.2991695404625626 0.1775585240319747 0.016602104530335955 0.012388381273935812
0.3048016154072976 0.19084115577061517 0.03112797669492894 0.0049383881944078875
0.07190494306042168 0.07223178887295159 0.37318873723373786 0.005650032754913566
0.061315145888933525 0.08471094685137757 0.35934768787645655 0.00042735376972070417
0.057478102487605764 0.09650668985566573 0.381216231747762 0.005633214093410387
0.11496339561606835 0.4366690266609271 0.23537433267516863 0.017183383147645823
0.1117445497910301 0.4512280317993958 0.20932472606983638 0.019259904771198395
0.11783588276664894 0.4176748605697002 0.23413687784046588 0.017058900948417912
0.12072191166262629 0.4003111295898492 0.17270705304498665 0.004968756214778634
0.11699945245362357 0.39321169700723474 0.15813469837128621 0.008219220731087218
0.10913515481697486 0.45660681930803276 0.26575153151939046 0.02683028796417233
0.09397491581623964 0.2446546902608425 0.018388912399964846 0.011463399927211211
0.147236134435225 0.3529814990427585 0.16470758938915225 0.0006817777061161011
0.09995014329478227 0.3783335009071213 0.047938734776968334 0.008616749188598997
0.11242898138650308 0.44816719393757143 0.14750134588124117 0.002685398451377826
0.10867730703511876 0.4496479517148339 0.16347277386838424 0.0031795972048841727
0.11156774129172631 0.43824780604589897 0.13077855964671187 0.010685540655693021
0.10631894829032172 0.47087758394754403 0.0558300801522991 0.0065742440047244464
0.158045679201936 0.527691719073672 0.16387009574121228 -9.228431327021249e-15
0.14749594175436326 0.5048287858569542 0.1927423413263508 2.4811710910190014e-17
0.13133146098855805 0.22208045107287935 0.12786795374650126 0.001169742346521011
0.1359771941769318 0.19227159715486802 0.10783051570188716 0.009745865337198003
0.05109395023251549 0.22569807685416268 0.31008448483981776 
0.1781973591545807 0.02911971638392463 0.3231485151753932 -8.182310195064115e-15
0.06017687114168647 0.2866368834838363 0.3289049380125006 -7.908903573971693e-16
0.1674379056771864 0.04089302591366106 0.3129254432207885 0.0010839095287044145
0.07825179115916356 0.3045427021098875 0.28072522927557647 
0.08882494233083198 0.2766132675076968 0.26022084197209727 
0.06861662084278045 0.261081857267439 0.2938007234368682 9.572183310294247e-15
0.07478343201601181 0.23856378950917811 0.27821264271355417 9.125759259974928e-15
0.055063316229063 0.20723423803703264 0.29673415826825456 0.0009494977554102942
0.06479336053116293 0.17157824643668576 0.2960805408513972 1.6066687879594772e-05
0.0709884217912934 0.1660883649264871 0.28726090793175296 
0.07613434277168353 0.22853011915930396 0.26684228566171386 
0.11313316769224721 0.3253227480616909 0.2657196159512692 
0.11208082416587914 0.2245668060009502 0.21857037241131702 0.00012445752117838963
0.17510450152713097 0.056402521072496554 0.28409369931377654 0.0007682205341704052
0.18638675471542065 0.058852875242785915 0.27481048460132956 
0.052981472905090685 0.11106369299346996 0.3607751103743585 0.0017050064284788323
0.1637351563150226 0.01031359714335947 0.37098371775336453 0.018304279614318575
0.02083231180723132 0.21803673139307084 0.36143634121665014 0.015506907882566751
0.026216824099548175 0.21571143957902664 0.37418837332030297 0.01272636657769135
0.05950731100663456 0.3286825849586676 0.36695668236082113 
0.03094621109648958 0.25364742993765693 0.3586037868702931 0.011273451907395515
0.023971835971216795 0.24990020415679134 0.3771543724323185 0.0037820927319830297
0.13909816084316984 0.008449559808596909 0.39920905503233584 0.025330372188955938
0.03456214549110277 0.18868755045159383 0.3535630766625865 0.036746132397716555
0.028779383873113167 0.1804253035178719 0.38023718716605437 0.011122629993786695
0.026833589302592376 0.18353967603095783 0.3970002471094582 0.00735236439660539
0.025516876511784033 0.16054184734546667 0.38217898593624944 0.006066145794372172
0.09714955441846472 0.04292997979184236 0.35379829185097134 0.0016602817999922623
0.30270943038943066 0.4290242504721747 0.1589705802563132 0.004561114364934456
0.30057707847891213 0.49615534227405045 0.3098870412196723 
0.3151724124812187 0.2357076760684253 0.017807256187307982 0.01079041525100124
0.30558279868073124 0.23683083224813606 0.04406376579198681 0.006252437066494132
0.3160863565162088 0.3748856428148136 0.060141846585454316 0.00887601868324429
0.31698784485095244 0.44244330705109713 0.0698284285031726 0.006671651705899558
0.263765711781232 0.5164621748886383 0.18939531803398188 0.0006759711474451939
0.2615394091570911 0.5095684700422655 0.17013875793416566 0.0004355366700558269
0.21129815371830046 0.15168142420909353 0.1331940482944291 0.004561012564532367
0.23836759962988271 0.1533670339514229 0.12234306307402458 0.013809892821105785
0.2673491592004628 0.17243014357362396 0.10551443333622174 0.01493302955670038
0.3074209806262558 0.20496348357821312 0.012567796351926992 0.011558309133289011
0.20842140036525425 0.02059188494696797 0.31337860124998657 
0.32473110476213 0.3239251110637643 0.3014448363411803 8.30059422822488e-05
0.3581304622386619 0.2298975162263541 0.29799111006792656 0.007700680716467668
0.31202558734722996 0.33168016821701396 0.2893068687239153 7.072745981976333e-14
0.30254680326123046 0.2689040294791223 0.2249847268955648 0.002697936878757958
0.3926984006421169 0.21288965110155283 0.37174545233203493 0.006747573782309098
0.3910047150532978 0.15829244105352577 0.37570805964441306 0.007998181295949713
0.3231028840457242 0.052895758224332165 0.36578917670187894 0.007056259933704673
0.3295064487760293 0.05678586005447361 0.3687064895528306 0.00859763537832897
0.3789523444139241 0.30081777221996553 0.3757816792806963 0.009794042221494622
0.3675105382477223 0.3084516652262811 0.3619217491416016 0.0023288219702717523
0.38867823745002794 0.2618678631956546 0.362010503076545 0.0013829217512543132
0.34267972005313674 0.08218784647053486 0.34842669221209394 0.004037950814757631
0.34746527530331234 0.07752562091838328 0.37806463906509685 0.00443635213628795
0.27997369302872793 0.020906288442044996 0.3757824293620022 0.005106038444449777
0.38441843269085135 0.18700033546273082 0.36169968044822126 0.016186383657662607
0.21488662228525499 -0.0004788411834331014 0.37597314891278144 0.013526976180448192
0.2741557562042093 0.01763903672074036 0.3619845355925114 0.011229668400182035
0.3499625179039472 0.40714977736298585 0.3958229853393021 0.005705137362628233
0.34684463582808067 0.423569248529191 0.3963821355314903 0.00688963857320994
0.11919589456744473 0.4677393865449703 0.10322396178557076 0.025153420896241323
0.10714222051607271 0.47007263085204215 0.07249199623138505 0.01483497424050265
0.06352972173253849 0.25693206844955957 0.2991564490672471 0.004914053963944009
0.27019122240172533 0.1478211069170642 0.018095601356942333 0.01427034461647943
0.31959775486655173 0.335178679184987 0.31381445347145387 
0.26799352043999997 0.0501095064232457 0.3011251218327436 
0.3620710419970582 0.0965819608511261 0.37956480399418757 0.005555938689816255
0.10609492297848655 0.6219977896873571 0.7798350384299065 
0.08114053321583274 0.6669033552536332 0.76464375519086 0.000766281550427418
0.11111653521658696 0.6664579091062399 0.7677057318931566 
0.09252114403372728 0.6622927949644432 0.7722986037501796 
0.17367113362360906 0.6676044000363361 0.7714862737142075 
0.3969652833756048 0.6600791048451029 0.7558047739687856 0.052099126963724464
0.383984883221967 0.6646755317536173 0.756107638144715 0.05238429078628943
0.3602836939218018 0.6577120853187193 0.7745685490622515 0.016764473450765347
0.401749143181681 0.6200277638785587 0.7675106399536235 0.03953970587675575
0.3944910321582424 0.661455706947496 0.7664799606610267 0.02412697293947711
0.39230541122709056 0.6472535409859264 0.7731565191536032 0.027931452067862274
0.39526263474767825 0.5909799835114845 0.7691724771332766 0.04971824794443715
0.4128944489695451 0.6527370500531724 0.7373965539603031 0.0159014511439843
0.401346894461701 0.6170353960557878 0.7438521527554032 0.013625287218009275
0.400988148196543 0.5983547763530972 0.7373021045152549 0.007286323099181279
0.39996450839802433 0.5564420533150206 0.7390912843352847 0.01844758234547754
0.39670868292289546 0.5802003466619996 0.7392126941156679 0.013897012186394575
0.3954969175667808 0.5986657308211142 0.7460864602556826 0.03985635690141042
0.4096990017168883 0.537008055497787 0.7546700305903714 0.04008868219891077
0.39384899936475887 0.5931981317879026 0.7512620981779449 0.04249029146270192
0.397649875265292 0.5772461460693904 0.7544500753148092 0.007064549929909059
0.4038503359513392 0.5253810247448744 0.765139238226354 0.028903687932253064
0.3782079413845574 0.5269659060467903 0.7747826012552834 0.03089957818632125
0.046251359768175675 0.6677304307183216 0.7513055228533045 0.056916991818644146
0.05084639298040779 0.6638015729035284 0.7682671776499681 0.04789881872470478
0.36875029941076415 0.6569824359685481 0.3869467819205068 
0.3741475542301805 0.6612134226230703 0.44390124584106067 0.006056058571573759
0.3847809106784404 0.639381104056867 0.43874643520578527 0.007531161070182276
0.384370415260079 0.6519610859200164 0.48026655834526416 0.028653359745232757
0.3878336954798539 0.6503296880732313 0.4606766575457934 0.002473280866940626
0.389119971255513 0.5935927883922664 0.4723243823302406 0.013012882235490896
0.38710208168969323 0.5998669682870426 0.47883608781011694 0.015130225613774256
0.3778806683175383 0.5730751408722591 0.4600444328967263 0.0056808991320426855
0.3847176319738848 0.5607036216997298 0.48577751515878836 0.006716607135882421
0.3811819938054054 0.5704101918296981 0.4409287664445463 0.010141612267344375
0.3800953191940262 0.5551834797998149 0.41934834803762727 0.00486596735471993
0.38936044266419134 0.606046050879618 0.45562672759560485 0.013807423912818279
0.3711096554163982 0.6590417913732356 0.411100116462089 0.01521948806902687
0.37268643504627424 0.6023335514372701 0.41223011421456934 0.0013959225915517552
0.013602178889514493 0.5336481135311905 0.7054078613685265 0.02261904151851101
0.021403040722503857 0.5331102220014654 0.7247831355465874 0.024388857342589065
0.017218469998462424 0.5441536987752483 0.7017239790584558 0.017713598323230915
0.021877705782993324 0.5124948335873405 0.7251077758509742 0.039018736854425355
0.02602730983187432 0.510354838476608 0.6506398456797591 0.03779650165151581
0.02314974804500402 0.5290253066438761 0.6520216782632027 0.022791909008783733
0.02124368592263101 0.5295585412295439 0.6680330792599445 0.014621624540199437
0.013534655583882133 0.5255775413547141 0.6222654291212893 0.02464706808103642
0.028086155115292416 0.5448585557827419 0.5853679187098735 0.01881956460379113
0.028535263243009947 0.5378336966298767 0.5557635685730162 0.013361857660217429
0.029667173378256577 0.5382756061464478 0.5279430414216827 0.009987734190905165
0.02830334507309676 0.5351712644457419 0.5319371327978899 0.012347297459053937
0.028469866791005268 0.5483833406887352 0.5441454662428937 0.013036927725431462
0.014281391112043657 0.5232092333808379 0.7117815338579041 0.022207708416194512
0.400471698021498 0.5432402366880601 0.729173928894579 0.02845450774277944
0.39883549546516506 0.5115488016291522 0.7159106976236412 0.03509886866946214
0.3958532061459653 0.516791075252137 0.6455243726562391 0.028243901906155246
0.4004676434001351 0.5231334243381597 0.6523925535859225 0.014130969112675229
0.3918434098117508 0.516518762396622 0.6238087031125357 0.031795904669756105
0.3788209956450875 0.5125203179570078 0.5957970140677434 0.014417578369984621
0.38089883535882696 0.5234326030209546 0.5629841268483289 0.01352280498320578
0.3838905191869964 0.508039211014434 0.6389620368629646 0.03151078433498856
0.386157694032378 0.503498563057998 0.6566503942210478 0.026208095354804405
0.3879583195005465 0.4998298899270284 0.6751349869875717 0.021491559628749414
0.3929371500065579 0.5082386503906441 0.6837181603388196 0.04207008378650523
0.3954506644498546 0.5000397295737101 0.7114726228839819 0.019607431266005677
0.39163086205807734 0.49750030252151567 0.7156848529514901 0.030096705986597912
0.377806877660025 0.4911442106564313 0.7246958276399361 0.02364072150537692
0.3883797256339707 0.4867465505305737 0.6899514230369765 0.012457531748025689
0.37430067461263916 0.49939464593313426 0.6279503269615972 0.02845356875816199
0.37526515718547737 0.5026796335739707 0.5637458593695398 0.01930443438764309
0.06059104201867589 0.4953689853119713 0.590035045831308 0.026110148067335626
0.0585636718710971 0.49039853292795116 0.6327778496183274 0.013988300068318683
0.035889224231405045 0.48741481995455715 0.7053799170595153 0.029194041469628243
0.06449654167461982 0.4851190938309755 0.5213726555128724 0.002795042572180674
0.051260552596813835 0.49180355443739343 0.6842863659493604 0.01540532765298978
0.05053522338992553 0.4884712868882431 0.7133626950013073 0.032935746478651176
0.06520976588405195 0.48422373631046356 0.724809312111524 0.01888016919164404
0.09533834581690748 0.4787272577862426 0.6252276827031924 0.009678586345006098
0.06517522871243431 0.47977712232349057 0.7407381993172409 0.016900339975477383
0.11729141551956053 0.4716698572020954 0.7271168733219294 0.0091468960744604
0.10685220219515791 0.4716886157763534 0.6974187539260298 0.005100622837925541
0.10696040042076581 0.48187934869743504 0.5634750425857029 0.013785953687041969
0.13156004827576814 0.4731430134149609 0.7332235665650759 0.012476008999261667
0.12495234815728562 0.47884303233387 0.6599320802120208 0.006710819939826917
0.11361515032685963 0.4737509387006236 0.6110912941851875 0.0054185011256029075
0.15059816110718102 0.4780962510126253 0.6262446649266483 0.021487678531058017
0.15031518553238876 0.46953410030887255 0.7299815934020744 0.021881803251366096
0.15520208184963655 0.46500862782383506 0.6737155253114501 0.008327326508767925
0.16027557718901253 0.4704679526949705 0.6939328868456354 0.004933496918907937
0.17040933991701365 0.47214174008566634 0.7263208735105177 0.01779493033888856
0.18819026484828727 0.4692049289597293 0.692146152101265 0.00716069209587104
0.178193102085899 0.4712622245688267 0.6734213806128451 0.005958278179413548
0.18008138099064594 0.4785556675647413 0.6250415027553043 0.009701625880433303
0.1783789043558934 0.4738119999523393 0.6952366122525212 0.004628988819437236
0.21163585230246024 0.47043511497315726 0.6470926144036525 0.00977392949270793
0.21858925670137672 0.4700256239349343 0.7218279238187462 0.011662420439740638
0.20136149879794482 0.47141479685174603 0.6695806522442314 0.003503321469821655
0.21798024371620214 0.4694042320008486 0.7254789850388783 0.012565173823232191
0.22288598505804452 0.46646605043285816 0.6095378879560084 0.0030809308964358825
0.22518490897292667 0.47085702744272295 0.5548829382849017 0.006017611203911212
0.22175796983275275 0.47153059451508295 0.6411266423966594 0.010189391378791521
0.21533188412389856 0.47004906435265853 0.6281565009209268 0.007513350019417881
0.22602395901370131 0.4705119016747208 0.6805261116563134 0.004298608593075208
0.23778332313069445 0.4729753488224939 0.5052523180697269 0.003167100312926894
0.24646722920867142 0.4685605086882491 0.5988933497489094 0.0034027202443193388
0.24625092401757293 0.46999614351761526 0.6352984693308983 0.00455791897888761
0.2220915454994954 0.46689044833037796 0.6982583634830908 0.006533086718078745
0.25663309440434434 0.4730995916367924 0.5745985463730107 0.004367168797301976
0.26426280956057185 0.47860326420982796 0.5397271633202283 0.01046208880849855
0.25925135940687144 0.4804265380661766 0.5485617182160746 0.003806288356687426
0.356894276479689 0.4833756377595194 0.728709434798573 0.007839261818993479
0.3640963008259387 0.4908069154875351 0.6580202761490664 0.017832728009800763
0.35263219993765693 0.486174268921784 0.7523518859250946 0.02441221581383117
0.3317386943416654 0.48087645827760095 0.73287540263883 0.005361499492779725
0.30710345986217463 0.47946711271928755 0.7413447298277328 0.005340432555834509
0.3474844102607515 0.4832620487168711 0.7347100420548085 0.005027784503917322
0.3305050475932362 0.47695239887724633 0.6892370621453339 0.01593172690854751
0.2023553686057459 0.46237184106214424 0.731722585352838 0.01780420774478939
0.2399214610932982 0.46999158152186 0.7394875654147355 0.00797055320121295
0.23511751414387996 0.4743848645076363 0.7529288137007479 0.013883695714653003
0.24387750063372143 0.47767786594417466 0.7644469707795674 0.016019125514340312
0.2757751028211587 0.4857404587990168 0.7770396496883221 0.03155846909820148
0.3195687512179433 0.4796010023673035 0.7739635465209695 0.007999534416192323
0.3151791556053627 0.48216901925389927 0.7776356932513979 0.07202977263099163
0.34184073487866085 0.48910172877582464 0.7742235615503271 0.02467204595891692
0.3108638370495678 0.47459014806998806 0.7617950512531724 0.01534616068516826
0.21483329821491012 0.47122318407371944 0.7600977334485435 0.015916206375499873
0.21704664043209393 0.48216769467601894 0.7719989146871017 0.05482113220598456
0.2866587379612906 0.47185605248382306 0.7581025293173999 0.021340383758492114
0.3544987658983738 0.49015354447434534 0.7666362207305388 0.02484321030606588
0.3486890409320102 0.4835989660217535 0.7588095154697128 0.020329648627594878
0.3420557679613161 0.4847881474694018 0.770166268098306 0.02314681057718801
0.24565655784643334 0.4693424164859575 0.7324978724110867 0.002465639286506746
0.2686904684222321 0.4727513073229872 0.7412890291406408 0.009607147557683412
0.10178971888938552 0.4765666041359155 0.7479662093200713 0.026010513077056225
0.20276253666160646 0.4629428958492553 0.7466540822368924 0.016453495939763477
0.02783052708936347 0.487028757490054 0.7434268471730738 0.025725798069974402
0.05046199759665933 0.4775879229839518 0.7436024492347033 0.021886921737850867
0.06192092249990093 0.48759154064955207 0.7539299892011878 0.03239606991542658
0.013971703240991343 0.5176409876722147 0.7337662275803444 0.01906198834659842
0.01529120873681335 0.6658334138514261 0.7490454986622204 0.01712931834879024
0.36676310540052076 0.6266402369838258 0.7800040032580531 0.005209415758262836
0.3496111780031181 0.6551393465086469 0.7752420109871813 0.0004845429825397333
0.3366254694921041 0.6535575044356585 0.7764542925073198 -3.5657356524603536e-13
0.3277084059866269 0.6279290723573495 0.7803906511199298 0.004565463256547973
0.3463068823290694 0.5967913084732926 0.7776279408100346 0.0027066310018268153
0.09863255137528243 0.5911165511887272 0.7796394858438017 9.374145447609869e-06
0.08694274180484443 0.5823412524856694 0.7797231305634247 -8.317525216356486e-14
0.1672516597689637 0.5921228875989046 0.7835916145445958 -3.37299015827732e-13
0.16552751208563607 0.6047162980448166 0.7840196318128011 
0.22261394910932608 0.5929013012285376 0.7845464304258982 0.0001183473926357906
0.2614108961935644 0.4970919991868845 0.7747594356228857 0.038882235868241126
0.3024078610330908 0.5176076620237385 0.778714128452127 0.0012438557599891832
0.2610495931009964 0.5223611286186884 0.7824136853159576 0.002098886823474543
0.1698819890267158 0.537748570728075 0.7799176110730084 0.0033104064724517493
0.18881039922540396 0.535799174933868 0.7810072968702497 0.0029645374656364245
0.17819462483659235 0.5659114469119818 0.7869729419193373 0.0048077252493940225
0.20019765817350024 0.5143663620377351 0.7832545157305617 0.0034582093497983048
0.3791622335247018 0.49050984823690735 0.7313070749849199 0.01358805120330013
0.3879660680380391 0.5061797677312011 0.7654406214204935 0.030228908551114438
0.36626764145626794 0.5023770770674516 0.7806364066344359 0.033340266794492084
0.3808280045871761 0.49358622746771863 0.761215406951227 0.024900840698308075
0.06979800793710278 0.4913530450571682 0.473155032618314 0.00911714380990955
0.05832630660589912 0.49343896462581727 0.4816304861699094 0.018486593670028532
0.05076098893262297 0.4921975419164909 0.5381861718280307 0.024631602355445092
0.05773116282330727 0.5254952936240823 0.3973265821169659 0.0066031122151356085
0.053297395570058005 0.5397100563642787 0.39375495142635425 0.014808880696314452
0.04734440501463348 0.5382857441117246 0.4068859631708541 0.0015405328386250295
0.10214926487497478 0.4820743590497547 0.48801366044180167 0.01499225435779379
0.10148766752809638 0.4801657272990386 0.47739789309827546 0.006942585391926212
0.11889765799260874 0.4822476696607181 0.47855880066174494 0.00635937909793506
0.11901406907947343 0.47587482977642936 0.5161966121573491 0.0062212349060365565
0.12021575500506562 0.4729974304150711 0.5449357352598284 0.004118342021205449
0.12641649691211926 0.47668293444450655 0.5268658137608284 0.01557508490106911
0.11699877768390884 0.483181073671775 0.5929988620465989 0.005333401974167128
0.04539351216345048 0.48863307743654955 0.6113801123070924 0.009600341430926035
0.03200454081661304 0.4932518838183487 0.7123641390437517 0.03741540351477144
0.0481800090975006 0.4943667926446472 0.670144227762217 0.02232284686325397
0.05159974228284939 0.49881961689386406 0.5115555772770928 0.06954732058549529
0.046076298532546155 0.5004726545262219 0.5936214792181198 0.02925800222175202
0.032971099836519094 0.4972441402327064 0.6697268588766015 0.06143239971622365
0.030692113990963475 0.5010102267018328 0.6200400661380624 0.03785691061761677
0.0404774587993178 0.4901683168883126 0.6879873231139189 0.016337533166600277
0.14374055194895566 0.4782855225677951 0.630154714159463 0.014415589382852789
0.1447325454166203 0.47742059490665595 0.6059553495633527 0.021666703304161396
0.13941691329120262 0.4836983068599971 0.5743372379063216 0.008498159484210174
0.1443369585503099 0.4780262407425376 0.551437214313198 0.011373410253289917
0.15654070701799613 0.4698549976138293 0.5345466052616757 0.012291905634862568
0.1934303733401348 0.4763921800534892 0.5112691238673284 0.002727254669140357
0.17970039284561942 0.4678366514233451 0.5289325456919397 0.0026339013300037753
0.040900373485335394 0.505395792465032 0.552495049313031 0.023549579934587665
0.04174945556014886 0.5071426268389491 0.47499652676591236 0.032144832551930555
0.03644192409745554 0.5228973571031952 0.45754143094213257 0.007549942681349587
0.03908072617468861 0.5170697025817085 0.4434879100770921 0.008538658173199478
0.045242601775352255 0.5079433455518737 0.45696797159209823 0.03999171196342007
0.03174207289884111 0.5354446676718196 0.4945862089744433 0.004950090346106114
0.03657920011818007 0.5376112101613209 0.4722622487315862 0.007364412751830511
0.02946076004944605 0.5430133949287743 0.5155310512782878 0.007392968222810461
0.03782786662374619 0.5295051055521024 0.5104561699349334 0.017116072822663923
0.03584283350551241 0.5200686090654126 0.525393487673025 0.021723238444472177
0.029242365755979403 0.5576557431385684 0.5178723362116395 0.007002357970149778
0.039934180126079036 0.5188240181725984 0.47073820466244976 0.0330802532188459
0.03592576001961718 0.5098987246017463 0.5019895883295227 0.01696008229627107
0.023325564607429516 0.5235223710796779 0.5490745102908741 0.006208396200172387
0.03875171042983471 0.5095928834555874 0.5632449375709649 0.026082809137794642
0.03589830164251845 0.506490282829907 0.5074162469677833 0.01331011464359777
0.029146700564911383 0.521530709350928 0.5855155553590039 0.037238288102296804
0.02287031402076156 0.5346725756297883 0.6005903473271191 0.028977566627227273
0.032082929394550666 0.5348977019452649 0.5631978903646642 0.017168671326277942
0.19659589258133572 0.4770536627964976 0.6296400228940362 0.011173900282736222
0.08851416562178083 0.4778455322989571 0.6668653988027619 0.01050391200428523
0.09118152206236689 0.4778734602950678 0.5747197494464718 0.028009944242044952
0.0867645873433189 0.48011957557673246 0.6900132798691783 0.0034898987688477888
0.08676839561825508 0.47295089522139605 0.7085855326078276 0.004895971600071432
0.008580561569810826 0.5492840479300902 0.6651860371853875 0.0070049259264373664
0.016320828082925377 0.5394225467792793 0.6817292869185816 0.013200014907009444
0.20128884470677239 0.47257421544440914 0.6773008338246724 0.003577945263444513
0.20474525013788047 0.47159712377005614 0.6553584927959938 0.006060730995255838
0.19256066648352518 0.47306328531353103 0.5897297027687549 0.017800613874743274
0.1991867611383222 0.4715352104418736 0.6056107862345345 0.019484580118991457
0.21081441396020936 0.47693988580679847 0.5678017734785676 0.0005435726276013013
0.2072285763017676 0.47762724492710196 0.5150518698866164 0.008790073716580641
0.2110639994342768 0.4784717554216155 0.4808147973438677 0.008235352462003527
0.19229547302400196 0.47484965169486015 0.49916309882861726 0.0038249232111701365
0.059557591384009796 0.5119559258169801 0.40487171277354883 0.001245583613570696
0.28447432453593613 0.47255778831587936 0.7122871500580344 0.006068973160886736
0.31881432040991925 0.4862732557418665 0.6417376265463309 0.0071665158959630165
0.3013539213091146 0.47878241499907515 0.6806904674241134 0.009540362922699242
0.377124867342207 0.5098219664980286 0.5754207860755317 0.02352185567181347
0.3644584329064093 0.4998405734236022 0.5433813122125375 0.015056366763500638
0.36814426327138505 0.4931418759752849 0.5659790618504906 0.01579039466992176
0.3683812371815176 0.49212991879507373 0.6275712872741539 0.03484380384342069
0.37800959664817 0.502284698336611 0.6201498570580082 0.02575339700297456
0.37109909374751376 0.4870299555390236 0.6727617830253392 0.03458466125124686
0.36600808491044784 0.4856266330792844 0.6763058016994281 0.023088863783414234
0.3555076966408434 0.4961714673803452 0.5225641343390596 0.014287398024739098
0.35677008735571525 0.49754036918426237 0.5050958125548215 0.012340920271190799
0.2704695889214149 0.4792353624917125 0.5886429970326997 0.0008877341452588784
0.28551012437245793 0.4815012737060664 0.5586121086783188 0.0040945911881638064
0.27424125176248293 0.4774919173059421 0.5492220802255242 0.006126405098100282
0.28203144180274314 0.46818966550449564 0.722597097268748 0.005159994861840826
0.27385177387734244 0.4761791170723729 0.5352565996936488 0.0036712901564494734
0.2778287137995615 0.47631458890638545 0.6153541879941387 0.00775577452757908
0.2797196055331455 0.47300467736179125 0.7063613218882584 0.00610881465906834
0.3796842723415661 0.5091359063361929 0.5476372689910666 0.012169666199384893
0.37690284028628435 0.5061706656699416 0.5645301703845582 0.015456892637028588
0.22349357241607942 0.48027898121584783 0.49608532835600355 0.005354034734740196
0.22512878012264953 0.47888531101843096 0.504683804154179 0.0068980925216530695
0.21666718672933039 0.4730360298911326 0.5354757967637263 0.013506414256621701
0.216968097636481 0.4748141438810975 0.5204608835329669 0.009023615328583888
0.3772451349518328 0.5199089023771123 0.48437903296796303 0.030482305781770188
0.3871530123078691 0.5204763552955758 0.5795945279673517 0.01495322234537548
0.3925280187602375 0.5227075571749462 0.5901629145437401 0.00910700936716499
0.37429223449836363 0.508694920480821 0.5012344226730064 0.010733619826808387
0.37400308146472555 0.5105124757106213 0.44484979589325735 0.0050978161029710135
0.379722389051827 0.5291557068770105 0.4798663523209112 0.023036561728567228
0.37431160150835824 0.518840854204369 0.5117234665828423 0.027714645564059007
0.3863336127145671 0.524767984278978 0.5007092153537372 0.010941653710199034
0.3834984545262806 0.5293393905151574 0.5421305394804222 0.010602320011210382
0.3831004831244093 0.5318792448645189 0.5204133503946821 0.011405102818045196
0.38508813711887996 0.5405454376989096 0.5284778619803701 0.015349295976692733
0.3886730788913932 0.550444069341032 0.5371962128794466 0.0033384629114309103
0.3815035884446506 0.5477162264099085 0.4942661534817133 0.00931370021557208
0.3859123520124632 0.5542630271629932 0.5063920278468586 0.012885083192656112
0.3312222680167142 0.48043171822206066 0.7400756209974688 0.007062881696308048
0.3172118899000692 0.48126674576979644 0.7201093906969714 0.00629230201870807
0.3196409967017133 0.47257792583981906 0.6839702988508464 0.009799982081539768
0.317761888738707 0.4821056370233285 0.6078044719986063 0.009152203103272067
0.3098661141580708 0.4803634506579949 0.702006487884827 0.010768396686259047
0.39014051441437864 0.569608528441219 0.616959401659612 0.008707528318202162
0.4006567872874591 0.5464043719414174 0.7102524384032376 0.012940958991213215
0.3993183789590188 0.5584410586376598 0.6633552460964205 0.010438799955538276
0.3998834309782917 0.6077660728853507 0.6456982623421349 0.004074725403033043
0.3968488547243964 0.590883425824281 0.6705960075385924 0.006503168234220276
0.3962865112599156 0.5738325602399581 0.6987854499539358 0.009713356268281934
0.39202174193949013 0.5796635429108539 0.6341971454603675 0.007363420412074913
0.4013929819414392 0.5553189831492628 0.7110267493533752 0.005148565406044135
0.3999806589883609 0.5969678332320822 0.6673016333347395 0.006920571878790068
0.39372565884523986 0.5594561820497138 0.6866303302803002 0.012015558682955617
0.3948963560349842 0.5883671870209811 0.6869979042014491 0.003276701485573088
0.40179531761386844 0.5948108319930391 0.6514700825015434 0.011014658143280362
0.39168642861368713 0.5737418930813596 0.6401207344740442 0.00746462993241519
0.39935238807960854 0.5764704081709524 0.6702697972145564 0.008913563701699092
0.3967659939597177 0.565334783008174 0.6520748786857095 0.006706689683960169
0.39182010369883113 0.536567728170591 0.6331834612041508 0.026602282314237467
0.3899206064599378 0.5596400278549779 0.6274549852336399 0.006493425369369875
0.3925531435708788 0.5499530232984176 0.6515956413828575 0.006148114511079983
0.3927303448793631 0.5523901754327231 0.5948556903814473 0.008831044201993377
0.39747323129724993 0.5478567582474192 0.6853665345855949 0.012737118128350261
0.39740444557967286 0.554263720803293 0.6078993577602559 0.00444836334321323
0.3897845519071744 0.5506750390214358 0.6193831124722388 0.005217478337667978
0.394897961813466 0.5370896832712687 0.6494280175611016 0.01862077440587188
0.39417822799596486 0.5267971564426119 0.613008125829731 0.02618124256321421
0.39127844109044 0.5700376932855991 0.6021559571529157 0.012455360575384227
0.3865012619986197 0.5720950832488183 0.5779776234308323 0.011410085284160543
0.37141574630655594 0.600869002712336 0.3998578270056888 0.0007015756835569177
0.3754665855244704 0.6231374732708805 0.41528383190162377 0.0019809598808212237
0.045984291526658234 0.6202327889552256 0.3878205465845627 -2.72303828070083e-14
0.04011414153489671 0.6678216977704917 0.48701793153271744 0.002844350893372097
0.0504566271457382 0.6630868932013626 0.5353432824942181 -5.3199964147677914e-14
0.022265160916651906 0.6534291004762287 0.5372384272166395 0.04941689789353749
0.041045020918469365 0.6653895934193903 0.5874345588548704 0.00579654348027794
0.03683952757452786 0.6623624932902118 0.49139773810015636 0.0015749658896528017
0.041496874223152604 0.6586260825904265 0.4322513534292828 0.004081488051529432
0.030577387783147145 0.6486395559561343 0.5017115631141703 0.007486692416742801
0.024137120883240208 0.5955646241363053 0.5020843787184368 0.005910587718562889
0.03120980228972717 0.644987305638115 0.4712151527708195 0.016991345895893815
0.026083888630697646 0.624463825246612 0.47561005790959765 0.008509969510578122
0.029294858125310675 0.6073438523034969 0.5031860907688488 0.008694081543710869
0.025602408870932767 0.6396637138485154 0.5184170148630604 0.0548849084930658
0.02345655883172626 0.6145061969906946 0.5375073991052732 0.0051348864690072315
0.031512657947589666 0.599294059020618 0.526183418936485 0.011719393367615731
0.019242548352087663 0.6487746516003864 0.5840014303009566 0.040634347744552754
0.029176249565949938 0.6556766025801649 0.6145915990108074 0.0370971131416157
0.02636129672639179 0.6390296822158101 0.6087992258544681 0.03446204205210279
0.022584157031277342 0.6416942198813261 0.5844011362584619 0.03014849600399569
0.02459153677541074 0.6199500209554313 0.6144500276672509 0.015375525863065431
0.030844857796734123 0.6174323005940444 0.5887330902799842 0.007982959140353366
0.024923577979132947 0.6034096956744709 0.5904885350367717 0.014470809176919022
0.027990414473789763 0.6117025391777288 0.6088828393394172 0.010672215811904537
0.043079119267751015 0.6652940687950076 0.4092806011182997 -7.645509401423299e-15
0.03395610800094231 0.6164776835519186 0.4368325461174693 0.018344201838771633
0.03848554564082908 0.642527423267891 0.4311025616770603 0.013005047579895995
0.029798935349067766 0.6484171637628485 0.46213961306235946 0.01028182892270116
0.034556871570022296 0.6140956835177914 0.40853238943644105 0.006329908920664878
0.03681737567412957 0.5778550244978432 0.43640284687538744 0.0016989144865448243
0.03870855650018622 0.6454406774378754 0.3971530290834448 0.007835956683894679
0.049970523133507985 0.5975523302540732 0.3960548992428143 -2.6448214176176587e-14
0.39103113425547587 0.6567895106552818 0.6882689116641317 0.016481754143971655
0.3876681947243321 0.6554760553584084 0.674297307745096 0.019613155037741328
0.3783432384002479 0.6688391057692387 0.666798227587101 0.0009021653023432496
0.3797762516247946 0.6610748028128823 0.6073352210983001 0.015670346405178195
0.38987417989709405 0.6614623347000853 0.5840646636085453 0.02674314850126046
0.3912817549621841 0.6622985688220544 0.570344861537771 0.018038101526258708
0.39366572208560185 0.6338177162061691 0.5610272574532916 0.0031536095392155363
0.3907018284996356 0.6439358011394754 0.545151970132796 0.004115272630503128
0.38519984585350553 0.6630785103432297 0.5260568030532401 0.002658962937221474
0.3919125016600594 0.6603150813185099 0.5408581687526625 0.0010415565148488956
0.3829743806489098 0.6617909573740066 0.4896477933491469 0.006313668663208654
0.14234854783031148 0.47572909978175865 0.74857586670975 0.014780906969672956
0.11348593296224296 0.469739190787029 0.7537340437291681 0.016061047596391986
0.1433246465393834 0.47611453638136003 0.7815334732998062 0.04691260597762163
0.01781015756370137 0.610479758352044 0.7513560364898249 0.05129764030430359
0.009442790016830654 0.6399944083780121 0.7553026607273593 0.0253264786063492
0.01955174033232359 0.5529545731618053 0.7706668516770653 0.02892008501923932
0.020527491907093513 0.589899852578166 0.7634242992106588 0.029993526664440228
0.020167265387430557 0.5709348677484006 0.7669205912654768 0.018218039741519212
0.02875954476905814 0.6099846370921987 0.7661736270481415 0.03868550694629049
0.0400373833734142 0.5514172308110398 0.7777710894170109 0.08169436442647011
0.039014075256223336 0.5252032626102866 0.7823291815724831 0.028837318744492055
0.020747237788878735 0.5240624933463172 0.7633049600631319 0.05838518429930796
0.016895498529030942 0.5282921091862346 0.7735096490303903 0.042304573382528896
0.031094854692933542 0.5696857608938891 0.7747962299549173 0.032095626428469526
0.033639199930015816 0.593920867048314 0.7756042077368656 0.0026464405560564564
0.02542331627426796 0.6401160600505648 0.7713362383156801 0.09039797187195517
0.018706612298538573 0.6317701206042943 0.770004540691012 0.04291286151493886
0.039918523099140804 0.6151389263221503 0.7769805224788331 0.04420528679676841
0.02259108773163766 0.4989236059520182 0.7468879174701027 0.025623414793356853
0.014230045474579879 0.567548345699477 0.7465018413708613 0.02938507981103086
0.019045033551687445 0.6502124046095129 0.7378166023536675 0.060503858784510964
0.016347936761261513 0.5486392508186154 0.7476677427130489 0.04423908085058509
0.24174290048937758 0.5941251860069845 0.7831020253107528 0.0005102683953923365
0.26363568426228706 0.6595353735826243 0.7799163751130536 
0.39840031666008735 0.6080573199801791 0.7580119802637544 0.03872384522764434
0.3916273784806779 0.5475329099693124 0.7649546434727156 0.07540144344554585
0.3932565719593824 0.5727207920064965 0.771822777662079 0.05619289062244329
0.398362963738418 0.5125502158026802 0.7460444107244437 0.04070024232444795
0.027136743270905827 0.5645184693581661 0.5484506760218956 0.0034393082463400836
0.027581591128525478 0.5554967015819287 0.5778292933429411 0.004488669666107117
0.027983855703658425 0.5575247202601753 0.5396575927939532 0.007080660538101208
0.02035750636564202 0.5826670443264406 0.597384812878323 0.00816301972246939
0.02959547994439206 0.5713124311569941 0.5353545841063433 0.0024414187753635736
0.028387516944349135 0.5564787864899182 0.5279012794205066 0.008774034839185227
0.019205398229412897 0.5132045768556416 0.6777028551841265 0.031409478720813754
0.019698849536154254 0.5073920755081597 0.6730131250955936 0.04250631096283434
0.048699012506610226 0.5524926230381271 0.41467677928453617 0.0029713801346724577
0.03778322500963098 0.5617529198865218 0.4442204459855077 0.0017317400704211165
0.0714863221504248 0.49016132214437597 0.5973153361337789 0.013171499915450009
0.0628113917766197 0.48930254440407644 0.668996661285441 0.005146789775719036
0.06164986383691999 0.48540845261555493 0.7008126549281002 0.010609598705176764
0.06583292256304446 0.4891480991114866 0.6346587447545329 0.007139149573231492
0.07138459411290393 0.48052551560143564 0.5608380358345004 0.008355783985034327
0.08654993279448026 0.485307862888511 0.5294992967299412 0.011960041645315346
0.01211902906932981 0.599362238589521 0.706337950907834 0.027789944229553255
0.01792385866870296 0.5752959963463932 0.7150570303454329 0.023539564768115428
0.01850961318428013 0.6081529467545572 0.722555624281369 0.00978773545373221
0.019093723694313152 0.6114302026404345 0.7068918624288283 0.030897659964778168
0.016394234408387973 0.5857722588695475 0.7251282944251672 0.019031936629190838
0.021445441132717374 0.6146873191472032 0.6833862438428969 0.021174442848360665
0.04660940662462352 0.5432713354515466 0.42803979063266306 0.00385005858247892
0.2489373749945558 0.4758267871169599 0.6521593413752294 0.005736934659968043
0.26667922266827726 0.4706053230861083 0.7161540348534948 0.007426137137592955
0.26753719138623444 0.4727115366752993 0.674952282829501 0.006193898981975083
0.2803386474258857 0.4699653969531123 0.7149587873511023 0.004491213426792991
0.2688637092797938 0.4740584542562632 0.6594571944376051 0.008553960201070748
0.2625934035787361 0.4705729780088183 0.6436929809539417 0.008062250678752688
0.2568576534081197 0.4702617440562758 0.7313899137820192 0.004566199145839304
0.3870149490968742 0.548281307047569 0.5667120828070529 0.012518575673921882
0.38838447680956134 0.5386550106429918 0.5878184398827246 0.02035187852714434
0.3837237130528529 0.5799093710448284 0.5125600547606116 0.008270771273902142
0.385021734640192 0.5968504375324721 0.5222548274827997 0.00671809657732297
0.39218921729970535 0.6017464195421156 0.539528040895499 0.007102718378603574
0.33897864258510185 0.49028938259483623 0.5053882200716407 0.008976013570286712
0.3381013257646648 0.4858925201981266 0.4808756534448905 0.01142075584097368
0.36201526116400934 0.5141260729646281 0.39820804388277226 0.00578603600925697
0.34027487728966227 0.4804272076725673 0.5898753006067651 0.0034774631438918256
0.3572768222892566 0.488925891985129 0.5664785223609872 0.013792327884068757
0.3551792270096642 0.48631964406788003 0.6105563873023695 0.03576943406593493
0.3472147382668995 0.49117137168764474 0.5381882966697419 0.007908392924611861
0.34837255132249584 0.493956454298923 0.4670025593875114 0.002482624999179721
0.3367304281193222 0.48410148893414234 0.48382133619656803 0.007311727422838938
0.37247914797025566 0.506309847156025 0.5354662220859847 0.01985731252979081
0.3635538747515376 0.5051155820146745 0.4903309814310849 0.008849810438472336
0.39927928436343385 0.5558111170524922 0.7300155034194736 0.02095501769977475
0.39902117736793546 0.5988299969558939 0.6975084127180333 0.007333561477037916
0.4006626831138506 0.609839428078979 0.6989642008545127 0.006207685382327342
0.3918691608861189 0.5688293788881913 0.7125612429589594 0.0048079664076185955
0.39383659450740827 0.5968457085733436 0.7118206296148607 0.008056778105574853
0.40135824860293745 0.6211874095982982 0.6934088867230607 0.012600147589074148
0.4036839101500376 0.6273506478955033 0.6795172890248736 0.007321535380481302
0.39849067282902656 0.5999496929458826 0.7232793156675473 0.00727747314539393
0.3984412246451221 0.6118777653352725 0.7136858346145878 0.01272776013501892
0.3980963084637609 0.6356871524481887 0.7129738855269594 0.028843688411153263
0.39642208713141774 0.6391576693943174 0.7087895726785929 0.03774449275083523
0.3939074657694801 0.6202365817084157 0.7217138576883415 0.008422316836477034
0.4007915509788781 0.6233557121937722 0.6727342034170131 0.013534124895096039
0.30959253831830247 0.48169059966996525 0.4685138589115676 0.0005043362891782437
0.37850956223273236 0.5844480349969721 0.41034675582316416 0.0074117134357356606
0.37882242135507804 0.6674866400611901 0.5874730579874612 0.021784319777162713
0.1683346065928322 0.46082092158983495 0.7483479583802823 0.01600039076337692
0.16499054259288065 0.4688649285881857 0.7634202491071962 0.024773447998388962
0.17411872162263875 0.47415390834693033 0.7677039102076748 0.07497905062352998
0.19505513689007564 0.47505694790638986 0.7796858072641227 0.02037971799980404
0.06899188927114949 0.49465906388511405 0.7781918751436748 0.02782163526502274
0.05106521510384859 0.5047689600093603 0.7784192318418733 0.029887789243366415
0.0479994313536246 0.4940569438620522 0.7729367213100347 0.016681795099178814
0.365184149026079 0.5418882960813782 0.779399690916422 0.015677298197917855
0.35925129687205065 0.5721183770595978 0.7818060252337388 0.0034365603257594268
0.39685337630789913 0.5138016342469092 0.7014853724943184 0.04259422201960584
0.11247657149136038 0.5632660726274562 0.7786860344643135 7.024219416484335e-05
0.11183665321918002 0.5552644236738971 0.7788260019981076 0.00015587698079137728
0.11686547439916911 0.5348646110850953 0.7792369877886165 5.334042934754202e-14
0.10333289589346031 0.507079929273938 0.7794118879885944 0.024799773084358726
0.10078858285901465 0.49241963702301056 0.7748420591446787 0.0577092700545417
0.35204485834431676 0.5062263742705156 0.7791690269577665 0.05011530043753058
0.24465993566927294 0.5427300815666548 0.7839094247208747 0.0019834032756002097
0.26561503542588827 0.5486795198710763 0.7841798583902077 4.2009401458885955e-05
0.30405854327845155 0.4749946731646876 0.758130606563898 0.01828917513513836
0.40586529814693156 0.5267903888477595 0.735816953059039 0.024261645426178074
0.3874913182279845 0.5035127951451157 0.7435405440431856 0.02050597689613936
0.021005722887761365 0.6527115243042686 0.6434981340439969 0.004511237614700168
0.021025487348431276 0.6519801618920845 0.6588979198944662 0.01156546236102517
0.02003723616628917 0.6537889902217016 0.6799207103291717 0.03901846548077286
0.021833904948029104 0.6642478709609351 0.6927543332902238 0.038211022026205604
0.024081903684336884 0.6425208274719935 0.6901814960121575 0.03968314281605791
0.026839349543318364 0.6272954157519968 0.6778511991681154 0.005720028010881594
0.022354710989300194 0.6582807031718144 0.6359192960873911 0.0017661210310508252
0.022936458886936344 0.6477777811438938 0.7035771258319833 0.03438148237768355
0.04384380173254373 0.6689594987942914 0.699620665193627 0.0017109636356681388
0.023953702262919867 0.6595783914165085 0.7138539257870415 0.04493500356547138
0.025526008195733772 0.64651188176758 0.5522074945307976 0.05102095158124792
0.09407053571500397 0.477567752845158 0.6104885601543144 0.015018433828761196
0.07133829366851271 0.4841639594302543 0.6558411911810154 0.0008099259911553923
0.08525149572498728 0.4806109116788462 0.6352765884056636 0.0015401823053510072
0.0812149493395296 0.4836477432897379 0.6464632311836329 0.0014908447505663348
0.020964124353922396 0.5409123087525938 0.6061535958187056 0.025345380465862776
0.013708223127322445 0.5732105984364148 0.6274729135412103 0.00794334272880089
0.023653850709235757 0.5491709139300976 0.6274271799560875 0.021822403793322565
0.01690870349635594 0.5679003835600992 0.6442921618800478 0.018676694240010904
0.018834995846584088 0.5912961417589656 0.6400053442631303 0.009703300575225912
0.018300070740961117 0.6210552795694366 0.6540652791311752 0.015608538675036055
0.025233129761217946 0.6058659653765956 0.6213311983782691 0.006725644232128888
0.01801696805666044 0.6273496982286002 0.6315365065561388 0.002959669302096171
0.014734217081128124 0.6260479827659862 0.6557841537236914 0.004951350044297954
0.1293216673090901 0.47919257698050893 0.6127402374437378 0.015021526123041994
0.14115618081831738 0.4646622910172488 0.7137543933241043 0.005175709653604192
0.10795269168025472 0.474022013759512 0.6403132677273665 0.005559557777147512
0.047241200409571873 0.5576275131161661 0.40799073689125526 0.0037265305766304036
0.372638800046251 0.49327607442472104 0.7028981461316363 0.033496903457977456
0.38987252860771704 0.6164885967913478 0.6157806271581014 0.005306587834818468
0.39164557934785865 0.5746838386146841 0.6121433415138443 0.014767699276094169
0.39651215244427845 0.6409363427290311 0.635845049773988 0.029735138698743193
0.3945246126356135 0.6289969404459769 0.6167250882501377 0.024136017093861196
0.3517255134874031 0.494747549237333 0.5242934500466204 0.014639938679479395
0.36927792360138445 0.4848805621954408 0.6162589928199613 0.015546686268839188
0.35415160549993974 0.4958382306534673 0.5160789170066872 0.016459762590857133
0.3826097451076187 0.5546672456673718 0.4777689984428953 0.006025837125018114
0.3727083079721277 0.5298320268504807 0.42777509801425895 0.004556191309379439
0.3788295154117458 0.5356052766668733 0.4576258132781823 0.0034992180895716735
0.3690775139532274 0.5332134860637492 0.40975955310854073 0.0156324767689182
0.042067347583926565 0.5811507808454776 0.41083671954458867 0.008156427291436624
0.07556138521425765 0.542987927514016 0.7787208520696629 
0.03639817669841516 0.5028331779358955 0.7594930435919168 0.0394362519461639
0.2794699063154424 0.6020140586976628 0.7841306352559332 1.1181487503514739e-13
0.29128648028741494 0.6703893484567659 0.7737594229935355 
0.2954391756636237 0.6377692025075737 0.7840510678270621 0.0017423048137254877
0.3120607718693014 0.5367335060424092 0.7824527555123382 2.895455309730622e-14
0.30599258935174245 0.5529755050940783 0.7803767409927351 2.7484139800388782e-14
0.290200711694604 0.5254495475690582 0.7795733315372436 0.0022007761569344205
0.22902147737844328 0.47673722573209554 0.4813562991681408 0.008975577753577553
0.2959618136799691 0.48173722203414904 0.480771182474028 0.00037822089850835937
0.2865590534200084 0.4770170642427065 0.5189958422215468 0.0022556040965826677
0.3019480323690811 0.4820545990153415 0.5545703562353149 0.0035014736209750554
0.3110984062844597 0.48423109354879984 0.5704516850798191 0.003563360257132217
0.3079953743486796 0.4800714813202276 0.5080958148903836 0.0034739259836868755
0.29422402026999905 0.48136601667979173 0.5431674096080866 0.0038691610034029063
0.2922025189748396 0.4800372439712378 0.5246155286461986 0.005044549350444333
0.3224047394162798 0.4814061012080446 0.5659831319426 0.0038839469689796657
0.32185360899098814 0.4850325338604551 0.5514942447430158 0.002942437286786894
0.07686689192021781 0.48316545702759284 0.7581357950040537 0.021237366847920942
0.06121825486241383 0.6341886413032969 0.78028423415678 0.01954507515265892
0.20394799131226637 0.664916009242842 0.7786130899356182 -2.3350787953527907e-14
0.21116581854684385 0.6482418649054109 0.788195990643139 
0.22958187280538508 0.6258048241957029 0.7839085360672481 -1.4271739567458593e-13
0.16789604147752937 0.6618362036540717 0.7744280126037948 
0.029489336171852308 0.6573734801265021 0.777418615365079 0.020628862571489433
0.262752921650791 0.47581633833271325 0.7547594715134849 0.025850090242855943
0.36627313707168957 0.4898714297247805 0.7583388421669092 0.021643957358193994
0.2247122572101919 0.4743442115127151 0.7515284794243986 0.015322522565768012
0.04047775337193035 0.5502305788854657 0.44244958112989957 0.006403452037982601
0.17633993340641269 0.4735110350719733 0.47435586278888886 0.0035369377094700105
0.14924498003328757 0.47803620949525827 0.5030101500052376 0.0020610843635400105
