x y z curv
0.01373202850505036 0.3272048723481375 784.2071404067518 0.012840350197325308
0.010489561454493417 0.361903840159544 784.2087658606605 0.0018644461454755616
0.016028464973055927 0.27107017678901013 784.196946903878 0.0025284743844793435
0.012854208072502751 0.32615598092883635 784.2160843531873 0.015629546577895642
0.0019341508502946948 0.29530471601155794 784.2224968881427 0.010613723684922353
0.015947999095397986 0.3424376664019589 784.2076945938724 0.012722139134018822
0.014850951606885477 0.2637278126786134 784.2192962597164 0.01543273483432139
0.008078233767830355 0.282721352822052 784.2136110484205 0.0038610040327217046
0.016190601201906876 0.25538030340733786 784.2043876425624 0.011673659776659767
0.010255719542161815 0.3540017652622387 784.2465734604352 0.002484631425750315
0.013415744601926273 0.2502372182383724 784.2328439613959 0.010796794616634067
0.025928847443520593 0.5190600835902632 784.2370231573619 0.09329136475939949
0.021414898851599667 0.5037997079959441 784.2350758506617 0.019665854607894166
0.014246265285044317 0.4741876091763594 784.2222411797552 0.005283525879701666
0.02667454604739008 0.5130717603772668 784.2244980636901 0.033927213864610666
0.021083863097238514 0.4868144117392711 784.2495407508748 0.0023302265654496267
0.013002743957456353 0.4167371693095335 784.2380061245414 0.0014666582289240182
0.01844580133849266 0.49617546079840913 784.2248866744046 0.017451135006839036
0.016161148052174126 0.38997144366743675 784.2341235342502 0.00376593451523246
0.017433050600111195 0.4067268937073748 784.2135344375221 0.003412504766022341
0.015375553847388432 0.41947513277190734 784.2160278963668 0.004441534256326384
0.018928349580363497 0.39620264933024124 784.2140646530107 0.004744646573271376
0.017087357843558262 0.42020798228193823 784.2095997224313 0.004929754372559619
0.015729508448563082 0.3530401208088747 784.1481052037886 0.0011966206679667806
0.017608753482005846 0.35092756340345765 784.1825852165987 0.005449898498359995
0.014819360809654182 0.3254260995009333 784.1637450973163 0.007204108527774616
0.008281411701831129 0.2934578444341765 784.1613426710599 0.003320023710459387
0.018841215939097797 0.376505385732058 784.1668355433388 0.003284562468108085
0.01883748105772044 0.37517818490089333 784.1846718642795 0.007598850884188472
0.018563220912619256 0.2637456274330185 784.1591528649878 0.008073562167660373
0.008012089543993225 0.28829096325371945 784.1878899048381 0.010753007314397043
0.010736615503740225 0.32616294733374007 784.1911441585286 0.00690644278630508
0.02304518862232524 0.49515116006077925 784.1561742782328 0.006481932396951102
0.015168793018102618 0.4658981033102803 784.1796249405178 0.004730061507452341
0.029147849579649342 0.5031116594184524 784.1820219086263 0.07328055832043666
0.02834961302439822 0.5003779718013308 784.1783690517486 0.06674788218376394
0.02660984632068815 0.49651235147595035 784.189612462226 0.03153625109112588
0.016149124619431143 0.407697794081953 784.1885129013682 0.0030785751829315996
0.020305978288510784 0.452714737918457 784.1999490929961 0.0008135454364275526
0.01795405894461532 0.3985066613437397 784.2008882543337 0.007578522298257221
0.020484139518482786 0.47359415360141255 784.1604363628443 0.022217376436648315
0.013938888231938397 0.4345479611378405 784.1712502292154 0.01110492093501868
0.020325709747731527 0.43278003204846216 784.1582666080647 0.005366275331277983
0.021063435971491906 0.3938316873672524 784.1723343280642 0.00014637649239366925
0.020982843951426595 0.38453260425261004 784.1220411220901 0.005204244776401192
0.02199036297416007 0.32356091449012825 784.1220520964304 0.005314871445911915
0.023779133771394154 0.36161867562602623 784.1107919582269 0.0010006600096798012
0.02404098502552718 0.3358793075413343 784.1135563511012 0.005172666377887493
0.01892620860127427 0.26367989043025963 784.1371574678205 0.011918726169273926
0.01861125803750153 0.25770378068921646 784.1341890686255 0.004370887057067382
0.025429589527016905 0.29830732100769214 784.1190762607898 0.004298534492260006
0.01658524812684549 0.2944089511161707 784.1452484169085 0.007536938890420366
0.01977773358646475 0.26092347728172505 784.1175072455504 0.001987356803702227
0.027637326850140996 0.4434016742090654 784.1039801883502 0.000967126200858327
0.03096307684920562 0.47701621240333913 784.1134511709492 0.0015606254076792254
0.02950875903777011 0.42328653319480164 784.1186487490345 0.007098154044188764
0.029030528842675634 0.4328224344664258 784.1249938763164 0.00807478510145405
0.01927755697517254 0.3942162813887136 784.1249069075541 0.003228413330183994
0.017177510378473426 0.392965046883137 784.1338915871318 0.005638966825176088
0.02912818613423957 0.4499934332337254 784.1379992699593 0.004231599848899914
0.030171357440786997 0.5192813440608846 784.1480155971633 0.06700500238101066
0.03078326718068962 0.5097553888047074 784.1214574535567 0.08341445907967243
0.03984780231916324 0.38381421059409737 784.0669424471968 0.006980845620795334
0.030715867060078793 0.3502685904847619 784.0624660681119 0.00344487845428855
0.03781247449995477 0.3694141426536218 784.0761395813481 0.002066189727031636
0.027802778787067446 0.2960665281686989 784.0453487678772 0.0004882232007510842
0.022511380969774328 0.3210536281655932 784.0872415458531 0.00027982762421824243
0.02914532099989341 0.28621426712328124 784.094458263384 0.006616730546828534
0.026325324750182004 0.2668689756668098 784.0986574594011 0.0024301289627221105
0.03330237471562411 0.492618635672915 784.1000046870085 0.0028911929700521674
0.03598219669788577 0.5225689387511318 784.0997658299428 0.07483777631720552
0.029338030727864943 0.47727865224789545 784.0807811850702 0.0011031586390332702
0.03207549576800624 0.504804385409689 784.0754229543892 0.06484040384641851
0.029492795851570375 0.4037400512513371 784.0992788928558 0.007694988323734401
0.036165977506933754 0.4179832863682077 784.0605074710818 0.0015006549745460163
0.03559831698018704 0.4406059430903769 784.072584150258 0.0022413539452072616
0.03722371235907604 0.43015050988882775 784.0697051720966 0.0017525677815862738
0.036994585172330084 0.32699317737075384 784.0119251918144 3.9777656703473904e-10
0.03861535738908443 0.38471679783006074 784.0359985940964 0.004323189872292691
0.04025497532248814 0.37260654315047087 784.0182313640145 0.007509477632078536
0.040343160884815106 0.3864069827104781 784.0458053413629 0.00594595528832716
0.031708861667428 0.3521564989853166 784.0605519211084 0.004622652521760014
0.03632020175846647 0.2791226143832554 784.0299459618993 0.0037647003914730477
0.02807403491630461 0.2904586884832935 784.0529702854693 0.004383118685294227
0.03256811737596062 0.32103024495744437 784.0435231367105 0.0003956637799673344
0.03856572879798629 0.5009786191307082 784.0340444919775 0.10991404176812856
0.031297823252961286 0.4976284252404937 784.0553387303244 0.06498783835808816
0.033663326709335806 0.5213802000465066 784.0543066871539 0.04606337688165472
0.03544322944258252 0.46204809336785563 784.0523101278957 0.0023618529778142326
0.03945442991096486 0.4162019751469768 784.0319803739785 0.003050994921932597
0.0369451557670669 0.39483950875358637 784.0349008633367 0.003204204360089926
0.037019274976042446 0.4390658531397402 784.0361394387627 0.0008149828837852345
0.03823582621759959 0.4058041645255614 784.0483113268765 0.002079598851658318
0.03960978399216051 0.4606366983853227 784.0352293359641 0.0010914294216840678
0.03991213726282521 0.37254571397608705 783.9940977013663 0.0035414828754240955
0.04356981012317049 0.37850888761044477 783.9862513393726 0.0019616102223292153
0.04096320121378924 0.33785385348122865 783.9886464610232 0.004806302257551133
0.04442423640105234 0.35103354058126435 784.0175004505601 0.0009651400425161267
0.040107769378001805 0.283947429218504 784.0004347997636 0.0006613070647455204
0.03920274908671795 0.30664622610414816 783.9743160807931 0.00042724216973383293
0.0448335540165538 0.3931663180368775 784.0055483596873 0.002132433037530132
0.044629160826857084 0.49696901798989057 783.9983516231428 0.002956644015978771
0.040715896138807106 0.46228827330812605 784.0056895534667 0.00012258195477419284
0.04254266992097867 0.47573901790472745 784.0131334980961 0.0018745240202540825
0.04601876668372896 0.5143752599220728 783.9811621631346 0.07649785202945397
0.05287749002946057 0.4712859199910283 783.9634347697962 -5.485479754697379e-10
0.043942832503702386 0.4110747102579031 784.0041285640601 0.006880369510693232
0.036444524593309394 0.4246920760633541 783.9771043243875 
0.050486651976120865 0.32342882949082485 783.9429065085095 0.008992105849684483
0.04163493688272728 0.3619172136071609 783.9648864811438 7.747706159343745e-08
0.05263397488104886 0.28944623321878754 783.9375224201076 0.002321964561120533
0.053367617272981636 0.4894731934782701 783.9635142153188 0.0089821759053209
0.056335868243431036 0.5227510808044439 783.9508436575078 0.08046951618734415
0.04882976226461201 0.4595700493920375 783.9416600564887 0.0017080902853242948
0.0563364993702831 0.5018723256256665 783.9510141840836 0.0591664057198997
0.043935841208548654 0.22653028084760984 783.9569592487275 0.001236516562739381
0.04265159094402063 0.21490320297597715 783.9757174038099 0.0037457269916303273
0.04347129666542746 0.17708543422835604 783.9678258806083 0.0027099517954420017
0.04495332711723076 0.18058015441454883 783.9744014814358 0.0022741317479495855
0.04720097746634524 0.2379137357720677 783.9726318082606 0.0022264144393071947
0.050686835579632786 0.2554786150016766 783.9698732110936 0.006625726310047946
0.03872155762394798 0.2270098483699441 784.0024377092562 0.0017771531479067832
0.039528015676485465 0.2746729365771634 783.9991574334977 0.00174159466226373
0.042833876864217926 0.281138303072969 783.9767041814889 0.00153063844606593
0.05083116672219244 0.19207705202031042 783.9394638020974 0.0018631530826898103
0.04847163051507408 0.20561862191178182 783.9471372890638 0.0028089447163854604
0.054950596956458084 0.25389701038854307 783.9393147688943 0.0038285608146757326
0.04948624882152486 0.3053492980317864 783.9167786651414 0.001372916816227381
0.058391658691247274 0.32837842100503395 783.9150221197258 1.348853599911687e-09
0.055695275071102134 0.35263723005464853 783.9226151006195 0.0010578697970580395
0.05255583297561511 0.39828269177583825 783.934574548108 0.0003643300360061464
0.052804334154345975 0.38833183668173726 783.9224661984422 0.001382999272275176
0.05603756134471781 0.2847572661814262 783.9044606055733 0.01072926222298159
0.056673727721543804 0.2589382749332454 783.9170991437787 0.0013963523467496568
0.05659835186691308 0.2739265965424566 783.9067760152735 0.004518207657772692
0.05522268986311505 0.26370296612775024 783.9216061777707 0.0006163616366493656
0.0575820513001458 0.4056356491015009 783.8963579499292 0.004779290226192139
0.0608381655951552 0.5072337753725991 783.9122488497532 0.0392894606857211
0.051949517529777535 0.4824065059405003 783.9171440823368 0.003283147279854854
0.057670201711937444 0.415724167471272 783.9138607777162 0.0017672039086719478
0.05789928237373439 0.44597156296255547 783.9123267579749 0.004940255661272165
0.05716376782730691 0.514128834153551 783.9312199396879 0.029683909433738942
0.05580108453485544 0.4226925533126189 783.9301245536897 0.002473106243210727
0.06290197837237188 0.41026283867191193 783.8825693771013 0.010649078335983383
0.0568116813152449 0.37911870781507034 783.8959891605775 0.002767857612822907
0.06131236351101057 0.49594166239168647 783.8874347768182 0.06635958649515071
0.06405278132577262 0.47295436157307985 783.8803294265418 0.00021312447401576682
0.06532110423552681 0.45183259228790906 783.8863098154667 0.006050238319553137
0.06680008498890601 0.48014938045939753 783.8722867750084 -2.9784672599294725e-10
0.06026143852464452 0.4210782012448796 783.8832296390399 0.003988379536121229
0.059761186095366514 0.36098813299626387 783.8759766233228 
0.06023882074146694 0.2977228059779937 783.8890034570436 0.001098372982095337
0.05902887352198508 0.21641937717450493 783.8706890573933 0.005163525483279351
0.051605287748065595 0.22620753905760174 783.8903874794681 0.00023795276700999142
0.05397215586028643 0.1945247833038841 783.9008812988995 0.0015036827105362022
0.055005649472311124 0.1901430622027553 783.9134073936634 0.0007867612136601698
0.05115582158640962 0.1638024214482388 783.928814994093 0.0014808394620387851
0.04395709248663327 0.17254286452514886 783.9564965885309 0.000947511241036803
0.044294485605883005 0.14711632029730293 783.975696326766 0.0013310369970346285
0.04299444705315474 0.13100185438517772 783.9933452522403 0.0013198921070834853
0.032929196876937614 0.14599660385134453 784.0221154618225 0.0026622019425915303
0.04107501799908446 0.15615118265233607 784.0028134583456 0.001462900129301352
0.0229473517050194 0.1162711531268659 784.0756813387135 -1.642746155318429e-10
0.017386366379811433 0.09045779666942995 784.1548611351926 0.005196013057296256
0.0008420116419444266 0.07807866416182156 784.2090487331512 
0.012696488041947927 0.06809448469963031 784.2391540253575 0.0023042703557433547
0.017172685686500336 0.04556076425790681 784.2251229937278 0.003752046732181072
0.03213798978177099 0.0318701053600529 784.2584005297407 0.0009766859051377683
0.02758454461211386 0.058553210664531764 784.1778035094991 0.006915847922885084
0.020323841069801698 0.07139379410742819 784.1517879360356 0.007768896062043693
0.02292332402770202 0.09476609606942511 784.0925675639427 0.002023934481510266
0.029597343265512267 0.061132250253335546 784.1505099082942 0.010103095237276056
0.035046122689432364 0.061445117641030694 784.1250617323558 -6.578637403283998e-08
0.03521572230958482 0.11754541246403978 784.0125452253939 0.013432365593697758
0.0331989464164511 0.1058166791782984 784.0352355396075 8.899397050992621e-09
0.03723698869445121 0.06467677709043301 784.0845724017238 
0.046751693785487436 0.08365944001216913 784.0396495232566 -3.1489823063834367e-09
0.06354130367953391 0.09565115092470747 783.9766085856066 2.5150218008211526e-09
0.05289863567892772 0.08770214643290207 784.0126428466156 0.001856490147489397
0.06596906477912558 0.10171993638925762 783.9324193388156 0.006238524838184405
0.07217112869410236 0.08931807199152733 783.9612446166118 
0.07091451884512137 0.11810288324858954 783.9129090261887 0.015165834239702717
0.07790419059994641 0.13259597704267556 783.8806440318181 0.011476742901795761
0.08777555442502823 0.11134903416527084 783.891959046303 0.014700916650883406
0.09844516247966525 0.08814738064852577 783.9308744775777 
0.0879050130569046 0.05252435715945097 784.0549427964204 0.0004922393793783179
0.09555143856634216 0.06524653539949794 783.9860982637998 
0.0697558987472832 0.06621952113055535 784.0287138076642 0.0007434690614624484
0.08254610260954107 0.04786231955283578 784.0824324899506 0.0021522895933519096
0.07218162410842184 0.056754009756042896 784.0643887136532 -9.51689920532045e-09
0.07921753703775887 0.030770023810689787 784.1237906452975 0.002666009816310012
0.07288987439344301 0.02614802072015599 784.1565685925277 0.008473377183619488
0.08159589857120852 0.018105212539695697 784.180672715273 0.001472169624847639
0.05780606178425726 0.035669076112943884 784.1665058028553 0.005188919766371189
0.06581824099188983 -0.003859333516527487 784.2604533112666 0.023079911519475103
0.07995377053342191 0.006460278662336674 784.2284352975657 0.002747011752611068
0.08645706697776916 0.0072673746808230525 784.2281364321975 0.002426532092911299
0.09004135970804482 0.005884081505681852 784.2882249195268 0.014616202715365378
-0.0012515909213730156 0.09552072463639892 784.2579508900241 0.01201771863996461
-0.00012940306734665445 0.08371637942240996 784.2649801102992 0.006613194244713183
0.00416559044942288 0.07881690337704808 784.2543339638745 0.004118216435229638
0.006883983348788968 0.053134378113510676 784.2760498628948 0.005073447719773209
0.010214481407455147 0.050443717158391806 784.2780230357811 0.007718973561957749
0.018442921062947815 0.04137089699473322 784.2752945113043 0.0031642899472859106
0.039107761706284196 0.028086499513708382 784.2361155455635 2.303510682056075e-10
0.035871878615893506 0.045648766759582446 784.1787480774559 0.0018063638994480404
0.04480949577255074 0.04573995957624676 784.1492719801823 0.0032843809195190737
0.05093928147661469 0.00934566435339186 784.2217362257579 1.3641189922166677e-07
0.05434711477294986 0.010515287423640347 784.2860864810839 0.0335968000234594
0.076474804257061 -0.00015125314519046779 784.2611640714565 0.022257531753726818
0.06895925477587699 -0.003342803355163521 784.2692714640685 0.01848808947494917
0.05257151441006785 0.011376612575086174 784.2779824884894 0.04199871693625047
0.027653557895192957 0.03195222068536434 784.2750569922459 0.006836749959772263
0.0017872773615542708 0.07750852683780333 784.2853402036358 0.0041650174812721055
0.01727250648376482 0.10992642182551987 784.1262355029381 0.0077572999212621105
0.010224003506128107 0.10799762610791502 784.1755036961714 0.01669289646564885
0.00818030540383402 0.051957619555061715 784.2983669549616 0.016895308461411043
0.0911250626331562 -0.00016075273942976753 784.2661922333245 0.01401545352116578
0.10607109028557143 -0.00030914878110494285 784.2800705575929 0.012138149418719053
0.10699764446717278 -0.0008043246410395881 784.2817656046822 0.013306677733019691
0.11370461113429302 0.0015746359120592558 784.2500510939864 0.0038795686919807387
0.10468204247072548 0.010059393704442863 784.216874227054 0.0014788361800612687
0.13140431401965247 0.004130949950569414 784.2267621562503 0.010260541141188132
0.13045878496561997 0.0025253883709095495 784.2407769473098 0.00850018144003993
0.12045480581385486 0.01729776403893617 784.1910273696797 0.00038291802661011764
0.12724957997426325 0.02223876270863141 784.1687321385486 0.0014455806741252995
0.12262847979227608 0.027868770331053814 784.1437120514229 0.004709154365265103
0.11020546089526864 0.026454671299690015 784.1275369631853 0.00033181922525803967
0.1447708479775147 0.008863509606490707 784.2121014698174 0.006451596252425348
0.1519061179119719 0.024855107313424493 784.1598516833483 0.0062239532145240365
0.1514982711361988 0.023667863848728043 784.1338898951979 0.0001506657904802566
0.125069537600538 0.03564267336546934 784.1074124244319 0.0034691646333371187
0.1643220407730382 0.002965889715477347 784.2188996437322 0.001706884028634745
0.1622609573405998 0.016249567703432416 784.1791211549069 0.0010783265674173914
0.1718223536425473 0.003514636708330434 784.2435804544682 0.0005194947846079421
0.18678435032955243 0.0024095851713563437 784.2399094001529 0.0005382109527694755
0.22312503810036077 0.004487716983536643 784.2463576719283 0.005750538929606888
0.21382143881720642 0.004757369220857319 784.2412865148581 0.004659640968613325
0.21204685907768953 0.006871826291706403 784.2129491583499 0.0016321783678517692
0.19170983460725724 0.007540210993139765 784.1918686280857 4.1999647767041845e-05
0.24277905726831775 -0.004167783204373411 784.2577256225136 0.010628085147178187
0.21697394642455178 0.024509898008575306 784.1484541246922 0.0020299519040302702
0.19559639733130801 0.02269163744502578 784.1522838958444 1.842777780161372e-05
0.2194849731032139 0.01654265688023089 784.1824904295983 0.0021426349341752103
0.23412420039532592 0.021708226725669345 784.156883882238 0.002524573876506522
0.22723703705923962 0.031715396492390927 784.121337908542 0.003588752217266214
0.19714872669583028 0.045739924236179584 784.0567587670058 0.0002009687573732789
0.20044503162736185 0.04054852267163914 784.0809996542733 0.003466319030859994
0.19796269567822414 0.04388369509478965 784.064096946511 0.005274549123569953
0.18530155038684237 0.03395886172135182 784.1122835292638 0.00012435650080903733
0.17671235866345653 0.026305157874654764 784.1454830276325 0.006180007779662239
0.17389590892838416 0.040763527884938595 784.0918159249964 2.4318021168662055e-05
0.1892243443226128 0.04647571835925566 784.0407701857631 0.002020068795559584
0.17994852930009578 0.06055440453065315 784.0012750292053 9.201542549020823e-05
0.22022373418439686 0.033021583848662196 784.0944400117882 0.0016682579476286566
0.20790806395782713 0.04905031457676269 784.0354625685756 0.0015651603189847038
0.1948687525927819 0.06108205412241851 784.0038335743426 9.759680096055177e-06
0.1807252466504583 0.07456014498871318 783.9700711874392 0.002000890132964713
0.1636763537095565 0.0713639173512711 783.9794399909147 0.0012017671563075596
0.14579758661578238 0.07407301017269116 783.966716389327 0.00018889560659277147
0.16016628673683567 0.08133726206802336 783.9453283529264 0.002430843427590728
0.1638067029961733 0.07802414695311054 783.9536910152947 0.001402564664765288
0.1946618617450172 0.0827455720454079 783.9564008677747 0.00036157532275933417
0.16011882631214056 0.11003729008098206 783.8782451083521 2.4641628162557394e-05
0.13756442019093365 0.10087734109499033 783.8972460841231 -2.3485228203859295e-08
0.18629671050040164 0.11557227154528599 783.8778282503889 -1.4511753632405046e-08
0.17766854735644394 0.10262375205477163 783.8941862165751 
0.21079337432578235 0.08922355727985341 783.9278601633096 
0.23403180058998319 0.06672393889619076 783.9836485073587 
0.20509719377672142 0.07765235563072383 783.9695197573684 0.0013247943223867941
0.2370133745905053 0.05908029498348181 784.0088293317782 2.9174834156497905e-08
0.21885585388971052 0.055024505387713904 784.0241207673828 4.325318817615231e-05
0.23351349844082775 0.044883978205504244 784.0653532664094 0.004283006739528774
0.21765925198617636 0.044160944233585714 784.0673476871987 0.0037765544804122062
0.23938770493247477 0.02784684181973817 784.1189557153148 0.0021567147010773343
0.25562272898544164 0.03521100340324062 784.1086490668154 0.003104312669582217
0.23980261487578056 0.049035035803976695 784.0578031891214 0.00024166327378267026
0.24960446986177104 0.04143505408350832 784.0801147276602 0.0013999481472154456
0.24284207293775723 0.025265076919729818 784.1424238550144 0.004292139538134446
0.24990755635924558 0.03236527948770544 784.1232090435425 0.003611616768810098
0.26019755636776976 0.023369115641119247 784.1584667462652 0.00014971853957138946
0.2615149788514428 0.006577190871423444 784.1979120611745 2.4824178099439645e-10
0.251237868018145 1.613690641738552e-05 784.2263978761102 0.016262075587775385
0.27257455050221996 0.009667812418954844 784.2166262356988 0.003307877783511088
0.24884218958234544 0.0009267511519375059 784.2493833420382 0.021976360478006253
0.26606786962517176 0.008748783642687436 784.2487433007857 0.011882971575402445
0.12222018427475698 -0.0021041082986607974 784.2882295176296 0.013488653371599345
0.24823812362889114 0.004204420437255826 784.2778000074178 0.017314959711332942
0.23180830548668643 0.002558143190610147 784.2843131044092 0.0069615150373812705
0.20613177211429273 0.00105558511037375 784.2748934304548 0.000660320960733784
0.18222535721732344 0.0021791909124974523 784.279907552588 0.0007992781708764335
0.18177865504852178 0.0011422641123308734 784.2586271025692 0.0011096622238021317
0.14753466506657348 0.0049160076736213905 784.2478775164683 0.005916400886106587
0.1621253303764638 0.0032676117169248607 784.2921982775265 0.009096243803827852
0.13610518187157977 0.00636578180471008 784.2643891491097 0.0008871277293579937
0.13387447041122494 0.002132917552906277 784.2864796972478 0.0009036548665731383
0.2623075112097048 0.05519022076990083 784.0189445808693 0.0001730932563030712
0.23855739939859366 0.09054877215504739 783.9266087105897 0.0018002669927655052
0.2320583194913298 0.11261052093047037 783.8733543782332 
0.22022312563282886 0.10572502830313235 783.8901887641227 2.285970229163239e-09
0.24735417757730946 0.10431045489680142 783.8978341593548 0.0020747050525741504
0.1429383229402969 0.12653510819937755 783.8660031316847 -2.3680987032294626e-07
0.12580276630828702 0.10580505129871891 783.8922921589403 0.0023190100466828904
0.11233673836264983 0.0750942960018989 783.9658320816585 0.0020142756279013085
0.15122286417791267 0.05539757323564387 784.0272265314072 4.300036078335351e-08
0.14411447688122753 0.037981880799732276 784.0735770732612 0.0008356948974066339
0.12758601733295785 0.052796237393009496 784.0415273370468 3.8023506185532527e-08
0.12045802123089704 0.0406953587174215 784.0804592912212 0.0028709141519772654
0.10553781729595894 0.03334433392251698 784.1095898839428 0.006343231743917301
0.11930117356327599 0.05310376062155419 784.0462520081697 0.000524140161134189
0.11689950133962698 0.06590560874828955 783.9965700585591 
0.10136554371536814 0.10604008294133026 783.8946664853777 0.01612770532159961
0.08298285801598497 0.022788684485482883 784.1643515762108 0.016406113148862613
0.09687758647475353 0.021687733058373786 784.1731434193242 0.0006241532814329164
0.07959455345352107 0.02884979645584234 784.1297370022553 0.0013525648440650758
0.06599358316729959 0.1530981472037662 783.892175873934 -6.412791128199679e-09
0.0535546018798145 0.12312403093418135 783.9447870180176 0.00017385499649642794
0.04829358079987049 0.12308727657887412 783.9584208027031 0.0035490401034439702
0.05094275845067703 0.15493419543731005 783.9301835795419 0.003176629500617382
0.05944541605159525 0.18015752088505887 783.8798563316305 0.0014722662827124629
0.03369476519597041 0.17659232657490198 784.022119390017 0.0024350930917185812
0.033680438561439444 0.1518778393466748 784.0324787167165 0.002618251245025422
0.036878354580083025 0.2039718611786415 784.0196700726323 0.0021947072195518187
0.03783149441026719 0.2563780100588953 784.0277795294421 0.0005787978675993836
0.03649913362472569 0.19069359012324824 784.0300309850911 0.00223409855339009
0.03556159349044278 0.24009030571388992 784.0216575446501 0.0011455158868527147
0.03831529012943646 0.2793873042534207 784.0198069904508 0.003962320196652218
0.030385268935375038 0.16308587242442954 784.050143550773 0.002204142077406075
0.028108832852044387 0.1787166004764816 784.0530501372605 0.003299385074086328
0.031367669346689914 0.20921639631755015 784.052739817921 0.005730684101036627
0.02974170166501579 0.2286354070352457 784.0493733579934 0.004583848487080305
0.027189594442178867 0.26037536846722753 784.0778233591753 0.00019484980380800313
0.019564843682614783 0.16939631477642128 784.0825488099006 0.0025390375466225416
0.020413082129488044 0.24748198286199902 784.0794758403116 8.51951476989853e-06
0.031339090502211175 0.203505515815868 784.0631899356961 0.005759270980148816
0.0295636997872547 0.2126468075033252 784.0672987100471 0.007368361584914486
0.02444951234316549 0.1641122371679273 784.0978153452274 0.0036999367085003747
0.022283079383295795 0.14271022101339662 784.0718007186837 0.007163701840192135
0.021023627814275015 0.20238188376060778 784.1105998017575 0.0018272503183860323
0.01919482864687683 0.12822909561995163 784.1044528210488 0.002221974189242549
0.021857125796713665 0.2155509771322316 784.117559081162 0.0001785224585841748
0.02077859635576267 0.1434099639099035 784.1120728047442 0.0024720476436694986
0.02384700136604845 0.16695256016011195 784.1255738537399 0.0006775328021951893
0.01884757826335469 0.22166566296396906 784.1357187478648 0.0020860484464551685
0.018597934486688287 0.1833221515555119 784.1341512571538 0.0025591818053362155
0.018138092107234844 0.24491862534876396 784.1318934227254 0.0012648237576315831
0.01201906213594983 0.11137744411277309 784.1425966166195 0.00011809116871701598
0.020257550669603754 0.2581544626720157 784.1470527794578 0.006253544045225899
0.01489478231120429 0.18677057981979275 784.16379289266 0.00266097492847611
0.006748568849484975 0.13266203440580443 784.1530223369615 0.0023415358513803274
0.017863173746635375 0.21227163438113167 784.1608696396677 0.0014931640538355356
0.013606153491131423 0.1402394631362496 784.179297111157 0.00743070628960864
0.012595350418318333 0.2209578213489059 784.1694917511825 0.0011631819088410537
0.014547587127023281 0.21861272359667466 784.1785834244038 0.004341647177796184
0.015439869960574542 0.23042348933409987 784.1741534225133 0.002338650684788881
0.01755894640717078 0.25394308989899195 784.1770707763262 0.010920610916429232
0.012422807820417254 0.20973547346307028 784.1849525522085 0.0033250601469127336
0.005838698895332964 0.16571326586205198 784.1901861983914 0.0024230700007257825
0.004802347448505245 0.1179297844112928 784.2040205973145 0.0037154437864761877
0.008022036932532133 0.17042198061301864 784.2084650174213 0.008659945445705225
0.011168901093592207 0.13812777371933127 784.2053838698705 0.011226758438597276
0.010203404869225274 0.2000733241681459 784.2215878730221 0.004174236806449614
0.0164063695880884 0.24373249334075142 784.2079083930626 0.0015612767154453444
0.008855324581389615 0.19432488508934737 784.229780745775 0.007046930000285031
0.011833648397272883 0.2289298243762907 784.22612030717 0.0025801550991607696
0.011157708036198484 0.16165462617534748 784.2135797519229 0.008425740367031538
0.0068978198483528935 0.18352692700932913 784.2031518358668 0.0057082780310651685
0.00831386025670118 0.22451247552769932 784.2193907505033 0.0016942884396926486
0.009137246397611752 0.20820676295995344 784.2109534717216 0.0032456399049281396
-0.003950915170500308 0.11845716431594208 784.2332406590375 0.0012753294084472675
0.005683058853478781 0.1698322653073452 784.2272843115384 0.012320169055175256
0.01613854319383168 0.49146562411135764 784.290873895675 0.08092322895226678
0.009992154697554816 0.518753270579536 784.2849937578769 0.09063102696177658
0.3163706860716484 0.0035853024985100946 784.2924510389063 0.025564969346768406
0.2669687274216289 0.5212798108966806 784.2214649298919 0.004886846183425587
0.2578049818485596 0.5201340495197021 784.1830166764036 0.006805847161843113
0.2950527398466756 0.5231808289726336 784.1808494138861 0.007225298912418609
0.28407708863643827 0.5200058073028881 784.1869331609998 0.005511261580871896
0.2521621931907887 0.5206676946953337 784.1746299193554 0.010553347421754835
0.25572601983821636 0.5220882810610872 784.1575969619731 0.0028946773122603556
0.24318026202709334 0.5273622632523021 784.1961957764584 0.002865024756763944
0.2547837246132857 0.5239231381273017 784.2125915362653 0.005205996948697311
0.24708103100755627 0.5268587964218878 784.2262700648616 0.01091065919317802
0.21365146991143158 0.5291169480345864 784.1572045927213 0.007450254519674095
0.20821712175143228 0.525439264596496 784.119285713936 0.004457439725791112
0.22807170687853945 0.5231914130503504 784.1750426712874 0.006722059454813483
0.23904240083923994 0.5268149437627045 784.1308808186352 0.012045204076157235
0.2436739160389454 0.5221031021773193 784.1632623841125 0.005754773985112981
0.2697017567091745 0.532080144758284 784.1163240768652 0.0021353292231684642
0.2866403395956957 0.5275735956981599 784.1571550685925 0.001307663641860691
0.2817623424597154 0.5265259314431734 784.1271357845409 1.534399289033635e-08
0.28094041809918047 0.5261968328387024 784.1349494956505 0.008136537740221697
0.324795894818871 0.5233523015524347 784.1893855120303 0.01777749052873467
0.3301267834563663 0.5261987881329478 784.1660757737441 0.056659855939128256
0.30187509575393695 0.5269136194665966 784.2132004782368 0.001330024092101049
0.3071332743990374 0.52217286772335 784.1848367439933 0.006552571800143447
0.3075711909589079 0.5238078054925009 784.2296373952463 0.0016180993785421067
0.33250773765232766 0.5262041112816455 784.1564406102658 0.05535854439720865
0.31552975984251735 0.5222982667564916 784.1514163223197 0.03889738365107542
0.26713893651184406 0.5280434472372445 784.0847888169287 0.003336810033431751
0.20898688819039216 0.5237442301383544 784.0967090958613 0.0021943329583087854
0.22517918627958933 0.5264807390094832 784.0746527762691 0.007112049826285152
0.2336984986067628 0.5233357514926299 784.1028679359391 0.004982926430481882
0.2383423303725785 0.5216500073643777 784.0830725663677 0.005948505070548288
0.23556317763043777 0.5243423805819627 784.0685405257643 0.005822858777150846
0.19921948335571063 0.522233138815208 784.122142769508 0.0005942910287321381
0.17144123359949254 0.5304465790457019 784.1125400771368 0.006092491075223499
0.20606502293653195 0.5286326369325072 784.1574833413686 0.0069221093021071736
0.17836963600107977 0.5291050956954013 784.103659050105 0.010700808971839764
0.16099384123508534 0.5244231011994668 784.0902534276692 0.0001443379650890263
0.15619484389458435 0.5236151837886792 784.063075929859 0.0022599606992791195
0.2024020992251404 0.5273620984130778 784.0821612252822 0.003085743009799443
0.22246996772939281 0.5219055745473005 784.0571823459862 0.006740835636043794
0.217493270592561 0.5233018649725757 784.0063659417284 0.0075446324188030425
0.20646596068346285 0.5219298157109977 784.045805561193 0.009312603163648006
0.2421950726662506 0.5274450212124676 784.0477909413024 0.003056713864227331
0.21938729226596135 0.5210404771535792 784.0376453691954 0.007348496064047411
0.18968994676371964 0.5212957538180539 784.0438110538754 0.004014292743680995
0.16132455066955503 0.5270053307910267 784.0280151272424 0.008097322830384035
0.1826979927966334 0.5212242219837459 784.0463371964099 0.00394195707955523
0.1728557760536982 0.5240010626099121 784.0271209729434 0.0094476287703059
0.16619032013942875 0.5235174365728206 784.000922602047 0.009892457289409089
0.18611665941660938 0.5295493897460215 784.0188653926671 0.002342250836187184
0.28373184485937636 0.527436066379827 784.0408092678072 0.0018742484252293663
0.2715484092020271 0.5218547175888786 784.0227365695533 0.005277443901253785
0.2542845534433921 0.5238124857143062 784.0393287206447 0.0032056787823531562
0.22572666502127117 0.5245671811985115 783.996684855728 0.0009608638433957508
0.228673585150979 0.5264890269995466 783.9775684382049 0.0013800690671545257
0.176054442261647 0.5192395599654731 783.9695005370215 0.002848543688359083
0.1592640899230325 0.5228362598979498 783.9744652529035 0.015086581791555346
0.2060227301811161 0.524224315035509 783.9603002385481 0.002294116270645455
0.20902904718715398 0.5222499016117368 783.9739932407001 0.0012300032294142794
0.18553455956044512 0.5227484173615666 783.9581098028904 0.0051639909430469064
0.12409337062538855 0.5186440653378813 784.0052824594214 0.008595112364794547
0.13128684928413692 0.5256048780062197 783.9661779485563 0.010543741975420077
0.12761788268893307 0.5198050598042432 783.9846434562517 0.01552220531816892
0.13699453282433166 0.5213794638816537 783.983540656224 0.009251949321822451
0.13892309225756894 0.5198548242782297 783.9909423487055 0.012410659774703422
0.1493430115626177 0.5274528442332679 783.9776790025362 0.013045497977090498
0.13070982970075642 0.5306374588109687 783.9579290164754 0.004142662291659296
0.14698345147210595 0.5201498354564718 783.8880371572236 0.002284568436854686
0.19630928334142111 0.5335800762526903 783.9323282147977 0.004249667994871311
0.1537766175418761 0.5211728644838064 783.8991375407421 0.0032099788761097863
0.18583775704257904 0.5266396044896298 783.9432494933867 0.0010243636685386612
0.17238386745639242 0.5299431748540934 783.9297262294951 0.01418555962264922
0.11553931784113275 0.5251824230384471 783.9079316605485 0.007563792635081755
0.13715316380124712 0.5273967760869488 783.9231905332299 0.0017949587137579379
0.1348472977178508 0.5228814749256565 783.9017641494859 0.0016121199745294918
0.1561467875521569 0.5203038682969646 783.8941161695849 0.004845267103559031
0.17446989158143986 0.5219201956927736 783.8940072952422 0.0012789999150644674
0.1873691186027284 0.5266902082709142 783.8993140868388 0.0028639829233647806
0.23269198667835422 0.5301058964415023 783.9512920691354 0.0010501756800230778
0.25229113228592187 0.535265726296652 783.9831170516559 3.571918778198585e-05
0.218626766499174 0.5243144208368017 783.8802707858954 0.00556013157917742
0.22186442400829864 0.5246034432214087 783.9006401435221 0.002794480240738957
0.2372772805929553 0.5248054461636371 783.8969265091812 0.00594510092839491
0.2615999817387839 0.5246447603699006 783.8916363030919 0.012569487881105748
0.2511210905558295 0.5277817084572666 783.8832358084652 0.001511361140741572
0.2728800925278349 0.5207961976900553 783.8811776400734 0.008744502043850064
0.2845878525677515 0.5249863006121225 783.8961651459817 0.0018103639082969962
0.2908934893619968 0.5224945512805441 783.9195316354711 0.0087420930565188
0.30196628978056606 0.5277354136837067 783.9440921131724 0.017978257958617305
0.28013895349229206 0.5220051104768959 783.9379987094592 0.02075081155987788
0.2936056457172043 0.521152023528174 783.9777522599329 0.014298535313025672
0.2793115901290538 0.5258232130371132 783.9867315007066 0.005832504556595768
0.29821461301373586 0.5194194813510403 783.9882800122733 0.01112109639696006
0.3200091471588532 0.513764445399703 783.9912216290412 0.0035495929794871674
0.30034799970954623 0.5276760909069428 784.030431606366 0.0038072673410470413
0.28422987154940527 0.5218913842155756 784.0161843003569 0.006384265843311401
0.2979452922324933 0.5228766286773955 784.0107963296932 0.009697666540985254
0.3075506163647786 0.5196880938864447 783.9969252862807 0.007657237883949806
0.3225157067756543 0.5223999933149894 784.0212409677821 0.0059485771476088375
0.3255356676268693 0.5223308956981372 784.0572135725507 0.004250332880417158
0.30921623430496387 0.5226066595711039 784.0952516803275 0.011564635082021223
0.29866439211431933 0.5286639039773109 784.0757905007362 0.008058535027675295
0.31868698395656947 0.5296751168255047 784.0793326827514 0.005047773969636989
0.32851493843914376 0.5228612226329488 784.1041778498654 0.031218548078268304
0.3225061911398889 0.5262925521616099 784.1357533401956 0.040242728285068655
0.06278365705332704 0.5219296126463054 783.8864248621384 0.10026767168865117
0.0606950010448619 0.5237652604389117 783.8906240423207 0.08591959676745185
0.08829054822384297 0.5225107203329211 783.8858340133165 0.036264852028179854
0.10626469329172107 0.5274692270309459 783.9263831663151 0.004464849207109998
0.0917393962763658 0.5308098013094983 783.8978081396783 0.0046759155891705
0.0753629599180322 0.5282609936697757 783.9039192078204 0.07767580179400925
0.08222132994669135 0.5281950986916227 783.9066369365889 0.03839539478584735
0.10397831786605523 0.518050414843057 783.9727983926505 0.006632956089035745
0.10683969181253328 0.519020240453764 783.9831837336654 0.009582633300595347
0.08435431440096576 0.5212828073960342 783.9858718746558 0.02829296126229731
0.07522537873960772 0.5256993511991519 783.9609503899221 0.053155646636892
0.07657944293813301 0.5258902191139124 783.9709270335801 0.05646427562418389
0.10035065109589923 0.5230939836242638 783.9443975611761 0.010687003523880306
0.0752776030801477 0.5263407988558003 783.9327211814731 0.049236708444295514
0.06107513963935363 0.5273598925683576 783.9561475427578 0.08624951178682881
0.13415867319576016 0.5262857206762854 784.0546070213964 0.001970845343958933
0.09931665067049661 0.526223216872918 784.0266783855415 0.007976289452383137
0.11412941549187777 0.5206634875296451 783.9967381246595 0.010124997315540452
0.1135098850211218 0.5227890842703592 784.0190647570514 0.002670675389520796
0.0700931707053395 0.5208539611963032 784.0409341005678 0.046953424492991676
0.07495503385924103 0.5284054514498215 784.0065345707355 0.016965630629967744
0.05100451639913785 0.534516566482191 784.0192628330664 0.058194835831711936
0.12663493592710842 0.5258271301787105 784.088922394343 0.0015888132087948075
0.13354689007896242 0.5236215658238225 784.0760339105971 0.001551755248421585
0.12148815965695746 0.523543346573122 784.0537708028098 0.001330404406962083
0.11356516849752349 0.5255173136652991 784.0863747582446 0.0037791434498924224
0.0818326826776856 0.5247013096412361 784.0684939888041 0.005408802971457073
0.09751101681823342 0.5267798345119652 784.0568196510154 0.0034545218855665445
0.06925165992334244 0.5270474090815229 784.0714818101064 0.004169388764512721
0.08678055656164156 0.5236328488610646 784.0881250910722 0.004416136331127301
0.053962628185345606 0.5208401582427168 784.0702549426372 0.04804585597547564
0.05308936835521733 0.5207769524538556 784.0566159710611 0.07249396046827951
0.03778034781444338 0.5194226368531597 784.0340548944888 0.11860115154512432
0.11437511823039301 0.5203601137482647 784.1481425531819 0.005239465844563093
0.1370936050623912 0.5272556743104645 784.1674014352219 0.0025404855586409992
0.13685375031091912 0.5288656327157195 784.1258322724905 0.00908632838403418
0.11776887807949604 0.5285529530254451 784.1254403474243 0.010643749617522895
0.14554843482872468 0.5237622746274453 784.1341302393012 0.007632524624849988
0.09832862058547297 0.5316870179609949 784.1177318124435 0.005755704526905496
0.08537440758212073 0.5233735471230334 784.1441212043432 0.004813848684683193
0.17837098954231262 0.5276609258527316 784.1609457861106 0.008066588949266465
0.15617525836139623 0.5234177728643823 784.1596856898367 0.006027745416856197
0.1934281960995821 0.5312988681639927 784.1681330379977 0.0039604171847347925
0.15816830409216123 0.5230596038058277 784.2031184516779 0.001781841687539808
0.1815480791994291 0.5250199892387944 784.2325568223023 0.0015656197884113606
0.17186893873519477 0.5237318934031436 784.2178341796815 0.0064847419981296246
0.1918413279859197 0.523726367332745 784.2092949182797 0.0023538507288896
0.17808231024757967 0.5236973508046556 784.2003202089046 0.004872820640903523
0.20197626748383773 0.5252967101018128 784.1962540412745 0.006214994223255563
0.17530548094822007 0.5235843054013963 784.1831624574205 0.006269658469518799
0.15374954345827563 0.5287921415667597 784.1797441039889 0.005521785600997437
0.19351554590633738 0.5243979282632464 784.182735811245 0.0066504202488279675
0.20669599537043515 0.5266734873960722 784.2156267450657 0.003122584606826645
0.13577971785696796 0.5286542915480755 784.2130560211776 0.00697559382454266
0.12316360762166488 0.5230918603001314 784.1777031178267 0.003559814221181009
0.11654386920052225 0.5239581605114931 784.1716469122908 0.0027572878332650904
0.1498309621903071 0.5264155181069118 784.1824907045507 0.007020586351885902
0.13388269016776952 0.5246813462676694 784.2351179626892 0.01656406323910647
0.10561556782033542 0.5210701459112003 784.1815099672078 0.0030003044087222497
0.09373005270572844 0.5205986962187727 784.2134504083995 0.0039784747980647454
0.08264381155768018 0.5220000313415679 784.1473952184134 0.005816204572494546
0.07237154754583543 0.5213570835784292 784.1683424092078 0.0028417109802953817
0.08047080035247046 0.521500581176134 784.1818344066118 0.002265474053061774
0.1738621315787189 0.5303692403980717 784.2933051442972 0.009475230093940202
0.15509146184395928 0.5226560076053922 784.2631389357545 0.01700285043050603
0.13926702743500147 0.527788687884477 784.2420392646837 0.011308791213701017
0.1181181902669029 0.5190090150273502 784.2366966512792 0.0139458902842663
0.18840962712176537 0.5241717093263539 784.2702313610108 0.015636447210266476
0.20156368537050365 0.5271221714885679 784.2486424406495 0.0028740626207541136
0.16761777020287497 0.527034279574231 784.2727023634743 0.03636336830593445
0.16685694638127443 0.5202567921358582 784.242575038657 0.003556328105181049
0.0715695017452362 0.5209973596237648 784.2261689927994 0.002301646798956124
0.07739566654338645 0.5219494887495865 784.2151740106233 0.0033000404712154163
0.11188632084007391 0.5189047580005071 784.2205862371371 0.008530285522802269
0.07054366150717349 0.5202709784608679 784.1985166592891 0.0013521470924103473
0.09213672300300565 0.5218396022242668 784.2726837567376 0.025449359626911704
0.09957850965036058 0.5248098664559671 784.3020065429884 0.006700279631178908
0.12273076612061473 0.527897924301962 784.2851578228326 0.005169785043514454
0.12131302486174855 0.5252673470535395 784.3008849254054 0.012540833869169009
0.11835749590705094 0.5197337393169171 784.2601203975228 0.009470843904706316
0.0878346086350196 0.524091519912734 784.2848276099086 0.02245567101861661
0.09082980785893864 0.5268450438783594 784.2517502023668 0.0014383881868793497
0.10020811707834033 0.5210393326941244 784.2683654199997 0.007867794581563397
0.05047830111489946 0.525668857905523 784.1834719672917 0.11233659003965019
0.046085780417553276 0.5237301507053409 784.1998606036476 0.08960799871790782
0.04191536689268616 0.5244153299326406 784.2141508835317 0.050893340974662846
0.029520303113082805 0.526786415996327 784.2004676046263 0.048238104398425234
0.032977363817736756 0.5261216871925452 784.1687625423563 0.11288629805791606
0.030519213196884495 0.5206246726437347 784.179075420667 0.07241127611742885
0.06192517753588102 0.5233236315074011 784.1407948192559 0.028962250659279733
0.04083012236136857 0.5261121102396523 784.1506400241971 0.06418351753905295
0.05839577700006155 0.5213938699351673 784.171948413622 0.050112073266433764
0.056304682967735546 0.5286664646465723 784.1173672645775 0.04581579393520288
0.02958132536144222 0.5264660245705092 784.2146561031556 0.04188973766182198
0.024515027161834912 0.5210291586221512 784.2570579720502 0.09261841597674554
0.06476585290179465 0.5224324862835322 784.2395113246777 0.005117791524322795
0.0660841705420014 0.5140508004284187 784.2991483054562 0.05966932466605272
0.06674874814878623 0.5279102965909108 784.2720538438281 0.014036874903693647
0.05387947356804214 0.5300624588948938 784.268956775817 0.010458504477088664
0.054554340533517626 0.5275060319144824 784.2525932294902 0.026587149474466065
0.05904868779257041 0.5283222244639963 784.1033188497197 0.03093362585355017
0.06937827192339364 0.5265646371565534 784.114337200615 0.013890239508609402
0.03573330375069186 0.529880924328718 784.115141981777 0.029065282099899212
0.055506463004622586 0.5290123855269127 784.1341009345606 0.026142224169586795
0.20807898751733805 0.5284513195134956 784.2392791378107 0.005896917282690799
0.2244105163936075 0.5229904821774184 784.2153260546363 0.0035961366787995728
0.2518154402520324 0.5232520498897216 784.2642608481988 0.005807024319174954
0.22584214318379603 0.5311785044709803 784.2473763740852 0.0031344060787742286
0.21826100344306232 0.5191230386718608 784.2945675479502 0.03912531900083078
0.23483765514662627 0.5210711318948662 784.2876346183833 0.05365961754039883
0.21261537629501284 0.5234307550894307 784.2817032094982 0.0026984320543239374
0.2091663187230838 0.5177497183926527 784.2963646504209 0.05263254667584068
0.18755239654384515 0.5167975856169134 784.2988659211783 0.02202589301344826
0.21304544971971687 0.5265608466733674 784.2509023668385 0.008713707568729682
0.266298083828614 0.5196489314856464 784.2843572518816 0.011637315086711572
0.262984252694264 0.5199321168998158 784.2734614544049 0.01098352496606777
0.2578545440412686 0.5157198200420422 784.2976287452187 0.09655266546863471
0.28298889151686146 0.5213692934264952 784.2699660594328 0.009323110260310774
0.2680640218985324 0.5290103985889447 784.2527160912617 0.008645544050547363
0.26092965766818943 0.5255837961932482 784.2458363484168 0.009573737659480665
0.3050772696382054 0.5241122100116219 784.2731390481557 0.03315276983414326
0.29428216188914375 0.5263768532074423 784.2744097128447 0.017967724891482757
0.31202603138218177 0.5221260935302391 784.2816666991001 0.03551827392927462
0.3121207387947916 0.5223238574543859 784.2501089456307 0.0024477160605806477
0.3475701912364872 0.523059315820931 784.2551120641738 0.0415362966142869
0.326895501793774 0.5261178281823696 784.2139770150754 0.01764747611037452
0.32886298619144905 0.5232419619868963 784.2435673449572 0.024920717585837127
0.3413363385327099 0.5132784335582631 784.2072456263786 0.004975581999473907
0.31691593212859964 0.5126563311214817 784.298167484956 0.044205683228503476
0.3367280327570042 0.522503568124961 784.2623036547324 0.03152929314419071
0.32502445507525674 0.5215002542044077 784.2802016505003 0.0508694781417177
0.34300374149296886 0.5226095150171971 784.2683011064192 0.03842752519932053
0.3323924950426203 0.5233584779750675 784.2939426143384 0.036468558041312125
0.3427288310803516 0.5247772582450253 784.2847030107071 0.03414015133636593
