x y z curv
1.7611400375494164 0.6495260788742331 466.328951508312 0.041920486971703794
1.9874225591132466 0.6378549174508281 466.3444228200553 0.04225881608896076
1.9663142702586547 0.5399211638806796 466.3440272593048 
1.839914095639397 0.5415672975803542 466.33491333696514 0.004923878902662762
1.651745688020019 0.5579506071283631 466.33769430317676 0.05407828969935243
1.7072896867273233 0.6436777785922407 466.0033371480335 0.0034997989819991505
1.7016539233789578 0.6492301077349893 465.9448585175292 0.03857579378559856
1.7062376978510279 0.6430992985782598 466.01471423596774 0.003991412748893553
1.695951515588891 0.6485876758436445 466.1007248793648 0.03650572690177715
1.6914004852156663 0.6414994533729967 466.17272068574243 0.10050014266040995
1.9362114031966482 0.6536081116508735 465.9961003142071 0.03051060880413099
1.942601884198961 0.6479800516112609 466.2370484462754 0.0045145264498217055
1.9331367630609337 0.6424532017247113 466.0287523401733 0.004705107846979749
1.9408991670614584 0.6470656132865382 466.18318394266356 0.04797864789679454
1.9300177087220982 0.6549346809297734 466.1074353900364 0.008106467414611329
1.9758713171973503 0.6552119716924065 466.2853700763809 0.00868343308730792
1.680999437338024 0.6532417494537691 466.18454678629826 0.04514387201194839
1.6878711502489945 0.6484421598843267 466.151315588903 0.11830818997429622
1.6790024859506263 0.654291753304518 465.94393207362356 0.07229360359735149
1.6704289845162463 0.6474282103989988 465.93951097436525 0.09323727921533315
1.684536507918327 0.6551214165213997 466.005017069029 0.04026605837657409
1.6797834643988612 0.6599984254185868 466.2149787234948 0.0477253640436635
1.6528707181969582 0.6505956093509945 466.27173414600463 0.055977371316511024
1.8901906321330582 0.646191668995881 466.3199530468358 0.10328784025663164
1.930271580612881 0.6471788712692013 466.3138764314061 0.04744961383321403
1.916095158849542 0.6513733796203548 466.32259731501586 0.07978011909456513
1.949849391936403 0.6530487090832607 466.3161628229761 0.009306071918882055
1.665112383083243 0.6510492737844078 466.3173539442878 0.03319453379676031
1.671357419829366 0.6464691518618687 466.2778297933238 0.01792888360749503
1.6781823774269393 0.6515635351350134 465.9091124610982 0.011338102525379817
1.6718704788252217 0.5459322828956391 465.9021890226832 
1.6748173815631773 0.3322984578910251 465.9074221718382 0.022044239682405882
1.6776447853142984 0.579208582668357 465.90007141154575 
1.6726932212226182 0.2119893817977628 465.91737715647236 0.0014518652888025427
1.6841302722135318 0.1389765515671401 465.90644153464063 0.008650028770353908
1.731552216774121 0.07938034983717532 465.91158973053837 0.0034593918322610466
1.8498632287108225 0.05114792764973142 465.9115854661065 0.0007061074873374329
1.8827874948146515 0.07220476285611377 465.90247711085954 0.00019463963293701983
1.9412942230109667 0.14047459767357207 465.8970115608563 
1.950527179707319 0.16192525302950259 465.90204430549284 
1.639745148501387 0.26551184712727915 466.31957838627716 0.10056940337306033
1.6295714244040882 0.32623121791404147 466.3279993062905 0.04514809624623126
1.6330197938928492 0.15793878474426307 466.32296026551353 0.08689958120459483
1.6363485126551847 0.5777479596050707 466.33158839676184 0.03851718296777206
1.6273193385014684 0.5438846562036341 466.31785729545254 0.05900375818025373
1.6319069103138713 0.6368961187632731 466.32357375894986 0.0844894555451903
1.6317149159234066 0.5736592891490251 466.3134971335783 0.07897417884996565
1.624737516499692 0.5532343011245441 466.32242574605004 0.06643620101535748
1.62765936546492 0.6102060870531552 466.32505176644264 0.0061002402732122435
1.629821425621491 0.5382856422651161 466.3305353897116 0.06580169503916707
1.6261443676797858 0.23089053213334804 466.32253164675114 0.05476448256704793
1.6345466838088958 0.19419234345400654 466.32761107615084 0.10512764477797722
1.631228593007838 0.5077068635097813 466.32635483949457 0.03732187674956845
1.6452822938731808 0.45275035059068447 466.32585069797096 0.02622638346976131
1.6336916311779763 0.31209060584076587 466.329307678563 0.10156393320543328
1.6312548105650575 0.4542208219092875 466.3188731309873 0.04959583756740535
1.635092727268264 0.23831040591018499 466.32347383957045 0.09765386293319393
1.6428037709402197 0.4165072788480782 466.32976387621073 0.04894366820612471
1.644324201765039 0.3444669061521197 466.3302166303046 0.05815789603094801
1.651671351112698 0.13598891166637725 466.3302769330414 0.014733600586956315
1.6607775884449345 0.11462287297118764 466.3304387088285 0.07118104704696433
1.6569182512956342 0.09738094251608066 466.32944991725765 0.048259305852022066
1.705712136518964 0.04276330070122963 466.32404556814157 0.05555599222509775
1.7493865110091757 0.018942984886647384 466.3315413836372 0.08885509411170303
1.8048217725915492 -0.0004889738252656841 466.3195748422798 0.07890077346702463
1.813220101896372 0.00027532539982819343 466.31789724301535 0.08465475329444772
1.8723932741283627 0.011679073678366606 466.3157229885914 0.07914310449623786
1.924913202379487 0.03399154389203567 466.3218422534559 0.044404542876794545
1.9017403524143845 0.04028243437106949 466.3350405769437 0.1960074689664129
1.9403782715124425 0.057561753807447 466.3267879127306 0.08633707204158123
1.921787335190482 0.03665134621532742 466.3362783469182 0.05840133623186076
1.952481507663447 0.07306744389635733 466.33612703090813 0.09164969092260326
1.986311998857964 0.1459281921634478 466.330117334591 0.025267219670145034
2.000656418495329 0.16119232208998335 466.3274795795686 0.03436728951467376
1.9997280280860692 0.1749085756408145 466.33034348886594 0.0017611092282471285
1.991689724032673 0.19715304258273283 466.3282303412119 0.0042666218531674524
2.000683989839873 0.5045746086056488 466.33818285813686 
1.9887704380962359 0.2064135099342299 466.3276039694431 0.00033509829289843433
1.980125262857307 0.24628200598633385 466.3303135440598 0.00025436214561155537
1.9993544002357213 0.29736158048579825 466.3263182897409 -1.4468284405722082e-08
1.9975379159500275 0.6528895792307792 466.32402736796564 0.12207587231057046
1.9909626084790302 0.3102609105299392 466.3308130464191 0.012197551090801843
1.9824576353451386 0.11323285095793278 466.32762326594013 0.0314433342543245
1.9732765519679394 0.0841588543902668 466.32414167557266 0.08012550416978734
1.9539137801537307 0.07364085534930048 466.30831596556726 0.01961889995999623
1.896900735124676 0.014193766701567577 466.333824916196 0.017754763393881497
1.8577115196714828 0.01609581128758295 466.32736181358325 0.07286130613521391
1.78841709977427 0.007217130519681418 466.329700909439 0.0989547023239188
1.7516399694199212 0.0035533641794328477 466.33066092700625 0.052311651937111306
1.7366782412893964 0.01986209977224116 466.326158877528 0.08008534012428042
1.8499438620054358 0.008253576949415612 466.32576943492165 0.06364441877815095
1.6894064338547843 0.056342965268387585 466.31571864911933 0.022159613224102908
1.6427302216560196 0.1149284858821519 466.3212867368425 0.06357660745573288
1.6402209430709385 0.1462804354564051 466.31816821555566 0.10625374513943184
1.8297103022120864 0.03482138543599911 466.1458239192577 0.00524946401094468
1.7983531535653958 0.027162567173695203 466.140415655511 0.005152829644284513
1.8033919947599233 0.04429886230938132 465.97030544764914 0.0055594775021804025
1.8030087297174078 0.039227881186613175 466.10268149336144 0.0058033291075436115
1.7909258398949346 0.04353046539017473 466.0003012405554 0.007074643666409136
1.8145913547544266 0.04206494554021739 465.9857455622823 0.009705497557805118
1.8254827551576192 0.04599356915813533 465.9512518004033 0.00722342042794218
1.816767290368338 0.03724427234694005 466.0103135924366 0.007341625125405382
1.8222003423171473 0.03336975450721904 466.10951466250606 0.007779942583906424
1.8157853045499353 0.03961793210259846 466.06290218759716 0.005278731327421885
1.8336623364819575 0.04750005483330125 465.97263094870874 0.003082222952681507
1.8041600400418198 0.04715657446908074 465.91130181670286 2.2263642656456463e-09
1.792798492404024 0.044126189201368606 465.94873882585983 0.013641367836453326
1.7930722875690759 0.03913228612600505 465.98037599755634 0.002201637471798652
1.799927208463796 0.03987896900058005 466.01917254659526 0.003223895889059334
1.808338709672691 0.033340523539706624 466.04907891750844 0.0015087063214177453
1.796893801869618 0.04181624253395794 466.072576219456 0.004622334176587268
1.784303334869594 0.04310392113217636 465.9340146426409 0.00010220272977699577
1.764713770917527 0.04472554256852615 466.1047956635656 0.018535425107425355
1.7709357594247463 0.03905802630943674 466.1019948579952 0.0083968926967178
1.784777905741683 0.03883522368092407 466.0456292688144 0.00876617016115088
1.78233606631097 0.04372414831591235 465.9837402417342 0.004747060372223233
1.783921712783813 0.03748863894706129 466.0548287750689 0.0060121379649098585
1.7876941560938877 0.036497740971550605 466.1267443127747 0.010448998077984042
1.7918961487618157 0.03965228265243794 466.0641055644832 0.003904700744064927
1.7925886637662956 0.028890160656173468 466.1636019576796 0.008345376624586554
1.7546518707174974 0.049859691084026964 466.10679897309404 0.0074070617763648105
1.7613258538024077 0.0416739280980864 466.08207232829255 0.014308521567109933
1.749649477028898 0.05355408001258853 465.98895661205336 0.002691966065814541
1.7576684659141595 0.046640484488422514 466.0119927293715 0.012542516171716086
1.758094729943477 0.05406046815570496 465.95388993551734 0.0025513905367190322
1.7593861254713286 0.038920704956841676 466.1684414140969 0.0014548701275667298
1.7717549959179308 0.04220327769128846 466.0796449867942 0.006212312565601062
1.7633748316458118 0.03861003626645183 466.04166449579924 0.004229921616747391
1.7629008760950369 0.04549378249088154 466.1319559354933 0.005392843835349907
1.7934467617000507 0.02941677956024029 466.18459476614737 0.004786272468684563
1.768113924641398 0.03169941768550316 466.2094372028855 0.008069949596133101
1.7625646590598194 0.03143911231927817 466.21515721945013 0.011114952692788163
1.7609444133914933 0.024566584133521287 466.2310304465629 0.0034906194406387134
1.749277375963959 0.015973576479347676 466.3069569997215 0.07702305718211794
1.783520234927983 0.02822407173589029 466.21425635581437 0.004420165722638998
1.7572159389282447 0.013858502752742023 466.28208017519523 -3.2914274450514994e-08
1.7844165807781867 0.02681809747499776 466.22237496532483 0.003843427650834627
1.771653725284241 -0.0017448928555896942 466.32418211458156 0.07685211997641826
1.7723673534132285 0.0010583677245264555 466.2987056370389 0.0715958359313214
1.780387442721693 0.0035875927466532172 466.2911517465714 0.0325107559160286
1.791260082997523 -0.000779789782844785 466.3215390271894 0.06633688221661374
1.8154230125618587 0.009496494328491315 466.2650436364496 0.00014776473009316295
1.833611362454573 0.00958283304350439 466.2780163109855 0.007214938259160584
1.829339253954059 0.0051930231380200925 466.31321322441295 0.04810847989461377
1.8240365691153089 0.004667260909988067 466.29010677556903 0.006989619352000114
1.8016878061858623 0.023475067588840316 466.2135180275302 0.0011405732689013725
1.8181668882231765 0.023042820110508424 466.2265315912587 0.007963514143611544
1.8234777394292476 0.0221057760774494 466.229341067384 0.009836568491949957
1.8369594621200818 0.006441493348169076 466.3202681425231 0.0738918015010495
1.834784943521683 0.0021434745788876247 466.30462161076025 0.05930577194853601
1.8438734116186983 0.01574019299927743 466.2676584304521 0.0017573113651708555
1.8422716352124031 0.028466686157310968 466.1968125772537 0.00477589499466378
1.8202651430090404 0.02790303926518293 466.1993414908211 0.007253934441752335
1.8139163773003955 0.027725781571257945 466.18209399447073 0.003009873588222672
1.8051912880248053 0.026846791052703427 466.19985464639115 0.004296443285617298
1.7900550372694461 0.02932911285748164 466.2028215878618 0.0029832682456731145
1.828148898276283 0.03918723465542956 466.0584345892511 0.005328810631087258
1.8433359743622717 0.05004327203950387 465.9926534963942 0.003016566061032137
1.8229053424300088 0.03887189203776843 466.0111677337969 0.011762503656275052
1.8436148307220788 0.04005946927046681 466.0547946513657 0.004065228493776931
1.8279737989679155 0.03264839292876195 466.16011156996655 0.004289750688473393
1.8385465142868775 0.04050848963048181 466.0827123174294 0.0011220645247493417
1.8592682036272528 0.03666919486707198 466.1124562040443 0.0025538048397890354
1.836327401293353 0.048737787034464956 465.9886351185794 0.004554169816611518
1.844674067664729 0.0514767918980399 465.9706480804149 0.002006937521433887
1.8473988041806197 0.04085385126814693 466.1291268258046 0.005687445947927111
1.8538092938420156 0.03143613971632505 466.16348695792357 0.0013325191219382567
1.8616304387093356 0.04303651900998307 466.0668015146872 0.009713160640003606
1.8545069798834224 0.0482012278508776 466.0132449140331 0.00556504526551173
1.8556617852621502 0.03919281593653224 466.0953862101074 0.011194319923046267
1.8697492889260698 0.0497844670584021 466.03515121853036 0.00711826138071921
1.874435186735303 0.04378037349828259 466.1415982015683 0.011114518825947954
1.848585912928601 0.03251176902290566 466.2056961250484 0.004817715753843337
1.8344904100286084 0.02966297557145555 466.1830308389785 0.003432202549809331
1.8758381240326156 0.04108972000311792 466.18746107432156 0.0019349869350942716
1.879690174448332 0.030789759360110514 466.25600731762813 3.4715611490595906e-05
1.8841038295074495 0.010388403882604192 466.29977148965327 0.028123479279306505
1.8596256487178437 0.0328155638439624 466.2184368711104 0.0004948008521906623
1.8588363222470214 0.005799861656917353 466.29769814709965 0.01811329830140197
1.8587630313657006 0.01761006634505917 466.26529335088316 0.00023992106919103976
1.8623691399967233 0.015317773714443284 466.27941966513987 0.008311465247780437
1.86869328747887 0.007571648678707982 466.31144618634164 0.06780832503725542
1.8548306541898205 0.0011656297370676817 466.32062365524973 0.024979363940856068
1.9035713043619122 0.028855574215099638 466.3044016711217 0.035960744737190624
1.9084774565744091 0.034057610468022984 466.3003277183207 0.04303901917346816
1.9099866531836045 0.04185768555538957 466.2771571085016 0.0002999051287539517
1.9053415148929613 0.04712341289283005 466.2548964237814 6.28292743351099e-05
1.9258209914260103 0.054417773768067 466.26576890803545 0.003631338367064127
1.9354910686076643 0.06250051301706655 466.2565773268835 0.0027711691790548525
1.9228062898978944 0.04910072511447494 466.280106982192 0.0025520239346761148
1.9161941030156968 0.05920900084003227 466.20735417907366 -9.207172509691459e-11
1.8830130016216418 0.04540813841953274 466.2156435219894 0.0027440236640092317
1.9261451776926122 0.06785033848197712 466.2266240142084 
1.8901111302391314 0.04954992762952067 466.2071116623163 0.0003864072191936612
1.8892340636650526 0.050198369896314814 466.16297475160104 0.005593590530427381
1.8874435860912373 0.056134099943322774 466.0840527004271 0.003322435449159071
1.8930102460793818 0.0643084473328823 466.04597013318795 0.001386026477652914
1.9000630002286585 0.05186473183919153 466.1690507883694 0.0007143870306260279
1.8909262905938 0.05707789880314083 466.0949350988534 0.0039217044567958536
1.8934054024451057 0.06510897835882351 466.06208015876337 0.0014710306290132743
1.8935643936842506 0.06263364391168653 466.02521543042303 0.000673015947982652
1.8972901094984924 0.06232963624231941 466.1075933776617 0.0021340849871149654
1.8866196569582634 0.053141147653638796 466.13936316905443 0.002980299443434918
1.8786386510661262 0.044773873917263896 466.12618631621416 0.008616177155686168
1.8915726481603117 0.06459224598268917 465.98024938132426 0.0004731913043084241
1.8775770863826844 0.05328401129829419 466.00942508392893 0.007907933579559493
1.8771170558782972 0.05177067217770591 466.0485208306725 0.004948137515865291
1.8748930914522282 0.04497338466449905 466.10450647765924 0.012358592187816835
1.877971161831784 0.052537058256641345 466.0571126969032 0.006169278257069701
1.8730513567630338 0.05059490401954317 465.99462711732673 0.004155713454696223
1.9006220597266588 0.07586500840245203 465.94728485578366 0.003138125202092988
1.8973071620545978 0.06986245681061627 465.9282931633413 0.0033327748857366855
1.8893173066639044 0.06490320408719347 465.949655826778 0.004916485838123275
1.903438287687746 0.06160964955546892 466.1367018183786 0.0048515456923345695
1.9198473607633242 0.07146566588885454 466.09246220592945 0.0004895068701261003
1.9047198290101501 0.06372525944420951 466.1250271799182 0.003558807865703746
1.9133470633272425 0.07591081989897769 466.06599584689116 0.0037941529165061746
1.9172674022700062 0.07904993364056814 466.01861111977803 0.0017575352008715617
1.9350315374191607 0.08666253046781136 466.18284554547176 
1.9293063929489582 0.0837739395745946 466.1426240363605 0.011367205024655715
1.9261645568006196 0.07720789462283971 466.12900516213165 0.01221031843146784
1.932464829661657 0.0825684755389586 466.176471412692 1.0133607694049975e-10
1.933781546257461 0.08347355919965048 466.1045901768519 0.0012026461706596773
1.9232983531034424 0.08275987393847882 466.0420089779864 0.00150199652663319
1.9674528693077902 0.13438354328673502 466.18862457738607 
1.9929917060501594 0.13006880463631212 466.3098296764807 2.268698369614284e-05
1.9600244566034968 0.08648035338852865 466.2721611090281 0.001803210718259958
1.9703926646607666 0.09583357194726341 466.28198137653675 0.0032568646952098558
1.9665542249411567 0.08330901274987113 466.31514334660244 0.05521484488107256
1.9539221186555367 0.07262279766683599 466.29384057873943 0.004232292852306091
1.9501398426299783 0.06899906328202869 466.2916911239918 0.0018855112949908688
1.9433982659681908 0.06215917043579303 466.2928703804209 0.0016419183294152583
1.9827854470726296 0.6497314858426627 466.2834442267709 0.033022403226072944
2.0042847298809696 0.6303649237096559 466.30778201619 0.1235623073136034
1.9802107126132318 0.655857146562042 466.2538960206612 0.012501381306827363
1.9818556611490363 0.6412520171336311 466.22192776051287 0.016633171065457083
1.9709049433772698 0.636378206509739 466.1773957409353 0.02216101814807761
1.9610165622807658 0.6478285939566439 466.1489746170323 0.02239575795655838
1.9710381588331949 0.6429808514613938 466.091521907807 0.02079405533992369
1.9602506005037534 0.6434919018334042 465.9705073904983 0.005155060663713317
1.9688986878157408 0.617065802868769 465.9294432877078 
1.9667457791490774 0.6326504416288377 465.99280561620117 0.008931531149289396
1.9607650964558052 0.6446287465910245 465.9451907569713 0.12513775775743843
1.9669429521562594 0.6530743517869924 466.0563362024789 0.021069985758725065
1.9628953728269067 0.6458772498556655 466.0232642149237 0.024917947819857428
1.9669443678185474 0.16795371606492718 466.00258430973554 
1.9466016783384568 0.09933647332102326 466.18162582822265 -1.630246519071554e-11
1.9510680922687036 0.11395156477345263 466.1535788668455 0.0027964079883768694
1.9521256432034155 0.11202270564273452 466.0541964925164 0.0008618862576616284
1.9435224276108478 0.1037396505165197 466.12611234862277 0.004688467785889669
1.944563845888422 0.10255716287442224 466.07814344658715 0.0003921494970446108
1.9287257280824301 0.08222914032401621 466.05436353575607 0.004683878002328971
1.917566136207393 0.08512696567016494 465.98000087920093 0.00020948978795137503
1.9142517992812542 0.08579752058844357 465.96435894764073 0.0011452101974758588
1.9487239885265428 0.11464408942698642 466.02194011830983 
1.9387386808741347 0.09105587836535813 466.0740308519007 0.006515792091812297
1.9166595220436555 0.08860782352539406 465.91877234628396 0.0005125208287395964
1.9130784155668268 0.08681106718458326 465.9386520177989 0.0012339740277143444
1.912143167947574 0.0854412101874307 465.90419716202285 0.014872285083327805
1.9350960146515992 0.10997270868622173 465.9434840941974 0.005702972143084277
1.9336162323345536 0.10650973056882197 465.9363482676291 0.0008506048644851387
1.950165236486485 0.13054636920182322 465.96511266387677 -3.8676660094897996e-10
1.9522782260928107 0.14492830667217904 465.94481969674166 
1.9577341619888304 0.13608853642046004 466.124349469672 
1.9588319131315657 0.14635498057384716 466.0843625576408 
1.960846374823938 0.14154700809406942 466.0010042179417 -2.8539791530287134e-10
1.9569954199770934 0.1749983315897807 465.9145555009894 
1.874381870180247 0.05857121152002988 465.9409826706942 0.0049519008465769105
1.876570875455256 0.06074077630810361 465.9244384512725 0.005320589200799162
1.865090025434944 0.054532946519125734 465.92966769435 0.0031561585214373374
1.8492651678707392 0.04996830306823016 465.93156126087575 0.00418466397230845
1.8596747451318119 0.0512264124311203 465.94585387149425 0.001124256174691265
1.8193883527489079 0.03862303489924884 465.92952184379504 0.00015911551786346601
1.7371658982422555 0.04241092908022615 466.23381889845666 0.0017262765111812708
1.7289174865242465 0.023492926624404914 466.3235886232385 0.06698953942049343
1.7162743861103569 0.02988571979442656 466.28800246033086 0.0016910371462488972
1.7328101863394338 0.03809711773075552 466.2527377787354 0.0011646111860332097
1.741982284531069 0.045865906190480255 466.2006977684238 0.001879395385853825
1.7165498899859695 0.049738856699057164 466.2399826761003 0.0028919116063645138
1.698609249248214 0.05291143078759844 466.2840957885593 0.00338238721184559
1.7064021602081287 0.05592051624876711 466.24476304895495 0.003932173781270579
1.7119359997716046 0.04826277996675453 466.2567535611317 0.009476853014506684
1.7076002031682134 0.05847897226872722 466.21441131448125 0.006507907037900528
1.6884974818054685 0.06338026040070517 466.2968887241348 0.021755935412194
1.692465194953364 0.06104069211058538 466.28171170052445 0.002709357057610645
1.6946861457815507 0.057060433332729296 466.2979273033782 0.027732273700447625
1.704333067841451 0.04561611259329893 466.3129921624528 0.024701932449404027
1.6867388045036267 0.08945859175100654 466.2242579049275 0.0007902747163689162
1.6697825615342905 0.07005526738507428 466.3153377231349 0.04445268176500069
1.6802784216281872 0.07807660794491332 466.2684607935444 0.00019279396513246708
1.6909113377368976 0.08632479692963296 466.20234008152795 0.00038827620190035994
1.6828159670345928 0.09627290011515074 466.2205700893352 -2.0009977043864566e-09
1.683342919189002 0.10587474047669859 466.1893166200347 0.0019145061276249079
1.675664196540779 0.11625635986144639 466.18210065562295 0.00040615407641076084
1.6712102822205392 0.13234729768834969 466.1975603312195 0.004678739418557558
1.64600560262908 0.12056194556445139 466.2854027271356 0.0013841378507430955
1.6551715569300502 0.11298866309930342 466.24617291583775 
1.6411681569471972 0.14022710824242962 466.28539963217287 0.0009917880254952983
1.643370686831074 0.12530258260025826 466.3124449984169 0.029574671030238933
1.6538374226724526 0.1044550706823352 466.29948929064557 0.04230558779362707
1.6626610347681516 0.09319121694872183 466.27403951103724 0.0008163740218120489
1.6467179319754293 0.1626973210461574 466.29270045651583 0.004628249369484789
1.6453743727359844 0.18115567793369114 466.289611876684 0.0066671150382717715
1.6342278719868952 0.1714950940710476 466.32159487562984 0.12145242380020978
1.637618343499755 0.1811288604774059 466.3122032790089 0.0692603686054462
1.6522466710040236 0.1465714100799594 466.25289190021283 0.0032495538296412815
1.649106415464202 0.1777544293913901 466.2722210390865 0.0005363993713574386
1.650846518420165 0.16805185692787616 466.25575978638204 0.001486122753067864
1.6533511409031934 0.15284622015220103 466.2415630200788 0.0005854764448737802
1.6353621006623857 0.47106648079492625 466.285697708217 0.003413232467570705
1.6445076756298491 0.4412285649837136 466.2820365269749 0.0023221922110920248
1.6392242647560307 0.32310295825187624 466.2611153325266 0.0020280388964666724
1.6446884192996742 0.19671132046387807 466.25877919414415 0.003135561782323039
1.644316870610389 0.3534722941851694 466.27902943691237 0.01391495142205849
1.6432462511464683 0.3120132467981878 466.2718714449723 0.001242892580561162
1.6497300728645956 0.22267386067347422 466.2696304627585 0.0024667197673939453
1.6464705357121632 0.2569020204776975 466.25650429016645 0.009212313490288547
1.6418642146751041 0.5464474605696611 466.2778207905159 0.00930586052882287
1.644186250647375 0.4196418749655339 466.2627832030596 0.007484069806711222
1.6528743031711062 0.2921941617561227 466.2533218943141 0.011826764989633191
1.6407932611151057 0.486230773316725 466.2801923183629 0.006416217365261578
1.6457093958496525 0.5172158603598983 466.26210716963476 0.0035078553635214055
1.6413261166481754 0.49836859961306146 466.2648711638029 0.0017518589206455286
1.652532371168517 0.3704663658181614 466.2599455938293 0.01056371482559411
1.650784345844694 0.4017365265261185 466.2574937002772 0.009237861800319264
1.653190226199443 0.3812834307754039 466.2564793648725 0.00835900582804637
1.6378486141734545 0.5069162366661927 466.2809005709904 0.0026319655661402445
1.6533930821936487 0.28190277230593314 466.2538676734105 0.004556014014393622
1.6488226686354324 0.46250405344071094 466.2539442683088 0.009879581629517938
1.6490658865345127 0.510229190683832 466.24423742411415 0.002734756467912371
1.6542455828542784 0.39274452235803703 466.2459205396278 0.009533933969283925
1.6501000072134286 0.2165952507460497 466.2370732728123 0.008338682940880138
1.6490284954461774 0.481246402971314 466.2492348914596 0.005841361691487986
1.649056444354606 0.4117196973012009 466.2422965561015 0.009347024718811704
1.655962777687961 0.3724707943094765 466.24324004131637 0.0039202403924342094
1.6550119172189324 0.29613402820959467 466.23654171821744 0.009073555919329273
1.6519954364689198 0.25594610895048303 466.2352667070411 0.005650628462135908
1.649030213582504 0.23120799282824184 466.2173345006487 0.000345061720663522
1.652895437196 0.27393184863108555 466.23071924934885 0.0026489740986112963
1.6345673417236213 0.36427776423463754 466.2954970189509 0.0014489047038461313
1.6358914295044278 0.27280344794767963 466.2902947563309 0.01901809186261123
1.6450532054897806 0.2262485114206583 466.28620139854803 0.0011720323002270985
1.643427044681672 0.19776073382478332 466.2956230275934 0.014912553662346522
1.6381303299279757 0.3989307922652913 466.29189003658837 0.0023184615953325154
1.6412319036610243 0.20866666226972844 466.29534964809335 0.021353772047372793
1.6381113116522474 0.30677035198639346 466.2919070721187 0.004297339128475774
1.640433766280059 0.24103162697975627 466.28895116204126 0.014102628745205913
1.6400610962633384 0.20731621111920231 466.30569112744854 0.07118699363538006
1.6336331596479041 0.31550918732198324 466.3102005638329 0.03667284528417594
1.6334851695097672 0.5773955875109827 466.3082044797729 0.07091639284218731
1.6360744641578397 0.4974983368906064 466.30779001232605 0.07057475909781055
1.6342242466177703 0.21178465635359034 466.3237402473279 0.08139277674103036
1.637300520177355 0.3319909342389961 466.3100502049354 0.03692954963751007
1.6279665104380363 0.3622628684802358 466.3226017170135 0.08005004597781674
1.6362004188635397 0.5591810163021603 466.2975406707414 0.012901343789438151
1.6310582307454728 0.390897667112858 466.305734629246 0.09846471965382914
1.6359123443774921 0.4950773463784251 466.29664585019134 0.0032377554450090467
1.6314549315686955 0.3003554631421252 466.3235155084561 0.07431621592161318
1.6338349865168482 0.44136061511457053 466.30668114543954 0.04965992245169572
1.6304453885454036 0.4236278578074493 466.31260437078913 0.05991885843225157
1.6277561306086656 0.5981509446333785 466.3127233535405 0.012009993370546397
1.6363442302493474 0.29848888351737723 466.3119471397747 0.07320548109520876
1.6361015913545127 0.48757240399616725 466.3088254597139 0.062068713072044875
1.6385186577043152 0.5536836165063614 466.27058892364744 0.008517630923979407
1.6426554071591468 0.5931108159772542 466.2626571131652 0.01259566628892899
1.6334280833745924 0.6039455123071042 466.2821780985514 0.0019239609389898917
1.641803118967198 0.601186591457686 466.25663257307576 0.001882835969370932
1.640342773604553 0.5582374803188983 466.26013809005957 0.007878340534897246
1.6441080543129383 0.5742867045256483 466.2814383983843 0.0037545249464848293
1.6316852987917934 0.6279863305769885 466.2788589174481 0.03392475835810485
1.6310510913823448 0.6251184319845647 466.2911271580656 0.04600603876342423
1.6461651715141132 0.6263242742356754 466.23374707266566 0.030841616153856475
1.6496708100810835 0.5948877843554766 466.2348408634925 0.0021919119909469334
1.6507531919115703 0.5544849726021702 466.2405222982102 0.0029059206873183023
1.6568343252876632 0.29363402557713547 466.21786853692873 0.0016754752093335766
1.6572699324896571 0.3498033100345846 466.2221832212036 0.0006248023829966098
1.659714521122417 0.4096041290112089 466.2178946658475 0.00786630406725195
1.6521865713516328 0.3815213791299207 466.2239503756015 0.003992175299909177
1.6543394313170339 0.49078207288327946 466.2322528610903 0.0065465318265015005
1.6490987488590199 0.5306867768737911 466.2501424283315 0.004953283097459596
1.650974084293223 0.4689376152917096 466.2184250814318 0.009574485092142055
1.655270188912904 0.4951010350060355 466.21710694080156 0.005766330056191653
1.6468771386671242 0.45708986900838994 466.2322606350081 0.007833961131712149
1.6549929310849507 0.5161932107104938 466.2230377281064 0.0009202916712324715
1.6553647909384481 0.405606468793955 466.2302115416087 0.008408767248535332
1.6581092753363422 0.36500730995254316 466.2253840562917 0.003914521160830184
1.6567335224416169 0.57110382170072 466.1910741067221 0.00584031076706507
1.6542668265771439 0.5706668518240302 466.2041115502156 0.0008098446149226829
1.6567597648816403 0.6387458113169667 466.2011917231593 0.08715269406095325
1.6541000456899053 0.572575983255051 466.2183999171411 0.0018929851756914941
1.6526253726989495 0.6005600466242197 466.22245410359903 0.0022223943134141244
1.664854784288342 0.40085996321188466 466.1952951852733 0.006258330865462463
1.657871011753112 0.4382132266571507 466.215081708201 0.002757394471561064
1.6594587007504562 0.27041389389468923 466.2099258959062 0.0018010761329974117
1.659155181207009 0.35372524161719354 466.2090949306773 0.005849584575319698
1.6612089606303027 0.5432898685670797 466.1957926457846 0.0032157515235768743
1.662168464627347 0.42052678639050306 466.18239935839546 0.011171212434858484
1.6573882835597116 0.5351588338947042 466.2101328621719 0.004581836103419391
1.657148012153965 0.6078704722830975 466.1807228837454 0.0016203256680426545
1.6542416477007706 0.6501311260367747 466.20673080361684 0.05995343741361221
1.6612493982352248 0.6379138390426627 466.1775035664637 0.11686319957895092
1.6730964042984189 0.6534857557854751 466.14957553929736 0.08774119858896336
1.6571124046058938 0.6365071216894695 466.13709578568233 0.06657234973635232
1.6619276459958299 0.575426551581286 466.1702261259607 0.0041987321096841205
1.661546077945202 0.6192994395103449 466.14663746019113 0.05249778082217054
1.663146701327406 0.5636359873464826 466.1670219441765 0.004951894704208246
1.6578784689296902 0.5207358348785508 466.1720325289841 0.002247828487036106
1.6562669532848953 0.5114293637834062 466.1768207813784 0.001455566898745021
1.6659180124040487 0.44974157937506304 466.1735929255958 0.00871004453525042
1.6574914658690898 0.5413827970580574 466.17417192010254 0.004557011557611284
1.660178813060883 0.5890935662266611 466.14655937913136 0.003906657287091964
1.6612332431202137 0.6125568587388261 466.1451646792128 0.002920030172685614
1.6620539899956253 0.6157593922650919 466.1102472941097 0.00582173919252591
1.6614642167653677 0.5550668660682082 466.13165307519927 0.0035690072771783366
1.662013959973733 0.6077136496691249 466.1382908469683 0.004881535840270648
1.6582541864141558 0.5629891068754695 466.1392400254375 0.0024987227204010024
1.657387627846896 0.4885446642833267 466.16823613343144 -1.1260447927357047e-08
1.6589771454427324 0.5424589411699571 466.1519217944321 0.0034910656828263205
1.6567587180768457 0.6214253608759561 466.0330388825121 0.0026958023486276725
1.6619999017930494 0.6143513756244972 465.93354203856046 0.004803989006000492
1.6677110582754529 0.5576955918119287 466.0219780289905 0.0037860337739773486
1.6691454620254451 0.5261800761551475 466.0125592686352 0.004170737139876656
1.6713597179118598 0.5187001268960036 465.96039412076715 0.005089960731458503
1.6609261292081505 0.5560968238777478 465.97538620541235 0.0030231758561319513
1.667227175096022 0.554717115616489 465.98749389807654 0.003539794522187012
1.6587851203611674 0.5830757731813342 465.93662650775946 -3.1224827997128366e-09
1.6662051540184064 0.5861362085862117 466.04336736270045 0.003239203211782712
1.6699822536563536 0.49291076246524307 465.9730525184791 0.001694302166514584
1.6578584316954925 0.6434407710523378 466.0700471761966 0.02392465752968781
1.6690182328868892 0.5445381154573531 466.00659859207855 0.0039048892433627635
1.6626910505597292 0.5914927830258552 465.98083674826205 0.008851585783623512
1.6684895160830382 0.6396844040468879 465.95964670724084 0.061051717680399194
1.6644091746000012 0.5957747201152469 465.96329637440573 0.0034081410539191087
1.6591535881920052 0.6324694681067605 466.07720136917686 0.05942174010265094
1.6667874655309507 0.5148550890887919 466.00268900533956 0.006951686787615638
1.6649853403684238 0.6065110876612392 466.00840495002774 0.01455517332045053
1.6682728637252817 0.5296440902395616 465.97525282530006 0.006099199140150672
1.660491015517074 0.5874669560374209 465.999179017908 0.004479528203233139
1.6667080211776673 0.6386706527393247 466.02179839961315 0.16279026855435993
1.666492821367337 0.5711649719245183 466.0295451020417 0.007882470608177759
1.666577762010155 0.5476330057688744 466.0388770726564 0.0005433851833702082
1.6614943083679932 0.6412318335569777 466.0023111752591 0.0341512655972311
1.6692879758708143 0.6170346072033874 465.97846654281136 0.005022576979300398
1.6677676910987724 0.6100389447327301 465.9732488141524 0.003300930458183036
1.6577848843344576 0.5992909556086913 466.0771991771757 0.0020219347303660406
1.667050305800174 0.5882636711524352 466.01841298847165 0.006066181293014893
1.6645820611658428 0.4689350788120764 466.1004671506621 0.00883431826061123
1.661287612819382 0.5214029598725356 466.12893346897687 0.000919847657706457
1.665674687582327 0.47236478038538376 466.1497943121046 6.253022767046629e-06
1.6670553572742839 0.5283894089536184 466.03996306309205 0.00396127535802086
1.6658149083418903 0.4697762596904932 466.0505906358358 0.0012255848881586801
1.6675312670168292 0.43323799252899164 466.0486735500007 0.0034126264619601765
1.66207585611018 0.4751449067165767 466.02227750750194 0.014394896917224924
1.655837230938489 0.5283874676427989 466.09606484909165 2.4842479844254724e-05
1.6554717748496728 0.4903120755397788 466.1264442385705 0.004452031969872856
1.6626243764382378 0.5891195137336779 466.0809165235345 0.004953231731099855
1.660904816525586 0.5996303543971954 466.09034344410213 0.004610139885094674
1.6620497834244867 0.5614464848607597 466.1055219240445 0.005080251355255038
1.6602696456242454 0.4450746523123522 466.1179016487337 0.01012726997406767
1.6567232249598849 0.4343905378994508 466.10214513620537 0.00456536849658345
1.658424527363572 0.44080804178367305 466.07113013800733 0.0013581223201098302
1.6714794751639932 0.4248422169025334 466.01801429959863 0.0025601498281398304
1.66759926997501 0.446433248261539 466.02788508835755 0.006287362312437661
1.661720856344303 0.4639063428558097 466.136345738888 0.01982964537601528
1.663101364291561 0.5457282017653775 466.0910122633984 -4.114118966654545e-13
1.663752827479214 0.49682104334928745 466.08940685239236 0.0005686320121234148
1.6563709449547637 0.4225258910963305 466.161941381743 0.004845049953480689
1.6583832043244666 0.49637864310969204 466.0271691622694 0.009890362383216732
1.6567344044859584 0.47898938564214516 466.03965115242937 3.480518452304689e-05
1.6596820085735797 0.4819859952823619 466.1051393595375 0.004607306409361402
1.6624199077683224 0.5617483423211783 466.06389978580006 0.00012267316214086831
1.6639512139132588 0.5017815827185714 466.0755023115785 -1.5716276334320167e-08
1.672300489576456 0.26602618288835256 465.90892142624676 0.0004112663734520097
1.6655077749882676 0.48170565350445016 465.9214693396727 0.00042507281033198746
1.6740918543686738 0.32189785955441463 465.9267586089842 0.02054814366917507
1.672146821229195 0.46926359607146856 465.97082030364066 4.109253075384365e-05
1.6702955389357972 0.3984302669061949 465.91468765351783 0.008982269612701972
1.6717051163282128 0.2943329591450165 465.91839090215234 0.0018169150426261631
1.6680891521192405 0.34407312381023447 465.9629261656978 0.014005850159030124
1.676521729445879 0.2584154654122138 465.9193580033791 0.0022177974216891854
1.669689083646078 0.4942236749914205 465.96166849201694 0.0024026733857160955
1.6643148027276926 0.5265014816297997 465.9179331236894 0.01082561069640578
1.6683329805830593 0.45273610722512825 465.9436442060088 0.005059267710661874
1.6692311216499094 0.3948372449140053 465.975401484959 0.001900492443835736
1.674576631445891 0.32719335772863717 465.9263572524487 0.019793096959984977
1.6689810386688324 0.5169711136105857 465.9448447620367 0.005623241034251127
1.6636267891233218 0.4130275793131179 465.9274179555673 0.02836378220105745
1.6731691451947917 0.4559191341309444 465.92522913988614 0.003220047645272516
1.6726440309516113 0.42363950891461527 465.9855229342523 0.005025754156080499
1.6734015652380896 0.4641430340839824 465.9136483645722 0.0035381777472756975
1.6700759674608026 0.6294257341159795 465.91661575448194 0.023895359770707104
1.672333270182474 0.4216020061435602 465.9656965372294 0.00283884521554507
1.6747996686501498 0.32726492086502273 465.9384951680551 0.008313626189154403
1.6777272917091877 0.24148690102179654 465.9190685308558 0.004754219700568557
1.6661897034269844 0.5085499050430861 465.9275450781288 0.0083052530614082
1.676606158365373 0.4340402419624422 465.90948322941625 0.017665954563942852
1.6616971417743847 0.5356306927615725 465.94767039633695 0.002481165090725736
1.6696583742003943 0.38871544315662815 465.9395636493994 0.007109283375941055
1.6761213694476131 0.358029426434985 465.9066790971154 1.3481455339661595e-09
1.6705823262888977 0.36832413830038685 465.9713714825847 0.0003827753644002192
1.6679211850571318 0.4520851612359622 465.9796254931733 0.0008248953521297112
1.6641203787901822 0.36058913771725776 465.92694383029925 0.0014133545552194133
1.6701011733229292 0.6076620956324645 465.91040307249375 0.0025932173392871783
1.6740551336764034 0.1885142560600865 465.9233562626748 0.0044226343565123925
1.6749824174557166 0.25506933274971855 465.9498695089541 0.00022289529599419993
1.6691124430079398 0.299327656337589 465.96432862774105 0.0023425595170624147
1.6719711104647696 0.2774277625574409 465.9346514294231 0.001753310901578429
1.664073011452487 0.3744746530056306 466.05686483082354 0.003613280984070818
1.663667150926503 0.3259917593142759 466.09351594821703 0.008905555319208218
1.6627920210788698 0.4131539429835201 466.08199583229265 0.0065319814617113316
1.6639919816794386 0.40649638477224237 466.05558281273846 0.0058980836038055404
1.659539311906748 0.3592631533398724 466.09843442334915 0.0079156212111392
1.6676986054485878 0.37831391751186666 466.03479540170576 0.0028609315343817126
1.6588954370191469 0.2901227161064902 466.10089254513565 0.0012822466498655322
1.6707794710171144 0.21091229416356552 466.10633194111404 0.008217074142428034
1.6665950964190024 0.266900720183003 466.08805669401653 0.009639610556797079
1.6672078849002365 0.4138161940400565 466.04948262043894 0.004091339869373978
1.6650735033361062 0.3664117391895478 466.1269176434696 0.0037922016644621075
1.6711933738951574 0.41797958961811427 466.0091011403891 0.005143763655420368
1.6612015959118391 0.3777272779916668 466.1438918897455 0.004221369115056987
1.6616665306707303 0.33176136602838513 466.15444608647095 0.005131406812961572
1.6623277292891914 0.4117235298363772 466.1640760021818 0.0100408367286226
1.6685857950825653 0.33926007968006755 466.07553362325547 0.0016238643179920186
1.6638668041387321 0.41370255146171453 466.1043134666251 0.007131519712004316
1.6607309190021726 0.34364660992690566 466.13968603589973 0.008421534487260273
1.667026664153155 0.36067678736278586 466.03321804435353 0.0034871520318407946
1.6710926503968244 0.31073649686584137 466.04784676330985 0.007565958639635286
1.6618453373573623 0.3436618962756687 466.04061348406907 0.0019761375963345705
1.672249070801117 0.29070302208900595 466.0498023069807 0.0099130990061757
1.6637506997820537 0.3639097255466759 466.1616274444491 0.004763971945027301
1.6648781986164412 0.4060428856627872 466.1336335387415 0.005337377156718199
1.6601730630708509 0.38756856090600067 466.10638279106894 0.003987507276919997
1.6639615668024432 0.2599112207814651 466.06914265344955 0.001281638644338478
1.6678367104509126 0.3509336699642553 466.02281798578963 0.006095395886578393
1.6676093803508663 0.2463673965748611 466.12539642319484 0.0037174107794671362
1.6588458581167282 0.3867013975411463 466.14992081578043 0.004421574561871537
1.662213634820905 0.39764494063568945 466.1143592077289 0.005890412455984348
1.6649046016955695 0.39691937014665746 466.07682456815775 0.002846226078528738
1.6654077279566775 0.3347196988741495 466.1110196207925 0.007020005968755684
1.6665377700346262 0.2974129088080173 466.0826686768449 0.004622595873448049
1.6623660159808444 0.3981329777243464 466.16087505789216 0.008988808602563153
1.6655250794987455 0.26887689158500216 466.09788355170446 0.006840694303192107
1.6713303356053961 0.1945602156535875 466.09145377572486 0.005040026323346216
1.6687074404922673 0.3751594679812578 466.0199733162868 0.003472410756687281
1.6627634249288594 0.38845943171472713 466.06009040698405 0.0036321877461716477
1.659734505373486 0.29867785232425953 466.1166311681556 0.006409174396787707
1.6649556791388038 0.23769224749060494 466.09793745045073 0.0013974878228541288
1.657390495105675 0.37207321952570704 466.07779477115486 0.006195302372337722
1.670335996095286 0.22979020246892012 466.11479909262226 0.0013598751918792761
1.6726256137901847 0.27565403961406515 466.0429378680444 0.004534790716241558
1.6689229496052107 0.33903519649008584 465.9832016227087 0.00048301061569888914
1.6668923245236398 0.373950634616863 466.00347739578643 0.0009497520555343578
1.6673094962789188 0.23035353735642372 466.0415654989446 0.0035324972341321454
1.6669829335483082 0.395249100506625 465.99991441910345 0.0010124722593169615
1.6675827596432533 0.378808055341905 465.98956463133385 0.002333803365424393
1.6633754068333917 0.3044490599121303 466.01211126124485 0.00426071651728273
1.6655765219922514 0.32457646139374635 465.9795153814897 0.0009791291351379636
1.665849713636534 0.2884021519751501 466.0104026508174 0.008145732544932753
1.6640886465698856 0.30600279351306864 466.0147764531398 0.0045139533569046476
1.670720267939429 0.18951440385116433 465.94957130587665 0.0034732478768503368
1.668332267251878 0.32918538694309385 466.0227076150125 0.011604716787698123
1.6615496254657118 0.20959510460476008 465.9868567372839 0.0002728866779477051
1.6694121007907146 0.21041526595399934 465.9517039582213 0.005010080246193942
1.669251276914013 0.26294631896218973 465.9917557215729 0.0006487040359078542
1.6699368080016117 0.27202449054457867 465.96461320978415 0.0010247735758655524
1.6690763854321438 0.1966231184479631 466.04129672865986 0.005484254877869537
1.6659506278327225 0.19126379861309584 466.01402427419055 0.009001698284904573
1.667930064498247 0.323590489326162 466.0246587589217 0.008914611319026707
1.6645447744404493 0.26372212068797835 466.01157593739845 0.004959711689063293
1.6648360762888839 0.2036155195207842 466.05015684547277 0.004145351625368567
1.6712795685844353 0.19763223650421427 466.0811423627693 0.006105989301408534
1.6680393615699232 0.35985722093673794 465.98142590467694 0.001422936907072971
1.6662565795045172 0.2052803802360995 466.0239315540016 0.008638472820754342
1.6666965356628565 0.22813119819669705 466.07699316751865 0.0028950316042983737
1.6719152425047827 0.24387122958228136 465.964433068574 0.0030086330983492915
1.670358816279242 0.20562422946271497 466.0732795224324 0.005996331737393656
1.666406643886687 0.1782814391842582 466.008235604207 0.0014404395001808008
1.6680228667771684 0.29068606237212163 465.9875217886099 0.0008079048599698565
1.6681932636742327 0.2621944066513564 466.0480996803556 0.012074211930726823
1.6710355704739597 0.2260503087491705 466.0247914550779 0.005651731150363628
1.6735893424856405 0.1813587761409048 465.93928898077763 0.005026888261998674
1.672014970433511 0.16376687610151724 465.98247198638666 0.0020679568766963636
1.6724799748904178 0.17095520900974961 466.0312199917743 0.005758036314206122
1.6737231880401862 0.1795325220659771 466.071762043923 0.005181327170255265
1.668069369338871 0.17977823934415996 465.99772933731145 0.004525499446058575
1.6708723240888834 0.17117261891380986 465.91867810698307 0.002702568077130464
1.6742141698877362 0.16595979377411468 465.9466482525784 0.005880300122700978
1.677693892002267 0.1539361312096211 465.92155307237516 0.00985164515209043
1.6745370670504784 0.16931671753980743 465.9649545494607 0.0027923867155322307
1.6680224939057942 0.1897976510020227 466.10745008952307 0.0029559758407209785
1.6604626571122285 0.32846974433463555 466.1695363946827 0.004385257869606157
1.6549760372946982 0.31315771123508973 466.1501347069761 0.0020174727055308596
1.667598067917568 0.23533942271333042 466.13676031025363 0.008431742945245877
1.6630145108605157 0.2662311347614829 466.1298821289059 0.001202488983806759
1.6601620662862848 0.203220239079021 466.14352596440676 0.0012117957057101781
1.6644690371735704 0.389667501423435 466.17719247466016 0.003035455209836918
1.6639190588477235 0.25419061649047586 466.1545371254504 0.0008493071399470417
1.6653505886655815 0.34921835424366365 466.1566516097718 0.006770725623051944
1.6652244021611684 0.18721707905826185 466.141392157043 0.003773427728426758
1.6679437931612944 0.16520506062269547 466.1101746808797 0.004335485904650965
1.6666216878404274 0.15654968532767255 466.0556070296191 0.00402409153448593
1.6731275960049914 0.15863132493035825 465.9854251290275 0.0019268047257977494
1.667780324450414 0.1638410698533434 466.11708633931977 0.004183337167862521
1.6719451748393983 0.16236849758422117 466.142669399987 0.01584163172659308
1.6804360216235705 0.14218348318987925 465.9386334739643 0.008586111329795839
1.6738189658674718 0.16187581173306265 465.9353380386659 0.007045854851143215
1.6728553090459328 0.15898124145906595 466.03438254618396 0.011339770230150679
1.6816723855967448 0.13812585731815194 466.00248543233226 0.00014281397060167918
1.671106386752578 0.15524992461655468 466.0749052125955 0.01913107890088835
1.6689611382331562 0.1646737770248696 466.1576526772827 0.004924692570878489
1.6663762169109535 0.17979752236817623 466.1627255046999 0.011687633798335303
1.6750109526448311 0.14318588312779568 466.0905040811544 0.0020349690484865236
1.670220330569455 0.14816158818715486 466.11891253952354 0.004384186642192439
1.6720276245208254 0.14941511601391683 466.12771059165266 0.005244235206599547
1.67899972197558 0.12588446096673828 465.9280363932978 0.004433688052194986
1.683674904233952 0.13720431543557038 465.9575075542072 0.006454550321286378
1.6828757862378123 0.1180723612526542 465.9631994668453 0.009876659713466974
1.6786384711628695 0.14081119883804843 465.98337150346754 0.00746208868404031
1.6779121401647892 0.13511375709765433 466.05528577301453 0.0029408844635896714
1.6829101622073581 0.1162692331145898 466.11033757258366 0.005850421791469548
1.6847698444690415 0.1294756963446209 466.1325666117309 0.0043365926026549375
