x y z curv
0.3458066191018031 116.91640024606943 388.7280483437889 0.0017930986355075972
0.3438328083072811 116.89977696777234 388.75793122282926 0.0029555993382529414
0.3490919774492046 116.91764964457988 388.767099479255 0.0017709716333886246
0.3360272013820685 116.8913905615096 388.736442658153 0.001965119538248756
0.34815327066725316 116.94248922022646 388.70053116112035 0.0018119225394064807
0.35476415244749393 116.93884696746379 388.731525467931 0.001813995077243356
0.358803809021685 116.94427403928574 388.745993743472 0.003634445399144932
0.3579236536841774 116.93501173714644 388.76859069583617 0.0037972373647009528
0.35944726916314435 116.9373015368501 388.76430376264494 0.0026134441714954194
0.3598587622412736 116.95851560197475 388.72983314714736 0.0011037087089816786
0.3619892275253447 116.96590437503566 388.7560687276827 0.0034734878139502444
0.3619276386253658 116.95052449257159 388.79713064864023 0.0034312503731891357
0.36145410914064857 116.95579657591767 388.7907590066674 0.003170530966523631
0.362034973248738 116.96921772244067 388.77498084078013 0.0017925079561218406
0.36642977924326803 116.97061900294261 388.7941352951958 0.0023119924542465238
0.36809167405749726 116.95157864404744 388.8309779999206 0.006437674969335345
0.3575444010915705 116.93354003171648 388.78297864209964 0.004170384782397008
0.36397926928542995 116.93704259572706 388.81337357734617 0.0022826236165854317
0.3630021146621749 116.95459000167457 388.7995760290421 0.0033811138241213235
0.37630678376746224 116.98931598304877 388.8227434287591 0.0028158508758209747
0.3743803131600414 116.98380726019482 388.81283187066816 0.0005784297822584571
0.3718186995549744 116.98873232922311 388.78701108314596 0.00485237050928956
0.36866845021505373 117.01061308775647 388.77591742042137 7.143569745563136e-05
0.367183349308139 117.05110572734537 388.78866956975725 0.007335660276757877
0.3701303347002249 117.02236900323211 388.79663745997493 0.006873685886575875
0.36501238730728625 117.03498952627656 388.8131922395391 0.0021574620796706804
0.37480013101133236 117.06711443459852 388.80927220618634 0.0021001897247005887
0.37441749033076055 117.0724204090906 388.8192286098893 0.0025976244785208195
0.3749741920976943 117.0849748712854 388.8131434526417 0.0022622593845649987
0.3807983716775133 117.10678555015191 388.8373823618418 0.002512216977420247
0.366569436611682 117.14025890092582 388.7582842074746 0.0030312287631040235
0.3696022631092176 117.09469991484494 388.76345075995175 0.004644579396408152
0.37161259216856385 117.10702516270759 388.7824544263363 0.0033149928546182456
0.3667624630672681 117.15973584834714 388.7799495595829 0.0027561157301602703
0.37013932650287784 117.06604043929369 388.7668912029047 0.0032681863885401083
0.36270124464783493 117.03249937169453 388.76674223860283 0.008541420230942124
0.368708990939291 117.09813305513525 388.78392616419154 0.0026855497041965164
0.3675235684691396 117.07425014255519 388.7826372267288 0.003762811574193928
0.3725215755350434 117.13668907784579 388.8058386086702 0.0022651710536379997
0.3737137136282079 117.131583866239 388.7927613934778 0.0015690082084469964
0.3716427240048001 117.13541595068556 388.83167892612414 0.0028027045695600515
0.37063180561293146 117.15640848126588 388.80540025540057 0.004046654044125988
0.363775601177579 117.00789795036378 388.7625707675478 0.01754492075059712
0.3589555334695074 117.00953639160555 388.74007944830385 0.009150124423031324
0.362215415485243 117.02575930442194 388.76151092090805 0.010465601924528058
0.3617812976121451 117.10387428064614 388.73114160962496 0.002390295962408769
0.360863822540924 117.11324293922947 388.7244027173347 0.0014232734302471988
0.3637091259162953 117.16020568170535 388.7464320523094 0.0049735941924320196
0.3658872254511591 117.05530235548785 388.7374820131932 0.015534529038356405
0.36828832750602153 117.02925375926485 388.7324897846303 0.002866310816475898
0.36304282938874405 117.08559594113258 388.7453615222977 0.005618230814589912
0.3578991258825924 117.0820798259383 388.7265135235658 0.0023852802503141653
0.36707784666018634 117.15240302213964 388.768105105085 0.004012226867349031
0.3676094665498129 117.17145856708325 388.7982936533064 0.0034087018812369954
0.36697905688690585 117.17387442446909 388.7770297725632 0.0014758531738964713
0.36917677164239526 117.19486230978359 388.7812626942274 0.004136851354983099
0.36687169333329006 117.19305837472079 388.7715732259221 0.003018423504909732
0.365360409948122 117.19318866271891 388.7534187050522 0.002181494917947688
0.3677453270194164 117.18217400177502 388.75857954733607 0.0004153963917594023
0.3625282510082615 117.20435766535002 388.7310261676588 0.006557017690295856
0.3586248522324153 117.1948848784166 388.69602935688494 0.004499636107275538
0.3667272782733435 117.1806651575008 388.71442048625687 0.003540569113042272
0.3574000121466584 117.20962562361349 388.7150602819145 0.006352862926632455
0.3647637279869689 117.21859044637019 388.74567184225066 0.0021236692737579463
0.36351302405851316 117.24152567165919 388.73301670113415 0.0037695587374255756
0.35859855783896455 117.22068337976755 388.7261930084378 0.0015442661264502876
0.35930035220813955 117.23375577503379 388.7034841806733 0.002855431674740945
0.3626877697076217 117.23981076812176 388.7277980041463 0.003158698514164545
0.356932168161697 117.25252213294559 388.69279267914123 0.0008241076060667406
0.3636166405373831 117.25150076038068 388.7283498386421 0.004212187426186225
0.35997320577673153 117.26544733342492 388.72322859756713 0.0004990414857794251
0.35709531455684557 117.25060525891918 388.67396498929827 0.0004967000969719904
0.3551645544773506 117.26295153833 388.6699958603048 0.00015114252467616284
0.35737119314386845 117.25983013232343 388.6828754391999 0.00035322704721242175
0.35561162369888855 117.28487441899804 388.69407521166335 0.0009231702527935405
0.3552318772563595 117.30626063975897 388.7042478116266 0.006989984053424593
0.3520391397317465 117.33189491661567 388.66510979804957 0.011587801040850923
0.3548497981015468 117.2925059977982 388.6706745098195 0.0023042836884512017
0.36203358869110996 117.3573881428133 388.69187628133926 0.05008774403111298
0.3546067251800435 117.3466898455923 388.6700803676253 0.09424669196414442
0.35182760017445264 117.32106277998949 388.6912934269647 0.004354577397476923
0.35973976860481277 117.29382271111517 388.72623981272517 0.000811402906267335
0.36433284886681144 117.33475642332235 388.7278874628227 0.0021961397017140616
0.365029101213197 117.29612484181264 388.74415173312207 0.0003981681148298144
0.35069860610647335 117.36386429442564 388.7034747352996 0.0421593448770463
0.37289630509749583 117.26257273555177 388.76194973063593 0.00031015501447591157
0.36942694996768494 117.31188297692137 388.76804364551145 0.0022566434059002943
0.370181326416634 117.35120205348576 388.7458843623859 0.05719204958450641
0.3736727454666351 117.33452926266342 388.76280884613533 0.016714266304677646
0.36428228768552834 117.31331972234754 388.74679181997544 0.001189125324629403
0.36504166005262517 117.36838638532763 388.73304983260886 0.014543297106436115
0.3762843231220252 117.27490514913565 388.7857936344442 0.004304904655691482
0.37250543558194343 117.34926228651939 388.7658194304639 0.04414324812964261
0.3741953096563398 117.30969418124653 388.79301906146327 0.002285984388379766
0.37885597251803516 117.33182431354668 388.8005128013124 0.004792909479847523
0.3812173829613792 117.32745606359144 388.810501209632 0.0061772366930616844
0.3801004874292376 117.28119949867447 388.8141721875796 0.003086645807467976
0.377157081363151 117.28104420191843 388.82125184134173 0.006286315666140448
0.38452652447624003 117.2567624537927 388.81609234858655 0.0011473732007417012
0.3761242707319078 117.23550329862555 388.786794677939 0.0018654440061075482
0.3777181018303442 117.22628815714785 388.8148869482936 0.004303786563171835
0.3751300431190755 117.21540413356298 388.82865787797135 0.0031967717710190274
0.3755352978437286 117.20578075610585 388.80499317563965 0.0025169351484780763
0.3774199841272975 117.19471073466117 388.8298537029523 0.0033065131940779886
0.3689160021496602 117.18138446778937 388.8100303335944 0.0021106502425930233
0.37480520900515163 117.18007203459119 388.8281530233242 0.003180326015901509
0.37192611840697654 117.15410281677364 388.829270071718 0.004370739076328
0.38443868669076253 117.35090440997257 388.81396750505525 0.01390421342705143
0.35260774293999825 117.30416889795862 388.65451705829065 0.011460217102092617
0.3536420215976445 117.35244736870197 388.6444896095422 0.03871044468721193
0.34651894838195557 117.29850294156233 388.63737554442645 0.0024321862495570203
0.33964162070098763 117.28428456684632 388.6208763194829 0.005861815435404956
0.34316424992456096 117.27745877232076 388.6325389637505 0.008761740205680352
0.3524301252369092 117.31274737415144 388.6321476762805 0.002834585012640228
0.34318025542784036 117.33747886720859 388.6049074823974 0.01972528813922981
0.3370552604447733 117.33406183131875 388.5914959234847 0.04203003877878756
0.3441255301125177 117.25068404007202 388.625707174031 0.0037160595024658604
0.3370488585669946 117.36068060031869 388.5770549957452 0.08793158474333422
0.3198989427038178 117.34148700401099 388.5501679929237 0.022351510569073273
0.3269445714610856 117.32154314870573 388.5712780428601 0.0014406352169844697
0.33081528698366996 117.32500191895276 388.582548214184 0.002718782650668531
0.3429164974297955 117.24818907909308 388.6168816670045 0.0028822383428066655
0.33719936819457996 117.26862905601439 388.5879376388544 0.002192500259312263
0.3292460719864776 117.29386419523799 388.57387717710867 0.0026637154403724495
0.33890627890307934 117.22660535728981 388.628784643866 0.006263073035228298
0.35880248407539755 117.22723769097036 388.67651046428375 0.000535650556311004
0.3624480149790324 117.18334423960381 388.6849585509775 0.0004015148567668242
0.3413164493497906 117.20535090746999 388.6336890037619 0.004394487047808
0.3362409559224557 117.23696218053905 388.60018994954197 0.004712231245109495
0.3456106697924801 117.18921091346061 388.6445588969441 0.00038942155662213373
0.3379430693734814 117.21260166400424 388.62235460413905 0.004908427679591929
0.3505269915943767 117.15417616279728 388.675566560595 0.006391102258794888
0.36949074659380077 117.1304395619444 388.7287364496869 9.747149236742685e-05
0.36135094500112525 117.1548866623133 388.73582863713114 0.0036140280553287
0.35505517284841986 117.14441730540726 388.6902498174362 0.005114829574756535
0.3489945978295343 117.14888558679667 388.6636409477443 0.014497385431836596
0.34831110452866754 117.13593219655112 388.6624680852558 0.0017552302106186135
0.35285398285149805 117.11635749938043 388.67053921507613 0.0014509055272162192
0.3551701079753196 117.10895582746429 388.6816326913948 0.002384770248099926
0.35069810981415955 117.10373783787892 388.66698609422247 0.010684767883024075
0.3524796391920607 117.16013614096686 388.626009082328 0.0001920399927824891
0.34515323293014794 117.14009076428674 388.6414794468802 0.013225396980445805
0.33874102979533954 117.19166475686198 388.60610717073564 0.0142543992371679
0.3392146125146555 117.21197391316879 388.5967759287797 0.0019936386556566135
0.34373038590169613 117.1339236533306 388.64141904477276 0.013965250503116753
0.3419974681640351 117.10432217346298 388.6401390617027 0.0009113790686508205
0.3454032097001094 117.06012039472544 388.6614587572071 0.005811159339528469
0.3472158452137828 117.07273833482027 388.6735098557948 0.0029048851774972537
0.35517149321794594 117.08652858133792 388.70855691122836 0.002905755650938501
0.3522813669223882 117.04458173778406 388.686322690373 0.0016265645070773133
0.3557225094628428 117.01074060003958 388.7070580866908 0.0065402717625301175
0.3516218557317057 117.00966492701109 388.67911712807677 0.0002922517238784701
0.35189247506238375 117.03299516720931 388.68010815083454 0.0012288450181011587
0.35598438283367145 117.05471284244867 388.6975530751085 0.00042144927384419234
0.35425360523434446 117.02900511997301 388.69809112167474 0.003470078377119413
0.3483942684669033 117.01130645106014 388.6445965158692 0.0012929381575832034
0.33994041328976826 117.0048891284183 388.6166262297319 0.003754599130899907
0.34627249054182035 117.0467651250138 388.65552941561253 0.00019724315135819594
0.34822568374605256 117.08441908404022 388.63832945786675 0.002327492331284846
0.34092626945686444 117.11047607642172 388.607677538788 0.000295538355355293
0.33834976987670107 117.07706419042024 388.6080874258925 0.003433714777267544
0.33844547225556193 117.09395428368254 388.60041840276483 0.00029454095803207005
0.34066804464264233 117.04947810001 388.60680972738726 
0.3509099697283079 116.99715323133871 388.67070074830076 0.0009404725657507008
0.3537823567233606 116.99868053785752 388.6833883533601 0.000290621326186955
0.3420893171587827 116.99467371954576 388.62468110669636 0.006103008599859787
0.3399750106213885 116.99085541465516 388.6309821715287 0.004839952300235281
0.3402208016653156 116.99386045587913 388.61447058419174 0.008205561155297077
0.34108253652163556 116.9867695009005 388.6046219284888 0.0030705869808139614
0.33765124395840374 116.96215971222959 388.6183791763164 0.0038959698492193806
0.3388970759990105 116.96451410876514 388.64214985914873 0.002336445822427949
0.3495573203245001 116.9612017879631 388.6780986460759 0.0002662184297024231
0.33734207747456096 116.94629245033327 388.6469289058338 0.0035546801781321637
0.3343378476656238 116.93857675253649 388.6357283704756 0.010517718139555942
0.33055356115746964 116.93326016122192 388.6229539469584 0.007490541467212113
0.33578178619568466 116.93412397946244 388.64762793008214 0.008642419880732777
0.332529923467139 116.91800979282509 388.6659800970198 0.002045053214481164
0.3343790048913695 116.93035154812753 388.63870946950107 0.008506362257168453
0.3164960514209985 116.91387375905614 388.61923110294083 0.002687083302709581
0.32262352534005984 116.94238375505553 388.5916971232307 0.006106530510739931
0.2969694636031174 116.91655608095054 388.5639069509407 0.00045597414000986665
0.302737291639875 116.91157844342 388.59026027735774 0.001174914978076301
0.29788659792053845 116.9116240869917 388.5735961203959 0.0015966161567311165
0.3222927282040562 116.93409339047486 388.5926910142959 0.0006545415354928302
0.31367571884761164 116.94984829328283 388.5645377165261 0.0009632391381470649
0.3257458058655972 116.9765429334194 388.5733730473062 0.0015490052636777899
0.3232207445915615 116.9756024253619 388.5682700322001 0.0018280236652203868
0.3227347563325484 117.03749428065925 388.56718431237994 -7.738200796463306e-09
0.32769018800865707 117.06163539295953 388.5841702666619 0.0015756774365602814
0.3359847263929223 117.11494683735548 388.58806616863586 0.003969489154676301
0.32953705759178276 117.14191419827102 388.57730107897413 0.000987053678984863
0.32532048467814756 117.11452972124054 388.5548384126823 0.013534206567292945
0.32785235106124366 117.08989400381249 388.57320696371164 0.0040681684145611125
0.3296672014347501 117.09952484623882 388.5562852686919 0.015568888445472905
0.32882959189859007 117.14882871593645 388.574013838858 0.001134938874132352
0.3254834939122479 117.154970966714 388.5588554773594 0.004460192900717421
0.322826522764339 117.15061673345961 388.55640612078247 0.009955669308713977
0.3277296051396498 117.16894771688337 388.57770900334253 0.0012128159656098684
0.32156306863394446 117.18701747446757 388.5565992496046 0.004903978904668009
0.3309624084786069 117.19592567748943 388.5766902154118 0.006598521260509496
0.3334947231367833 117.23374197574734 388.5727581103291 0.004094373382751621
0.2902352146789194 116.89445876573579 388.5826167238872 0.00011038775381880515
0.2815834587445616 116.88017242837942 388.5858734913589 4.036230747332364e-05
0.35814626134811434 116.96523804001137 388.7247534468497 0.0023249505695123246
0.3578269375025711 116.98300079084339 388.7253559776906 0.0003081181886576358
0.3553071026321908 116.98561978710408 388.7090016089651 0.001068388615458018
0.3596439095749603 116.92577376089443 388.8027147835697 0.004753339999435785
0.3666403534191231 116.90795339973128 388.82789619108627 0.005872326631894656
0.35161727666835524 116.90237420220136 388.7891142889195 0.001956335521981359
0.32944724981920676 116.86446998620278 388.75736848790103 0.00030513886906453154
0.34282549604528995 116.89446798791359 388.77101842490003 0.004720820234643699
0.3364474123383661 116.87963493382496 388.78372924548313 0.0018601312598192372
0.34743757101920203 116.86650440203552 388.8277222874392 0.0036264403405104704
0.3178412404134826 116.84133137265508 388.8205096414395 0.001330339980360872
0.3106632579681311 116.83792443622377 388.78945617570315 2.3737558943482474e-05
0.32001899728374983 116.84392113022075 388.78780708595286 0.0026311938755698245
0.28150103967636136 116.81611533181446 388.77206478808176 
0.29457982215794215 116.82263112480469 388.81220642059213 0.0014603675777011913
0.26762441057088016 116.80458557027639 388.8092603858427 
0.1633824076399842 116.7914705467256 388.78388973635 
0.17378682268139078 116.78555577273646 388.79900806904806 
0.12470675835737495 116.79782312712403 388.82029700237683 
0.10158936712414843 116.80846019969836 388.8175572557919 
0.060366361861123825 116.83593769410484 388.8331470367332 0.0020599490956444877
0.08382915893178937 116.82078353224026 388.77943735241064 
0.048550843214861666 116.85262679509813 388.80100782074715 -2.805608384784111e-09
0.04069239179909255 116.86508419480347 388.8124399708358 0.00020673120222288274
0.0012262776467321223 117.24779444252026 388.8049264609515 0.002630534094021719
0.00989839034780439 117.26830848597608 388.7909812955263 0.0028919795624350393
0.0027438191337864244 117.35178573510375 388.7686757019615 0.0273598692100818
0.010068051180510998 117.2778994059391 388.77611651196975 0.0029592016766986197
0.005033223803217499 117.33245817459743 388.7662708542558 0.011115321334346655
0.006319298623399071 117.30326127676123 388.7783545491657 0.005526030041748671
0.004243679512021094 117.31980205903142 388.7835693358621 0.008204266813665104
0.004493018405746754 117.3042077434025 388.7956747156038 0.011569579712881875
0.004759733393311798 117.31096594742769 388.7774403823001 0.007476659522493565
0.006477659566710266 117.34134209033166 388.79592622670884 0.0543472671226732
0.004198358883831393 117.34002388573316 388.776671769525 0.018584499084552925
0.0029385301827124055 117.2715398310254 388.82200612263676 0.005061064277567274
-0.0008936113805169416 117.30650303176404 388.8146932821284 0.0073405365230034495
0.0028118163850728586 117.33155606666203 388.8224022667084 0.004821264792609754
0.008853418618157805 117.29044992760147 388.7966310147463 0.0015150927142652962
0.0024484830450106866 117.35190581824453 388.8099698470333 0.04876217915767699
0.004768244991445493 117.35797070226239 388.79919120064056 0.030449765355417092
-0.0017275797239010675 117.31516081069668 388.80183530414786 0.00701063378793978
0.015401011977137502 117.36392675194271 388.7412824539896 0.05651683365448426
0.005975984572364156 117.3622070647541 388.75482748544545 0.028675167515882775
0.012043623921441484 117.36250164376246 388.7413900648717 0.05651191747261673
0.008209981484130555 117.33328229147216 388.75396693560714 0.010850870252873743
0.041681787309929254 117.35598982421736 388.5865428464645 0.07374748076705472
0.04442498599209383 117.32449784705629 388.5930753876795 0.0025186708936553556
0.040402791767387855 117.29705108983838 388.6012704683276 0.00358485108748696
0.03769302153982111 117.27320220753765 388.6139978368647 0.0030927415319950665
0.042475354815306086 117.33193160364156 388.6008598712292 0.002123040271252716
0.04757809651231976 117.34923137818137 388.562979251332 0.06602124625892188
0.0433307145484229 117.36357894776948 388.5910925937602 0.08654502148664799
0.04470747091693996 117.30659724932165 388.5793501323527 0.0030772637406891556
0.04348721339083242 117.27990225399958 388.58078317337794 0.0024999114190884814
0.04647822017527561 117.30036543616976 388.56754292319135 0.002506234475033459
0.30063337865460166 117.36752489583456 388.5764004173678 0.014049428848157611
0.3074416087948353 117.36233336561118 388.67539149868963 0.01329678975908638
0.3030084435853068 117.36610152986873 388.6332056427489 2.590383433386574e-10
0.3109547814476544 117.36439717937147 388.6868939724664 0.01047768397725459
0.30408075251984534 117.36450604785243 388.5980844863019 0.006178890973045338
0.3106926207309179 117.37111297091104 388.63332842227885 0.015354008278482035
0.3079422591043282 117.36610263633942 388.71635700089314 0.007876534597407765
0.26329783232748266 117.36882991969034 388.731983259293 0.0004357293375205815
0.26951506246947815 117.37114379372514 388.7356726440514 0.004987170119623741
0.21126511965176428 117.37439877897675 388.7365918904699 
0.18937714028292468 117.37042911348661 388.74267960607455 0.005020329556233798
0.17553723720977754 117.37585120158765 388.7421445305408 0.001092562202209464
0.0836188670157408 117.36095187322283 388.6096444282599 6.902176662250481e-06
0.09020132948843716 117.37042095036189 388.5605818841515 0.0007437237560549583
0.136977084122101 117.36292479786238 388.56073221916165 -1.4130014262461726e-09
0.17759699886614652 117.3603293547045 388.55703820038804 0.0034483682611207043
0.20706669746748121 117.35953831091325 388.56467315869025 0.0007024365556664633
0.2562307241554648 117.36021610277868 388.56612683521644 -2.079120152950655e-09
0.27373838786549864 117.3711920053562 388.5647478285512 0.012737565501973292
0.198337075649307 117.35181686288136 388.6073895853628 0.0005555491151095869
0.1724829155050195 117.34906859256299 388.6085352713077 0.0020120550073433525
0.1395969157518344 117.34827609860046 388.66756989231624 
0.31264920855069944 117.21247828065931 388.54752917578435 -8.843832260084809e-09
0.31120764194875616 117.12310571523324 388.54371180432594 7.356442630053761e-06
0.1567497438584617 117.36817166005471 388.54551084886526 0.00010830799921053184
0.11118250290401552 117.36364989334972 388.549388184372 
0.05766213671442741 117.34780435919801 388.54377598983467 0.09421408873196979
0.05622729254670599 117.24405995086165 388.5550016514678 2.1183077389399412e-10
0.2764546918571222 116.89875463339334 388.5379166647103 
0.30762416975498463 116.95756862368081 388.55363747907506 0.0002967400637166144
0.02750425467067036 117.37134409778707 388.78855343790474 0.03967661972577876
0.05747987051552839 117.37670665634296 388.7469646371803 0.005937243084972753
0.017500159714832656 117.36929156385071 388.76503137373084 0.05100027336207331
0.014475136141443537 117.36334376742236 388.7931749700482 0.03846264908374181
0.10718942710103706 117.36970509387095 388.8067863476382 0.0014606637976094542
0.15638259837504717 117.3695302646294 388.8299357432558 0.0058556803845372565
0.14776193919054834 117.37235547284018 388.80135500675146 0.0037999241904666716
0.12928757485482653 117.36603400160772 388.75473827060387 0.0038286648679418125
0.10514189703633985 117.37265584581044 388.7460409496407 0.011154415393783966
0.03202757238483471 117.36663279259453 388.8015768990398 0.03885555116093203
0.14256657668048145 117.36951374686494 388.77560202049546 0.0009132612745696831
0.08844162693612216 117.36688071962435 388.8100025711354 0.006244806069461184
0.17509688526683168 117.36506847900789 388.8314596037928 0.00794656335169188
0.05575195356656577 117.36727832582848 388.80716305607416 0.005126516155028189
0.11746142400774645 117.37060876032946 388.81086530537914 0.0009892122320097545
0.15823683160944013 117.37126754924721 388.81741975290066 0.00935433801358402
0.08940651640085595 117.37536031531852 388.7606336439753 0.0049404708771849624
0.06651465865251707 117.37648350818449 388.7896755411812 0.0037698995001316173
0.14503451618788926 117.37361962272144 388.826182106787 0.00922843466728208
0.06831239209338968 117.37447542106382 388.7917084094778 0.007856195952701341
0.1455557959154432 117.37449703192868 388.8147516362332 0.0063319777489149395
0.1174993514592735 117.37006477814538 388.7425339716388 0.011102258664148212
0.1084925026955075 117.3687993526591 388.78800514295415 0.006075158384970916
0.17486402507029036 117.37214881542465 388.8020156997432 0.007406472028915614
0.10734703218107305 117.36675071561262 388.7270765583413 0.013045552826121359
0.12966067983650037 117.37105387929118 388.7347311044642 0.012524275185771237
0.15578714190177187 117.3696121226953 388.7447210209472 0.005783153609151332
0.17500761431651338 117.3740623946201 388.8083789647616 0.0032966707150371586
0.1883309257411328 117.3645244843517 388.8206263763747 0.0038527282084369445
0.180196267747605 117.37139202331457 388.7780027186478 0.003598690212925622
0.21864280392290686 117.37946972973002 388.7762938615679 
0.3025509828781778 117.36868404889411 388.7991018634194 0.009451758171405556
0.27345860598716515 117.37621206153607 388.8017375747615 0.0007462621970460176
0.2918509800427169 117.37013816766462 388.7699484756175 0.004582316219829894
0.287428976706522 117.3723291525743 388.8039874210051 0.0015722843710750192
0.28605343557110874 117.37232069213017 388.8203355374681 0.001471115063344559
0.31920363895008014 117.36643670647601 388.80073796800355 0.005063372255215866
0.2689590998526639 117.36704902138602 388.7581563767371 0.006956583084506238
0.3042369729011588 117.37043346076184 388.7793496765864 0.012341185808769533
0.25811305831331816 117.37447685041039 388.8318454451022 0.0009193863081531604
0.2750417976106386 117.36638875343115 388.76005360632075 0.005118651078932053
0.25582469394358864 117.37274519534402 388.7456141511105 0.003565064430307996
0.31794538745640744 117.36904335576256 388.75227661875766 0.0036406678200462343
0.33067191602580703 117.37544850097292 388.78845458541946 0.002770897568088012
0.2984686407695798 117.36717583458231 388.75857968412646 0.005019607360153876
0.36197386552426203 117.37138622872187 388.80616391420585 0.015511225781345882
0.34553585577205576 117.37292115311418 388.78550361800677 0.016085679133250198
0.3122595303718148 117.36923086391207 388.8391949452854 0.0032513295803126845
0.3446971468384181 117.36815684666833 388.8274339443336 0.012988350576971041
0.23890384261109565 117.37187072238034 388.82685392212056 0.004316550563890548
0.32999734280318954 117.3689942482909 388.81653384527084 0.006708672195591111
0.22545215439019584 117.36908304565779 388.8381416127422 0.003741861947778008
0.33419950198988835 117.36499241775627 388.83425930611276 0.0015130406453196068
0.26762371522107387 117.3740482442032 388.821687628985 0.0033358719333761795
0.22307482450234484 117.37215577133081 388.8275288997579 0.000188048084386191
0.37099691804907764 117.36731969381471 388.83002626745093 0.03506071268255721
0.37568008628828836 117.36164163774444 388.7938972172742 0.0359493518504971
0.3605684605208761 117.36877745803946 388.77249450618433 0.055598831638446804
0.3717328347252991 117.36557233611839 388.83809373641435 0.038816146329974675
0.34260676832964254 117.36796020042708 388.7069258279127 0.020790690287555504
0.32730019819746664 117.36687739870902 388.70930586211756 0.012975848660676558
0.33708235157974925 117.36929929308722 388.6828383782433 0.06069893656603649
0.3474433718741327 117.36750108726092 388.66674970262295 0.0546429183225923
0.3297624293376539 117.3730442482408 388.68366400696783 0.046799156682793226
0.3279561117102396 117.37483166356154 388.630901379044 0.01924945406232941
0.3305303949004206 117.36893576213059 388.6659454964823 0.06387446233509393
0.2935333920310644 117.36550141751626 388.59217778502574 0.001622116607907912
0.3153386786349864 117.36787578681695 388.58964117429514 0.0051219454518141635
0.32732432956145835 117.36687633443685 388.5933940118318 0.10889564941213252
0.34159856172728764 117.36499039953604 388.61823265081966 0.042250653803957997
0.33246701239419924 117.36254596732331 388.57116271306376 0.09590670532885111
0.23301812387671159 117.3689293184962 388.5505361176469 
0.1752917912514229 117.35982247696812 388.5590088439792 0.001975651970117286
0.06388095005419979 117.36848765103097 388.5828320257924 0.037721583365757275
0.05959227548977896 117.36766248054816 388.55137201900027 0.01772618894304987
0.07150663357081981 117.36572105298718 388.5657151563676 0.04912919156545245
0.049842729798374535 117.36853800723769 388.6541010854602 0.04856267818816804
0.06946529329931014 117.37038299457932 388.6006587934726 0.03827965360605973
0.06335421185404663 117.3697407538628 388.66065862060185 0.004108679682270057
0.07729413617121726 117.36832891659495 388.5897431672907 0.025966595951053884
0.056959709285611934 117.37496476201802 388.631406160201 0.008746595272875128
0.19348705463827398 117.36142416289533 388.55389220386485 0.0004963075631225477
0.27530173130220487 117.36981289489937 388.55089741647396 0.022830213657948146
0.3091483815345693 117.36488081154428 388.54802187712767 0.02318643912502029
0.05286568879247674 117.36876541673598 388.68226527814966 0.027945278742621513
0.04554805503862281 117.36835107601883 388.645750684737 0.048850581012637895
0.036068198751555966 117.36853415187272 388.62809937148575 0.0038122822590704853
0.036639316365170364 117.36874875652643 388.669227796013 0.040584672453379
0.03992398117186084 117.36911408644315 388.6821127416338 0.026249451009492
0.02923357315414771 117.36776663626142 388.69878761487945 0.023524674155495428
0.0630717635848748 117.37135411620474 388.7005908402356 0.004078475013442615
0.031393218133176526 117.36500454221381 388.72409821019943 0.07607500829641402
0.04308147453022698 117.37019973693823 388.70907843287904 0.01074848005647921
0.048724817031559106 117.37199251171474 388.72987385436556 0.011024864850562565
0.07226325294982436 117.36799840792449 388.73165368610324 0.0026126616629433864
0.34872943310755755 117.36977471565211 388.75456920821847 0.03694911154223822
0.3206597495245129 117.3696164556665 388.7285377771563 0.0026923216774326375
0.2863242658756011 117.36948168307144 388.7280312598574 0.0055079476177922575
0.3044172023912437 117.36560256189547 388.7367678264594 0.0035100058905126667
0.026696714054779382 117.36449829720351 388.8162637061017 0.05764018680282795
0.07534576778452635 117.36892322128787 388.83059340888474 0.015689949223160072
0.11478152755742069 117.37005566978557 388.8359334624629 0.001735952513171925
0.019696215874661076 117.36773265371666 388.8100615659225 0.06774966630847855
0.08230100622169625 117.36897672716967 388.81667598953163 0.007657753096562971
0.044105724899881585 117.36477643429828 388.8241527104573 0.009012300373583016
0.01811241651807041 117.36887718181032 388.84060667997363 0.031030370590939466
0.20069578376093972 117.35686378748657 388.6975935059112 
0.2079906336847307 117.3482141554556 388.67778569751914 
0.23742484977756462 117.35435829945295 388.65254598519937 
0.2360456653088223 117.35365633964084 388.6430802999323 
0.20523605822045354 117.35117686410946 388.6188158009511 0.0006610385404617121
0.20518019114038982 117.34951019135421 388.5958483515636 4.7651148595189716e-05
0.182293040042769 117.35042448487036 388.6085020352221 0.0018320060289624236
0.14919676916495692 117.34799160975795 388.62721016235537 -9.999628028003254e-09
0.1576443062292407 117.34497339462115 388.6715934370015 
0.16603221355276873 117.3517744748549 388.62597160854307 0.00033548142543451725
0.000496619365023372 117.2660563492848 388.82891983933024 0.006623559155264423
0.005894343650161288 117.09243485427562 388.8339832699074 0.0049051306328307225
0.00556905964186845 116.98936867485467 388.8358196696306 0.005718503362821044
0.30604377842526764 116.82645300870911 388.8364333804056 8.120073271778374e-10
0.3025445064095152 117.37002814891133 388.8354151285389 0.0022157353883256975
0.05308609439911505 117.33810438568885 388.55324355534935 0.06519967711698076
0.0567818674174574 117.30573925994139 388.55051857443925 -3.494537884001576e-10
0.06292942014299864 117.0596918509934 388.542406957563 
0.05956502397636759 117.03012038675344 388.55335584198184 0.003134963537201217
0.057204327450452744 117.00801247388489 388.55441304782096 0.008290604528840624
0.09064521849348522 116.89979862819895 388.55352953628153 
0.2234781788419743 116.85359531679107 388.55177715922974 
0.30040934601048613 116.93727387858131 388.55056265288226 0.002396779595830258
0.32504701595814545 117.00094111839219 388.55307920060744 9.095518564398818e-05
0.32057691794954096 117.02391324046464 388.55987118236305 
0.31603992837163114 117.28545096185923 388.54891052150924 -7.324514666986712e-09
0.3215095586242731 117.30923716215942 388.5514730521322 0.0015800234282446184
0.32331321188745177 117.26859226033002 388.55745925561587 0.0003284393195809069
0.3213899069775256 117.3521685429911 388.5477219555995 0.15393633366023696
-0.004043329445593612 117.33829231416749 388.8830514777998 0.028673369686706404
0.008085945848285536 117.25689430071617 388.88160039369876 0.0679532228260028
0.008681939257314683 117.27080654107918 388.8811647244866 0.04593803570363879
0.08448026901607689 117.3525425626693 388.87590364806664 0.0484291314549887
0.011212441855348025 117.36807789145367 388.88044796415465 0.08329988074751492
0.2547281849908 117.36356673320395 388.881829561795 0.036916970809440466
0.20595056148822352 117.36609034360467 388.88141368210216 0.032357908456202414
0.05246807584020357 117.35894575809695 388.88272887380134 0.014951683756236693
0.3631350145587335 117.35732707259004 388.8896962980734 0.02898081796559904
0.26597698620363464 117.36451762417214 388.8769242050679 0.03952152687408596
0.3782236510971172 117.27311099574783 388.88855393239265 0.0396027806594618
0.3854487463728547 117.34644009349886 388.8816484120959 0.04630896906950266
0.3765968583990941 117.36588062040852 388.87872591461013 0.10089740143461107
0.000329520385869617 117.2640619141421 388.86570225349794 0.03769959649290505
-0.0049563927046058 117.28582345946384 388.8745576979677 0.030308179255039678
-0.0028489437105169743 117.27416854768431 388.85238533924644 0.03081963473016703
-0.002215676931842641 117.30276396803902 388.8682417982668 0.043675643561000246
-0.0028054017278204176 117.29050380160466 388.84648187863814 0.011595294878709715
-0.0007083558720262335 117.25512369967943 388.86417232166497 0.029371420597740953
-0.005779851323784151 117.30667477417808 388.8573935940292 0.03921949261719426
-0.0022961563173554433 117.32033534499595 388.8717244249482 0.06604747035847294
-0.002086686290794139 117.31437167328008 388.87544168494514 0.061592543740310805
-0.002067856819520635 117.34032156215449 388.8685347224532 0.05545509191527756
-0.001435074180677066 117.35252909329097 388.8703148633671 0.09391722336440057
-0.001954929257134243 117.34109805730782 388.85435354093926 0.0655808888794992
0.0012403599189396513 117.25582337206603 388.86939380478833 0.028842746650648846
0.2652845669615649 117.36972009523255 388.86780815226115 0.03912569464365493
0.38401709527417166 117.36200277000019 388.8814484233636 0.041249314009183996
0.3476309145956383 117.3626513193762 388.8752807817574 0.03748209421661952
0.32706781905187393 117.35883790337657 388.8817334892116 0.018491696254653626
0.017316139912734275 117.3620148673396 388.88048983133865 0.1089996233022148
0.10547488627676506 117.36496797751629 388.8685818322217 0.01443899044568947
0.14485398789200674 117.36584077228353 388.8734752655252 0.051175908736451454
0.3470501381434904 117.36811246285542 388.86288633928626 0.013276221563546449
0.21212062226155118 117.36292470558786 388.86122843066624 0.014424165102614097
0.06979512096078665 117.36196805354642 388.86964871862716 0.03900812140385194
0.11522639447868407 117.36677427478048 388.86984055849615 0.0062473260269942585
0.24285538085211716 117.3648161451856 388.87347056244647 0.057227325895073
0.28313655066250576 117.37090766205701 388.85937430751085 0.005513921961089543
0.04630170653561124 117.36746217047983 388.8641617804298 0.06932187609291274
0.15220521536299714 117.36816997908062 388.8680345845603 0.07251862581285838
0.1287974582840501 117.3682592188483 388.86753066033066 0.04631045053058753
0.2381606302089582 117.36973915853724 388.8648936625761 0.03923901559414256
0.17144074438769855 117.37345544688638 388.869497301112 0.015350314462991895
0.20911675210084618 117.36390614269195 388.84750126450905 0.0030173059197035035
0.14050414917925003 117.37222507078583 388.8474600901415 0.010465131750942549
0.18233623489533807 117.3639973755649 388.8491329308081 0.016561914280846433
0.3066417611964676 117.3729757230319 388.8619001384055 0.009984114883744911
0.29274001749853285 117.37093052195898 388.8562374950525 0.006353139305645977
0.31889520610797384 117.36786136122434 388.8475146021943 0.00992779706813139
0.06387104284939826 117.3778416110526 388.8559160081079 0.020167966296638022
0.14700386050222713 117.37416151345036 388.8505897075883 0.008678158480375087
0.006596281956844941 117.36307569154907 388.848633328302 0.04100029680764005
0.31992241790784776 117.24517082438452 388.8888190089227 -1.60474119851634e-08
0.35108866042972936 117.28867744107365 388.88648628689975 0.012859603032027907
0.34214117909552827 117.23606679012263 388.887891374549 0.006128388621772875
0.3300507481405016 117.27775602735379 388.896341332643 2.3977301022926002e-08
0.369959584381622 117.24121473861915 388.88698650061303 0.07855802702055026
0.242449275799959 117.27147212914548 388.8895275407528 
0.35071705066536396 117.32359579613708 388.88737546360414 0.01985479458169578
0.37241397101193013 117.31226510591529 388.88479695589245 0.08255264020561338
0.3142464879894417 117.29063812947729 388.8910227813255 1.1197167792899417e-08
0.36878939733912036 117.33678346222251 388.8867150629899 0.041504645062414955
0.2838143238738628 117.26782577756893 388.8908702163588 
0.28277921336395606 117.32410451480463 388.89065535829974 0.0007772205753969893
0.22639344390782454 117.28347377203835 388.8886058144013 2.8043490770442603e-08
0.08572411089692063 117.3497338350074 388.88020617786367 0.05866317507174567
0.17025856134287662 117.27777244404727 388.88417512301487 0.000720525677695307
0.059757264890460834 117.33916399553158 388.8835800054591 0.023929029419722893
0.07394376371825485 117.329926206163 388.88312777678385 0.015225297481402094
0.14655431027938504 117.34168846296524 388.8843022094739 0.030010380208493233
0.1894157760178912 117.35469968452749 388.887220347795 0.038846769537365815
0.05174882877873962 117.34192082530565 388.8845351128117 0.023601519898301226
0.1713694139080955 117.31552011888876 388.89185035544864 -1.6247716266087393e-08
0.1603782610070163 117.36460068826727 388.886990820322 0.02692310693486926
0.3548909620055043 117.36394188304763 388.87937846301895 0.05271574220419819
0.24321964314482344 117.31906618433779 388.88784781804617 0.0010988369071928035
0.1251238311965648 117.33063153801083 388.8847418611438 2.3626942776322103e-08
0.24072412050067651 117.3600127589095 388.8803936789276 0.037656515468776096
0.27465199792243467 117.3062651560904 388.88866516545124 2.046553519888349e-05
0.2625448380341283 117.34702816999678 388.8874375062126 0.031225070335300382
0.20876500784738844 117.35003755082738 388.8902320088364 0.059313440896421744
0.2275457889198915 117.31228289939082 388.89008807581155 2.4332509841320126e-08
0.31394654705074215 117.3518202139892 388.8846913560965 0.020119958420931422
0.09111876196893351 117.31202776895796 388.8906643350804 3.6487920694596992e-06
0.10551022299908794 117.3551728850813 388.8880531590935 0.002274975230167377
0.18580778098260992 117.24757115210545 388.8895460230855 0.00015181488507287538
0.2765023685509668 117.36424308652126 388.8879918167219 0.010174691851827131
0.17872406757480264 117.31348985823851 388.89085606370503 
0.23803885259735857 117.3395807274647 388.88786724049504 0.037018121916195
0.2844324248499385 117.34444666589461 388.89019055266397 0.03358099201693528
0.04029711279915093 117.26260197250329 388.88480785842427 0.0013524894873862502
0.11790241337880604 117.26006595287937 388.8879850638683 -4.339129223299061e-11
0.0715195852505501 117.25230270483412 388.88702101409393 0.0029727721029224603
0.012963376882550812 117.25801048796991 388.8844578048671 0.05656893980809892
0.0888098528540067 117.25637194657797 388.8874394793876 0.005331937238286928
0.054117496829693836 117.24405824181797 388.8855687536676 0.00042264963543450264
0.019062365404902665 117.2838758752645 388.8844748249349 0.021655136983489316
0.17604037869283698 117.24522351219947 388.88855449945805 0.0001899451193609383
0.007365561195283239 117.27054385938874 388.88038508290214 0.04578502674715372
0.06977386049364716 117.2904594353018 388.89002034468865 2.2670703998899583e-05
0.04285408021950242 117.29056505125179 388.88787600623635 0.0015859479709879947
0.04131280156492519 117.33028239628072 388.88598273498246 0.0031983775930541167
0.026342796771279372 117.30288735390673 388.8857398583545 0.0069967480272239
0.1683400866569338 117.25936124762171 388.8862325849281 0.002190580817191918
0.13352197683227926 117.25374207798568 388.8903164685281 1.8250015006401413e-09
0.05118580111853514 117.29812316339986 388.88886548024357 0.004349629604744864
0.017503119567913304 117.34924407668045 388.88612867811077 0.060213358706140994
0.02886348538928273 117.33436055045509 388.8842595094937 0.019483473793786694
0.007234990688651694 117.3034591440698 388.8803326732993 0.05987457309075737
0.01676349525754553 117.32575695836536 388.8817869985886 0.05745070584780548
0.37877316041240283 117.32061567216678 388.8724533521311 0.11450071304890376
0.38222922056784275 117.33475084411393 388.8843919677379 0.016499144726944526
0.3817404477276543 117.25093540758014 388.88004007906056 0.00812158731392451
0.3792470203466279 117.26946285364623 388.86395523482213 0.009854154233297212
0.3781705820170269 117.24587639929472 388.85724507453625 0.013396000279691803
0.3857613922017803 117.30001287853743 388.8749536275928 0.07071359399214118
0.3824405011204635 117.29412594528493 388.8514040540258 0.013969455735377386
-0.005240769849377024 117.35693379623457 388.84759487874095 0.016438044129855563
0.08812317409394742 117.367419402463 388.8494686794496 0.04355748373238713
0.3826144273367698 117.32240201705267 388.8436062128173 0.0027084476624703057
0.3712959829244051 117.02217538274212 388.89046260617397 0.028102084915944642
0.36530461317592966 116.96488589651804 388.88404606685026 0.06199574565872376
0.3841650424271422 117.18374491197876 388.875982622125 0.10252615775565421
0.37220226354957264 117.04862774373828 388.8777784223548 0.05025450024799886
0.37995396230001266 117.12863052371819 388.86870694149445 0.03169764629722458
0.36486324643342727 117.13527911605087 388.88900353736466 0.047756835924244935
0.375699337174524 117.23188203328674 388.8791831726449 0.12827734497702825
0.37308246097434533 117.20891925440881 388.880764990742 0.09137864301618952
0.3650440529758016 116.95528296613283 388.8813249772946 0.07141280837992056
0.35539453090244766 116.88174247908016 388.8820852843048 0.03583615795481955
0.32735387369001245 116.85349419015046 388.87748444480894 0.052320032401479005
0.31367402227164126 116.83502151075473 388.88421084384106 0.022542651208849858
0.28989036269773816 116.827042385358 388.88482773850365 0.05597929485747854
0.09319222324224988 116.82012582506646 388.89362579625384 5.735109778895269e-09
0.023332208568560338 116.89247938208018 388.8757120261739 0.027169945329739376
0.015077687299337249 116.9511473507221 388.88405560326544 0.03188223246181124
0.0033281119505788933 117.03146906040601 388.8911294394028 0.03654706110755672
0.009812812734512693 116.97420847643255 388.88018070255663 0.024139926525371693
-0.0005905623235772589 117.06699744684539 388.8817259783221 0.051805183061472124
-0.002897081388529359 117.19364685503432 388.8875867552558 0.04068196069402614
-0.0019755196534827365 117.03884235536505 388.8783500297051 0.06455522042567573
0.0003320249724993443 117.1096453659501 388.87238464857984 0.032465424381440296
0.005262759467958967 117.23168686251644 388.8806018836219 0.053281476174298605
0.0005904846784859871 117.08265073100007 388.8717896922851 0.06948721075708661
0.002376151468356366 116.99739835685199 388.8711492299207 0.039479766700595095
-0.005824786824053223 117.07483897616383 388.86745280958 0.011981845983031104
0.0008750519760433624 117.05238203536722 388.86635370444054 0.048841270446133934
-0.00035019943192183623 117.12335095939284 388.87279120959926 0.01987267843652138
-0.00234488455515378 117.16903471355508 388.87685216292454 0.011034478256622147
0.0009425032533928158 117.00236833374163 388.84798390726075 0.004072894918986248
0.0003088474166987741 117.13560058487504 388.8718762076936 0.02759752428227358
-0.002067926424298452 117.15341200805234 388.8809843231374 0.01228334878782286
0.0019139616028405883 117.04505862752937 388.86151563574316 0.05763954927071782
-0.006442894663997084 117.0208312955731 388.87378762730697 0.03860767449025542
0.003914191563606263 116.98696479419831 388.8549049209071 0.007450195633144319
-0.0017229779256918258 117.11606027152149 388.8612445004258 0.02272196252795047
-0.0008362588660200546 117.11549214065205 388.8486400158297 0.0026270599812910087
-0.0005274825865025877 117.13364750377194 388.8636044091836 0.025058994325588706
-0.004590188441791538 117.16851220404371 388.86548022174907 0.009893700013220657
-0.0009109824230930646 117.18170373020747 388.8659526066473 0.01066663522090476
-0.0030719386655512337 117.22332847580263 388.8775531259968 0.05637496935649235
-9.47646177120484e-05 117.15531291235055 388.8561678254755 0.011725858111566397
-0.0027667774232739946 117.24123505783503 388.86895577757394 0.02050616141877868
0.0013606896400623896 117.09347926126534 388.84918993407103 0.022817401185892677
0.0001854743232164905 117.20114069497002 388.8705560363772 0.07698423809279906
-0.002217248140038024 117.1918997861465 388.85690117771424 0.0029467354934111824
0.0013876727620517379 117.21212976240905 388.8482965333029 0.008167764316140878
-0.00515447254407651 117.23902765818984 388.8491463103162 0.008592452113815728
0.0007476529461569895 117.08870299454317 388.8549648080663 0.017165743922095567
0.005654143010806466 116.97091244132525 388.8571227993528 0.031255003975423676
0.002034855096977381 116.96251374291153 388.8721970903335 0.026599631498808726
0.004771857658631422 116.94441448866743 388.8707982595578 0.032261663786707945
0.005681322348780912 116.92904469260093 388.8431234215131 0.004793913190879399
0.0069119412329831315 116.91940291503012 388.8667554227014 0.029422788562049697
0.007898262526211017 116.9190530348126 388.85723893484703 0.027518747209106888
0.0006772103307089352 116.93456347309947 388.8654244141496 0.02132572412173181
0.013699324050921044 116.89698077195108 388.8452325113802 0.013763388098804754
0.01769555485034114 116.90169146187826 388.88015087205 0.023591524777151276
0.007918416400921223 116.90420770859836 388.865272623791 0.02186480661498064
0.02725831226598307 116.88481719819386 388.86293272800634 0.029176739244678226
0.027283846108572082 116.88749688609691 388.87627223233915 0.023261847230517295
0.04148023582610955 116.86609860642139 388.87245585363337 0.01739444023396643
0.05070758349704729 116.84446318248062 388.8568382644312 0.00650122889251235
0.05761332830203474 116.84686073103352 388.8818720603303 0.004270128576760132
0.056489672853508845 116.84346958107159 388.8658022031985 0.01301621995125468
0.06987010248042569 116.82846309894362 388.85810744815353 0.007503432172656451
0.07015924083198015 116.82546497321863 388.8678535056893 0.0019635848732058856
0.10306054598483737 116.80476243408421 388.87573658398253 0.02192858801013751
0.13739626583325776 116.78665477679385 388.8807904049622 -3.762572258025741e-08
0.1767651113702169 116.78098227472498 388.87245956003653 -1.2076612087644517e-08
0.19688509581647065 116.78352167155114 388.8726080576256 0.0057012511794028485
0.23263680944168863 116.78718787493814 388.8733837929621 0.003874567309249346
0.2491517570417199 116.79347977505667 388.86148542354556 0.005037724048583854
0.27486427803335545 116.80720022929317 388.8691681936903 0.03433698087089235
0.2909924701566259 116.82008209879471 388.8585855645651 0.02313146084386878
