x y z curv
0.2966109339002336 0.56598588479187 0.26335738680587434 0.006834955407451398
0.3198699167279629 0.5611138002168876 0.2836418217159761 0.0055403319022959245
0.32966334860321955 0.5687817048454927 0.2535699970547813 0.007443428986792517
0.2895050686811291 0.5620147178093448 0.2897577411669707 0.003905968226739877
0.28854203082450525 0.5679292024278485 0.22618767230171188 0.0035743678021225435
0.28447420144570834 0.5626551845382202 0.24600968799627326 0.00413995010709807
0.31538790802466204 0.5638647329795611 0.23834754708287595 0.0035794257458143792
0.3695072544794628 0.5623729317314394 0.24048000942809944 0.04699153656634339
0.3322830660834767 0.5654935195820059 0.2246771142200282 0.004076969208240592
0.33089742702717295 0.5636959834007094 0.2837999686096384 0.010268379155411343
0.3433665158860641 0.5703308087756823 0.2662852827618278 0.005109369154042927
0.375462976015443 0.5605043424476397 0.2579302964218995 0.04107731202257417
0.29201488206290244 0.5494093580062956 0.3823675270002419 0.06893239211964593
0.2668091183874396 0.5647514975159694 0.3405589268959166 0.0008558555867158416
0.2736566101239295 0.5628975639668562 0.3715996162596919 0.0374903733555414
0.25215407570463133 0.558082587860028 0.3844626593718907 0.023139477995155783
0.27810317046425737 0.5660737814788972 0.32092871957047164 0.0056825586431066485
0.2923532073889461 0.5616206511133163 0.3464023814251958 0.016569389558946615
0.32097745397490135 0.5584998075769352 0.3794699090641912 0.053099542420124685
0.3526831703104968 0.5590835242320262 0.3494735859675749 0.04500957817153293
0.3153576124973536 0.5677612394942677 0.3391389481343974 0.003443554597337678
0.317345993641176 0.564042970315298 0.35045406772661364 0.008060968547291545
0.2880346524667848 0.5668269835236964 0.3156416936748883 0.00491396761160918
0.29692862671097164 0.565632523637656 0.3738886862600305 0.035434595374708056
0.32871015331148346 0.5614632962464862 0.3529353760530253 0.02102468873235911
0.3441871623307136 0.5644209787274226 0.297644138239594 0.040886067747982605
0.3090703996276018 0.5669974264383493 0.31037705137853805 0.004460234463964881
0.36078753143978953 0.5622065664046605 0.282311583496019 0.07020372563814466
0.342056189088881 0.559577241638848 0.33264265250380143 0.052661188407426195
0.36694943513099176 0.5671489234610383 0.3216149642927157 0.03738213828448307
0.3369238962489511 0.5605569719859193 0.33474440271054623 0.009723943972683268
0.34633780088957783 0.5568238729491587 0.3580421277943003 0.02753729343219557
0.3666196540548847 0.5554305279607302 0.35439141278645425 0.07634601441691034
0.3418160300115692 0.5596737911017603 0.3852857440399388 0.021750959134627188
0.07731072382217553 0.5667633981222857 0.12773698675477316 0.006261263314871447
0.08649138048331118 0.5663612380933188 0.13624270726261128 0.004549044911240232
0.06451716215498875 0.5644299049552226 0.1399603483631879 0.008887779539395613
0.047254836902140426 0.5665674734452647 0.14921632661507458 0.002771278578977653
0.0031106038051629554 0.5615743855252204 0.16576680474281918 0.02776566791775084
0.02558821217188071 0.5601953359002665 0.11121547085667953 0.04201852460316275
0.013401806735268624 0.5685599673752503 0.1281448127624978 0.0018142731139054985
0.007759506881436752 0.4947894182323059 0.10419325598208777 
0.006930662912881032 0.440573930991299 0.1086552935508963 
0.003956631755814112 0.29470804649552546 0.11221977595713516 0.00293167380808446
0.006197815633859757 0.26930435967541066 0.11797432624558075 0.012488665587861752
0.010417952068510641 0.243145644730851 0.1103594717789121 0.003065243808673139
0.002097583699289215 0.225289459810495 0.11737631432872023 0.002263724318698012
0.005558953001069983 0.13608847725733292 0.11096344549600576 0.0026858143323774844
-0.0008931866538594473 0.15857071693092045 0.12440401915580561 0.004087925705419129
-0.00010485727836090364 0.16660533445590175 0.11413647240242458 0.0037398471060644967
0.35872943790644196 0.14084530771435314 0.11652504921173597 0.00031738036992947163
0.3575498504546063 0.15763268474708272 0.11560186729189195 7.40366456476618e-05
0.36012382196721354 0.24000685807485414 0.11728873591643323 0.0055269119014215475
0.3669288764455922 0.2904232704902111 0.1086027495488678 -5.889867020605228e-14
0.3699470265324917 0.34891609122214506 0.12881543509580048 0.006424378675129714
0.3718982139648056 0.45084991163203875 0.11819157857345512 0.00013654262120961114
0.3632200168409872 0.10100956977318275 0.11075088712226781 0.0018263327721893157
0.35539000764887985 0.07193860588854081 0.11038330867169495 
0.3156891053264513 0.0323419695405355 0.1165373637063822 
0.1417058857590332 0.30255569162954665 0.005303080580962603 
0.23921973956554737 0.282666670488936 0.019984941862249327 
0.2151217660351177 0.3493118686409234 -0.00013288383703074017 
0.05117399563813777 0.5630926627670063 0.11515911747795589 0.00125969908023043
0.08511505168343449 0.5654801492247954 0.10471347704387138 0.0005376093046438523
0.17926737294508654 0.5590508360855264 0.06093561645740154 0.0014613633613097083
0.13013178311857293 0.5497637256616603 0.06927760035646349 2.0828549249170846e-14
0.2552877188427441 0.5686521136854233 0.08861773023719358 0.0016501339626876588
0.3027767384722955 0.5619400602588371 0.10978592016053465 0.0017941212335021448
0.009561066903619575 0.5565929785109296 0.11460012863810749 0.00018353240408811435
-0.001501554095350785 0.5049505430052815 0.12094292150881336 0.0020996745402472343
0.36389892332200807 0.5639399658095753 0.12605060728045786 0.02381283148887843
0.36690693220937115 0.5392524764671748 0.11642260185178463 0.03209728908272068
0.05790867544263639 0.4539424918097261 0.3897230471284038 0.0013369519719120485
0.35770956819371563 0.4573931694430459 0.3890032506511368 0.041732100396592677
0.03462918662741693 0.455444633496094 0.3873327654974343 0.01969327667870601
0.11527523545559422 0.45849326087491854 0.3967542804299495 3.094620935113897e-05
-0.0005386562550293173 0.45299825293053286 0.38197852645991853 0.0234162832074795
-0.002235798470562472 0.4977230083840474 0.3803540910780133 0.014059649127409292
0.003166640295475604 0.568677430477209 0.3805271401682659 0.015363661594373482
0.3680881494546793 0.5191678017267515 0.38287359361939355 0.021491072040255455
0.35704010152183213 0.5581850877553965 0.38621789661750805 0.03230091963194937
0.3690107814003048 0.465246615648839 0.37905476577500824 0.03663886136408484
0.36842239502382906 0.5016942336449053 0.3815570351240938 0.03172969935155501
0.37244418463959683 0.4620525316222314 0.3570528749427656 0.05125428017103751
0.37325301647197806 0.39142034419130506 0.3462505097417725 0.02130161932880148
0.052112940850740586 -0.002481074014707863 0.3388899604617495 0.001881201831049188
0.010585952954650752 0.03423294644309659 0.3435443944702761 0.009557894738747985
0.004635087021496285 0.22766991659836078 0.35125797246473 0.004936799107852609
-0.0008107691407885989 0.17363013513628317 0.3455192178129513 0.006620534185720159
0.0003101782126349881 0.4193067180406774 0.3338905629107535 0.009287582122324695
-0.0030389178691626125 0.33062026320658355 0.3386340554398935 0.014352842794316714
0.36319762241411435 0.056786927563979225 0.3515670584390643 0.03126968988230452
0.010733550368947804 0.5407876006649823 0.3797336012546827 0.063765394334559
0.04827177936082196 0.5551767368937135 0.3866370357795643 0.04181303094079104
0.03903330912945547 0.5242965321860539 0.3941756006703406 0.012375010834144752
0.030091059861622298 0.5670418439820125 0.3899776616513799 0.029416781636589163
0.015050402136959521 0.5148011015291039 0.3902297428488564 0.02630681789022935
0.013534872043058439 0.5198144059623853 0.3914532295100013 0.027884615459496203
0.07244790420277729 0.5591819823633091 0.3845140222434608 0.0027944960460386742
0.03951386741507771 0.4993540435648261 0.3910159193087384 0.005950337942069782
0.10790114557824605 0.547212746529936 0.3887869592998471 0.0328923164118943
0.09403136369244505 0.5562224764972687 0.3859853457882308 0.010456633319046097
0.06498063474808644 0.5473890064519934 0.38935412565909266 0.012779089932735535
0.1448049294018685 0.4945402137316097 0.38986456996492075 0.000216061664496885
0.0533907290446113 0.46914707440249565 0.3897710487915997 0.0036202222238595158
0.3615873916731873 0.515776750394741 0.388494274442016 0.026297603587902823
0.2647888750971374 0.5244501314346517 0.39048890580048273 0.002518218392187468
0.14891807196274176 0.5456592153271443 0.3886431245225326 0.040326798972148324
0.24368261348114453 0.5196519967761858 0.3907870594702425 0.0006485990205462194
0.02007054041486179 0.47818012033329443 0.38455185611531606 0.06892248479301255
0.1134350462047938 0.5055373016169313 0.39389051375248535 0.002680600335816403
0.22392214525952064 0.5168463204186203 0.39367077958713637 0.0036226899417490166
0.21103427642170788 0.5399326108248931 0.3920676756422244 0.006322294377742853
0.17404701851631826 0.5371912875090354 0.3919835267271776 0.011115842360580667
0.10658565342992463 0.5144660922976821 0.39341652844431124 0.0029026683330711433
0.07726443605100113 0.5049434413016202 0.3882835655579409 3.0301333550749986e-15
0.15272549598381277 0.5303735144437555 0.39109832366668484 0.02668325049517934
0.13176266884687063 0.4861324865030924 0.3915013297078007 0.00018797652132127856
0.19913621604282983 0.5107409692085226 0.3911120176891679 3.893592010357658e-14
0.15852165290271586 0.5047408926046312 0.3884719245038276 0.0006540576617876283
0.040811101355132905 0.47131948024397274 0.391301591477064 0.0012586700462277973
0.2991490386649021 0.517627606338453 0.39096279891430435 0.007405826657176802
0.3319577387512544 0.46530299189849417 0.38885632030730855 0.01574567541195007
0.28921580242126993 0.4777815394612014 0.3876416125210179 
0.3155023822639119 0.49367945638671934 0.38646740143208885 0.0007916476912381212
0.2520057200944216 0.4805637550910567 0.3932245250279181 
0.3510972323873715 0.4933560525611614 0.389206870350503 0.03190404419470693
0.18790939893593556 0.46691000862932097 0.39179626686501434 
0.3554804845319503 0.4979204656339553 0.3884179326716837 0.03027553110755324
0.1288709200251928 0.559070242330071 0.3895199228537119 0.018807328548322195
0.16488021715220927 0.5565862347000528 0.38125173503915455 0.07223540826849123
0.31207907172298965 0.5329817181266142 0.38878356462096375 0.02121501304502592
0.2245284544873439 0.5533118670798443 0.38758268073582863 0.046831459258502135
0.23562234127890483 0.5504229449985504 0.3866003782183017 0.02750187761059304
0.27562402040456097 0.5471201824342118 0.38678373872547406 0.01680157075125189
0.2975980570865189 0.5363752559519658 0.3898857170290151 0.00810257699464914
0.30950225104105333 0.5479583195240229 0.38849865325698896 0.009332449194027356
0.33294964484818335 0.5206979104678335 0.390752017404642 0.003387545229735093
0.35443646265649553 0.5480413483595907 0.38994698079766155 0.08589162841005342
0.3285216017530148 0.5444023136069298 0.38683907954464036 0.08358484645052794
-0.005495515616555502 0.43605240953913954 0.34415968081405607 0.008394910761742548
-0.003697688382277603 0.4862316084003167 0.3433121391224042 0.0030009984862885163
0.003216482343484043 0.529117602064662 0.3779619014344933 0.03047377007890586
0.0011757267815567522 0.543716859713082 0.3747212624003068 0.018102966555337795
-0.005695016803111628 0.5266721152616838 0.3635214101216302 0.029491156179383724
0.0012931023968397724 0.506875094761971 0.3249818735724603 0.0028035713913503605
-8.161468670242434e-05 0.5267302928072446 0.32550893392272334 0.013284994670018035
-0.00518974996122049 0.553409645081383 0.34580264158730467 0.020168742189363004
-0.0006393377832586136 0.478884474468472 0.3504669314936793 0.06877826164176286
0.00039971001272988914 0.4637882614002133 0.3694165021183482 0.1046997392876387
-0.007113263088069324 0.4839818214784894 0.27487081250394335 0.0028689889702241188
-0.0032655018179670306 0.4725344577031495 0.3091354087585986 0.007628082745195252
-0.0034996625740319233 0.5000397474918448 0.31607306594686035 0.002980481445532645
0.0016666623038873228 0.5211461413296617 0.24103172521184318 0.0028498649141679307
0.0019843658313152598 0.5196272360869909 0.25453165388033305 0.0027257700000332214
-0.0013887367985636885 0.5134072879148351 0.29625531107553416 0.0029226978914792976
-0.0019494370085815192 0.537508356678578 0.30595384223284133 0.02306092617988039
0.0012724754763808587 0.5533503339658501 0.2901040077375424 0.04611280477753612
-0.000607609750009164 0.5375137291422359 0.2643949426526851 0.036934512712155074
0.0019849189009999977 0.5378432658681203 0.28923383518868834 0.02991517737120425
-0.0019838841824282253 0.5585229121516858 0.24666897460241102 0.05211450455972702
0.0028813000704629695 0.560207617198484 0.22101157910661523 0.04289531616428734
-0.0018744035961001824 0.5414086085349294 0.2130958149837796 0.05482294756095624
-0.0021752722577099556 0.5231536901755833 0.22203675548612317 0.006227581998706556
-0.0038786830794668636 0.5101219786427018 0.22579012457572134 0.004952768131457122
0.0013007998375044556 0.46945211730771874 0.19753272627101914 0.00416174848180643
0.001097665282901156 0.4804080723352602 0.1995597462386544 0.0026226460440792565
-0.0013565872647216433 0.43120400668019476 0.15822729375106162 0.007560165471353589
-0.0028011322972871927 0.5100956204511707 0.22158628246437528 0.00423214640506263
0.0002982605935311275 0.49364059985744807 0.20735158541918 0.002332568341508058
0.0026340979044065724 0.45282239868659996 0.187772261628935 0.0018749520690612836
-0.0014452526484562923 0.48634832447355814 0.18053106068350508 0.004096200793591708
-0.004010483063663834 0.4295327043378277 0.18557753025428653 0.0018013250175723957
-0.0015182091865937183 0.41471103965405787 0.15331806434426032 0.004828429894430999
0.0010437340451529022 0.36928046620290655 0.14249145922992248 0.002217616620061882
-0.01596554708432719 0.533437297457989 0.1795898307844201 0.003993886914654949
-0.009029907755839919 0.5118215745086329 0.16977668596760412 0.0016503745346546877
-0.000375282308854205 0.4866913864559127 0.15263820745088316 0.00470820320593206
0.0018600354553698312 0.46995205646136456 0.1433460908542905 0.0007842987674675795
-0.002023220497029319 0.3758348778490452 0.12931489416131758 0.0014043326873144626
-0.006791095162625977 0.4267225936717437 0.13429681974733013 0.004747364461042085
-0.0039030574518336006 0.4951851268322263 0.190405272830082 0.0028286332776502263
-0.00046968579532071994 0.3878247467172626 0.1293997953503654 0.0011083041112859271
0.0035300516339390863 0.3555311467249477 0.1279372867532361 0.0010533452553061276
0.00016154052645135641 0.3582775024285367 0.11743666414310011 0.0035067890494093544
-0.0010909521606317202 0.45005586173104306 0.15524145866023348 0.004180251311463085
-0.0016944681914302989 0.479448716212154 0.17854384698016534 0.00513402673860303
-0.001735916843363377 0.5630778972389571 0.17303770979997124 0.025305533280133474
-0.0005367034752995527 0.5545703178588902 0.13594689356303263 0.014186997094873
-0.004779254668875548 0.5305792218318771 0.12575049393023674 -1.042881734447681e-15
-0.0022036208989697458 0.46421356194937835 0.12231925593630603 0.007048861395659522
-0.0004590070489934538 0.48071090382595816 0.14231006758495549 0.0020118451160300887
-0.006912972312456713 0.5656875733602499 0.27331058392116514 0.028964443204318888
-0.004319650869632728 0.5406525496283497 0.33959351167274426 0.016487894733382046
0.006975573628115794 0.5602555739699551 0.3262700637473178 0.0445218329531622
0.00036033099716851883 0.5237173265644482 0.31266416511153544 0.009235029520083341
0.0016188988665386639 0.5473377533723389 0.31504405146620174 0.030964501696577645
-0.0025064087381478787 0.20694442013792916 0.2436756586378856 0.00735041591757853
-0.0010589156143375588 0.38685767561752127 0.24019816010553333 0.0026477502336090327
-0.0035324524710126206 0.32381968398442623 0.25628685782936916 0.01180365588138707
0.003766439977767673 0.31360664455065307 0.23665091841509214 0.004627034786463196
0.0017306095336342663 0.29816431197674603 0.2470464474161865 0.008944009680880887
-0.0038738630292046564 0.4873224222570354 0.2545193183228813 0.007698725051890526
-0.007373195149380563 0.4076817858274936 0.24867990549445035 0.002561721661979029
-0.006551121459798284 0.4509448797411007 0.24925244532160024 0.005279118351234535
0.0013697164511220555 0.3644921996563828 0.2462519487499238 0.004421729740192412
0.00010019872855169957 0.37875370619364834 0.24884449381216198 0.0017079880412545709
-0.006409402382894218 0.414452956960507 0.23329116064807376 0.004749714178832006
-0.0009985242451013591 0.47801569620043716 0.23630383361041413 0.0011228671912638531
-0.000370236745022737 0.36432880333494455 0.23310036065200465 0.01220821498704443
-0.0023590396980191276 0.41357295491929696 0.17418334312862457 0.0009425474531242377
8.476484575398397e-05 0.3292870029889388 0.11164350520522999 0.002566862278746342
-0.0008613618117050319 0.40233696087318266 0.15882548278715217 0.002525948291024643
0.001432041373963881 0.3348766588144605 0.12562562886903897 0.0015699257490314708
-0.00021245739348572674 0.2779415799278624 0.3370832995362295 0.003224582245340096
0.0015533345966438018 0.36113291031275646 0.3321846033648453 0.007267509801285462
-0.008798189367881109 0.33267805130743233 0.30964643659487723 0.007875968173435315
9.647184430069088e-06 0.2723411171432468 0.3353995506704867 0.0022676000733870823
0.0004080577955944565 0.34543273423934634 0.3270431467270046 0.02735508117452823
0.0016600863413721847 0.2995211932170458 0.3272858100147492 0.00727660487627302
-0.004537645011693927 0.45181737060585125 0.31677008388586414 0.0065304281353633555
0.0041454641614403626 0.15350663140382403 0.32967705653194346 0.008183567812061972
-0.0048532008068468205 0.328846167013602 0.3168906704219517 0.012451760688844165
-0.005431654818873092 0.39168041803654163 0.2834179942584407 0.0004065035606765062
-0.000653968224632955 0.21806833215479743 0.31959121543578434 0.010908031485865008
-0.0073484802319958 0.41044400274971377 0.29118576600805085 0.004650191966970891
0.0018317575016273233 0.46402448077038977 0.2949507859599364 0.009215680859957828
-0.006739026077057113 0.3980853662623162 0.31531186793797206 0.008238372735038869
-0.0029643400491453096 0.38411515796848744 0.30028163900960103 0.0005104113434816019
-0.0037358480191280906 0.23378311679963323 0.3141573194162522 0.008948605531576465
-0.0038291200707701797 0.4339654173552256 0.30357712889825084 0.007480288546100573
-0.0020180124023470337 0.1923006627217681 0.32003269087304265 0.0005640128099482296
-0.0006047145647762333 0.44357836667665806 0.28625380486033714 0.005653470607472578
0.0020736275126923575 0.3135204013229464 0.30606340988834546 0.009541381303667839
0.006004605986004554 0.28497466058174503 0.30670576079719714 0.0035564179861853878
-0.001481306342548738 0.46613309845940304 0.22206331933982715 0.0009303913083714505
0.0015861547174122127 0.3022949353673164 0.21099865398405165 0.0005116773924902916
0.00022058280536036172 0.3604515091702742 0.19895894721752716 0.007660502152617824
-0.0024423845592226236 0.24130341085137053 0.21778316928105904 7.01418056724864e-16
-0.00828018667781956 0.3472641323926551 0.22042799167829386 0.00035126949348091274
0.00033525999169682933 0.2093592763550483 0.17001469537676062 0.005871792068418641
0.0010539784465427656 0.27485414827919186 0.14886004569218422 0.001756768387908382
0.0006351198500811795 0.31492333608416756 0.1709676323447291 0.004153865365686156
0.0035500808394105994 0.24950548046783283 0.16214545898106988 0.0010825247713029825
0.0015025165400165985 0.2710735905226309 0.14114310032045402 0.007714161119069287
-0.0014692475068409988 0.3804545081013607 0.21640196649004476 0.010131454074872195
0.0016835961626122681 0.2547764284046922 0.16711871702101067 0.007137451061011429
-0.0028066778881039524 0.39027733242080465 0.1750647178205309 6.266357062897823e-05
0.002647569336129472 0.3245133916385159 0.19153671948256729 0.006490886783438432
-0.002888026761158966 0.15985819820242234 0.22460443630724636 0.0034243738845489706
0.0007966072961893161 0.33460788308097983 0.1560877818913432 0.0027323771264264438
-0.0017670685173508957 0.39650263128333274 0.21869396283270126 0.0022480546712340833
-0.0067178973403944865 0.4096881768359751 0.229808634401179 0.00542127493573735
0.0025127721682813094 0.25987843788800696 0.15121926154761817 0.009448070468443983
0.00013265523398884064 0.36089098069208 0.17754073164804696 0.0024126387762068756
0.0008962476684205372 0.3199986621027759 0.146628955219729 0.002594631570857358
0.0020916988382239767 0.26736770016524347 0.1368643813058154 0.00953274459608862
-0.0027972800817885743 0.3479624166830549 0.1706205796411901 0.0005491440049970892
0.0013184243739137345 0.19566750167628494 0.2083701202031704 0.00786874006967241
0.0009251746649988359 0.2191851754331236 0.16497007895831356 0.005955662058355988
-0.011484550013359799 0.2610990977150907 0.203824687636588 2.1795014573006915e-17
0.0010056178463319172 0.11416937111377398 0.22665120967096805 0.010619017069937384
0.004202842186653067 0.13910960057291974 0.20717398440834348 0.011524301669414965
-0.0019020204528978164 0.30104587424453894 0.1523836349978597 0.0004515560463009229
-0.0027235113174556977 0.40892674806689666 0.1988960063855525 0.0035821320083486664
0.002477164961763833 0.3076499489557133 0.20009830198454046 0.00035071958871034066
0.00032965156571117824 0.3612680792121824 0.1688950717972368 0.0026380761745696804
-0.000917152280408725 0.38119087607463326 0.18532677564335787 0.001319305521200462
0.0004625832535942809 0.2975113574727764 0.12534466266909258 0.0019468097826632667
-0.0009884984305907076 0.4433645588511929 0.2094251404303305 0.001685844700256132
0.0025513275432078385 0.08133654812763294 0.2370071772437223 0.006725384375679827
0.000753722311766394 0.22223168495320392 0.1938461597358188 0.00957051281221291
0.0012466816386723692 0.3074959196854877 0.17601071796507253 0.0006398093763624662
0.0012812841954819697 0.2840465479749808 0.22334258755470057 0.004039218498982195
0.002244175288847291 0.31539377537173113 0.13400213594169702 0.002776119503765877
0.00350242475555085 0.12402018618787786 0.20783081569353987 0.01568337040758615
0.002264263475202906 0.16423485146559705 0.20802525762255442 0.002090975202132601
0.0013802548174402702 0.3307115096211166 0.18291648138263322 0.001178212866905041
-0.00014161549276258496 0.29096528226252955 0.17800593420921695 0.0010141464497621924
0.0019471873826115715 0.32227705878717233 0.2170922780532681 0.006204967509640229
-0.006762675914765735 0.19217399537051086 0.17235310541262533 0.001215396123473603
0.0046437252208605595 0.14363067141105368 0.18774330154687402 0.002953045290347509
4.501739016245839e-05 0.21114863577458945 0.1566883307654687 0.007144240116842899
-0.0026391117649778 0.2332041625685449 0.13187907639077442 0.005342544967434286
0.0006185677105924143 0.09975956328132224 0.21908005679730008 0.01804537531057193
0.003768877424169344 0.12551919473363413 0.19449802825790802 0.003173167780124004
-0.0009606216856409785 0.21930064635130037 0.13737912139254607 0.01069821807062322
-0.0027546086969801745 0.11845647542454386 0.1787463843061636 0.008293522758792546
0.000449514301268454 0.19725466538065375 0.13576152080179033 0.004442495495180162
0.0010224141352716209 0.15108499907469958 0.13611602513446994 0.0035534225359657922
-0.004055594311928354 0.16609837327376042 0.15662231961374212 0.005722955572549549
-0.0008571825366947032 0.15887778149599335 0.15892509839435737 0.0022065879930169337
-0.00011441236811796443 0.16624685127620364 0.13304438102610044 0.004612547747461731
0.0015508877879524502 0.14074082291529605 0.12536080961280965 0.005748744193047058
-0.00701043312799705 0.09673978384969918 0.19322256049304967 0.00548070910361561
0.0009244905757276609 0.11375294740224007 0.14721349204795112 0.0036302349663909915
0.003010573758539897 0.13311886542380497 0.14022958314650044 0.0036921701069879955
0.0010969501160171397 0.0878962671539565 0.2120112891988346 0.0190154292696394
-0.0017124505917879822 0.1056427717166186 0.12775157477740315 0.005663640121419829
0.0006291456549872565 0.09460783928076458 0.14857633809141127 0.011756312160531295
0.0003666410846943713 0.12316737387258535 0.13309293049458434 0.004868518424904979
0.002677311411878507 0.08510161125674716 0.17028045541146014 0.00943557918150785
-0.004428344172953482 0.3019610083803662 0.2662633249200632 0.006296829402914254
-0.002971651106991934 0.17531027792611523 0.2545894025229016 0.0024609330601721513
0.0011236214669437519 0.08534214023184623 0.3103341843057702 0.01388256916583716
-0.004936444365024412 0.19635542411600687 0.24695667504312716 0.004454736130941314
-0.0030671242775227566 0.07953798993124456 0.2914633882404478 0.0033997576463494278
0.0015986582853190607 0.15492328545613235 0.31636237007260337 0.009211374552115306
0.00016516541755219692 0.13459239257515582 0.25641873190167125 0.002301368071796882
0.0023396509434625216 0.16602473907876056 0.278330806536973 0.007797470738190297
0.005946923342539856 0.2561691299859478 0.3070917332409804 0.0008388080942425509
-0.006165057203517518 0.14242903502197213 0.301681604596597 0.0022329439298361836
0.0033321020218082167 0.21184030636505907 0.28845646390124347 0.0009314512822332848
0.0031482290657620076 0.19930566632670915 0.2690969150485503 0.0024703649238922718
0.003758164012163349 0.35191883760134063 0.28006965528522526 0.0016941805096964272
0.004330346685942876 0.11976270009234224 0.32302200842322654 0.005584555887774307
-0.001582631986300211 0.1163379651447778 0.2500756988974946 0.0028777623504575283
0.0020309755194572723 0.09115630305550287 0.2881551266626917 0.008234012837246332
0.0013293064378923458 0.22522277946155164 0.25523460387222824 0.007244937979453511
0.0024066652502543716 0.18698926090751877 0.2847494943505801 0.007206557264527951
0.0027977390638644507 0.2914769851390834 0.281390954590903 0.012390407915432184
-0.00040283291514721896 0.18881319964716323 0.31680189322319574 0.0023971747394254685
0.0018871812491257313 0.3056031880000158 0.290344987870638 0.008430975730916964
0.002102041279457227 0.1285682094841376 0.2772645954247302 0.006322629789712654
-0.002261767663121233 0.23442474855183104 0.2951433231910381 0.012220916281089223
0.0005772821326619345 0.13634699724643848 0.3271132240000636 0.012860167606020665
-0.0018404408218050325 0.08930599043495208 0.24420578170363055 0.0023972579598587783
-0.0023586098651126554 0.33749676842534215 0.2806196344150407 0.023025729541238566
-8.117799954791925e-05 0.21523774180153898 0.27185372684483694 0.008118794038631723
-0.0073505285011979315 0.425766773990499 0.25584740822641594 0.00528656277282029
0.00014341916071099452 0.28401808517773486 0.276787273573667 0.012579689267478671
-0.0030079048165325877 0.14798068723769256 0.2344755322783073 0.0029458031224512847
-0.005022760978796342 0.33578187990291086 0.262505039526033 0.009840598567099507
0.006014410813522324 0.2526036934561049 0.28158523812935327 0.009279537398182413
-0.0001919294447098787 0.16126987469540188 0.2595898507606232 0.0023710894154095846
0.003029693350885755 0.10013379609134013 0.30245562113125724 0.0019261882579046429
0.0022055413634746667 0.09681202415727262 0.32523247052534404 0.009159343408894769
0.00164773893165545 0.06701684542947141 0.3214844035855696 0.013564696952313342
-0.0003089598324709404 0.2407686026390824 0.24695149074641448 0.01078117639855794
0.00021683862467790447 0.2504607736723373 0.2643511113738465 0.014901117444383502
-0.00041668932972593626 0.4527726619989337 0.2704121296654826 0.006570744182451827
-0.007257165440610474 0.4393499840961067 0.2653071299903986 0.0034338236988955073
-5.25523000628721e-05 0.10019037814093577 0.2714006279461877 0.005096094866386605
-0.005995421468656531 0.2621183602047182 0.2591198948447723 0.003206823198971071
0.0006118446427470347 0.08526024531895315 0.1433577021714419 0.015613838596384063
0.014132327236240779 0.0504923062557833 0.22521137375906966 0.003182312283304377
0.009096546575197671 0.0639844458403632 0.2158325791653924 0.004079720970840095
0.0036982620051734224 0.0674841642107762 0.20652396765493203 0.0047338664010502796
0.0062921890352370625 0.0640736421783126 0.15807171378110646 0.01236019024628621
-0.006299887473601343 0.07894704013226142 0.11974275938739645 0.0015492502969822956
0.006210076996569062 0.06318458034712292 0.18576230080077874 0.004476121559467402
0.0028546641353233123 0.07382669301193828 0.2527744486562868 0.005973752809660185
0.008525127656896557 0.04987243064978181 0.2770417699848616 0.0037686230664704186
0.008989570395425094 0.05632490172657447 0.132112914576575 0.007475064086015023
0.019417916444684834 0.027154386983768333 0.2080679616225709 0.0013106467608888165
0.013419358946125937 0.05382122661235159 0.14537293147124047 0.010180029166432255
0.011756690957574922 0.057442634078017564 0.161236832131768 0.013116101111339266
0.015273619109259524 0.040830390798932914 0.22412610973065536 0.004354264307427712
0.017756332858622985 0.03999603937084035 0.18181546518466862 0.005380448504583631
0.024437748642499313 0.04025542665927796 0.14988852799144073 0.006441418369843818
0.029475160288697427 0.033185912017026135 0.15633361730975925 0.006205511312332022
0.02506242843345654 0.033277815541543194 0.1226750021442779 0.0004736558049496328
0.007956966451457765 0.03116754607693901 0.31584066964678575 0.018914701616927262
0.018746133869244622 0.032658926686524654 0.25857303845684504 0.012391755618485658
0.007772577669928272 0.05764205495122064 0.30045566743932145 0.005685548417081384
0.006267767651920173 0.05683138924447405 0.25884027058348025 0.001303215659617176
0.002176199006760759 0.04701100176909106 0.32410139939587923 0.03063147996198538
0.009547954930820623 0.03298742040698723 0.32294896035329657 0.026932967013788986
0.013925011632941528 0.032009503125180985 0.2766312918537896 0.018002042030076788
0.026556250299344004 0.015826233185373816 0.32568239898807055 0.008273206042339144
0.04271288723558432 0.008909734717919495 0.263015319273446 -1.8597343991037657e-16
0.02213242913457505 0.027274490815591784 0.2252980867104973 0.0004947635147279957
0.0698096918802395 0.003272897442995585 0.25022148052633797 
0.3197897195008624 0.031180479902477753 0.12097797608603934 
0.31570879682248754 0.017046707983675868 0.1715801508710548 0.00015005260628185143
0.32191958709521756 0.01982164225777346 0.17832115186984893 0.0011018267059758646
0.3158711635041616 0.01358549773381657 0.22259867767892788 
0.32918106899136074 0.013111801917159995 0.27037005956665383 0.016995788277711574
0.3354320459800062 0.026256711707508252 0.18673800832706205 6.9461541096001e-05
0.3430094885327011 0.02058544006640285 0.25876329774645723 0.0026418199099029495
0.3297954803729165 0.030679730522519422 0.13710388247251706 0.0011652042672448879
0.3370610576894357 0.03173276861740072 0.16273562733866134 0.001142467108628482
0.3479934537271501 0.03552474268403095 0.192918711166296 0.0033778019525089516
0.35081626054573006 0.04547481833016615 0.15440856127839048 0.005415958695182571
0.368505908119916 0.05931235210348331 0.16040981111637265 0.021528787021393207
0.3670196332500977 0.060810173628471076 0.18179955689861713 0.024298747174946084
0.3668988941745395 0.0693635576954348 0.1535144878017036 0.02150517999006287
0.37089375820356835 0.0735104654053285 0.20881630865642428 0.0005960415464254027
0.36583817428436854 0.07961652580794369 0.12483312611186137 0.004714579899331987
0.3636964189250821 0.10979589618503416 0.1282572985795573 0.003158402600133945
0.36944442432834873 0.10131087312113161 0.16746994774352103 0.00015381495974087217
0.36743556927647675 0.09310341187371261 0.15844535828759707 0.00221629446841731
0.3680056203330651 0.10530137054028975 0.13876870485670553 0.0009850312673276096
0.36624729540427114 0.1511891049677649 0.1361713421566766 9.612473127793563e-05
0.36613622299842635 0.12212408680559525 0.172460247264455 0.006844260049777109
0.36436784769794384 0.14197941697998687 0.13251678157575766 0.000156673066109167
0.365734250146722 0.13081295277452656 0.13659220539488678 0.012271030187039813
0.37061652099517783 0.2043123261119249 0.13052558611540163 0.0031894586154144196
0.373783107198234 0.22066431070701162 0.146839095436898 0.012036105058865636
0.367323370531833 0.13283242656614896 0.1940585781393856 0.010929110776424564
0.367488788147204 0.19232176658711939 0.13888255955389409 4.5421204787323505e-14
0.376219310166384 0.15650763790100086 0.16487586195873594 0.0008028747049004936
0.3682980075808998 0.14535908058939354 0.18562282669012037 0.0143439920989928
0.37141774243763526 0.22112103646909353 0.14057788101872243 0.014348955917030237
0.3715721828451401 0.16208260183138148 0.18716869301823022 0.008755209471045732
0.3698301442230974 0.2452501164919167 0.1260536414403221 0.011395273644759849
0.3683558378291598 0.43070283400733167 0.21230688485067364 0.006839875677317958
0.3672826859077379 0.2786129792341727 0.22827545172496538 0.0035285980624379636
0.37292166123313586 0.46481383932619413 0.19945982001374185 0.001588622338382325
0.36834995261215403 0.36531269384990256 0.21089674443901804 0.0027738032360687987
0.3679390460559038 0.32651647605335093 0.2017992908139274 0.005218890850118361
0.3760209721780094 0.4247985225666585 0.19356443019500325 0.002021980922538825
0.3670473322059244 0.16554468279978501 0.20879125195757667 0.0037164196969941155
0.3719492494648325 0.19685849659032062 0.1826786491055639 0.012751109254658796
0.3693423348466058 0.28364855741533335 0.12342111180066055 0.00666805081692232
0.36723349757489143 0.20758431204784186 0.22198733013801406 0.0040593634825583525
0.3703635272483611 0.2583714897407243 0.20864468255071186 0.005648305701887261
0.36673639652164 0.3587566524204431 0.21745200056351158 0.0026403934616542487
0.372935215470518 0.37940467998690824 0.16982611333790756 0.0015148707874722686
0.3684649367913577 0.3700020245784079 0.22330578458362713 0.0024808646473183683
0.3713019791441929 0.3456550527674734 0.18317417795579558 0.00029320207625821134
0.371983130661684 0.14181464333126484 0.21772168500440428 0.005763963651571598
0.3705104341023647 0.3636579150669137 0.17401460951208897 0.0012505443531965733
0.37313726376349915 0.22072302207510572 0.2052922561350447 0.003978144176342362
0.36705791909124974 0.11303991445022145 0.2187285841532457 0.001407764315050316
0.36758960005686026 0.3850373142249739 0.18979858878676592 0.000731943117310093
0.37114444953571163 0.32389112046481544 0.15867640194638524 0.0022418728588255925
0.3674674298843208 0.3479190237815996 0.21284427126051578 0.003262915081578856
0.3716389204570988 0.33930364196461377 0.14058653673568242 0.0022816395654873672
0.3742270929955327 0.2551710383873879 0.2302934959604264 0.002807374079193925
0.3688411212409053 0.09154983404562435 0.22620960145769708 0.0027729242730424957
0.3756515458128554 0.3026642053408131 0.2065917934683289 0.002352451670498048
0.3679249330347699 0.4056029654372077 0.2127979831593782 0.0047280391774579275
0.3734234083063618 0.2956437185822749 0.1948272246881748 0.006607713463432763
0.3698920141883978 0.22649124475360252 0.17903580813623843 0.005422142163686972
0.37085317959780256 0.12238388559052431 0.20851629109959774 0.001392289274429246
0.3736374402477475 0.297026768694783 0.1525674146820568 0.004674919657042008
0.37100298739560306 0.43536541930640993 0.20743989094276474 0.00667970391594592
0.3670908542293197 0.1888091418856007 0.19050651523962597 0.006968452331233704
0.3722059759087525 0.24052455132192693 0.23003008487470436 0.005433748346282197
0.367962390551388 0.1736535462055775 0.2259559168363289 0.00233823252098727
0.36924437144571187 0.31804611062663807 0.18947113263607276 0.006541447095216293
0.3751742767694389 0.24746965727566506 0.17124685932081707 0.006441962575476396
0.37318197421069604 0.2411848754596815 0.16009291083140098 0.0071246237591133885
0.3695283321748813 0.358587796900897 0.18970792967569378 0.001390781477581794
0.3664929224211543 0.4266949386455189 0.22772841428269266 0.007608259984763542
0.36619356311570184 0.19927248843732295 0.19883470747585275 0.004690582877059286
0.3707809051658579 0.2921570694622272 0.17371689092747544 0.0053595841393154955
0.37127782742619864 0.23547499571493186 0.14715701700293643 0.014856341520321436
0.36763106531279094 0.32634460455666814 0.20550016895411088 0.005280015384529372
0.3716964158827776 0.27059378087947983 0.18536475194835392 0.0048256807639189755
0.3677231392677575 0.23622097828806857 0.19961671278379559 0.004796730804841142
0.37033303569490417 0.3916472979047575 0.18507164744992613 0.004148389092661044
0.36485614592401167 0.19259181337250203 0.21263780073065564 0.004843728515916626
0.36849654405446136 0.3853983653682129 0.2127854514812946 0.0018142629577071814
0.3676694355485458 0.18245359085272383 0.23291037733878178 0.0009356585835820445
0.3659286323996631 0.25874253463392927 0.14005279278983424 0.00911477950003755
0.37012737023646775 0.40197638814571657 0.17807794954129824 0.005155210803998292
0.37192200706233147 0.33617600093113115 0.13399644831282667 0.00216459734408844
0.37309918311970824 0.42716787731570827 0.17361367252129067 0.005937970658677528
0.3757965464748849 0.3170476389139124 0.12898297262550587 0.0017914242657808546
0.36936880920588017 0.2967980002025144 0.12119676782741155 0.0014536818903136816
0.3717694254346126 0.3968902637656786 0.15973409429815888 0.006103077908707661
0.36758529382417 0.19463363431934072 0.24360899678207348 0.004991775821533706
0.36500875052838166 0.31963217603748567 0.23270789622298116 0.0072782737377783974
0.3687136771771281 0.37181284265935544 0.2498250768353119 0.002821144587808681
0.3667003497171348 0.1481234110907094 0.24020877279048858 0.002357908432553491
0.376338204353929 0.4695739904952828 0.24691060685605484 0.00297569641964293
0.3671945088975412 0.3899565976824487 0.25689154527507846 0.0022241980422161574
0.37440172110401715 0.4417636032908089 0.25045447551653705 0.005581741740415872
0.36499416595422807 0.379944017405579 0.23628679270861325 0.001781286718359515
0.3694095249341186 0.27695148717070683 0.24196721148452194 0.005241350942589774
0.37250813511053615 0.13533132250750557 0.23879628286875473 0.008384127433327889
0.36839599708059045 0.4249569496340159 0.2599904383093202 0.005084007185920737
0.36870101259919225 0.294387257931876 0.24488582667829278 0.00883853920898679
0.36794083281031054 0.21050101367510443 0.23524668591453374 0.005291322964496758
0.3678278620754366 0.41732895472514453 0.25194565223466986 0.007011154275115602
0.3710399853796337 0.35458450528708857 0.2436956291063939 0.007150079448575455
0.37421767099304637 0.4958459610043401 0.2594146244520091 5.6319156637036496e-14
0.3691767847147883 0.4884667453303459 0.3062979088617379 0.0044732588580314115
0.3687462899579658 0.5162699082182959 0.24262766159462323 0.000936643369731884
0.3740466167712958 0.5357019957010114 0.24763008829177724 0.0045753597091484815
0.36996677847616966 0.4529736068250754 0.19376375809879587 0.0033222513051212894
0.3752759038575759 0.37985252348942455 0.1488453956680507 0.002251773890587164
0.37560039152429864 0.4672153025521926 0.17234581693957227 0.0030049687564853793
0.3722156200847488 0.49647641292548433 0.1986931280198121 0.0031395135713975773
0.3708555869457656 0.4046690484349828 0.1540670741060316 0.004990533399835613
0.3689460436028831 0.517674525438825 0.21216378012612555 0.003800737685481723
0.37192091080668577 0.48184172337088466 0.20847031232863508 0.002071717665158743
0.375745982846618 0.5343330343021806 0.27516034644751847 0.021440485297312333
0.3682087897188423 0.5341967126898554 0.22124662157792382 0.006587572914085468
0.3708046300818379 0.5426848597253909 0.2125192113088913 0.01739268381690488
0.37155766322797806 0.527464109781384 0.2914878124437528 0.030015997326483107
0.36927184870230323 0.5185143400517122 0.2976827968433243 0.002680212799260372
0.3711851065356194 0.5347611287692082 0.33378155878585936 0.06025049825503796
0.3735075045703207 0.5093454609314781 0.31682609648610655 0.0075722988602495815
0.37372107698998036 0.5428132565201821 0.33887898015042406 0.08688306866801848
0.37552848987437215 0.5527887687130362 0.37357928313739375 0.036148223527528174
0.3726399402106845 0.5539073121827859 0.33506738883477866 0.06179131940088725
0.3730501357741774 0.549548663719938 0.29762646255766595 0.053679763448161354
0.37154938522373804 0.5431311091376534 0.30361531154298466 0.05002271389164752
0.3711691356800037 0.49456645116239506 0.3274552401065557 0.0027035167523960344
0.3807487652447589 0.5076694754101899 0.3464389069490553 0.008661678244398511
0.37887506257980047 0.49494945745393404 0.3654332891250687 0.04375487170784749
0.3739461337769697 0.5216231788186863 0.370098342303703 0.03209395915731131
0.3754942991409573 0.4943593424677922 0.37428935547141673 0.03800382869730095
0.3722464646769095 0.48542541808333617 0.336280120932568 0.0054858306703685165
0.36960410047510106 0.4870687847423298 0.3225994768721598 0.014810353561240105
0.37577974110572715 0.5298256729969608 0.18345124473466898 0.004011614624811659
0.3706017787087686 0.5400373718450819 0.18231595063958825 0.010727816917761836
0.37098008913236946 0.5489845343514878 0.16078141758737144 0.029587180124313404
0.3684448412494313 0.5613651608775796 0.19342000819366922 0.00623440245139877
0.37357091599070436 0.4946060627012479 0.16686742949649455 0.004337732641147977
0.375002304772859 0.5294130144117505 0.16839068751650013 0.008029763197285131
0.37806705553443226 0.5230706243786478 0.17533317075287116 0.006484783364907979
0.3790775175174078 0.512264411709909 0.14486152732640295 0.0021393328177631006
0.37500847368276485 0.5080326584553073 0.1719386705848514 0.010205386070922936
0.3754141178302847 0.5052286478843827 0.15425635206123084 0.0099574896672066
0.37218937444159916 0.4078171222134732 0.11908450767276747 0.001061377218028481
0.3755561847169934 0.4252684340389449 0.14557086254583015 0.004807276748160561
0.3745748395422926 0.4299094962752639 0.13233996815923457 0.0038704624913211997
0.37377498996891834 0.3578887768308677 0.11620822963218566 0.006200737286656542
0.3688610942704464 0.37948138556201905 0.12625563588286132 0.003115444950296434
0.37242239836538926 0.35081575369201795 0.11828165808387513 0.0018151632391267877
0.3783408969095457 0.43786769699629197 0.15776812760504336 0.005523606374532132
0.37379598448747836 0.4606192294339936 0.1117161579088593 -4.793501306219449e-15
0.37620602759704913 0.47287229839161116 0.11590414972964833 2.8063690760598323e-14
0.3732151575522507 0.4897080577021281 0.14526887790912074 0.005329002313627245
0.3717615477594214 0.5254114751768869 0.137957326049163 0.0060130533009694525
0.36866916756643 0.5163159621269597 0.11489455926346208 1.2221765905270177e-13
0.3686887501996279 0.5566268550117467 0.15359523557572705 0.05301761929537056
0.3747024381773944 0.21007194000866447 0.2620057413597091 0.0001759450100314476
0.36754058714269605 0.188212623163642 0.2621237080542285 0.004691281145031845
0.3658892196211398 0.20707438157208333 0.3080696915350118 0.00270792675704781
0.36941766628406936 0.11587170720268157 0.31099988095842235 0.003509050595298726
0.37076113059605903 0.13170528509309515 0.3185657243431802 0.005983887617756216
0.371311210664101 0.1489366146240449 0.3038121508855577 0.002639019187016687
0.3671562672404919 0.31037696236016243 0.2658111721601882 0.012213529365007405
0.370726236488813 0.07883605625063263 0.2953083365108865 0.009860375052357677
0.36934620441649024 0.24335602616489577 0.28803966890099136 0.009802146334228264
0.3775008677370238 0.3303372078715777 0.2736967007595512 0.005771838405313747
0.3739856097353551 0.19083743103724707 0.32930929063872616 0.004793150276237028
0.36933882746548946 0.1863383372738139 0.2997819218395266 0.004399871992591985
0.3750326159620398 0.44703021953459027 0.2690823331413633 0.003619604587248816
0.36739394521758856 0.1034525116926003 0.26964432751839734 0.0023871902846919093
0.3716001395314988 0.09563700813218769 0.23615138037094158 0.003445537169932716
0.3683986524760395 0.25945945369394874 0.2621386942874875 0.0037708958173741252
0.37011335377044785 0.19210334949472152 0.31071749411909294 0.012935737726582582
0.36887362220574843 0.1277632085082087 0.2963082799547692 0.0009796450730491454
0.3700639812544438 0.15421626685552878 0.32580846680255543 0.005029704571069827
0.3703149508804096 0.22718295864104684 0.243353529374861 0.009311812359969713
0.37570652303841956 0.32947182513841433 0.27896910739157543 0.008965060628592854
0.3739955027585495 0.4591571375792788 0.27667761225332915 0.00583848098558825
0.37130623979015787 0.24699714839895964 0.2971742252400081 0.005134556946842317
0.37203053688559956 0.1763660827873459 0.2987154291194812 0.0039581435845107114
0.36929354897022537 0.37059501076888807 0.254149538037275 0.001584975264063708
0.3678976971042191 0.31271940773432 0.2902996399174806 0.007888903999675114
0.362875317412806 0.09148083016795666 0.31962890420670065 0.008503190785768043
0.36736713957971384 0.0709313340555351 0.31215886568469836 0.016912904470273257
0.3690534642225084 0.13748473576490253 0.2845852036256297 0.00021277779764894027
0.368070678639224 0.07248411100124626 0.33360924655897506 0.007515640279314575
0.36624255614047097 0.16961792215514232 0.2591028931857514 0.002640299890507367
0.36680313143878374 0.0709603932225113 0.2643437088895236 0.017366596188716905
0.3670599903724653 0.279341288201408 0.27846386541505175 0.0018803157820442486
0.36628654123467613 0.09853115724218321 0.3037730038046229 0.006382777995477985
0.36594978672943296 0.41724032018367685 0.2750372799181544 0.008122325634290129
0.36890129138207123 0.11733382591444805 0.2810069777644737 0.0007589133680281492
0.37307021560045983 0.2685384087375447 0.27139919822064884 0.0013402362699999116
0.3717885289802252 0.16038777439054344 0.27328428181750614 0.0009410977561260606
0.3700185444028825 0.43235371361830804 0.2728642132382533 0.002713662809799395
0.3711079834509132 0.4726916199395953 0.2731218739261368 0.003781745684132679
0.3709618415714307 0.3956342647131684 0.31086527014421206 0.0028968557821167566
0.3661626182956746 0.4027331290581665 0.28604414712653037 0.00267018041109382
0.369259081475509 0.43036573153607405 0.30021530143882624 0.007492385777468438
0.3644755997190141 0.13428584035782343 0.3367867970661775 0.005231517885344156
0.3749399494440916 0.3726952962980509 0.3077442874460454 0.006416168795939264
0.3673239969288024 0.41842630614878673 0.28337984335575184 0.007036182246894837
0.378159258343038 0.3471362913403667 0.2945601853224588 0.010037228328184124
0.37276705440790725 0.3980331898254524 0.30691199477808784 0.0020087344151428865
0.37111665711597935 0.37267036612500515 0.2885411778720601 0.0026095456483668784
0.37000377187173317 0.2712691661845782 0.30430476219611985 0.006418331687456602
0.3699244875579267 0.4359745732013612 0.28801166890395946 0.0040407083835311474
0.3758532238250676 0.23090088308763582 0.33269068384430595 0.00247674286509176
0.37535283521175034 0.4680011340084991 0.2953889824437989 0.002982720416711604
0.37766985348320964 0.2919917334537272 0.32065589575150794 0.008646242162625762
0.37459831638070645 0.320037429627944 0.31435383526337457 0.014140034126103693
0.37454333621616553 0.33635567631613683 0.30112188614387725 0.012633107908779737
0.36825534744390476 0.427936638938535 0.31806246672314453 0.0015168080958743529
0.37065188309470376 0.1697695129980899 0.31648888888845306 0.010248184329403992
0.37244532814723513 0.3487699094333998 0.3286295219608024 0.008353469154221192
0.36924561807751966 0.17731494551872906 0.3368748325155691 0.00937743671907443
0.361935848168143 0.1529685571132594 0.3471799312256331 0.006439884749351427
0.3717710065003145 0.45273751240387844 0.3355048106685389 0.002813960835883159
0.37195992901584607 0.3178789373399587 0.3378096598205333 0.0027264154759494216
0.3763707744107821 0.2789186222837914 0.3272683829765561 0.0039762898773066085
0.3661973755394835 0.06466151094428549 0.35231808042708074 0.0008221954835439968
0.3715250925011783 0.4444867240288979 0.3161401820015358 5.750561269934202e-05
0.3593027393861492 0.05238835855144012 0.2685096600685439 0.010211438802398956
