x y z curv
0.21273229682570605 3.7463220508566875 994.3264038984512 0.008821589424928328
0.21832120147842946 3.753631897066378 994.2867300675463 0.012678791383922187
0.22733195112232224 3.7426612968190676 994.3311369963238 0.005815131055316345
0.21416448472480606 3.747740466216352 994.3409409586365 0.015406640931188396
0.21352659754171466 3.77850603449551 994.1548093481236 
0.2405491532767182 3.7751799015069243 994.1321865025993 0.0035317717421545925
0.21790506110503458 3.7701314091637252 994.1984846195337 2.7757026254367558e-05
0.20996054777321468 3.7977646209058364 994.0618189752715 0.005909270773562377
0.21567881218620796 3.7877930690711614 994.1137241367214 0.0063474719458565905
0.22516914667006385 3.7902279112369746 994.1063231906389 0.008960990150401934
0.19651731517721596 3.783555623234028 994.1114510142578 0.00012285591497348988
0.17733384298007648 3.7977253705256167 994.0725539317439 0.003630993510591404
0.18381426637105544 3.7885333785394435 994.1058544959102 0.0026285495746873407
0.1658777953434592 3.8028361421864245 994.0590959618033 0.003379739455912047
0.20536825269390732 3.815174977017188 994.0075783116653 0.0026266525750988537
0.18790512824296807 3.804883359659513 994.0522171475195 0.0025728386482593633
0.18118871571497913 3.8014300654702318 994.0274825980446 0.0033436088080509257
0.1352921567961569 3.794101096575406 994.0487537008596 0.003274373196347722
0.17522860737587556 3.8029404984150967 994.03799001821 0.01009094115240107
0.15738751839560214 3.817290833360611 993.989338832691 0.0004281692172749171
0.16101714710734405 3.809118195199333 994.0135133242579 0.0021558943093568585
0.1370966870423789 3.807896030904251 994.0159339477831 0.0036503486198456317
0.1535158136790309 3.8169128745090894 993.9882766967972 0.0005113916445666241
0.14625866639043314 3.8158496060569305 993.9916404081481 0.004278740596180701
0.12639178527166986 3.805794276987746 994.0240755510567 0.004709564706193288
0.11643893961852253 3.795377490891872 994.0529101921061 0.002481421129737013
0.23246343844440695 3.800037142666276 994.0430865654977 0.001866337522212703
0.2299971221337713 3.8153747161691243 993.9944402510017 0.003916482671658541
0.21020677058401993 3.8160443988732298 993.9922874040474 0.007012968820322509
0.235982565737512 3.812084513868157 994.0083772224076 0.004756050327926223
0.19658001053576674 3.8238774396291983 993.9780917847988 0.020842235803311626
0.2574236952003723 3.8154783948513167 993.9944221860068 0.0031345588950242287
0.2558932779429668 3.8091953964928145 994.0134725916208 0.0017737595783856315
0.25466040194015044 3.806178249056127 994.0309008855362 0.002919297939570441
0.2697535733292165 3.814841324845157 994.0099652363558 0.003589446257564182
0.24466824833652218 3.8021496238166885 994.0618214201445 0.005070021655606412
0.2683091448794189 3.80533871913049 994.04512989501 0.001164489506823826
0.2821756363693566 3.8036678002125783 994.0730357918607 0.007317475140151218
0.24199610485300768 3.786939788059153 994.0959159404692 0.00540747905763507
0.2341221754807505 3.79787060710381 994.0639609730964 0.0058328806160250655
0.2650920824027669 3.788926272985044 994.105749221715 0.00922274268615152
0.2754737462069969 3.7885876244060275 994.1054855693553 0.0009498736531207469
0.29472021907918383 3.807537447953867 994.0796316986707 0.0021660463783927573
0.29689025575057826 3.7925970858383113 994.1194031220724 0.003875182537893111
0.2767853880656726 3.774113434598943 994.1461442187782 0.002786461028550797
0.25295138896663705 3.774031494679149 994.1739696417393 0.004062834375322365
0.26084195602387417 3.7768479002848734 994.1534064392118 0.013176134390487686
0.23553495065471455 3.779677106634539 994.1593832456518 0.002484289594468932
0.28353412941222583 3.779282356153904 994.1562254835286 0.010301394880881597
0.2965094912869753 3.783700584720061 994.1548149778788 0.007092963693894088
0.3062050560560909 3.7881277774739037 994.1341209242909 0.004488757362214964
0.29418225165688894 3.776319817077315 994.1868887624729 0.011030070878395136
0.31014812504275524 3.7873340185855224 994.1768386365829 0.002269213923921231
0.3163564614120634 3.800559810620301 994.1136651911206 0.001008892992839794
0.3176724761831649 3.791108936263232 994.1421145701374 0.004540292724753762
0.3265057474240729 3.7906804883528498 994.1867011916489 0.018923593838692375
0.3279067049121533 3.7935326888728294 994.1503586112832 0.004472109760279574
0.29994487470221265 3.773227048707459 994.2084493876681 0.009907174019566893
0.3243810897360671 3.776650115920623 994.2171699100935 0.004637336316201482
0.31861841645129585 3.759125822748085 994.3022122163221 0.015030834364435296
0.3088120764093918 3.7600324246321692 994.3021823732215 0.00498076625494398
0.3095974273913846 3.763717268752532 994.2774713002143 0.006065236552732597
0.3332213426091456 3.763872915232875 994.3104851445165 0.014810985645787521
0.32708752487581155 3.7668577750452807 994.2823636986408 0.02000195304215576
0.3300058802231974 3.767249514251752 994.2619352142048 0.005832952205097053
0.34457562735616665 3.80348241964942 994.2055975470436 0.01177362370526429
0.33495063439594336 3.78323946102766 994.2376034870424 0.00025368859862987187
0.3442004095467088 3.7869766095751514 994.259139484315 0.026308624126501774
0.34440143261589384 3.782983926324964 994.2872465566288 0.014609414798007526
0.35144432150825483 3.806429331162131 994.1488640273607 
0.3417631496592296 3.832584228520571 994.1058787722856 0.010093965410267752
0.34934993697246725 3.8510809312455208 994.1217447832585 4.15139728045538e-05
0.3437235401631512 3.844828079795439 994.0983030787796 0.003692262902562903
0.3550795987688848 3.819067970716089 994.1902742269431 0.004861028457470463
0.3495059787717949 3.81003685003922 994.2020560473784 0.010015668888740493
0.35385106236386016 3.816779829758892 994.2486510209942 0.032084118295116155
0.3589721878004758 3.831105590843741 994.2195839368314 0.015621532843183178
0.3559468915186345 3.8321214837201527 994.244563754328 0.016302756980423896
0.35536649028885003 3.8297400208662493 994.2294301554767 0.013985551932818948
0.34987627740178906 3.849408595229913 994.1868053172059 0.004210525220014148
0.36574491336295345 3.805565581438206 994.3055365635264 0.03027972189139736
0.363891914464909 3.7970234077257783 994.2754788838279 0.01418457229520842
0.3651263632082168 3.799987830911383 994.3117164492651 0.02278784390719537
0.35995947001900835 3.816257069742375 994.2769098811414 0.022388949340124795
0.35814038737480275 3.835642338898153 994.2730090886522 0.013070426651180864
0.3606680562736081 3.885520636595752 994.2508996778283 0.00812913269524827
0.3668705472532869 3.880612748421328 994.2669344302018 0.0038608484520109045
0.3548333198448187 3.8471392982672667 994.2564269881366 0.008706920119868613
0.36035021579384074 3.8938893412290967 994.2397482993856 0.006281634276959647
0.3617464910499343 3.899967260633324 994.2666255448592 0.005887734054698432
0.3608252585138767 3.8956347990894766 994.2833474313625 0.0031656472426742207
0.3586276191455175 3.859559823451414 994.2545039667046 0.011543102822403473
0.3607710525450065 3.889703639557881 994.2254390889373 0.002585686197801491
0.3617256111827598 3.847523029034618 994.2185155929255 0.012101953434873873
0.3655016186322013 3.8469945899257008 994.2361467071561 0.006252119923370857
0.3614037859782252 3.824860652937099 994.2908581274521 0.0034236486122161203
0.362190300760543 3.8267621727774985 994.3080409467213 0.0029228304873234715
0.36422921850557477 3.8826562224366583 994.2939764182937 0.006516324477728054
0.36418597356463683 3.867401864872733 994.2846470836568 0.006234943450324736
0.3625754281468854 3.8409335173566324 994.2878233097709 0.0032252713525453575
0.36298130584737814 3.936121086360729 994.2943194851673 0.0024973072850781267
0.3698788610447669 3.914697873141561 994.2989616167911 0.0026124223647905824
0.3664000572116023 3.958926943003633 994.2921632250698 0.0034092588200640753
0.3679855535093005 3.9221376265164865 994.309740991802 0.004435201779930441
0.3670604587560415 3.949217769692342 994.3133738146427 0.0022593341692457736
0.3656188597920319 3.9633169970147564 994.3000579309388 0.0025512860018301487
0.37110648424235465 3.9558995381581843 994.31793528662 0.0014297460180210766
0.36935481179310703 3.9059195776203244 994.3172057427876 0.008414791974838838
0.3715588069398247 3.9120374169625505 994.3342408696019 0.006309684603343479
0.3693067499250707 3.899726855722468 994.3104803238682 0.005162593977695213
0.37217963071917803 3.9565781540989735 994.3391457110354 0.002037416669345888
0.3746381084914113 3.9361833026728004 994.340198399635 0.0064925276651257875
0.36464383161388064 3.9289967139954842 994.2789428030931 0.004038191497885183
0.36427520270443575 3.95266543516783 994.2747354013741 0.0017962013509846783
0.3608958133456424 3.905586074854518 994.2486965453479 0.005230996840420178
0.37126847113288974 3.8834705429406546 994.3377891584363 0.005875548049084545
0.3716135659754516 3.8638272783512106 994.3212265282933 0.003804905497046427
0.36687499064518686 3.887949386045631 994.3145167983796 0.0030975266963846546
0.37640543392058345 3.870498123528271 994.3449730096847 0.003145238350330192
0.3617744936662409 3.9175427547975463 994.2489209839135 0.003144889975017166
0.3652343232663793 3.944615620215231 994.2583986508461 0.001139552765703704
0.36264698381500393 3.968876006723229 994.2390245618469 0.0011626192411459586
0.3604919960692178 3.93643620937589 994.2424242139144 0.002271664948884304
0.36323443851590814 3.968334285613814 994.2816710892982 0.00425078302415361
0.363427705036131 3.965627510466467 994.2579539150424 0.0037702237107257114
0.3545368502799712 3.9175569086182285 994.180517572577 0.0030285358690399903
0.3592470708361999 3.914729624037973 994.2222003604029 0.003982115449406218
0.36171133551077933 3.9403269146671716 994.207374890817 0.006235650593910547
0.36488183836522675 3.9246973768908875 994.2223628104317 0.0008824911649970922
0.36097138392623646 3.9307535183858344 994.2256494884457 0.004768447255606474
0.3556295815740631 3.869000942079694 994.2011317523718 0.006804297883394802
0.3554621625874176 3.882261641529495 994.2006560171608 0.003678831279464848
0.3648855238445396 4.024369751909869 994.3061572644015 0.009782862447723665
0.3647750750109207 4.050937760058993 994.3116152827898 0.004756255832985302
0.3632053597593786 4.037114449796116 994.3080019290652 0.008909924980373874
0.36750810773515596 4.0373256504589845 994.334377905612 0.008842142876375874
0.3708569332615103 4.051667012431918 994.2896517079968 0.0038534342894004847
0.3709124381823807 4.004547786790822 994.3177857265363 0.002794554503227526
0.36112720421394695 4.011162426895407 994.292413330535 0.006651091294013336
0.37293098807745456 3.987615145784759 994.3541048096284 0.0030230694733149872
0.37060716074484523 3.981633976630855 994.3345079783817 0.0020822431017623916
0.3707390114344448 3.9915629339961964 994.3206556749448 0.0034568010267036703
0.3711873377819983 3.9761105174698885 994.32729886084 0.002037068123856845
0.3663730229087677 3.986930979875067 994.305591215841 0.00803689561181384
0.37334098593296816 4.003751503313775 994.3311772997179 0.0021037882022905707
0.37051181117777154 3.998856470502822 994.2722633309147 0.0028768187218272474
0.3653605600984102 3.987757250903393 994.2722004576531 0.006466429272780352
0.3636348085561779 3.994122376088291 994.2498671848452 0.008542766123585507
0.3607329735302056 4.017095219158098 994.2797188152443 0.0182599345169222
0.36035523749300435 4.0265294089980435 994.2818284075628 0.02044001989297844
0.36586345966498757 3.9991425528689653 994.254350649615 0.007016275577693464
0.3624071562839363 3.9723009292495934 994.2048312937218 0.00873755568712003
0.3574085119301977 3.944420103243338 994.1673106935971 0.005024745216107797
0.3519562202272573 3.984658779502891 994.1701145005105 0.006434516799905414
0.359983552541886 3.947484806742818 994.2104567052194 0.00424033754525983
0.36271967701036434 4.008644121262843 994.2352175352933 0.008866592495131574
0.3596153848319422 4.023925761169997 994.2716583468375 0.014877994215411888
0.35999270457131427 4.035875054189776 994.2693095486522 0.01929074592308856
0.361050245912457 4.022495086543536 994.2565084583948 0.0064410317596212295
0.3608357274819737 4.024100296484872 994.2307941197405 0.0037461892806342147
0.3626456716064588 4.010530227290716 994.2302300864857 0.0056074959025092285
0.3603432293188791 4.026593720651561 994.2240422693308 0.0026767820924954804
0.36137244114479955 3.9978633213232646 994.2249817527435 0.0035109482260459583
0.3538953709995506 3.990731595902977 994.1915843046575 0.014522322726114914
0.3687445865814449 4.125811366112822 994.3022746517174 0.009969052383014175
0.3692699614128211 4.065191386366859 994.320062633331 0.00573233238378674
0.3746783756424379 4.071263728784927 994.3315127928502 0.0023491366955847425
0.37224566103580664 4.065123828895024 994.3448762467344 0.006691204891077509
0.37223462968715426 4.0888019903971555 994.3145057981233 0.011024937691707499
0.36989518922564973 4.080335106829769 994.2950340532017 0.008429588900528466
0.3703262037880502 4.131351464064954 994.2537826080605 0.0037149058308574914
0.36623554609588627 4.12302284284677 994.278479609438 0.008099552274370501
0.37298765559204405 4.102475946185114 994.2931501845172 0.011853732614327112
0.36770151447128246 4.068854985291798 994.298922175642 0.0074735125801973
0.3768737257725267 4.091314242049278 994.2774475558546 0.005889675455545408
0.36740459906281286 4.111144299742833 994.261312459396 0.007345140136670463
0.36579549863336036 4.074979972609871 994.2423303619516 0.0037553111851098627
0.3708307620719846 4.06733484569111 994.261058248205 0.006673316722933127
0.3624004971766061 4.0548945068122 994.2366893621036 0.00895904553015975
0.3614452096617184 4.048528121559478 994.1917262496569 0.004703657070114864
0.363798886897067 4.041065739282439 994.210320341963 0.0018447371808155261
0.3513398513472131 3.9924289419932304 994.1745100374816 0.010596069405078004
0.357777210210765 4.020392187096021 994.189634135522 0.0013896469628665003
0.35964615596321875 4.053915613825043 994.1845055288056 0.005399826946225241
0.35744884186980685 4.024981035363482 994.1748499007238 0.0031320673460530015
0.36346151402756105 4.098924703965681 994.2126876673714 0.005695331870052801
0.35862112177201005 4.117485586484002 994.2109961211866 0.0026075672182535943
0.3602915734809207 4.104447130288682 994.2179167817442 0.0053935333073174135
0.36447596355496326 4.082248516043637 994.2282314227692 0.006694294121991401
0.35831967815846044 4.076354765420309 994.2125396873747 0.003319930108485031
0.36157119038408114 4.083012339988152 994.1920262751356 0.006582074449813433
0.3595816966405446 4.116250153942683 994.1831242690961 0.008715905085075642
0.35713009533124745 4.069475783455746 994.1898636674728 0.00575147234963602
0.35741455544831424 3.972743802848621 994.148503709978 0.009591629441822328
0.34723444483216176 3.9476771711971423 994.1170438043512 0.0015389720750733143
0.35033111729812605 3.964565330530336 994.1127629305992 0.009682380743219846
0.3507217712190162 3.922723977890785 994.1201028647275 0.001592898297371989
0.3533817495892217 3.927437044570355 994.1593021783568 0.0033184148222171693
0.3490368373746764 3.918330768732426 994.1384194633492 0.004803464580344052
0.3626149865306162 3.965247887078011 994.1654933244309 0.009660716802777577
0.34715934074081295 3.995561845803872 994.120354500711 0.0032988541050533063
0.35139617735965845 4.011628101413092 994.1427908018765 0.008180814917507192
0.35431502590995484 3.9796621305743587 994.1529987930811 0.013190086307497824
0.3618297743866081 4.04331013570695 994.1556716565625 0.001759428850201204
0.354138972076924 3.9964701732902803 994.150138417019 0.017559152700760527
0.34782967600528947 4.018371806902855 994.1152463376934 0.0021146708082579887
0.3520671014743653 4.036702901387103 994.1185153887204 0.0017475671536537922
0.3579614035494587 4.116885832438607 994.161987187911 0.012748620010764876
0.36098800657849706 4.108122184627221 994.1420078104807 0.004586513489742335
0.3543581006977475 4.127569151658076 994.136689435024 0.007738090106829928
0.35897761787780014 4.0745686642332055 994.1563705327545 0.007274632490919879
0.36529609394022117 4.094505780919709 994.1638026195134 0.003186951600872147
0.3529330664039141 4.094326895230033 994.1213412717833 0.005998507483063042
0.3606796710730837 4.0675401912181135 994.1352689042054 0.0033612654383248174
0.3585166891537187 4.056700908650446 994.1571338951611 0.008040489208631367
0.35611282362451935 4.0778190042686955 994.134884440582 0.006233130585000208
0.36438333769672687 4.173514538527799 994.1890584341857 0.010726561970372177
0.3656648773495423 4.140079175867936 994.2209995760272 0.0025536949115773726
0.364763618972597 4.136636263089871 994.1750419445297 0.0012971194975145948
0.3675654643185885 4.210411900376441 994.1537607064317 8.685022763815412e-06
0.3560208192832086 4.170968148821466 994.1569244697473 0.0048492475630277625
0.3507310134317609 4.183491084313194 994.1233435383091 0.0014240348330056738
0.35464819798002956 4.139051093230572 994.1408002360383 0.005999221303197367
0.35023082835709723 4.167392999328913 994.1408477949748 0.0043713008570791505
0.3556100589815219 4.13801464086526 994.1229741782764 0.00550668495487837
0.34680446807722826 4.1557457967492155 994.1069737174132 0.0033379568021951545
0.3523087183281533 4.182358453646341 994.1278689704461 0.0014555914685051362
0.35188718349350123 4.10782456355421 994.1133689110702 0.004493919961297211
0.3544341404079698 4.125944346864007 994.1000419182409 0.004269706318889641
0.3505784661637289 4.178675351544793 994.082858845765 0.004066160245362893
0.35034041061101534 4.20635011561967 994.1037735602679 0.002453954052841409
0.34859460019786215 4.189707885330076 994.0917307434373 0.0031816419118469276
0.34027732222484924 4.122384116639173 994.049325292514 0.00506146940203394
0.34360003791659155 4.177120777504216 994.0472111236571 0.004265758273218119
0.3500276600614192 4.151978838106995 994.0852739037399 0.01226017709631467
0.3483419506498071 4.196656011971366 994.0590130305392 0.0027165564599756606
0.3447235784087859 4.161430379271669 994.0708023499027 0.007281684873469052
0.34485562801768754 4.036400493737884 994.0695137583967 0.010108145291574564
0.34656854615571453 4.008081230744011 994.0659947972591 0.01336635377904851
0.3427760532397643 4.025082417144684 994.0786887719447 0.011900819276383536
0.35179716292922075 4.010034536616624 994.0530334482219 0.017880244857322217
0.34611639689651524 4.007187259648138 994.1103643987284 0.009465616737087009
0.34823376483589163 4.01332903501263 994.1035858932894 0.008688935340781375
0.34289243882533604 4.024938610020992 994.0853236499529 0.012091744765745671
0.3527831182804844 4.058994091942698 994.0811676974214 0.0007218181124163159
0.35168763947598763 4.073984340845467 994.0971386375365 0.0026461031494462023
0.34401795032624527 4.101128776415216 994.0529357383324 0.002070473690281624
0.35117298206497444 4.102570093191343 994.0734488230868 0.0034678921719563586
0.3361665119969883 4.100211178532112 993.9854728849673 0.00427627720306965
0.3379063396123173 4.110367296871809 993.9937037844301 0.004411978884182865
0.341274308745558 4.128911706080789 994.015325007964 0.001887408497992691
0.3327513574405593 4.077424539754143 993.9939441981145 0.006955591868861461
0.34000166339350113 4.099741890337072 994.0260070829385 0.005298793965809419
0.3464691813023371 4.0810634763341405 994.0501958181113 0.0042631513378554595
0.3410901486259329 4.094751260977291 994.0237883858814 0.004603315691807461
0.3396580404790887 4.080086312707995 994.0072609648486 0.005436579409034772
0.34123393262378204 4.0778699932865345 994.0271387316299 0.003156828410031759
0.33380417741747626 4.172378117214806 993.9943308193564 0.0014543262138700813
0.3385524660918887 4.133997322531452 994.0343139815226 0.001557011396301189
0.34800088258556916 4.204410580335599 994.0516553382532 0.003657733974361254
0.33745615864018186 4.1766011905153615 994.0224025900279 0.005192400953149661
0.3409649453645938 4.157909416233915 994.0164803555526 0.006188492097226386
0.3412471905560833 4.143025332934416 994.0339345360235 0.004650503690197344
0.3403233200705269 4.168334784737526 994.0467442696117 0.0025092203486888503
0.3459470280831164 4.1973120500608605 994.045292282505 0.003528946668095616
0.34727045554313846 4.20588658712054 994.054588917562 0.003263820246906854
0.3504198406042681 4.230200306505085 994.0660419468638 0.00037529393990378307
0.3472306413892451 4.255311685382538 994.0315044227987 0.0010408301922853597
0.3413177737260737 4.244454373296057 993.9967626689047 0.0029891933240149744
0.3443275250907003 4.20843337919351 994.019815948103 0.0010974719932301885
0.3364075023716091 4.200759047095094 994.003123088827 0.003999260053515883
0.3424009237729372 4.218808426566728 994.0294844750148 0.001896289977431978
0.3472742185684505 4.284377337250782 994.0602847255269 4.260158830729269e-10
0.3468965432843709 4.286339160123995 994.0898235967562 0.005987671604308987
0.3618320216083371 4.24050355477984 994.1182004681469 0.004012431104678129
0.3569019670965597 4.248508168833795 994.0850123881376 0.0005318404933825733
0.3387659813464953 4.268644215762372 994.0022099256463 0.0070414448645335125
0.3417258399395531 4.280174672058451 994.0106956053155 0.008714079218741521
0.33206758916186874 4.252094418733516 993.9862236100539 7.074054670975984e-05
0.34125316429867125 4.273968550710379 994.0075976319273 0.00849626850531891
0.35028274922587466 4.323780933255038 994.066759238894 0.004040550002337656
0.3545914362608212 4.3089515015822615 994.0976696740194 0.005870295374504386
0.347228726987345 4.324329540725573 994.0543944625144 0.004034955848326179
0.3459395565076688 4.301807400290238 994.0757795579614 0.005090826977447121
0.34293777257066543 4.365363303757276 994.0493693711727 0.00603732783159895
0.3497475402590811 4.336785273859694 994.0699097212342 0.0069433833340610185
0.3554666290356435 4.318102788116561 994.0901416778223 0.001938687891581354
0.3430163101269728 4.306152088844037 994.0125016898453 0.0015496995850290355
0.34353584161356887 4.294810865095801 994.0350952900978 0.002756495952823121
0.3359643021861561 4.319737403346738 993.9890390932916 2.267403470111864e-08
0.3439195061100699 4.347733834806744 994.0289950733746 0.007940652865743067
0.3440141984095307 4.344041038809613 994.0486641641219 0.0031102757740399892
0.33950822960391275 4.316696974710694 994.0271202893657 0.0020914348900583466
0.34263369428271934 4.3365761174480815 994.0351418154986 0.005939468234834466
0.3405301021444477 4.337410938599389 994.0094603260271 0.0031649372890116827
0.35572600355956135 4.295395473882606 994.1584913077749 0.010469309869008044
0.3547807521692636 4.260953562325618 994.1398934739858 0.013276114508626386
0.34888284110617557 4.285479226922897 994.1303365457117 0.00866524410272155
0.3558319974349067 4.296707736065117 994.1675630055314 0.0031774452173242325
0.3571820082761825 4.256239691443677 994.1551725360599 0.005056558591312159
0.3582968320366391 4.265597770544524 994.1132743418193 0.000520014039419675
0.3584574442578651 4.236020948010762 994.1526712082016 0.002837837531119573
0.3588986402314496 4.312990128044406 994.1262719648641 0.006232429318788382
0.35105558106485785 4.379818478714594 994.1113191346557 0.010578294524843651
0.35023824738578935 4.312224177357531 994.14873329572 0.011092262482478925
0.3515647081866823 4.30175947137497 994.131773298121 0.01282694581462898
0.35428550439199663 4.352610627490825 994.1224269466278 0.0035629826506123436
0.3464680157535286 4.359548297564986 994.0871214756264 0.003759149552670197
0.354188435950468 4.33782190392713 994.086018531319 0.0065661676216510435
0.34897491216005033 4.360477271508117 994.0720421894376 0.006680224370776878
0.3403160201737219 4.367178601807317 993.9888986918168 0.0004237358352580409
0.3394033842615542 4.382559125866667 994.0313878361447 0.0021841170675443453
0.3456725052750417 4.369607015135453 994.0163838570269 0.0024177144008019945
0.34293906620272846 4.3809443706672715 993.9962793683377 0.00016874217130531682
0.34062656039248357 4.364591109410435 993.9860984499986 4.335634495045054e-05
0.3553536558393168 4.368530010233784 994.152301411287 0.03780159042892138
0.3558986135725436 4.331756622715777 994.1421506859804 0.01381149192503221
0.355489496169757 4.356467587117401 994.138956651456 0.0156770308175043
0.36264083023420524 4.291608404860694 994.2106977668503 0.0043120375370159555
0.3683868592805392 4.241167580153784 994.2225533840575 0.0010792749073917991
0.3659259328218399 4.262392134835251 994.2348643579397 0.004082434294259695
0.36020850309403457 4.290267292199614 994.1781203455073 0.0047650423066920395
0.36809580526150115 4.29599538948937 994.2226613772131 0.003990219954404037
0.3571363549462856 4.234480783975314 994.1701510412798 0.0111382796135805
0.36293719607060765 4.2730960486340495 994.1715533147736 0.0022709086675157635
0.36326075391241 4.238908218002883 994.1937404255308 0.00129585504666694
0.3616315706279406 4.281737964509254 994.183028916479 0.004914100079834034
0.36361546962312874 4.2464537795517945 994.2100965334508 0.004272808896572826
0.36602685417179576 4.349957886605762 994.1708910702946 0.005056640478046915
0.36032823070770237 4.379234757375021 994.1745796576006 0.014618681623083794
0.3666501786096648 4.314123009703716 994.2169369638736 0.007643197913923333
0.3642278438243567 4.339879402849062 994.2011745470112 0.010473416409469952
0.35666277546490194 4.327557553566649 994.1710411795622 0.007564596868649629
0.3624368650685303 4.157296404282081 994.2132266696029 0.003328500202322984
0.3631293004132855 4.149795714979544 994.2341215806379 0.003306893878694259
0.36720684739126935 4.1975246573454115 994.1762824449792 0.01717714513872545
0.35996978896224213 4.215787824888748 994.1925987792097 0.010423144947569758
0.3643685041502461 4.203408044174871 994.2079164524606 0.006089604032007182
0.36128722971594956 4.193617494600809 994.2188521062809 0.00241742112268402
0.3606585130651338 4.190802483101755 994.1992056489174 0.005314501506542116
0.3664495592260668 4.202553895158317 994.2829590955595 0.008994559153761681
0.36282842388698955 4.210268012187496 994.2489068105904 0.006375554075611935
0.36596808630763844 4.196595789317881 994.2592146483918 0.008816759465272045
0.3715932990747337 4.170687095713595 994.2704831922483 0.007921756111811012
0.372981147180305 4.199762750432764 994.2735159071252 0.006540852452455789
0.36872730675136717 4.1414508403876 994.2612871751245 0.005456858424852136
0.36560533563806474 4.180298228286898 994.2386909867649 0.0044994631353545925
0.3695835121726053 4.147111349120093 994.2721043983148 0.006307209910898568
0.36614874154362165 4.1739846966690735 994.2467321708353 0.0028403987743318582
0.3718122805612777 4.157152055276908 994.2832738768675 0.014086889963322516
0.3647604100128166 4.269473769831929 994.2409731623085 0.0029788808327146526
0.36764594956474467 4.231697931568666 994.2465852685164 0.002283255604368805
0.3701313884335146 4.227212935881114 994.2882061744239 0.007801385185326452
0.3653303696801898 4.269300947630647 994.2533993954013 0.0030328249463045607
0.3648670909043996 4.221593820665747 994.2388253501952 0.0038182658419396547
0.3654078256379115 4.228224292568385 994.2654916104493 0.0070098152171606965
0.3643711660141413 4.297503461924071 994.2373418493447 0.0032989713355640504
0.3675576884143052 4.303470609412532 994.2660325809844 0.006214485886104495
0.3672758387333185 4.256242179729362 994.2766991724053 0.006501115117079875
0.37281284873036824 4.294078323313198 994.2788231062715 0.002153214413254726
0.37011051757139724 4.2394715292989975 994.2928911049067 0.0036361576108589347
0.36829091526706037 4.33364180236902 994.2504809366217 0.002446106560764286
0.3672336198002454 4.320065529756349 994.2658275039842 0.007852190348778923
0.35937597132964094 4.374361069915647 994.23867726311 0.004606952310538486
0.3659345846879273 4.360418828792667 994.1986861536667 0.004010114415876579
0.36042587756772065 4.3684348775291095 994.219180304487 0.009901793398701099
0.35996935026779026 4.348503195863479 994.2182499236052 0.006043260850457587
0.3621821392625586 4.341873778299665 994.22594741774 0.008275375839171553
0.3647803997399608 4.3687921790367295 994.1842596178834 0.011035464904389407
0.35507754365988575 4.388584551936873 994.2025374758987 0.001657177105599709
0.3591691303665983 4.373707205293343 994.1920079418386 0.00782072486864867
0.3624365463918408 4.318132637153712 994.2296464021721 0.004960015562449935
0.3611652024443606 4.361584094026508 994.2342572898053 0.010934428797763823
0.3757866746596569 4.181208170754082 994.3472260389751 0.0038421386481532864
0.37370887353952187 4.179825192755985 994.3369166322842 0.011993365259146077
0.36943794836045596 4.194084868570239 994.3154377414412 0.005661595112086575
0.3732088898259279 4.200148020808508 994.3462225940739 0.013817834562307103
0.36952157862837215 4.191819287339334 994.3249153509287 0.005495899208191584
0.36942330532016204 4.179110909872975 994.3181699474652 0.010564005936374205
0.3665959007972331 4.17415977582585 994.2940234362247 0.009717872277162802
0.3781477029762131 4.146849759569604 994.3177691280036 0.00542265989506262
0.36570516164457223 4.178639123127989 994.294615440049 0.005968449859983711
0.3690434757665659 4.158143694066482 994.3347766497402 0.016104952042269693
0.3685983540871895 4.29183769723221 994.2927659532417 0.008800647263432302
0.3815664347362881 4.22897663260577 994.3246993246249 0.0023165334524307573
0.37636398579904823 4.263291516013516 994.3079334272742 0.004876310915601869
0.3664354641183248 4.281613306060103 994.307128903576 0.009374080959100002
0.3734178824133849 4.2161455303005955 994.3593368966997 0.01722993383554959
0.3752346446431872 4.242300899508946 994.3221916158528 0.02046882538180796
0.37505373492237354 4.106114510230256 994.3615759458137 0.012742701977006676
0.3774226780824207 4.107324896120337 994.3461868620776 0.005895793896080294
0.3730957458313185 4.086268304478269 994.3361053739443 0.004267162622665768
0.3681431261810808 4.134627972090798 994.3277953322074 0.013922677429038776
0.3707628558417741 4.1068105445553815 994.3245461813668 0.0032611874637011803
0.37406910010955613 4.117099338155371 994.3554128554516 0.010028922297062164
0.3706692106581526 4.114783132959452 994.3848432488422 0.010865804307301203
0.37599722101627986 4.109443352562365 994.3592221088537 0.01222992847699293
0.3690250976420606 4.168782047152467 994.3573914816186 0.00621445315604014
0.37600535260702195 4.140412847242717 994.3628948907065 0.007524890570727452
0.36828716673763146 4.192357124888107 994.3695225906663 0.006394362781277764
0.371389112342073 4.15160572515275 994.3648478835986 0.00851391836502466
0.3711491196350431 4.16296188396304 994.3806018047475 0.012749043766820076
0.37052742503508446 4.056988896024117 994.3569759203446 0.005983877888150436
0.3854734528089585 4.067404609249807 994.3799877968835 0.005890453198939524
0.372249667270759 4.003512347797479 994.3698628755525 0.0035902773251265305
0.3693703135543159 4.028975402251186 994.3668175773606 0.0007471610212434605
0.3713884563014255 4.040772110032714 994.3663770347453 0.010995564052181071
0.37442960442886614 3.991927546373932 994.374069462931 0.0029179811018514787
0.3747089229701254 3.951438244068765 994.3542958108204 0.0060334986336238895
0.37742244499145455 3.941524083163071 994.3661537932171 0.006600041111923035
0.37287268775444954 3.940629584189199 994.3758902183716 0.014128627846113176
0.36725690869044403 3.9119639343075714 994.3521655967976 0.00712842760034082
0.3679262467405785 3.9167819695434405 994.3698723970505 0.007384501648765909
0.3718978169336023 3.8468797409850244 994.347687676445 0.00752260796194249
0.36879755646655266 3.871708480772325 994.3754773955958 0.004518455490948762
0.3717076015322464 3.8813305952256565 994.3554024066235 0.004378664559248423
0.37428748788622274 3.838286312099078 994.333891561186 0.004965312764276719
0.3703134802260729 3.8533638092062135 994.3179623625292 0.004511357482975471
0.3733566405585612 3.8957954251591245 994.3588776570236 0.007874269382588946
0.368920142557607 3.903182312883369 994.3650611336919 0.009731214499302079
0.37217171394697424 3.8487726830104596 994.3629551360542 0.008161864320769222
0.37273113747682174 3.842475915225258 994.3644902264774 0.005386838711051525
0.3658486097708169 3.81965047130278 994.35946652492 0.004280486454360977
0.36709321795442773 3.817047258308926 994.3312282671383 0.01796085549819958
0.3696677019990163 3.8049211629071262 994.3462434495084 0.01690380593016299
0.3705286073855107 3.793984529996827 994.3636773904493 0.013265888818560773
0.3528268866029075 3.7862145213273015 994.3218745430376 0.008840089331756219
0.3549303389063355 3.781795512609125 994.341675870551 0.012565623964959709
0.34584932414246994 3.775653369975762 994.3099067492803 0.0036876465531177588
0.3398288575625533 3.7691155910609986 994.3238216918722 0.013846611902984054
0.3332189138699859 3.7599979961180487 994.3265008801764 0.01517311671473024
0.3467360770924197 3.765135288131378 994.353719017429 0.0010822692457870258
0.33437169937776046 3.7562930303940414 994.3749481273554 0.002507327144923227
0.3323252626038486 3.7575915516102225 994.3465322346906 0.0030851405041110425
0.3171072625081927 3.738429919270312 994.3569685252835 0.012105887366291455
0.3198493454599815 3.742212420180676 994.3742130567096 0.021383220951305317
0.2891504754155168 3.7381366132578098 994.3858492364224 0.005611846568818428
0.2851006752264643 3.7425097117937165 994.3573783804073 0.009706762113107477
0.2681679840085384 3.746232349325037 994.3770774151624 0.005523819428573965
0.2841568674606381 3.7456007408828227 994.3507478271666 0.00933147864146166
0.2545820624322222 3.7457121413053125 994.3824835223039 0.012388478668295394
0.2699403674429953 3.742411645914304 994.3566270162444 0.009868267346257705
0.24354926651553777 3.7515082578693533 994.2894268653475 0.006924021882473976
0.28120371583445725 3.753300221505375 994.3027964866656 0.0053194327101927265
0.2548448138342603 3.752214789117453 994.3177214819048 0.010435572504453861
0.259933453905291 3.7463008718719633 994.298545356684 0.002548232484531804
0.239533009411338 3.7434318691353385 994.3494595528016 0.006996987819508701
0.2875869837247276 3.7522715780842626 994.3335864497711 0.0038755309914375955
0.24747773043483545 3.749183202881262 994.3242806573135 0.009137377173066452
0.2884798318698224 3.7575655986291685 994.3136433835002 0.007721551029580531
0.2727581118120764 3.7525950670829307 994.3122358491395 0.006346952750990599
0.2639235541975005 3.75422535890255 994.2807830171286 0.012537268055688394
0.23378707313980965 3.747023756925496 994.3702693566635 0.008021205720202023
0.26356692835605944 3.7556139640085346 994.2594318339306 0.007343582220508139
0.2753082309240428 3.7570802008353885 994.2727632213833 0.011362091869542608
0.23324664726458297 3.7644881556174403 994.2249339836785 0.0073161864064090944
0.2549045064895788 3.7662216901255907 994.2222303432466 0.0011583972398345266
0.2700793125502902 3.765713094227199 994.2300894143426 0.0011239306062318809
0.26025604693349236 3.758441974416065 994.2443045388474 0.003485835377256577
0.29477903322021565 3.7605377757217844 994.280388396243 0.004194627512652275
0.30413696025777837 3.758214269478133 994.256727525079 4.09953251520593e-05
0.2901677794924106 3.7672602517356175 994.2151232699882 0.0059933829126136385
0.2978625359336206 3.761794786766281 994.2384566314023 0.004587099341544245
0.2634624313140292 3.775809326350812 994.1780646459758 0.005357280231757693
0.2797671452674482 3.7711777058008 994.203071177483 0.002806778166417808
0.2727768978596516 3.770403772636148 994.2079115308663 0.0028125002182206155
0.2685951015363828 3.773766876638108 994.196686698059 0.002211864463662458
0.28940334902200876 3.7733960574572465 994.1881488357892 0.00724949728226743
0.38020585127493184 4.211642814409581 994.3780317921153 0.009282581475452951
0.37359069382003685 4.295517098916253 994.3378126492506 0.0017399151045624746
0.3720557020840082 4.242641418581108 994.3532515489488 0.0133930001178837
0.36883349079993505 4.291528099187201 994.3248888031804 0.008493563498361412
0.3724815774193879 4.264828155545105 994.3242598385445 0.013237570573119573
0.3823713005803791 4.262382610465027 994.3738867716502 0.01136961565420516
0.3748018242688333 4.248527281822014 994.3665943436498 0.019726160438659438
0.3731642684246568 4.226579072699316 994.3689917096813 0.017371418702221586
0.3718393646684595 4.2553818276541655 994.4053772907881 0.007046811450783434
0.37327778881224366 4.250190631202766 994.3900734829688 0.020312245446396655
0.38145927257294343 4.285724322547349 994.3691999933405 0.008231435406292766
0.3790855226171358 4.230772217267518 994.3880314616351 0.02364794629010397
0.3798509434236702 4.215155505099139 994.3979044511732 0.02008873861322336
0.37600052105558424 4.235043461487105 994.3796350234383 0.021422246284005388
0.37293003092945765 4.232574644205846 994.4035329607525 0.021407126780959778
0.3811162091696908 4.298261830869169 994.3709032816122 0.008647410686454447
0.3768421615984327 4.294689549143309 994.3901329615784 0.005078046028068721
0.38247645734032026 4.2710350523491 994.3920893146848 0.010863115920406006
0.3739291413940534 4.323663942821257 994.4075976290812 0.003069939539147075
0.3779022600376601 4.320962001596567 994.3944028782475 0.00544421821385215
0.38241437963668506 4.320396224621971 994.3687585517259 0.010469074320898315
0.37875743105790527 4.367576803039347 994.4001193131361 0.0048610076038288035
0.3833630188398242 4.338982260801113 994.3982577225189 0.004763004032860338
0.3645807178238242 4.324861916271405 994.3014091510821 0.01128861772856154
0.37406892044307255 4.32205293366542 994.3256890403894 0.006013167349734124
0.37137814897614135 4.371157387260001 994.3032103781018 0.018024496154432704
0.3739352605022307 4.349731313660031 994.307914002516 0.0043085577293204115
0.36887664843254975 4.314956491323963 994.3155210679104 0.006386055667333395
0.3658376188281444 4.310311278263649 994.3024405904317 0.008159446548090655
0.38035302589766556 4.369263560307306 994.3825118696238 0.006959803456518794
0.37359850185875965 4.342198081333062 994.3544130149065 0.004973656791679604
0.37388830177853843 4.3713871725863 994.3193978185046 0.0055304508653539405
0.3697266320017094 4.3775133929720615 994.2993289737766 0.018637550455126543
0.3708269439141633 4.357434366653707 994.3293670902646 0.004150649140039033
0.3740485387084829 4.346015736740833 994.3513663934832 0.00595499117641102
0.3800889872659496 4.369959836569548 994.3488604035348 0.0049648372822246
0.37871848159615756 4.375162236001939 994.3851498742177 0.002697727475159079
0.3775711897883279 4.314286261465656 994.3525657369901 0.004139656899679232
0.36405802919380503 4.371203582927588 994.2518257535451 0.006583421131158336
0.36569815949300055 4.335085139324464 994.2808632587854 0.005453600258846882
0.36989292112527333 4.369168583700264 994.2842308656177 0.011221394827319011
0.3692542630701683 4.324620705398364 994.2743000371281 0.0033987218749673568
0.32689103590529694 4.070727100953058 993.9825773036863 0.005191503107577945
0.35282858192262334 4.046946246191714 994.0410607691608 0.007169783058326998
0.3409651409962141 4.011689353759149 994.0265454817812 0.0018358134775334654
0.3322433268007477 4.0518625277769775 993.9884242084607 3.593731044935416e-05
0.3434442879601603 4.026539117618265 993.9967434966428 0.00141508126718177
0.3401464207688952 3.9437856248007943 994.0564554581255 0.0021016304605828377
0.35077083147544386 3.988152529366468 994.0812860162232 0.004994315337874324
0.3462626321498994 3.9638145446356465 994.0394113888929 0.0015814303920143142
0.34604045074549866 3.9833778401736226 994.0657848442789 0.007603254382554573
0.3436786311635095 3.924930067320198 994.0491202655004 0.002019544691656989
0.33860472091890026 3.9714979182657677 993.9941176111915 0.0016404794467803497
0.34037965796262815 3.9698089494869206 994.0108310886167 0.004898077513188448
0.3423549538947858 3.9570540842697963 994.0223179538958 0.006123489974664152
0.33953755038647443 3.9401069572205794 994.0240019533509 0.006731744846678984
0.34163139916997337 3.969573878250236 994.0262202125616 0.00730326975388682
0.3336375024310192 4.00231708528354 993.9884540355232 0.021836047619562992
0.33648143207160497 3.9883723803579674 994.0023216047038 0.009203666534628606
0.3440838891126628 3.9413088820619 994.0701677703619 0.0064487433837943425
0.3500629165832532 3.9596603591574357 994.1052177056454 0.003310416989844078
0.3466774250144548 3.9413217340600615 994.0911046506279 0.002526242425062348
0.3474555177726211 3.9324694693387037 994.087910891747 0.001960647338122752
0.35168388839532194 3.906046764096451 994.1327524388304 0.002147321288147703
0.35105424479220293 3.910283956013766 994.1655925989721 0.005046000264759922
0.3498426699374556 3.886761663155608 994.0913197521802 0.0007691594164740726
0.3522960975865597 3.876239922932461 994.1097728428581 0.0025794640006376354
0.35049618960010687 3.9028661296469456 994.1109583372325 0.0012080479395859473
0.3435594593199626 3.9113319770714305 994.0640671456387 0.004822486967924245
0.3478326202345137 3.908056925058515 994.0996618692519 0.0007925114218501469
0.3487700309671931 3.892475645908395 994.0788119024481 0.0033132130236291496
0.35251882640054755 3.900183603639672 994.153073356509 0.0026583539222363385
0.35329752286098665 3.883150654996751 994.1721396260881 0.0050607504659352185
0.3548781549711769 3.874778853255449 994.1599689624227 0.002196815748086017
0.35562738146771855 3.8612976909024685 994.1492423899863 0.002902853653724176
0.35383490883369384 3.8610817617383715 994.1792289894523 0.005699232281805173
0.3523276589449964 3.869045403583734 994.1885913748713 0.009265644409143623
0.3510292155411965 3.902335632009993 994.1687663101648 0.002480662472749503
0.33669623300758994 3.848229661709911 994.067508529106 0.03391531534133216
0.34143261241222206 3.9066120812765224 994.0497279269352 0.007853290537073038
0.3373191779486083 3.842611481166325 994.0736233130898 0.022081062334725992
0.3364408175556167 3.8481799768706306 994.0643109753087 0.02848515281053706
0.33736615473983284 3.862000696432743 994.0553840181364 0.019010935129048553
0.33682727023820014 3.835490344823037 994.0608415374879 0.020037718450250246
0.33505907847244215 3.8581927729781644 994.0071518717549 0.014428239618941317
0.3424892182821073 3.852154468786041 994.0412857553507 0.007226579318683702
0.3258750721909878 3.832541425649271 994.032176396544 0.03532707911424716
0.3302640414232619 3.8258892704340375 994.0542347054485 0.032065362219182714
0.3316486505649184 3.813792328302564 994.1030000527705 0.004212629851547279
0.3223438812095188 3.8194846453118587 994.0723137477144 0.04009072409629745
0.31224045527398975 3.8171670923832735 994.0439510440076 0.0070486577683607395
0.31671296944195027 3.8092257502504716 994.0955597641004 0.02124518746409685
0.3226791863367948 3.803489385431657 994.1198834340846 0.013770288242085184
0.29863853537530055 3.8122549115559323 994.0398326445159 0.005483114279505487
0.2936338608551463 3.807710288201307 994.0615208702687 0.0025651856712563073
0.2941826456914637 3.8190614170691206 994.0025927869746 0.00016061903838077585
0.2810426948648938 3.8220615972346557 993.9894628766875 0.004623822359797299
0.333812809798101 3.869786383724901 994.0055238533379 0.011941812315324114
0.3355970753886618 3.879233821072319 994.0281901904497 0.0057890706679492405
0.33656977435828034 3.881643448251381 994.0478679716249 0.00844780705632013
0.33903142955017584 3.889449133907713 993.9798692180843 0.0024358455420734637
0.33971084323117495 3.9131546079941097 994.0112182392139 0.006175144614516791
0.3405484660138891 3.8915201628113607 994.0122309780635 0.0009977790842629942
0.338520454460122 3.901144681457376 994.0019427775624 0.010902135609082526
0.3397809988631529 3.907737913002241 994.0327434525464 0.005611908633531562
0.3360555486417935 3.9490141624707475 994.0024137285258 0.004827090224122497
0.3374189219558881 3.9305952637538675 994.0255446376661 0.005863182306011439
0.33115894982243105 3.9349502236438814 993.9890891524645 0.005844390129041051
0.10142171282264058 3.808446542735866 994.0281675292589 0.0015822323181789821
0.07735231825734076 3.830647767724063 993.9988660436921 0.008581083444099401
0.12641336435756684 3.8144650107760794 993.9897493429061 0.0002675635924364234
0.001864989408862728 3.9785785435706895 994.3683725684942 0.003244733404697736
-0.0013770245500699628 4.012079860566417 994.3675929966196 0.00957937160105899
0.0018458766337579747 4.015445402486971 994.3593077753662 0.009983180412287485
0.004173140981036357 3.9800067852340786 994.3589460222107 0.0022721420998736102
-0.0010912623225188419 4.3686733343646145 994.4030942568091 0.016124801850689586
0.0035062419537228657 4.3744860687189755 994.3995247424621 0.010039511400003007
0.3418152067332067 4.132559250551501 993.9861652922926 3.1892571340926656e-05
0.3322022265580197 4.208528712253108 993.9780700550708 
0.3289348371463245 3.9953917345156413 993.9817492045847 0.01603791557827931
0.33005710415900164 3.9478473553708855 993.9757960400246 -2.500864372176321e-08
0.32616496991132815 3.8580034039666207 993.983921402981 2.7232705611276495e-08
0.25999163383380663 3.824498114459506 993.9816790535124 0.006040110369985043
0.22291360971137877 3.8267560091495803 993.9787422606678 0.0046598464225542854
0.11273156599259762 3.82421072023007 993.9805236777307 0.0056713243987357815
0.3312560114226502 4.268786922191405 993.989479587304 4.45615255793785e-06
0.047731416679830795 4.316467767019755 993.9748312580795 0.0026365730402098863
0.04052584526177714 4.235725398318796 993.9814334829138 
0.038528413670953394 4.151150202350607 993.9919067491762 0.00717171691837284
0.04749322589619816 4.090895032400865 993.9799317119314 0.0005383044631547876
0.03489636740636426 4.053303569601103 993.9780077455582 0.00013673566521906432
0.043909328943711724 4.023452233390906 993.9818759052876 0.004988730058627203
0.04415565687268027 3.984000846242286 993.9795291450695 0.000736841737960885
0.04189656265389098 3.9483891625485237 993.9809434812092 0.0008634731120866756
0.043661001580147143 3.8948099018425317 993.9845549737549 0.0009727094450717194
0.05968630923289949 3.862862615858516 993.9842090029097 0.014443125535895345
0.08285061912655797 3.832960284048438 993.9854960043491 0.012459410513083136
0.09311011767535626 3.8267711102341173 993.980719811128 0.00024196910644039786
0.0030757083905586877 4.392371926170539 994.3571950249791 0.0007045555583534775
0.014243914321201402 4.388004520363075 994.3949797920546 0.008157307660839186
0.010676594752739403 4.389562421646869 994.3699620224911 0.010522912388643266
0.02735711587536349 4.390953838126574 994.2503380820945 2.3550238644168904e-09
0.04235998585770815 4.396851794025042 994.2909366317434 
0.013889575732116057 4.386697959502071 994.2157070984051 0.005232710518529122
0.35783547959277373 4.385111144402269 994.2753683447036 0.0005537409777101558
0.37689511318149543 4.378293981424204 994.3563535622419 0.008170189748640236
0.35681402685497104 4.379129032210138 994.2404970184075 0.004591340843945429
0.33263484749316896 4.392368963894757 994.1615147707948 -5.544477968536967e-08
0.030482830705479518 4.390360055175761 994.1200944509749 0.0029580729737495757
0.3441534113583178 4.387981207096091 994.1388396272268 0.011617072684039833
0.3488379953937509 4.379163329664521 994.1171068778855 0.009608693277387271
0.033471495384173475 4.38516695821775 994.0750917491629 0.015977630989144058
0.036814289839500795 4.38589184180129 994.0616123736822 0.002511251689629795
0.046508706310111086 4.3902980226392385 994.0256020318946 -5.390197020799751e-09
0.048731411533197544 4.384517757572369 993.9846057601314 
0.3493114947402258 4.389437219718115 994.0765709706517 0.0042902504399328885
0.3726462398735308 4.391321823475389 994.3633390085721 0.00034279881235455093
0.3760445824977673 4.3834612170693905 994.3826726219211 0.002396605861806555
0.37539147737554884 4.389122721983558 994.3286592277417 0.009622709045321845
