x y z curv
0.025783403796297115 125.70350534103822 861.6123926676281 0.04455415986107076
0.33141045162877414 125.69505319561135 861.5279956248537 0.005727689717890176
0.3297188749061277 125.69958150253483 861.4563144026106 0.00754812876067381
0.3328118629115917 125.70186617622605 861.5500128530375 0.011065762654394977
0.32397263227820033 125.69997171809325 861.4090966014916 0.014546378042875393
0.3377641438451655 125.705193705734 861.4202274637489 0.0054250244492577504
0.3448495404481984 125.71139421330562 861.431533556862 0.024963368433644932
0.34443917812860914 125.69436689704462 861.3277988856604 0.003752174503366495
0.3514920189598023 125.7072214911799 861.5398534203777 0.025062798720321612
0.34002847848258877 125.70217998821913 861.3735306960183 0.01669458957597845
0.3387813811072301 125.6955490767164 861.5927990541768 0.022151147338934318
0.35195037251627226 125.7149183596454 861.5689123627069 0.0679021999426354
0.3532770762681642 125.70909423762339 861.3568614829219 0.01038422262240582
0.35434698184751795 125.71593409377648 861.464054908806 0.03677796417222192
0.3472941938618284 125.71094554912096 861.3950650692567 0.0334172821868112
0.34781815845528236 125.7104517751204 861.5541161907802 0.029510225844162477
0.3601605590960904 125.70537898520594 861.6127503560497 0.018757098147574203
0.349539830542466 125.70688078493622 861.490494789665 0.009856994314909957
0.3517126533446577 125.71432539918732 861.3232218241528 0.009383360590708975
0.3551409907939339 125.71507220372861 861.5881435414345 0.032229569394906524
0.35768261980994964 125.71336438482396 861.5331283710703 0.03345440609833262
0.35459866741455803 125.70645497616013 861.3785225634267 0.03416042326473229
0.35222488911884353 125.71140379041836 861.4564304998573 0.022606753171484858
0.3554390915387319 125.72217619433023 861.3081118564162 0.015459474442735925
0.3522055661503422 125.71130423263804 861.4002204650538 0.03648425307665593
0.3614426955518873 125.73369107038457 861.585473311848 0.022416504087321588
0.36067990667547656 125.72265915783763 861.5093991268816 0.01222083602994643
0.3679892557945693 125.72558510026599 861.5666187484408 0.0276047206625113
0.36936914046608593 125.72073529280132 861.4130296919617 0.015535412936854686
0.37270687380807255 125.72557540777669 861.5552082125778 0.02361638121359478
0.3602206030380502 125.71718123931458 861.4923612267941 0.02542057422375199
0.3587238450512545 125.72413980773418 861.6065519716312 0.02630755248240307
0.36611468737628283 125.7268929583417 861.5280840425454 0.031802707538685734
0.35878483869216765 125.72246629275647 861.468276127943 0.03377526344187223
0.3592822906834557 125.72121851111766 861.3653159872556 0.025867760335484918
0.3646528355848866 125.74066579194776 861.4463674864734 0.02302440610378436
0.3645436247114561 125.73812098862744 861.3267628765099 0.017982153184106724
0.3647896444856117 125.7344735491748 861.5603909834535 0.03670212580293298
0.3676019773421036 125.73377560447426 861.3394124154207 0.00519711313594453
0.3664845539384714 125.73245754223065 861.3686832954327 0.01417793509679875
0.3625702813816634 125.74939239368827 861.4265184020816 0.013070980860966721
0.36473193304468066 125.75587964292133 861.5683356194105 0.008758030204947038
0.36373534549763603 125.74785215898818 861.5535587867546 0.02236923934082943
0.363604828235632 125.73828092822393 861.4041540596238 0.03264486275604625
0.36919240549809584 125.74797234984328 861.4886969578486 0.029073361925680295
0.3695741943303306 125.79923498480068 861.3757478941791 0.012895252915705339
0.3659440403123594 125.75744509003906 861.417595631005 0.01567782457873462
0.3641151176575459 125.77229402765052 861.3095301594805 0.0012267873762370235
0.3753081837339839 125.81899568071563 861.3503938702963 0.012202057541705617
0.3652571625478686 125.7490343449901 861.3730833008797 0.008172161734068668
0.3699988310878371 125.74909850798032 861.4570993238636 0.01652182084712329
0.37179556237071215 125.75367315655892 861.5023256768245 0.017164493427634115
0.3674917882975479 125.78952137481573 861.4268588426943 0.01065410528944104
0.36342287056520545 125.75226399273615 861.3124034847792 0.007754994592067278
0.36762698081989015 125.80270527910626 861.3182441682019 0.008954982950105522
0.36597354214123373 125.76536617798426 861.5422962808652 0.0013722844208060212
0.36901007741562464 125.79068089702953 861.391809958852 0.012486915630524786
0.36462884568437265 125.75996572128294 861.4732516297915 0.02509784684083809
0.3724590230825818 125.77394136859769 861.4102403412626 0.008585902855456178
0.36323441500376835 125.74572611385464 861.2920664679667 0.008368150984525707
0.3750013580000589 125.77625865930419 861.4481267742248 0.008014394646133868
0.3649096972941707 125.75061619232156 861.5515947961727 0.006000992534716684
0.3614364251518583 125.75694082579516 861.3806850894775 0.00579188616541818
0.36603027723094905 125.75753788686744 861.4764740877803 0.0255535887864464
0.3760940923736127 125.77965153930482 861.350279535127 -6.35976381771289e-10
0.36664960805205576 125.81821931451286 861.3116056822229 0.036976524107358764
0.3666202825909601 125.81472048673943 861.3837461067907 0.0551863578061793
0.36845145101259535 125.78126776496582 861.3087012565766 0.004119376692276735
0.363722021582289 125.74553829585876 861.6003039094779 0.008384551565687614
0.3630334212862184 125.77984427934082 861.4783153476817 0.010931656274963491
0.37624873324912445 125.74105926260434 861.5120288927775 0.01461480835742421
0.36443217343996365 125.75741604423523 861.4071495938847 0.011954157310523635
0.36629394138278265 125.74932519925186 861.5400472530484 0.0212223849761674
0.36412501646376594 125.76709425183417 861.4894499982024 0.01375341109533918
0.3698426272193912 125.82538673452206 861.4711202742614 0.036172781780568125
0.3629959254698746 125.83049506992722 861.3875054239228 0.06580494130643216
0.3679489029231347 125.81627346908932 861.4166293161051 0.005237156585963541
0.36921605398093554 125.83219720740836 861.4967583482432 0.04034597242963731
0.36445064750185735 125.78562515296461 861.5112904669162 0.00743128027359718
0.36271857920250633 125.83281747839644 861.54243913802 0.06689514201272284
0.36936014222035196 125.83133974455369 861.4615978973441 0.03609545692422606
0.36651551479340055 125.82483775851851 861.5449391797227 0.07050244156776345
0.3593575113464975 125.83157057640422 861.3676315858082 0.049968124945901325
0.37238723415357616 125.79601915470347 861.4571387502164 0.012795236435528103
0.3639170211617848 125.78088999232976 861.5669904061187 0.008354400891179658
0.36713923065994564 125.80398455992695 861.4694834680128 0.026298781299120937
0.3615481423594109 125.7792263214994 861.4921081934365 0.008124260292426518
0.3622480564396974 125.79374673379765 861.5250705957899 0.0031689921010565367
0.3656889408483351 125.81565532346572 861.440090526346 0.04349900054164155
0.3701102557910489 125.7813715452272 861.6018322783308 0.009735925234358714
0.3621494808595448 125.7599892183176 861.5761424973002 0.006890791633556956
0.36494602310581575 125.83365861278654 861.4419401370577 0.06450322249149973
0.3681775862945564 125.78303346365492 861.5929313868631 0.00560244731717007
0.36592555385007447 125.77252204182996 861.5470242191576 0.005952009585985811
0.3662150876795232 125.83070243652854 861.5242116903531 0.10277965796764042
0.3651620752215742 125.82289489120527 861.5616457861762 0.06592276814730733
0.3616134721910523 125.7647521571894 861.594685198228 0.00413535026430732
0.37101300978424656 125.81275198278581 861.604358154404 0.058680305352237096
0.37110365366127135 125.78897746969463 861.593292408314 0.0074812922352328875
0.365970490425301 125.82065015954039 861.5339005188035 0.026697771660992613
0.3713690498396225 125.79542691245976 861.5770118801279 0.006928529794382853
0.36782673631997925 125.79610315673658 861.4839376602011 0.004229877361461534
0.3647782869745197 125.82697222191165 861.570277904166 0.06819063800161834
0.3629106588038811 125.78992183184114 861.5467394908985 0.004182010496693371
0.36312384640713025 125.80754647284043 861.5339969686363 0.009022331581523563
0.3634976363245503 125.77297278919409 861.5725487117702 0.0065918166026596075
0.3671795030826511 125.80208228558324 861.5001766607836 0.002217232806414296
0.36660767600429645 125.81349429402724 861.4830834576796 0.05583868680671856
0.3654536685391112 125.83356639801453 861.5168509390406 0.07739056797537892
0.36727890839926963 125.81188464405705 861.5298108361018 0.010841950559543017
0.36236716262356694 125.80785199457351 861.3958814236632 0.004360946156036254
0.3684623149069367 125.80167576927704 861.5685959732631 0.003891024817682852
0.3641413472090321 125.77169820542503 861.5195031958267 0.008316008754070101
0.36036198384540163 125.8376425494916 861.327138219943 0.06723197312898188
0.3693945296821896 125.83767456848085 861.5819564376918 0.07230668846255478
0.3645288808537439 125.84318051272628 861.4033552124778 0.04243006120531611
0.36280816318626996 125.84447633621568 861.3381344814327 0.03044967753110431
0.3584993852891832 125.8416804801451 861.310082010662 0.03241817179384584
0.3621027776795961 125.84379407021055 861.4163178127545 0.061628650274737
0.37261029208422575 125.83454209068819 861.5988510779438 0.05046701737074771
0.35826478803541434 125.83684331052935 861.3505306763668 0.023815795832099404
0.36627841013714396 125.84005467352353 861.5242941150087 0.07571509105369582
0.34363512527592865 125.84172746334076 861.3200245666886 0.061364102152266675
0.35566724678599837 125.83973435177583 861.4624312747612 0.08290111502840797
0.3489859637449384 125.84511123988709 861.4807061455797 0.06122170513609447
0.3451183407084335 125.8429435615826 861.386739948166 0.05182482675296331
0.3475115255459058 125.84209463833496 861.3702534502407 0.04436773746145113
0.3585134455588075 125.84224083202082 861.442900173962 0.07152299667324044
0.347439188491675 125.84427394560095 861.3403382609512 0.03594744186051037
0.35611539549453913 125.84500686440133 861.5380932185828 0.07652622730645771
0.3524873335727809 125.8465198510978 861.5584007313015 0.04612174639754154
0.3575568480461318 125.8436142604596 861.4358541579629 0.09297934493936126
0.35036165473465386 125.841762824057 861.5074239653405 0.05379164519855257
0.3331777296460678 125.8445565933571 861.5670397661821 0.05429774063106547
0.3339850495682329 125.84165854951304 861.5907959557649 0.03931072515652971
0.32863455003647646 125.83757393414332 861.4723897496744 0.015438300429726343
0.34220916792232886 125.84867529394197 861.5859564710587 0.04263065579201817
0.34156324566946933 125.842635294622 861.4940760350033 0.056533199991026545
0.33086136680542355 125.8389215923763 861.5086010628851 0.025373990015894687
0.32520138852187713 125.84677221780835 861.3892973864795 0.012542091260003087
0.33237590326562005 125.84754294288224 861.3241417488097 0.014385487170906276
0.3455201825470136 125.84811941757604 861.4334424512067 0.048499879074675546
0.3456470809073138 125.8411932139232 861.4474775776564 0.0581103219155015
0.3520539671524041 125.84531230918596 861.584205450455 0.05991629784082964
0.3468414079720663 125.83974757351253 861.6007961981321 0.061565196356096336
0.3344109702524629 125.84764968208242 861.5392199327401 0.035462189390595054
0.34648933648804414 125.84655127820076 861.4987719947636 0.015895914890115024
0.33585679484909764 125.84406393162905 861.4196175693917 0.010872034744517204
0.3268366696380586 125.84323470084172 861.4326179186488 0.007057069951533022
0.3239566455185481 125.84158215830963 861.6099727535267 0.016124555754704534
0.3286567351687758 125.83817223675884 861.464791785664 0.014366574465608975
0.3122114102129598 125.83554062271243 861.4873590327069 0.009151173742687313
0.3296199982135591 125.85016463534251 861.3974593136879 0.017206382881994345
0.18061954224647683 125.84298359726273 861.3591728233654 0.004752942748055316
0.2355981860721 125.84088362140957 861.4491025342887 0.01277304861255944
0.29197667368150765 125.84753640921848 861.441274678529 0.00552326349562932
0.24303559222161344 125.84394003874948 861.3094609695573 0.004770389265765993
0.20069757307388716 125.8409720883812 861.3830419784526 0.0075308005640069365
0.20793660178851392 125.84175375642747 861.2922645146472 0.007021457261151918
0.2535961954930636 125.84230411515227 861.4178699728087 0.004118940355194614
0.24395180901552485 125.83954869161099 861.3992835781517 0.00534511815447958
0.22488564262610392 125.83414048848775 861.365594744596 0.005320124251935788
0.20136689067534408 125.84333599725201 861.3927111929195 0.008588448721556527
0.15678965378279786 125.83249535759221 861.3412527252946 0.010069986988467266
0.3130497360075604 125.84405807271797 861.4103581406087 0.01066517317237342
0.23801589407885307 125.84513680737567 861.4201166197928 0.001914081724003078
0.2988651739124159 125.83913658129785 861.3249794445809 0.00863883887319963
0.2752320779095226 125.84202461281129 861.4017991029448 0.009640689600320647
0.17087024025363953 125.85795302323803 861.4200201226226 0.001597523066853505
0.31045164075931964 125.83913478971309 861.5859798934581 0.009554987814235723
0.25101328087231184 125.8432193242522 861.3781251259676 0.003233124362444849
0.24918600641011632 125.84247039451994 861.3268404633042 0.006364068064277324
0.2037066335032426 125.84344865376089 861.447701160006 0.005818414319199729
0.13320199267444408 125.84185149270957 861.3408621562347 0.012207669189595342
0.15290062293453666 125.83488820985453 861.3571051285148 0.008013037423774422
0.281643712363879 125.84440215532834 861.3667628125531 0.007427866759527549
0.22462015130216884 125.84416066990624 861.300558226631 0.008336765269469035
0.30775561459104234 125.8386483899831 861.5014915912858 0.011839689626170137
0.10443107896154642 125.84231462513927 861.3414648446023 0.015287854991303515
0.18616941325552672 125.83785669551558 861.3222042315588 0.009994987425188593
0.2874225893316091 125.84617209474474 861.5222035779536 0.009535759586244395
0.21119868379782328 125.84610545403662 861.3274477352998 0.0036698973960409375
0.0790231845386636 125.84193209450247 861.302434057453 0.0073291035008238295
0.13661440491121304 125.84138123563253 861.362331233073 0.004211092536543602
0.23834145167066545 125.8370716988256 861.3456293576319 0.008260069540970942
0.2785455219446328 125.8428645279905 861.5334494713491 0.01916802919735304
0.23409115475665382 125.84130505128122 861.4470673916451 0.013062197372296446
0.10317948760253648 125.84006804353 861.3236026315606 0.007639553333070158
0.20731939237172775 125.8405869183181 861.3798060615294 0.006341872123567998
0.2732418461801638 125.8432069846883 861.37952433838 0.009439988687600345
0.2226846577582364 125.84086764356788 861.3325214143733 0.006271364776748338
0.22537715432229147 125.83921186557413 861.4603637814791 0.02083950062272806
0.1951022859657124 125.84750394065163 861.4117449737363 0.015197392682583844
0.12180955675787072 125.83869453750334 861.3511355756862 0.012776890755053089
0.30844809132534934 125.83911818195571 861.5197804344516 0.0057882677367753765
0.2992850816533508 125.83626071921644 861.3803079246035 0.006944298003336046
0.3055189959330284 125.84263820318624 861.4549342763293 0.004845749541956538
0.16206074214397145 125.83904953271558 861.3218695585795 0.008929306778791562
0.31038445333369785 125.83662796727832 861.4829737224528 0.009531574894040147
0.2534418742950861 125.85020105120805 861.4660347091159 0.009371701740533527
0.18631026734820227 125.84791951564958 861.4420002491025 0.018702657180990217
0.21287350867085258 125.83748843019092 861.3683254342648 0.006766721634534719
0.12349425275762871 125.83977321584638 861.3738682501461 0.0072802654806906125
0.26016880802535686 125.85000787891553 861.5377429248397 0.005874577064495565
0.3243767306952448 125.84624068817855 861.3426440479157 0.012011960360109843
0.21778040490365383 125.8415418640787 861.3954510229021 0.006388509596053074
0.2855171648697476 125.84424785995525 861.3476387342711 0.007042756731074896
0.21870229243984418 125.84390507393009 861.4794424407656 0.019042228852296183
0.1468426483641275 125.84061687073822 861.3015811643949 0.013770120465042113
0.07159519038516514 125.84023067926314 861.3128476673611 0.003298161861368806
0.1178775810170119 125.85118690640704 861.321499964912 0.0019907525120408513
0.31124175102155327 125.84122988533919 861.5603100611482 0.014566893660325679
0.2831144135312055 125.83902759604064 861.3021023709284 0.00940506129390469
0.1509453657100778 125.84020218998599 861.3741237798362 0.007705342001843825
0.1454509363366752 125.84056724066093 861.3851817748952 0.0033202167131895586
0.16470666389573982 125.84704112679961 861.3092687717271 0.004268949164345078
0.2959526323702774 125.84443205056992 861.4077623249506 0.012424659744311159
0.30692251534007675 125.83890753287406 861.3655147688846 0.009831001439530229
0.31429434671453066 125.83682681320487 861.5774835539399 0.01067051683746542
0.10945229530259754 125.84099190935326 861.3622593617443 0.005965560702703523
0.22527517998087163 125.83913237850221 861.4367370692846 0.005922431724918753
0.27351577780723374 125.84581660221932 861.3979749657768 0.008825147412674886
0.23768668910992893 125.83995615813863 861.484011371344 0.014499781297537205
0.286590051297966 125.84104247459915 861.4947621148403 0.0033528901275455
0.2718782335031783 125.84330109305346 861.5090442974856 0.015079596289984138
0.22380235994685888 125.837044987069 861.3770862343623 0.007773903126357141
0.32381695521953946 125.8379368897749 861.5148270621407 0.010429434953589358
0.1685032942260515 125.8357714596938 861.355401636164 0.008716988674523607
0.22334171444595055 125.83967026073732 861.5129078152589 0.013207773242169155
0.14368069491894056 125.84040576331965 861.3215544067484 0.01718158036184981
0.1284158361945506 125.84046752461734 861.3788443339847 0.00725056774841338
0.18229830902528726 125.84008170410937 861.3511842920965 0.008929327493722114
0.3103103929434973 125.8516653866671 861.5463934283422 0.015664410184024466
0.318915589261093 125.84687474233468 861.3971414319267 0.012571061550845008
0.31834989953069 125.8430112023871 861.3294463984817 0.0153407028715081
0.22737379726089454 125.84201621693593 861.3119666603523 0.005049241038737128
0.16534265011475732 125.83929687569233 861.3719955985341 0.008374821474024807
0.24364145346066185 125.83846076038398 861.5178397320209 0.01244646141180756
0.2262001461977902 125.8416295386596 861.4806163987217 0.017404152954142004
0.25251511884254396 125.84099487597473 861.366110902009 0.0033048026863695193
0.21894888468719736 125.83692854058276 861.3497168199124 0.0057299943477018295
0.2522760758283076 125.84140596026097 861.341003940929 0.007269057568409422
0.26436889625316784 125.8472679609728 861.4559552822458 0.010864164679896586
0.2048355238719068 125.84703708896589 861.4695940408624 0.004284464817618123
0.2664389656906112 125.83914930499601 861.3278006252949 0.008445933128137215
0.2990565591770998 125.8408440349681 861.4762462353006 0.007026217862387532
0.18009703477450997 125.83999259430384 861.3906405236644 0.013729737492076666
0.3141522605066769 125.84864874692163 861.447239016095 0.006184474883701121
0.19764722805475526 125.84150076773244 861.3545530501987 0.011753568048920816
0.08884688258474466 125.84147910702823 861.3492511859832 0.007912123344370187
0.196296304828129 125.84189069566486 861.3057795385396 0.011072141824900154
0.27928341494353814 125.8418241267129 861.4751828680993 0.0019588397089709687
0.09307857420151953 125.84307623378359 861.3030188792301 0.013095941241782042
0.2678691776441639 125.8372158829555 861.3041339522641 0.004410946095833241
0.309981545456513 125.83606780262213 861.3127082176586 0.006628496225314794
0.1519879467358127 125.84036737413564 861.4149490714905 0.024807244462956245
0.27913480997508777 125.83975288281714 861.3174598958439 0.009089887723890825
0.25510700917449036 125.84839879653468 861.5018790400226 0.012355745757539068
0.2647730827507936 125.83853500264541 861.3437202092839 0.0032592697548846712
0.16264299960729275 125.8448978682431 861.5617164751433 0.01339305506094747
0.09710065894885615 125.84455102935414 861.5020791599887 0.007592806543776863
0.15531859438117718 125.84404094721451 861.5127293227275 0.005497937850990736
0.06399855556647613 125.84152614613656 861.3491618881665 0.004735962017458292
0.21117270421327122 125.84426245494794 861.571089616079 0.009273836689223509
0.3002699563960882 125.84171168082511 861.6071358877359 0.008038167169718571
0.24604877962343288 125.84110859022955 861.5602005996232 0.011046060884101405
0.04843969416809739 125.84540327775291 861.5609848765434 0.004876588668897839
0.19557053196859872 125.83945129586557 861.5630449445102 0.013067978106975317
0.20703774294458013 125.84361832722439 861.5785520240491 0.01851716114749529
0.0469960928435612 125.84347438073854 861.5930676170492 0.018281156575241635
0.07437375422864215 125.84123839953234 861.4326941566809 0.004228776552082244
0.2004233745366519 125.83729365703289 861.5463019137073 0.005257342491948501
0.08003339899358937 125.84552284850278 861.5135499987327 0.004957108942690295
0.2617494607945293 125.84083395253458 861.6193296285003 0.030708036976639878
0.05403716737750503 125.83612992560259 861.4263242552131 0.002609143483111203
0.1332735823624018 125.8438327086998 861.4015297837198 0.0021242600641429594
0.05708041590773831 125.83501228569439 861.4570689929741 0.0043698138643662125
0.11361787903142725 125.84528423203376 861.4360809510548 0.005635466443322915
0.09146844602583774 125.84363928696666 861.4764669950764 0.0027257805891088807
0.12122941748624039 125.84266668114863 861.3937636716612 0.005166090950707597
0.14390790460509523 125.83770585032131 861.5252212782545 0.007769753949927593
0.0850357011901298 125.84081973583511 861.4976903860769 0.0076045324186436915
0.06799628300360684 125.84001959143372 861.4778897110954 0.007406902515391065
0.17576905461499587 125.83604459745462 861.5340036614352 0.012424785438181218
0.12865539909595594 125.84159310790477 861.6109009425238 0.007674292530522799
0.06841074846762234 125.83833751102456 861.4305853760026 0.0036018062248896515
0.17544044074562148 125.83727147468633 861.5192844050156 0.009040968083934672
0.1399963657980445 125.83869630489446 861.5874006692134 0.008970068484764206
0.059354628302115145 125.83765323296637 861.5149305050551 0.010469880137228365
0.06331071415711759 125.83910259677235 861.3657665562785 0.0034136691986735145
0.09997149519558705 125.84230431830791 861.4328654374546 0.0036788940306982233
0.16840227406982927 125.84760213137756 861.4668818710344 0.004773823706445194
0.07566396568077369 125.83729273300312 861.5266639945033 0.006179445336464027
0.10991418119263233 125.84171022609952 861.4829057348741 0.004642883018066437
0.10567487622584684 125.84414444759945 861.5023047902782 0.009324530815750912
0.0733950838640971 125.84214321876817 861.5525657229527 0.013390446996955317
0.04160457662317716 125.84221410542024 861.5494823859738 0.0073504826730830105
0.24781821484048513 125.84145943226275 861.5892006695341 0.007287522113665892
0.09158726210746304 125.83984110036003 861.445709883891 0.0036989276812688823
0.04548419985653307 125.83774392419433 861.4365769972533 0.011101505921043612
0.2267158402382216 125.8417621436195 861.5335604241985 0.012202051204525596
0.21091124462983346 125.84389364995198 861.5225419784133 0.010734096880510914
0.19193701768793195 125.8395684649061 861.6000392617484 0.009263897412248812
0.1355618687034252 125.8421126663231 861.5213380820342 0.00810250513971244
0.27558180350643163 125.84036465047853 861.5931079320808 0.004001091223633199
0.11365141218402887 125.8415406121442 861.5529885070389 0.012989896857752484
0.047499247820423904 125.84367784999131 861.3534077875429 0.006296691622535508
0.22840422101136726 125.84730099900254 861.584247387636 0.005331781325050954
0.06982179447742828 125.84244790902557 861.5923554252478 0.013604218419720478
0.19344739862068455 125.84995719739966 861.5007729894462 0.0035577694190938986
0.09440996343322428 125.8409076738649 861.4561778571252 0.0038781573685668317
0.14111989986962445 125.83853691940224 861.4396409412736 0.011937768898292952
0.09232716005804845 125.84215409708028 861.4078492985118 0.00681810389922574
0.14749173467308835 125.84277463633369 861.5943773525178 0.015490722505113737
0.1607736635792308 125.84593361811868 861.4754089907328 0.01394058112186411
0.23761966579264862 125.83980584886164 861.541508375033 0.012423794706534654
0.2803150258949767 125.84444993099164 861.6027229819457 0.003629635554212347
0.17481284868135696 125.84644283384611 861.5762876469433 0.006099412745668925
0.09296085391647577 125.83919431593253 861.3946384182597 0.003205859960357021
0.12851520610241554 125.84142204780304 861.4446259246472 0.007336762341134595
0.09966274677424626 125.84789613943339 861.5399527949418 0.00343362570318823
0.26125095374801455 125.84143163563678 861.5809154364459 0.009826573184039292
0.09656017114571683 125.84021686941887 861.5677108484637 0.007512346857431461
0.14441111558474137 125.83499204471781 861.545995338511 0.00874444377114824
0.12311592820121887 125.84533828748683 861.5102608053554 0.006392560149955024
0.2676634663240635 125.83912614963472 861.5884229208893 0.0021131273978198593
0.1653641270468024 125.84416347510306 861.4480892046494 0.023799114000973322
0.11026187396700006 125.8426329999622 861.5182591222516 0.009421437913290082
0.15891094440423612 125.8391724748712 861.6107779970304 0.010951669784714855
0.08998387069434635 125.84002853226575 861.4478706578045 0.004324111365498242
0.12651990863146814 125.8418869977366 861.499130208712 0.005578645665537061
0.07379089668006092 125.84323891120216 861.3339242839876 0.0022177189865460645
0.16183151889620684 125.84136541108631 861.4818690577766 0.008464935677288746
0.1862577562126639 125.83889777073036 861.5245984264362 0.015084272096365248
0.09488656033654397 125.84096763144018 861.4262351879482 0.0077527282583735565
0.1465934168417354 125.83855752091648 861.454492048869 0.00913385596355596
0.1521642158086457 125.8385042704519 861.5781109351109 0.01401148468762742
0.07706899294273012 125.83831329344477 861.4736471537742 0.005202577887474348
0.1693275129890184 125.83794105872943 861.6135201375592 0.011873079037491732
0.17488104647499428 125.84324302093172 861.4672944929208 0.0074058253745903175
0.13040389810012515 125.84219866896538 861.567605361295 0.009047221736263636
0.1227726233674744 125.84150744623606 861.5545647331803 0.006613402574148207
0.06556447648440772 125.83942906545671 861.5684279430587 0.0032250492441881057
0.19299125779609197 125.83983001440666 861.515950772498 0.012162965794509536
0.09393530929733962 125.85070586570863 861.6071805127547 0.005873007647013183
0.21939504163574397 125.84258683261888 861.5643964791464 0.007033685549617485
0.11540436415702651 125.84590454556333 861.5884783391117 0.005515664606129957
0.06395125177589019 125.84228208034259 861.5897269410697 0.013600078742742409
0.05683224865214608 125.84108761118463 861.494595873447 0.010398584851957325
0.049371177306791664 125.84305571684152 861.399839018241 0.008802473288764268
0.036953358418953336 125.83857368156785 861.4311796605595 0.008353930097745758
0.2824555073005103 125.84252506622781 861.5886920819091 0.004939848547150317
0.09276242319354466 125.84160029618661 861.5797592627328 0.0061530159916282825
0.05313580661804884 125.84313554499884 861.4135694620153 0.004320263221027766
0.1271331580380611 125.84719508068312 861.4687003154297 0.004477459945562208
0.1008209068862596 125.84202305653612 861.3775154756881 0.00675505903668914
0.14377144205922465 125.83913781358207 861.4443612153982 0.009602482475464323
0.16460476750196498 125.84284957783484 861.5302701258545 0.014162032242939843
0.09519997380000557 125.84729673231466 861.3731463353184 0.003716515413345319
0.046695951279085254 125.83446545194812 861.5315462647214 0.006428886063227988
0.06973816802076231 125.84702364948116 861.3991370908982 0.006444295618158781
0.27046711052110745 125.84273079251159 861.5674172862841 0.007745508375605858
0.1351226877881645 125.84192552239989 861.6006172093862 0.007146377650491061
0.04739357416823521 125.84425040682841 861.3016902295142 0.007479752943290794
0.1581185088577007 125.84013616251137 861.6027508845109 0.01336184511018678
0.07187432550315773 125.84061908291775 861.6082390968462 0.01862481316867227
0.07871438749831215 125.8375377099245 861.5695477259861 0.00462645048274259
0.17494507861238728 125.8362393226317 861.5926312277018 0.007231689667244285
0.24473962562233764 125.8390895525132 861.5975417543846 0.005549420355728633
0.03761244767081421 125.84316250301724 861.3823240888478 0.006964500921166484
0.03098300838496378 125.84341649292091 861.5522519422948 0.015093315760460342
0.03669567042809328 125.84047837801354 861.5225853867087 0.007616689989733417
0.026850864509573486 125.8450140663547 861.5368066547002 0.006524723905758387
0.04011729296345084 125.84431551313874 861.4812668451274 0.006404734545932933
0.033688290495848976 125.84521754983736 861.3930529299089 0.0059581993957694614
0.03890782298901225 125.84426227147331 861.4053353273124 0.010165995858483563
0.029261659340224677 125.83851890626552 861.3602484792335 0.034016832317047226
0.03157539709002691 125.83959932570417 861.3447753152309 0.013457722383264233
0.030738007954603973 125.84531280586184 861.4612134182412 0.00949748681207604
0.03753030005589463 125.84610328144392 861.3083147671657 0.010742639318488324
0.019222917651943037 125.8486257534072 861.5783512691609 0.01862447714743879
0.024557262862662927 125.84493023827838 861.4675745876149 0.025626737724861584
0.02992941408488662 125.84067223751998 861.4192523422513 0.006725548633192939
0.019800767261049033 125.83905333604298 861.5072519347834 0.025535520935918363
0.02315907713878882 125.84709110916063 861.6002466225152 0.029536908174796823
0.018856200506005182 125.8433935048663 861.5470497123289 0.03426328777330107
0.037126661000270886 125.8394704212665 861.5300116021712 0.00611895516658438
0.02150074657744915 125.84187438897854 861.4276235584058 0.008764569418466685
0.006702982106405506 125.8476210742547 861.4457311009463 0.024205163487125307
0.018626815335620533 125.84216786423295 861.3502907225699 0.03069447470637635
0.006462217826829615 125.8398650039663 861.6054823653158 0.010022502012597533
0.006552947475259656 125.84207062723611 861.3741885600926 0.04094788927910167
0.012225375606482758 125.84121742676355 861.5345176766492 0.030394428614426747
0.006694720452775459 125.8380315510404 861.3096085476835 0.012532101419783762
0.014201331868982455 125.84418027060147 861.4073726552517 0.008292934251687738
0.025825744282634764 125.84566823959807 861.3269382470504 0.026267790832668354
0.023178315990328734 125.84385951131604 861.3877651039465 0.011698109081797766
0.02185239394071191 125.84122650621732 861.4235270145344 0.008381683878126784
0.0073976364311947205 125.84899884845977 861.3486206990985 0.0349446286635094
0.004612314542268549 125.83959724369097 861.5729724498035 0.010796958510683541
0.0030084003124336615 125.84500510213243 861.4923008847672 0.026127762254543288
0.0010797338222265354 125.84417972585975 861.5256950015805 0.02341848257500254
0.0023375814255916574 125.84077498078771 861.464254680392 0.028564647531340092
0.001534605469299127 125.833921315756 861.369155682859 0.0658110232597194
0.002391019021185532 125.83983989953607 861.3165976000236 0.017740389275655088
0.0017759447390351532 125.85016400742862 861.417628490225 0.006878742753308424
0.012965043826635027 125.84602845719122 861.335816265911 0.028439844317635382
-0.00608397394232075 125.8463044748773 861.4346866838791 0.007504932439313391
-0.004641496887655126 125.83042760789175 861.5109847910678 0.03197413201441407
-0.002927174899262696 125.8413337217334 861.4938560522146 0.03504989984025961
-0.009020837421365198 125.82811516385259 861.5574712139775 0.010633047399408613
-0.004869604913139654 125.83077891271218 861.4783999975302 0.01617582358116658
-0.011513702255494432 125.7778028931337 861.5287072373229 
-0.004562308334764812 125.82608290757891 861.357494432793 0.06759300768859926
-0.0037343879910009445 125.82688009712069 861.5895103402788 0.003938168348858462
-0.009402293171651 125.76988649118469 861.499445870051 
-0.011230392831414953 125.75825079065461 861.4156748902394 
-0.002508661352493298 125.83018424837942 861.3191269014311 0.033843755997010734
-0.009601107104485966 125.75662610904789 861.5366942560315 2.2466152613619613e-10
-0.00504319669304389 125.73858746158884 861.4210657518554 0.0013843291876973471
-0.00482585080256988 125.74091500293896 861.447469253897 0.0034013631495774465
-0.0034235974319529027 125.739853427443 861.5871717584488 6.395854964278399e-06
-0.0010838806270105656 125.73221698330853 861.4845374055773 0.0007250430898126372
-0.00481717482750516 125.727341675286 861.3721354122976 5.3996996744395856e-08
-0.0023575318633651714 125.72541731110714 861.5569275394762 0.00540616991803041
-0.0013550915051462444 125.72532023038893 861.5095959374308 0.028408872122055725
0.005234943332926639 125.71741365216351 861.4494298284488 0.0014824013072065793
0.0068877746029026125 125.71989634379595 861.4369440141528 0.013027765794361643
0.015658478134748556 125.71239028937731 861.3922402575176 0.006634458203809097
0.00963161449575928 125.71589522552469 861.375414120281 0.0017064530406073932
0.011629872176752858 125.71738857031059 861.4158239703928 0.018315852944822773
0.009279536295293187 125.71153762016593 861.4722826686689 0.06011388374808726
0.009885012411118471 125.71418211754278 861.5961522727264 0.00855892624457897
0.010721556880999867 125.71150366845715 861.5295785086239 0.01639870653804964
0.011845657033371718 125.71139473968523 861.5563780112699 0.02701358891915307
0.008954477205733448 125.70883198279824 861.4953488421721 0.020065900436951355
0.01163852790857405 125.71250031692016 861.3718268862281 0.0016281988823658073
0.012599530336161829 125.70764793815299 861.5812190113693 0.03900205869809333
0.014722782327156526 125.71057704336728 861.4311248633458 0.03524084420481325
0.024318248123332067 125.71106998988398 861.4060832870554 0.006459380404263036
0.021378684437941175 125.69878853613044 861.5763881826196 0.020886144613398154
0.02227697232842439 125.70421237849298 861.5459739893945 0.02080704542681789
0.02074441105850581 125.69797167211215 861.4606817664635 0.017884844720095005
0.02883111321617173 125.70313721846702 861.5102757342802 0.029437809915782574
0.03399837840911684 125.70543986511994 861.4192799976074 0.007183442364987242
0.022843869297984983 125.69671615709446 861.4718670582249 0.016390904723059728
0.025080542369812192 125.70548629908716 861.5298844477202 0.014313950810418358
0.03082009669876108 125.70145041931046 861.38700781301 0.004696946980430361
0.04222099212150095 125.69810975315683 861.4958387315702 0.007717586309651516
0.03279765162754902 125.69676687005195 861.5919732264573 0.024169826760165918
0.033139929419012164 125.70496112049828 861.5570642940828 0.013895147773119194
0.034555361324876216 125.70089236779557 861.5317161898256 0.006289379890734832
0.04364735920829728 125.69933476468543 861.4221233516131 0.008155775798389851
0.04707172060505653 125.70231407423498 861.5193433862445 0.0066852232808426604
0.04758247229754335 125.70439221158145 861.5670716514859 0.01523245222455245
0.0452048450471696 125.69843231212924 861.3998972114076 0.00877555205858037
0.04691347926626121 125.7008157948171 861.4676691523969 0.020714660750808044
0.04539760541343549 125.70409766708565 861.4440867728874 0.011698469889230357
0.06307705936888122 125.69884057011866 861.4468567849755 0.0036116558238399057
0.05832440799947358 125.69692200267798 861.4220736703116 0.004127430886637644
0.06082608633036669 125.69538600497187 861.5490134919767 0.0020772755744644595
0.07055156303096603 125.70458879991045 861.4820811364865 0.002838067439091872
0.06975058403983009 125.69465620128112 861.4101931296805 0.004288031732090124
0.06101442656751804 125.69780477808642 861.4123728541217 0.009951862712880455
0.05886160381166671 125.70132556345523 861.5051410994653 0.005484368510285993
0.045755410279985455 125.70078238165188 861.4594218322296 0.008793868132670784
0.11119089337357783 125.69605417693278 861.5157422804048 0.0017761696679512722
0.0794160900338263 125.69671182132727 861.4215311028253 0.0053133867171218
0.08697207454769987 125.69692024526945 861.4562182070988 0.004848841930630706
0.10244032654684826 125.69375300644604 861.5694748353952 0.016574494309221196
0.0838106931575838 125.6942971941277 861.6109632033672 0.010658917410986436
0.08399569180210345 125.69435729017027 861.523852664688 0.0006486185962718823
0.08594349183203075 125.69461826295321 861.5663611335357 0.00926263126672219
0.07769355472144716 125.69614927827068 861.4542490631944 0.005258450615491181
0.09195551779115069 125.70010953966933 861.5001557304688 0.007188032664336755
0.08730206385181068 125.69277972371677 861.5888754677234 0.013761525449983361
0.10785285177075982 125.6909727047109 861.6015976391013 0.0008492184101370985
0.09232869139749156 125.69812926723037 861.5134151653324 0.0028904726188981535
0.08210560630028127 125.69650709332781 861.5412576923597 0.0046513242623160015
0.07262712456826989 125.7001112153806 861.579040599827 0.006593804379249344
0.08600108170766856 125.70065572742413 861.4830639289556 0.0064961901952288095
0.0868050924621868 125.69211443254989 861.3744143779195 0.002358431522530679
0.08061829565235568 125.70082824325384 861.4976034530641 0.008492742185804081
0.08926412728516042 125.69638812718547 861.3920550040576 0.006606724856995662
0.057809490721526524 125.70459111625544 861.590013543894 0.007875067561963387
0.09488302810326388 125.69565704510774 861.4686702741551 0.004906338184689739
0.10759665906613256 125.70317374428875 861.3843798167211 0.0011683971033918828
0.11185289438799403 125.69684748106633 861.4837539435649 0.010606817231209063
0.12441662501921649 125.69572423683074 861.4713661468876 0.009177935130815525
0.12125306701390864 125.69850419920084 861.3725165903566 0.014425860483789006
0.12315125244312551 125.69732146218013 861.4342716711172 0.041869446191244365
0.1055629853730428 125.69103735609535 861.4619302065893 0.005318235622808675
0.11124579730405794 125.7024461453417 861.4210068327776 0.015413082234999724
0.12949099352058807 125.69923116931098 861.3860724696746 0.015661280891429534
0.15126228095698938 125.69250353821946 861.5270274603654 1.7235205257631872e-05
0.18024002210132897 125.69159120466695 861.5607627664295 0.005896279209684513
0.157531128922006 125.69686658917352 861.4559019447559 0.007169260906692258
0.12806102374577896 125.6981486402934 861.5848776780075 0.013723279472844338
0.14483287628253913 125.69938337226392 861.477021146897 0.005567093521506758
0.16997773833438823 125.69451231994616 861.5709780901385 0.00637908630578375
0.12953933826308975 125.68715400688559 861.5471971669858 0.0032661753302418283
0.1336532999221093 125.68966880560191 861.4215819719774 0.0031188776055759318
0.16374687426293538 125.69845627179659 861.487670574297 0.004305167396752484
0.13682102561464915 125.69030844230349 861.5021556423852 0.0035293809804551306
0.1551406566268483 125.69487605907605 861.5993432422147 0.0030244560205419787
0.16873347694564703 125.69072592277394 861.5212321543507 0.010302165402566538
0.13076762598804906 125.70056444557045 861.4431861041734 0.02215734352907585
0.12391826339055988 125.69856591220517 861.5833452900355 0.009109866048524463
0.15940774306355568 125.6979581334615 861.3916372678958 0.0013731826185182487
0.17133653385137115 125.6998609522388 861.4229332342138 0.009678944253912802
0.16498749972231022 125.69920408170628 861.467656792846 0.001547082329104305
0.1821387362066807 125.6931769368876 861.4363967181944 0.005431261041324296
0.15052312755284233 125.69735885312313 861.3882280260448 0.002947238709482696
0.17383846427614197 125.69871692085003 861.4104516812224 0.006431948774618932
0.22552944255977575 125.69906950391965 861.5593076365219 0.012717617257300444
0.2341752280896672 125.69584794596054 861.5470279445809 0.003190395774922998
0.1986671978516795 125.68867364718224 861.5051513816724 0.008942771875160937
0.189182537599271 125.69961777931402 861.4226545353084 0.0034075079485543095
0.21941703285706693 125.6976473071777 861.5786725219683 0.005907184954162418
0.21259016449301762 125.69548099651252 861.4714349105112 0.011765969447602187
0.21225336265719913 125.69421385156028 861.4408267926093 0.002081744189453158
0.2034053017901834 125.6942434335612 861.5427176101064 0.005678320348762417
0.19269717831906027 125.6960566573496 861.5899221068879 0.007372327630376423
0.1824675396209381 125.69489202021173 861.6030028593854 0.006310176268020213
0.18420923123483465 125.6909266670223 861.5379148930949 0.005835807483067645
0.18789004569716403 125.69234225195656 861.4501171573594 0.00581670221539664
0.22073171226948238 125.69714122514135 861.5115094040218 0.011131009390376534
0.20396339931345414 125.70099170156142 861.5671242109524 0.002014827001249118
0.19794956214340853 125.69850025359695 861.4813546887314 0.009707904233619238
0.18104042864716505 125.69688772122458 861.5854109539955 0.00784655054495079
0.22601325149686424 125.69949506853091 861.5622783581969 0.012233783337286482
0.18025617602548027 125.70015371180298 861.3837341944229 1.4312623474968637e-07
0.22750426537942 125.70153576301618 861.4433412188299 0.008847864519858235
0.21920448900418163 125.69183255020202 861.3929949334238 
0.22954684122908706 125.68885442012112 861.4855585504586 0.006874669294654737
0.22821137531017094 125.69265629273585 861.5031000182137 0.012298464832262917
0.2506549837716535 125.69813518929166 861.4647905751111 0.005390718049087948
0.24786639557486048 125.6930773131337 861.5048175709524 0.007373375828582977
0.24103008357133254 125.70224197361374 861.4387269903713 0.007463737291066224
0.23129315520424065 125.70258353024211 861.4318260667336 0.007393898001151731
0.23359763511071166 125.70235787170833 861.400493970506 0.002441798530402564
0.2485441639579891 125.69848398080728 861.394959701268 0.010537240539334787
0.26110560096751606 125.69514114917581 861.5126576868639 0.0021408779436144815
0.2513318794580271 125.69919078370894 861.558176553977 0.0028488505891122303
0.2821481209866578 125.69856181508479 861.5127939455122 0.003578504260577504
0.2589823786075293 125.6965256360207 861.4534549810371 0.0032981818149732897
0.25644296315186405 125.70196332934002 861.4116061567605 0.0040217693576728355
0.2831352642648474 125.69738803400405 861.4666279524181 0.005554590447532601
0.2636951667255191 125.6962608842898 861.5859600478801 0.0073600796607426544
0.28119848734084935 125.69714382316324 861.5731482446092 0.01158160274567087
0.3094593974799186 125.69856408681822 861.5204401961252 0.006524658706085473
0.29492000582704647 125.6995313055343 861.5358104579808 0.009875911873606705
0.26695306888747045 125.69648756411779 861.4809326871305 0.0070484388226527
0.267420794060322 125.69961820382329 861.3860178015697 0.0027574320210228187
0.27010044575476444 125.70385561492483 861.4411620822281 0.00669438114742595
0.27814170780823294 125.70558557566444 861.442153270831 0.004115372489709717
0.28872824179570683 125.69078335832567 861.5932748709346 0.009782875969166925
0.3113405146327131 125.69435326288746 861.5955276955959 0.006774788522474683
0.289091691065653 125.69641134280143 861.4889309196327 0.003844402249072619
0.2539455629408582 125.69653795254597 861.487239719813 0.0033724697484826243
0.28462718754673993 125.69346107718643 861.5505074977267 0.004414730831948341
0.27822652458162045 125.70525246818222 861.4106046322096 0.0026728721429916495
0.3092359695040427 125.70357215235234 861.5654535339156 0.012077072194979593
0.2522176350706296 125.7010360649317 861.4270706928306 0.008041857939122899
0.24526347224404127 125.69354879767641 861.5854031329313 0.0015329242901731877
0.272328182704843 125.69270544629553 861.6046972200428 0.0052945167245255454
0.2625563049898519 125.69603146673371 861.5214645979634 0.004439537536807067
0.268397846281661 125.69437523470594 861.5678834307693 0.006619156286824435
0.28551306893166195 125.70217530247072 861.4014094052219 0.007963110348563113
0.3083844614438157 125.70005011943668 861.5084355860386 0.008298518306760207
0.3110785618604286 125.70013206005268 861.449782359265 0.011392898278138584
0.29830034076308504 125.69364523036731 861.4826869850859 0.0017590688590028614
0.3125157404540696 125.69824421698307 861.3716465373293 0.003779760957678139
0.2961200482514753 125.69985128324544 861.4205027414215 0.004861091492596887
0.2814112323607997 125.6908691257879 861.3694306590149 0.006116085229784106
0.28690717911742675 125.69721079693812 861.3924497443788 0.007995347681988185
0.3016855756549347 125.6996345003739 861.4073702011394 0.012939580549039691
0.31538880732437913 125.70085085948251 861.5422007153252 0.011602745157105031
0.3151512422888927 125.69675472896296 861.4247615374361 0.013437880012542421
0.3192297820685348 125.7004068153775 861.3931098733684 0.011104751924224984
0.3162177110895827 125.69856668466026 861.4108619422071 0.016201683696176045
0.32434449267044296 125.69822701252579 861.4436213732065 0.009725805917555523
0.3230207272638149 125.7028765641749 861.4774651336388 0.009787294490822088
0.3169988613791099 125.7050269524045 861.5620672933393 0.026233410618809145
0.3283604222143326 125.69978706863269 861.4956778008044 0.01535834028911569
0.31065300098333326 125.69810933270814 861.4903657859257 0.005271805033442538
0.31750038297476557 125.70452994108099 861.5739327340325 0.01797266710807645
0.3356493621648197 125.84333563628644 861.2918099241296 0.026985402772346193
0.18442881868029867 125.84000528950924 861.2954617892087 0.010605811023358608
0.10041394138905597 125.8430632379816 861.3012421673411 0.012960017664117595
0.27655445710411786 125.84365195882346 861.2935610435319 0.011971863480840844
0.017821748246119824 125.84013261080177 861.3109767020727 0.0195116895397852
0.10614677607656182 125.84864038652007 861.6225436620979 0.016428346467096136
0.010505619312963812 125.83923871091164 861.6189294721054 0.04881455136767654
0.0400873802081377 125.83435004737423 861.6308243378054 0.026525006240952158
0.2287619396605198 125.84764455411108 861.6176765371465 0.0057124383706060634
0.19153054435401487 125.8422262302099 861.6273282711131 0.04838182961174684
0.12124509176971834 125.84299429935125 861.6295542009588 0.03955161310601157
0.15464445544310376 125.8468010094366 861.632158195447 0.04890085163363779
0.11608768648293699 125.84343247492224 861.6218262219114 0.046889148682234406
0.012565757461068007 125.83725611588083 861.6195049422751 0.05148713767396921
0.0021164930417791336 125.83752809731405 861.6327430807569 0.003972506066019236
-0.0021733463679024035 125.82684204615607 861.6440885078989 0.056753044878863367
0.31722512842545264 125.83878930522538 861.6289654491603 0.042899778283811675
0.25788071724586803 125.8448416590667 861.6293734933 0.07376821301414568
0.2775513792453505 125.84306472172747 861.6324778488834 0.05789467921523106
0.30748401532559394 125.84642722620367 861.6299669212085 0.03217471485238125
0.14783202338425522 125.84587757735798 861.6400418996159 0.08489258426073343
0.35196542831520317 125.83549119990857 861.6350927634783 0.07869414266083201
0.34402357993904853 125.83803442481852 861.6299755049382 0.05794431605421412
0.27330650802451534 125.8374630505989 861.647671748617 0.04870226027035779
0.16273966941083487 125.8401609602257 861.6460814163156 0.11198733895944214
0.1357228883570864 125.84817340019585 861.6305784415982 0.060594235288275275
0.06290584664413491 125.84939383957727 861.6384462888502 0.029521418347215507
0.187226089454257 125.85046983963309 861.6461046852787 0.0665146421798655
0.08675995624247672 125.83745533827386 861.6487779373336 0.024332635723855273
0.2284348484828992 125.84593115858866 861.6527035009046 0.03954397430459509
0.10423707701446232 125.83271994049925 861.641488611974 0.02469368949431101
0.03304880962553428 125.83359024001165 861.6584542172772 0.022880931198431376
0.16251603758697858 125.84858445543797 861.6411961629915 0.08554844561206339
0.3138965625176448 125.83860266679885 861.6528126758075 0.029868968519002097
