x y z curv
0.16841145682604344 64.62080263236423 707.7328175839862 
0.1655557978783063 64.54909440357149 707.7233555386897 
0.18194217663575274 64.7335569408434 707.7269121350585 -8.611955025624188e-08
0.15762478056989548 64.52026029256196 707.7376805718638 
0.19407973799337785 64.58150036065156 707.7243495237 0.0004059685739536072
0.1856905205182339 64.7006836988383 707.7318058674724 0.0002442711425671076
0.18387798976828604 64.6693800384483 707.7284204912426 0.0024995847997319174
0.18664862580074082 64.7755072022788 707.7369050396793 
0.19441884103874826 64.63175883247257 707.7249726844533 0.004148314053647881
0.20761483085458332 64.66160095431884 707.728841282619 -1.5290640324895192e-07
0.2232226610571356 64.56372288605995 707.7261297079818 0.0017413965158473792
0.20846170629577362 64.77118832047701 707.7287762952117 0.01392439876075489
0.20688724620549725 64.61068955995185 707.7229010512792 1.0058146881940605e-05
0.20441581990364763 64.73784345195776 707.7244308227729 0.0004655528298830702
0.22164942188701342 64.58093101018032 707.723878455633 0.0015813476453514527
0.23197873242547898 64.58141329612295 707.723407735353 0.0008219583091803095
0.21743159968127437 64.70550943280631 707.7247531642652 0.0014121493760081791
0.22172307366711033 64.80835116713425 707.7276372462659 1.0474179906320505e-07
0.22926470304811084 64.68273016429575 707.7266969509336 0.001617767475473601
0.24764019769407625 64.55863870790834 707.7265617909179 0.0017975035879694626
0.22597298291902956 64.54258244283447 707.7238310144575 0.001034463762206491
0.23472198211179485 64.70751042465415 707.7264336137237 0.0005557378948270273
0.2540717316988118 64.64746502376626 707.7265400380006 6.675947830619557e-05
0.24667044480191744 64.80551603342776 707.7274805124958 0.0007198080209805891
0.24182703938056768 64.73102354843243 707.72331231947 0.002434937259898089
0.2610452069545835 64.70035865793729 707.7253210044113 0.0020805172401935808
0.24781914512986014 64.77455931447807 707.7308121791956 0.009061622726785564
0.25091246318283394 64.66836457569956 707.7261724946827 0.001933157286032846
0.2493336739272189 64.7474185150437 707.7242880664073 0.0007234210927710692
0.2580240862478948 64.6259357213414 707.7252137188798 0.002755514091295247
0.26508965828077197 64.60022686251483 707.726442740887 0.0010288262400024078
0.2496782083238924 64.61320685457011 707.7241195773829 0.001194607407593604
0.2699562825128866 64.77900901385559 707.7335120831666 0.002845264209098686
0.25989562008351097 64.68632686223076 707.7282519233754 0.00010352484279682709
0.26605234312522325 64.62634297671097 707.7270998612653 0.0016273029942014084
0.2756341688113117 64.56018155749155 707.7277164739653 
0.2747304519174936 64.72405851957161 707.720180136482 0.0015050711807582816
0.28602721666211545 64.61983454037286 707.7249354666778 0.0017420453418932373
0.29941569587464956 64.82309550035615 707.7319859200262 
0.27962109313404004 64.74858716947152 707.7261286811164 0.0009765553843435684
0.3037616005246054 64.7970744463065 707.7303925159293 0.0013705506020664148
0.3002108203279173 64.77504348109882 707.7301739866533 0.0023357455682683605
0.30934740572308744 64.55318784700194 707.7246026786927 0.00032578071945683066
0.29437581564897397 64.6968900783986 707.7226222632034 0.0027784090253933583
0.3040762416796514 64.62818477055382 707.7231979633317 0.00041567264926155024
0.3214367818784733 64.55272095331087 707.727033267509 0.0004055170249239123
0.2993668867026919 64.67175965590332 707.725418270156 5.4853534498772704e-08
0.33961972912015154 64.60577789952451 707.7286867940267 0.025427585271466522
0.3250738858031181 64.59874736888162 707.7247913911424 0.058132788104982985
0.33126448540708964 64.53748706447497 707.7218017127379 0.028241873637567944
0.3314739137090992 64.71055214296875 707.7247614108832 0.04486215308427178
0.3191484452346238 64.65709021986491 707.7211764057932 0.019074772179840858
0.3265509208818842 64.80118776861696 707.7238097065097 0.0003296762939883763
0.32836082124218735 64.74456911846089 707.7221271625841 0.027491926551346246
0.3387658581209762 64.72165658125039 707.7230498010572 0.022043923234640446
0.31435171207343976 64.77047503249713 707.7258290749991 0.0022577475190104952
0.3150371610045446 64.64490110270191 707.7230372742689 0.0015144804041404912
0.3474270078305113 64.8357572704129 707.7235048338675 0.011736843703312266
0.3435927495965371 64.7468534825442 707.7233596989608 0.020802714836376305
0.3427155237348008 64.62455538167069 707.7227635794807 0.08234443869853815
0.33820170716294895 64.64268495582408 707.7228479880175 0.05712247168271217
0.34394163984214315 64.5852772968334 707.7274973582631 0.04209208842474766
0.3519722173596321 64.71068645586868 707.7181918727722 0.029117428995882207
0.3475177836175656 64.68935685667019 707.7246923758504 0.03535049714967625
0.3441029971753094 64.54622539717374 707.7239280812208 0.03928928241558153
0.348781841062537 64.76484139474017 707.7193439513593 0.12320360602153378
0.30641982928740974 64.49079884937989 707.721741269626 2.516845851818693e-07
0.3501225389983394 64.50124344503743 707.7265918176132 0.015883896701590072
0.22741962217840253 64.50894663425666 707.7242398409085 4.4400548337652545e-06
0.3435436966627658 64.4870641012361 707.7244905970263 0.07704860392142517
0.27995231395731524 64.51281654201829 707.7275032566725 -1.0764302950759768e-07
0.2785943198528181 64.49007698694388 707.7294678898672 1.9449369360017238e-05
0.21553334743194963 64.51175243164917 707.7234655412869 0.00010992028191218982
0.2657901737562136 64.49393855244334 707.7271554470467 2.6570331436784524e-07
0.17830392762932884 64.4955048277989 707.7353577580639 3.1756880858755316e-06
0.033372878294598875 64.50121068560796 707.7211460763024 0.0015625221971564088
0.20571628865451289 64.47928128379374 707.7232730161508 0.01029839395441907
0.2042790921493923 64.49924712879549 707.7238933531501 0.004118940485010609
0.14045975941847955 64.4751534757636 707.7275685848988 
0.10048599100757864 64.48093068197693 707.7262955327843 -8.099500161783022e-07
0.029098615786424146 64.44901668009925 707.714232978237 0.04838440125268041
0.06583261157924877 64.47733518000787 707.7239671050747 0.0025506671572303064
0.08292221808049803 64.46068989367718 707.7218321814674 0.0005290450236394109
0.054538715921182666 64.47168538476973 707.7225841385585 0.006652351936951633
0.2343461232104078 64.4675395482162 707.7247472348669 0.00157988850628461
0.2685534377235157 64.47400568431543 707.7249897293694 0.0015135682992604915
0.32667978831996347 64.4544209069634 707.7184786684525 0.03534126332454212
0.015800766439851253 64.4944426372112 707.7216043162412 0.04228706813641709
0.014653985005816408 64.71821050172075 707.7261278756334 0.0027297609495280503
0.015414864083476063 64.53979586907084 707.726757034858 1.2846383232420842e-08
0.017981103537824977 64.45588289356134 707.7006816420538 0.023194813508745565
0.023390912234562418 64.44788930731981 707.6876922751508 0.0074692928748019876
0.03321647440069108 64.42422964394086 707.6981824940985 0.03201228976568946
0.03917513706429873 64.4173363714358 707.687958095795 0.049894197403623844
0.06505566211500921 64.41277443634586 707.7049261533494 0.052613448451268585
0.05193809542233425 64.41238496797342 707.6888328696913 0.04755654649605547
0.0670200419972322 64.40109155899812 707.694879271963 0.04609549377812875
0.08092662191395938 64.4049635259244 707.7122502091383 0.026953830529978323
0.08009857156092173 64.39557113427267 707.7091011826096 0.02641675273525776
0.128255627664182 64.44597239838735 707.7258093543215 0.004156790569475044
0.11669399165561933 64.43520766618165 707.7240729733649 0.002167878215325559
0.06349755869629213 64.42359464524861 707.7165139464626 0.039420239279260125
0.1761411838864181 64.4530664453706 707.7248925915324 0.0011154020324695515
0.12506900274572327 64.42166405585476 707.7202619869147 0.0075998720288235
0.09232857564148549 64.40234994735937 707.7194964987816 0.029519576682926273
0.10670225110563335 64.40851741857715 707.716754010943 0.04111924036292428
0.1494201158663498 64.42424611969913 707.7278810664892 0.0026335187415916787
0.10232351943387176 64.39067354750435 707.7134176341943 0.03856811799582957
0.1294393047926147 64.3896009632469 707.7181491415122 0.06711868535814033
0.15775920549293598 64.40166660617781 707.7153882775144 0.07513764132423971
0.11290816226479097 64.37864751726846 707.6934057685173 0.09200868302819575
0.12129937145887067 64.38352267188823 707.7000301074903 0.08553977691295443
0.14330135658301776 64.38196070373992 707.7136879727741 0.033916935914230305
0.13325232447070762 64.39015771800993 707.6855004840285 0.02848910056318416
0.16752969195491013 64.38542827141808 707.7129295117772 0.04173433706414057
0.17836118292287817 64.38930839437486 707.7094678748913 0.09705996156081577
0.16375100671192336 64.3832005161354 707.695797648658 0.04050230227954866
0.1739732169943301 64.38497137813881 707.6929385612132 0.04948757034043489
0.1833924599035844 64.38849471896076 707.6848856552315 0.03747268745179255
0.19461499763642354 64.38867321573407 707.6847070978868 0.025121318675410054
0.1917533113352415 64.38544671775058 707.6937523388948 0.04388558464374883
0.21455413843300256 64.37763775457402 707.6957981575636 0.029143257454673933
0.23517252756153206 64.3801855147507 707.6963618104508 0.0752396538765725
0.23675024077136353 64.39220055298674 707.7162082277681 0.067442461082569
0.23978077056342542 64.3792197970941 707.691158098016 0.05115529661288732
0.27406056372531384 64.39175941160264 707.7078852711719 0.037825975338482636
0.2720232437250175 64.39349573905623 707.6827113822039 0.02572123336939223
0.28423012015108373 64.40356956392245 707.7119957954945 0.12986808362341298
0.2828839953383975 64.39562711950899 707.6943279966338 0.04455632373540918
0.28905201112611184 64.39692691162394 707.6952766884086 0.05072514681436105
0.29543381751765646 64.40490738519107 707.7118005683052 0.1227599416137481
0.30747466129279283 64.40989515604231 707.6986633671316 0.05995463535000163
0.3089963654082101 64.41362042272674 707.7263167760977 0.050465609554712555
0.32483553238451995 64.41941316886208 707.7119693142175 0.03941877323948154
0.312281133200625 64.42494240502587 707.6823451035654 0.010433141359224931
0.33226460250558965 64.44154546414016 707.6987117785261 0.038596827627222816
0.33927527062786306 64.45015969465263 707.6983822643501 0.04871683362067467
0.34555470340466293 64.46398825423947 707.6936288893079 0.043955267551681325
0.34476074589878036 64.45557505417726 707.7174397947031 0.059574668920668664
0.35321817179597 64.47374156822889 707.7110061828779 0.03355970871667081
0.35150570388856206 64.48884407504882 707.7063336614863 0.026206529874913134
0.364310966465828 64.50256556868256 707.6893702724583 0.006559752894150309
0.3536445429381664 64.5218118769332 707.7129659778019 0.06578313208377534
0.3552085157831477 64.65456495864446 707.6813095804175 0.008076270456455434
0.35620538265880825 64.60313893503765 707.7133900074474 0.04074356376113065
0.3573116230921681 64.62740315370739 707.6973994100223 0.028619464379400113
0.35438204065551837 64.7219899505106 707.711307699014 0.043923475850816206
0.3527070467227476 64.57602218791551 707.7084937114923 0.04601859738845151
0.3528111538604424 64.57998549036385 707.6934069006459 0.02016525632815513
0.35697208460227775 64.6790371590662 707.6972074434798 0.010355657801416862
0.3564848835934971 64.7259882986654 707.7011404311312 0.061113802290578785
0.3551172170152666 64.64897685162653 707.7170991588243 0.07749591356169977
0.3600859094702448 64.52878417854525 707.7006025654168 0.07031297009041673
0.35734215683499676 64.69632537803092 707.7147239852209 0.0400138298079403
0.3539607153681275 64.66021008172494 707.7066832176429 0.08528450823328738
0.3575716863574357 64.76321831869159 707.7051954470215 0.06703099149300216
0.35742237891459483 64.62307869544844 707.6892509348489 0.01943205739136946
0.35651194475643666 64.70308735578581 707.7080685114146 0.04933114999625782
0.36554416999056444 64.7813707400445 707.7048864256718 0.029505265256405486
0.3614932691574896 64.77304644341794 707.6904027814127 0.02597347159269891
0.35794655504975864 64.56091784869429 707.6884574273358 0.010505595717478363
0.3599257624308889 64.6861554650912 707.6780629074163 0.002196655746959254
0.357108794095027 64.8036893218798 707.6832708177681 0.008722603315365783
0.3599271480038795 64.60943889019799 707.6845488325993 0.007471960087831472
0.35854621369650497 64.67295913292553 707.689669459011 0.0021827128621863564
0.3621131146766151 64.82778797382818 707.7128682331999 0.02674394787533662
0.36281734488580397 64.5336952750803 707.7178906334796 0.047182656687243335
0.34812424497173766 64.74849063959309 707.7143481966498 0.02993548521594351
0.357834097335463 64.68736267441135 707.715946122587 0.03555263229682402
0.35682334707776603 64.64160885289753 707.7151886176333 0.036338846646418496
0.35774450883349473 64.83166825456647 707.7143838702525 0.021697552584382173
0.35661459206961427 64.81157994536312 707.7217608932884 0.15821379944763364
0.361665012332917 64.83820821454857 707.6902135392805 0.020916304866156057
0.366245010119863 64.78430740071444 707.7278757271665 0.016561378973113813
0.3414149675606851 64.44071375965649 707.7186490011946 0.05035818825144329
0.27889563289579555 64.44430059785473 707.718765691258 0.004800642812166044
0.28352996190606977 64.40873922423746 707.7183739062631 0.09334296138514697
0.23179123346620564 64.43629718432072 707.7206570945172 0.005552659338434901
0.2754318547596182 64.4332314122017 707.7201652125476 0.037736276320492354
0.24788501305155133 64.42278844541578 707.7241541744586 0.007013376731537406
0.265398937505033 64.44409971171957 707.7187404405141 0.0033351960935019916
0.15429707844730095 64.45640069593378 707.7281287954344 0.001880752593122776
0.19036787348559042 64.4767065293137 707.7279085769055 0.009329715835491127
0.06271889120830422 64.45629111702686 707.7223330989867 0.008189240454279616
0.09951980679061241 64.45877762744692 707.7257463013996 0.0006376081826616173
0.06157600336655475 64.43414200778302 707.7226641294519 0.033940246863523836
0.04811144653044321 64.44581664846027 707.7232697611444 0.035620460229273884
0.2428463277732999 64.40305769359804 707.7267750713792 0.05114255429213062
0.20973397925292195 64.42215913252679 707.7211234346198 0.007782442036349891
0.19918419684099792 64.43967854830974 707.7243792011197 0.0024198055778591123
0.2772201839451788 64.41101854385704 707.7208632612878 0.08203563173331971
0.1744418924440778 64.40076462560641 707.7204043740944 0.10034420972541322
0.19437142396643328 64.42041715762957 707.7254065087033 0.018592287361350587
0.23539910313010276 64.39938316465097 707.724144636628 0.10660130734756026
0.2162324685906042 64.38562963900053 707.7187007604927 0.05515663633758656
0.20707234940469327 64.39202793860096 707.7211525013356 0.07112302764459608
0.18729498923735785 64.38876535424049 707.7237534998031 0.08987653941818534
0.25708957413893774 64.38445490245297 707.7225281955077 0.028814002765659638
0.03891024251886272 64.42948289652398 707.7201447808117 0.029085443774677405
0.001874588919514572 65.0350734833837 707.888941614925 0.03933914386718754
0.0020490972546948465 65.03536322199193 707.9484759648317 0.041055789638168486
0.00396878843071224 65.03611698571304 707.9526874667512 0.04082590970797698
0.012094813010732267 65.03809162385278 707.681868637793 0.006845720973853454
0.009247678041537446 65.03905771468177 707.8322790292488 0.03564402976309079
-0.0010735118069054254 65.04242310905558 707.7192088053856 0.01037427460014864
0.004353270628503865 65.04713856492215 707.9227292614233 0.0270397193653808
0.008024027251877425 65.05067047425563 707.980709139136 0.010904450512950617
0.1093693604171653 65.03740679008591 707.9964423692822 0.0074552036925365816
0.01712684742223397 65.04583848741079 707.7731640085673 0.016212406995610867
0.042664908592421086 65.04490102079049 708.0219338748363 0.010655947450436368
0.1310271830208447 65.04129352229745 707.982597558181 0.02546412587196605
0.016888598247824557 65.04302044863829 707.814795629856 0.018613943422104946
0.04199321718629771 65.04401957464522 707.7784705050098 0.011479126815945451
0.05209988025980222 65.03809972364766 707.9122810175363 0.017978525746871074
0.12358063330985589 65.03853937035078 707.9528744553647 0.013469715683635879
0.06859578406473905 65.04516261921503 707.9309484928401 0.012444339163585142
0.0599225829797157 65.03750548081658 707.7897555082458 0.009397648113901844
0.018227026149568337 65.04762701828022 707.9182420535831 0.02545798913788719
0.02655747588888828 65.04197551299723 707.9524230689483 0.03166948186087348
0.08713112777550443 65.04332156033736 707.9602180028794 0.007013864492281935
0.12630305206361592 65.03983469091025 707.9895495000734 0.009704557188348709
0.057018051540739204 65.04698198313947 707.8652975232495 0.004835882532831201
0.019498821253224212 65.04694831290271 707.8700010313804 0.011273475342620411
0.07308042207588555 65.04529582854472 707.9412889598902 0.0092789212929249
0.015770161088466884 65.04208787121455 707.744944925813 0.0236706855242739
0.021870435320070925 65.04052247448722 707.948288655312 0.0413431633477115
0.02600273586474052 65.04073629960438 707.8363332209562 0.03539071873736679
0.10237810929631415 65.04178354307734 707.9795759051357 0.009305945472178272
0.009960286531402733 65.04093912907112 707.8539897541823 0.028238539244742913
0.14393313908877658 65.042498561678 707.9774272568411 0.013995920646168829
0.06565008087879518 65.04707556747714 707.9102715220607 0.010026815361460195
0.07347084145238685 65.0436331204105 707.8605395998547 0.0035711524835302217
0.1363627689122726 65.0503135807649 708.0061244490797 0.009415959010312143
0.1284475521241705 65.04863850237872 708.0260540439107 0.018957334182375846
0.07756171657485458 65.04083668906003 707.8684248732045 0.0032193798165815733
0.0808846851135584 65.03813273869063 707.9816505174771 0.007272945613174196
0.12335837227463306 65.04360545544226 708.0090681427192 0.01436136885351228
0.0908114618151046 65.04230264762765 707.9491360173333 0.006726754893375785
0.15858139555798687 65.04208279342394 707.9796017049921 0.02377013957356804
0.0293383100138414 65.04896128012344 707.8561650914003 0.014672557314907677
0.09271852984461876 65.0408108304621 707.8701132366027 0.006141571465939935
0.021395872557674382 65.04272626649161 707.9621144075335 0.051410737688886536
0.08570829905157717 65.0416978859585 707.8923699956571 0.010636664186987983
0.0594016028001074 65.04453278599509 707.9991014623155 0.018928453258898408
0.06366717918442769 65.04692821487103 707.8411181632464 0.008623863900041561
0.052350436968609575 65.04130798708222 707.9660252695754 0.005340755145417849
0.04016931492346383 65.04843333856876 707.875020115551 0.009436194960551056
0.03528998988128685 65.04122543838923 707.7602842457057 0.021644856049650996
0.021255606122730697 65.04362984864731 707.9751892284326 0.03323301481193987
0.11056984945793379 65.035652939589 707.8984652099602 0.0018189907333856278
0.06421639718618043 65.04556130393739 707.8554611909295 0.005008208544310608
0.022172161395220158 65.0378145029366 708.0109456464876 0.02163270724378881
0.039831920908324686 65.03583675232991 707.9168235779871 0.010938751059746196
0.04233267503434612 65.04572933387654 708.0006350661882 0.015779846116226123
0.037711328148239256 65.04194208083257 707.9027449118133 0.02878845968698458
0.10308870463370154 65.04046086891236 707.925176899236 0.004611193142208348
0.04190364070046938 65.04232592894168 707.8357706993631 0.011801087495961966
0.07670314751385272 65.046756004596 708.0024299802011 0.010335743393526439
0.026315606405441956 65.04323412081891 707.9886436879827 0.0379019650326229
0.07719837790551712 65.0427011409291 707.9582262058186 0.010295681252075686
0.05005821382120994 65.04833501350636 707.9830693466696 0.0033032786114317028
0.05736000298587005 65.03830735267258 707.8134750216641 0.013039828498849148
0.11595465463377065 65.03728333866972 707.9690911211476 0.007893781846231795
0.11452832658966239 65.04458373711647 708.0216366523206 0.014408314980554966
0.09804925253733358 65.04629200625834 707.9770822524184 0.007238121823417258
0.07914239542082599 65.04482841081851 708.01892201005 0.013964069163635734
0.0687710981090487 65.04782227003408 707.8953950661547 0.013524798176259437
0.028899000322441658 65.04765040024269 707.7255630028579 0.006497820417933691
0.08614212532078648 65.04180707614417 707.8803498173605 0.004903203727372573
0.032150829797621266 65.04974780095695 707.8015057735479 0.004582908041903545
0.051125821765760394 65.03880583633777 708.0247449962195 0.017138412919568947
0.15834291302822742 65.0392814923149 708.018724301834 0.009963576644362942
0.1269059460417907 65.03770224727415 707.9612259684385 0.012656609525398353
0.11812972379047318 65.04416680306737 707.9290125669468 0.007053204395240451
0.14957612763259887 65.0424872193744 707.9953229660223 0.02435568394150172
0.0013884020705832046 65.03404068845157 707.999944771628 0.04505837695614179
0.05857431008038101 65.0443689612311 707.9393685445515 0.008209688326330903
0.0705137704246607 65.04472259428924 707.8280805657893 0.007289301337459016
0.06878769125478283 65.04225370468572 707.8750155134845 0.0027884761943308325
0.2070448842106924 65.0484409899917 707.7730270060969 0.00602147617078827
0.15652527991761736 65.05214915426527 707.9586012178623 0.010402684099762144
0.1747565582140994 65.04388587651103 707.8575417982436 0.012252773333046297
0.2339203215040797 65.03552593445787 707.7430283104508 0.00724568901534019
0.19051845228677217 65.04024412470498 707.9882861937425 0.01310902687655468
0.1804844191413573 65.04207535347825 707.9131204822608 0.029647472377886803
0.1541084239499317 65.04053701059874 707.9116962924456 0.00808669671390926
0.2825966436228633 65.04362674694273 707.6985860287558 0.013482978098794394
0.1071018811324902 65.03944275001747 707.8182371674912 0.005083825731925833
0.27004000180862264 65.04353050907129 707.80986787446 0.008391224401553998
0.1609823745519258 65.0412026217453 707.863478307341 0.016726735416545756
0.24626570930228883 65.04057026288125 707.7683955600593 0.008525807320763872
0.16171751849679813 65.04961180581074 707.9454400864636 0.00950197696197471
0.19611191336391132 65.0430681718241 707.7982608240749 0.007843483279224009
0.19147268557939903 65.03872805069278 707.9322728987321 0.013069647242309058
0.16261377178041272 65.03331128179985 707.8832288268496 0.009873570899573752
0.17785816551427705 65.0429438982645 707.7688981952004 0.010842936217341299
0.09365818474704156 65.04425783984028 707.7807804739649 0.005597453666145787
0.27472998699316586 65.03865939183797 707.7660077456262 0.005549120254891969
0.11253094180591713 65.03789816201832 707.7376822845796 0.00864196694496248
0.07852722347719414 65.04272668390558 707.7791608524338 0.005428733182144023
0.15088011710095645 65.04176864704598 707.9185432945076 0.0073854348644890955
0.1336582613890349 65.04100930427501 707.8420818636745 0.004438227846067088
0.059090487324442144 65.04612592932683 707.7450444786942 0.00456417317778536
0.24683699677132084 65.04307191582363 707.8847170011626 0.007192571770438368
0.17985089687167827 65.0463451294596 707.7489462168563 0.010670814994185799
0.22721813115988043 65.04234754363152 707.7836029073525 0.011500009999327423
0.14129899440156934 65.04282388625408 707.7687295330581 0.01085078232347288
0.2879737853728981 65.04175398241775 707.7386579012418 0.011914961811579748
0.1270535189422855 65.04316317526958 707.9311688559911 0.01113869325710404
0.2386413926911298 65.04902707582829 707.8245001045907 0.010059183371822775
0.11545970399569384 65.03987336689043 707.8622128378124 0.004743224447007489
0.0470298271334397 65.04517685009833 707.6862671205805 0.008181789384660056
0.3049685848443457 65.0428088936191 707.7267496354435 0.015469745373474262
0.14310570869665987 65.05158472721818 707.6877792385974 0.00847350666394451
0.021212540791327807 65.04545176329003 707.7043920204787 0.007058019547077475
0.14878060217296815 65.04723358874745 707.7190671181543 0.0068568822196336575
0.12215199144089167 65.04097111109417 707.8181505285719 0.013330981821288944
0.195359124229502 65.04009169634303 707.7453858703964 0.009768658868642614
0.3003453981764437 65.04360043725907 707.7829960980073 0.009471365837024435
0.13460391033877667 65.03870011921472 707.8709383925404 0.009739323759648186
0.08807331148586812 65.04305095362008 707.6859684995771 0.0012944428189777916
0.12066523869023832 65.03779079780018 707.8265991480516 0.010655471117927307
0.17318211007892528 65.04184664528962 707.8034149716771 0.015763535228862376
0.20902495972732854 65.04167225454678 707.9494055068728 0.004696378473137328
0.19272279341576198 65.04180969967308 707.7146009561311 0.007630224285682305
0.1793477356143985 65.04456527544744 707.9625828511969 0.016085091173440102
0.13511257118836492 65.03722240574228 707.9034718190172 0.006555276342701503
0.1360886116567923 65.04415389586488 707.7822014647659 0.0070621565316747025
0.1104195957035869 65.03962502619903 707.7516154612113 0.0025669616885590292
0.22616029432525916 65.0439861555287 707.9263558009607 0.012189191044582002
0.11231496325942288 65.04093541026992 707.8083263807715 0.008209839681300386
0.07616153028029009 65.04154446786347 707.8160774230141 0.009039108922566126
0.19777994994471754 65.04352360697567 707.8502711699773 0.011517114866684745
0.295919286639911 65.0419863418576 707.6997566598621 0.009454840246362775
0.16867647577319522 65.05061176064815 707.7071873284818 0.010404485636596949
0.2620617790803491 65.04915704474111 707.8402396413103 0.026401558705553895
0.03249146019579968 65.04150854551628 707.7065797259077 0.008616593398230486
0.10748906017563854 65.03984871688134 707.7018158330529 0.007798902632514045
0.12024891418880342 65.04117029433054 707.8900359546805 0.00498265387021715
0.21769337355616628 65.04499503905417 707.8709406321317 0.015745559751797034
0.2527794838012457 65.04291325076868 707.6839551480928 0.003712046417886139
0.12166554622192356 65.04277761491382 707.8574073151219 0.0035516185711525652
0.24145808922691855 65.04283194355129 707.7918124902249 0.00981212484453671
0.16582073002915396 65.04619706403642 707.7600023692346 0.00866301630384491
0.29547248343636223 65.04286394242655 707.7925187819737 0.010599453540913597
0.1305371817127636 65.04176332211541 707.922880729813 0.011213867454558935
0.07061681689333513 65.04109172445442 707.7936740603293 0.00856285011685049
0.03562405092597584 65.04225197023534 707.7545410913848 0.025247875374680345
0.19389149385820115 65.04689866105772 707.8701587668708 0.01542861881697192
0.24677582482752405 65.04038103563065 707.7101239193717 0.011194953612847195
0.18049709001385764 65.04507081522407 707.7880982175818 0.011346358352238224
0.19780821466718373 65.03981070321979 707.9104174622865 0.013142830821281409
0.3436569200696389 65.04780431175064 707.6910480431068 0.02254712974924862
0.2091414885976587 65.04554432734 707.8893230172665 0.02165552956897195
0.15147623123615664 65.04868446891709 707.8062383817936 0.004866775083028807
0.13280188788911998 65.04442575626594 707.7495127752978 0.008506954185211291
0.15818297750131544 65.04334918299323 707.8619480731302 0.013487850553444957
0.20239496366080595 65.04032379933813 707.9610506335646 0.009619334393276778
0.25975222631422534 65.04584712463367 707.7295120869013 0.007356751078838887
0.24274977351036758 65.04641159552628 707.8043440344204 0.004665013006584896
0.23098059169462026 65.04243281108145 707.6955487717695 0.006988357639689368
0.30686210822942206 65.05042065255505 707.7158059267877 0.0033734996254288236
0.3214391384742248 65.0439892338263 707.7385786039399 0.013412898259241765
0.20523916679001364 65.03797972737355 707.9154749501512 0.009230065218997087
0.165045154339569 65.04210089316878 707.8337831137401 0.011230937728443642
0.17921587133684672 65.03884493953656 708.0145258479164 0.011851938783003705
0.288164989756243 65.04496734540345 707.7568868708266 0.00508548489179074
0.08686405510397964 65.04521877087049 707.8109759613195 0.007419565054227954
0.18424196305773513 65.04757497445837 707.8122656580989 0.015603180711928753
0.23614682106315266 65.03743423149295 707.7147982216597 0.011510088618847983
0.25883034871225324 65.04094583249262 707.7129353574114 0.007527109979953554
0.09066451811293826 65.03851071804665 707.8382099370174 0.002795299999045552
0.3342132343542915 65.04753968743938 707.7030776117646 0.031186008222194493
0.1911097691161482 65.04130727177706 707.7680343844257 0.009014068865892736
0.21218258314435354 65.04819763379321 707.9046047685258 0.009574148680162277
0.10645799924559238 65.04194471374181 707.8072116560528 0.004905208423995481
0.21746920394117789 65.03872502257259 707.7422152736423 0.010721884225224406
0.2954942162733696 65.04683531716528 707.779283016557 0.006900794971347694
0.21970092924916104 65.04326490191798 707.8472215395515 0.014507646969755886
0.2524080805839954 65.03981936356553 707.8500208624714 0.017987159432243115
0.11254412353522553 65.0394297620703 707.719606416235 0.007324508917225045
0.1907611237304609 65.05182100305673 707.8845858860211 0.00873749941130465
0.1990099937576648 65.03853287951848 707.9975359769005 0.012278024547150393
0.1490590760731779 65.03586794147606 707.8339103470149 0.005965289234046301
0.22234127400293316 65.04307027431128 707.7305920469746 0.011210113534414009
0.1619254241381884 65.0407467592747 707.7902917950603 0.007569958431813337
0.15022223143236776 65.03882415134422 707.7437368854918 0.004818419268009845
0.09842083790360408 65.04110881292405 707.8535023936249 0.0037602052004057375
0.1131817823352107 65.04520138994522 707.7777956653226 0.004484520459307866
0.17105042666796133 65.0475493198805 707.7649111401348 0.008115446628061207
0.17723386215412557 65.04499531163012 707.7450146962034 0.014199204984756941
0.17502478650254485 65.03995471242173 707.8960380497416 0.015525036937429095
0.05727603095105363 65.04289070409303 707.6942232202441 0.003705470935896682
0.024775892899079555 65.04517026234448 707.691853905716 0.006395702664756016
0.21825764112807147 65.04295537353757 707.9395231517975 0.005187749684176201
0.18618730817977247 65.04126224904913 707.7637737025625 0.012263936955793125
0.09795775788647053 65.03802781590726 707.718334652855 0.008205832105747032
0.08492021048410196 65.03912099326124 707.7323415117066 0.0018091104781862313
0.14093507813246375 65.03912707541201 707.8935081236491 0.012750222760567543
0.21598506570384512 65.04422222556688 707.7275617176749 0.007299472269727388
0.2529649887761218 65.04397044804016 707.8380695887341 0.019543665085543695
0.19707330144964894 65.04954650324919 707.8326712256602 0.005542291240442436
0.2602630833469491 65.04438489529836 707.7407483983743 0.008431711923718947
0.23541595319270603 65.04457737817383 707.7810485220766 0.01232824478230371
0.2153010535221958 65.04101749463315 707.7648947653893 0.00829791441942111
0.1107333371648409 65.03961565269753 707.8572439017854 0.0024811127487977635
0.27298504406430185 65.04168535056662 707.7564182528569 0.007551436846795236
0.17500525113715606 65.05022951749463 707.9883986058366 0.0062216349827060565
0.13292409863304794 65.04061268849574 707.7654450375699 0.009878357383478137
0.2354441739846958 65.03543072685746 707.8623750672201 0.01238202565637705
0.19045633291867423 65.04244995736343 707.6941935428522 0.014445645866816613
0.2028477085781722 65.03983475160041 707.800788031457 0.0061263804867870844
0.08917950475306455 65.04075713313607 707.7497426381199 0.003921057824476852
0.08696293309158533 65.04133028288584 707.7762805483284 0.007963977891230408
0.21146988674980063 65.04551245184531 707.7167433028355 0.006838667857357501
0.1831167360693946 65.04001472802175 707.9387285470892 0.006911552775590884
0.047296282630855016 65.03995603261758 707.7561858863122 0.005968640650104539
0.28191058390719925 65.04401242474236 707.680973559743 0.006208552026443446
0.1172586369479856 65.03772605002372 707.7980467915697 0.008615053759289537
0.12816323712563915 65.03828217378354 707.8690664082161 0.006081579605313431
0.1256878108396849 65.04884361372113 707.7015465448233 0.0017127952281007824
0.28983904700453705 65.03846658030618 707.7161879002821 0.007692205263405604
0.276958529371483 65.04090345094875 707.7874639368082 0.008579261416655073
0.2652743098344265 65.03730824261216 707.7904096422121 0.004111305335559111
0.21176915982434794 65.04940405697785 707.852578007725 0.018263033062293352
0.22813372835122384 65.04646232378151 707.8144459363534 0.0077130304887126026
0.08310335161335644 65.04119208886797 707.7476533244956 0.004208104944769469
0.18739579805918882 65.04333529125346 707.8246666272781 0.009364190197840561
0.0813058570819382 65.04146862957192 707.7102863503877 0.001824087740910766
0.13226151358775737 65.0395476616706 707.93634154273 0.01649950975244919
0.15835438201123267 65.03367164774147 707.8870988373822 0.013609818229192666
0.18473725141846542 65.05152788402242 707.6843410491668 0.009640397345067574
0.24387021000702164 65.04307119019033 707.9475311723202 0.011300820620093478
0.30709044052403306 65.03969707269283 707.9252944093946 0.01098471475138019
0.2628857242657516 65.03804571623161 707.9393243509803 0.022267420479388334
0.26676142914798 65.03724321583083 707.9594810744483 0.021011694644693848
0.36877094188159587 65.03485600607698 707.7558149754869 0.06459078518790148
0.2575562373591728 65.03709917921714 707.9684256527734 0.017189789149304774
0.35933688029578237 65.04072862573865 707.7684278484942 0.031791444280028947
0.29262174213341613 65.04284023020439 708.0184296161294 0.005058114283249474
0.1912210478305752 65.03969973146964 708.0304750412851 0.00637888540994992
0.29944663099873764 65.04069248817672 708.0224581037488 0.004826153690886334
0.2523858580547099 65.04585386770371 708.0065369624872 0.0064049199001411945
0.27794836081816976 65.04706948752187 707.9151947451666 0.013733824241821997
0.2866008994925886 65.05131184219387 707.9665863182963 0.008846558141605277
0.2487613993528804 65.05017467278577 707.8954718399882 0.008801086742734786
0.2795084572866732 65.05245121081259 707.8617233918457 0.009617440545313632
0.29521090525253496 65.04620854054853 707.9641548007794 0.020621755318187066
0.28379291453044464 65.04595713911147 707.9458229947472 0.021167008510400254
0.3440030279215588 65.04806773883455 707.8646275675534 0.08923411811200452
0.32087791573945695 65.04031722295998 707.9123197254379 0.017854920726019737
0.29779905918150645 65.04985252894012 707.8920331099923 0.013261292443248182
0.34643282632936906 65.04096904900969 707.9575840268034 0.02533001988942884
0.21565935149572713 65.03997641713258 707.9770737399559 0.0033838552072700486
0.2886748479432029 65.04346583217031 707.9049151106885 0.012971209382723517
0.3196748248368179 65.04571000804502 707.7944714479622 0.010755493415006086
0.3576837393290733 65.03528344830156 707.9676941959927 0.10795389994223299
0.2691584482254582 65.04181180495272 708.0207704850559 0.015676068987161767
0.31459365456568505 65.04975195141958 707.8962612970374 0.011138902346270397
0.22107760852467787 65.04242344219894 707.9770657335398 0.004346986767597643
0.3616775045521897 65.03608455043758 707.9556022132963 0.05927359341467569
0.34989694143548883 65.05033714423692 707.8194842870637 0.07365185475416892
0.22759872332864117 65.04433454944682 708.0082334556436 0.0060296668734198455
0.2780216583843767 65.04295107888711 707.8859850019588 0.014493431604353884
0.3370790573362886 65.03907744475002 707.9052465043603 0.08052286787765094
0.32880734525058264 65.03658444014324 707.9837342694294 0.008408396366012273
0.2871976060401409 65.045927438801 707.8316500329809 0.014189549774597689
0.3091082199477997 65.04287565335886 707.8810492736135 0.017450056110685477
0.35400183345924596 65.04962721457561 707.8077367574081 0.0663781877119932
0.33279180299794403 65.03577002922401 707.7530026610453 0.022786749119289212
0.29095101488288816 65.04387312659986 707.8110423012864 0.008041184000313157
0.3632204321965572 65.0374819420145 707.7866622154957 0.039162521235833386
0.3160601442851353 65.04054848718488 707.9251583519314 0.008945655838501475
0.33726475687182 65.03531193866883 708.0004334684548 0.06118232744597895
0.31419049402075455 65.04380510350994 708.017353827611 0.005392867581647299
0.32008496300871475 65.04035442894593 707.7727135913786 0.00638974498555183
0.35267114827975193 65.0477441574684 707.8978287331828 0.09753596239790738
0.2371456720711483 65.04290292935055 707.9806346151573 0.00781690213357528
0.3044573956660394 65.04326983779647 707.8501019518385 0.0036231389240344407
0.3233868091506486 65.0414786399886 707.8620857246327 0.0068123460908334115
0.2705904061707793 65.037670169752 707.9485647035004 0.022657831720507966
0.29413222769599107 65.04348214158912 707.8356152108355 0.00327366111504046
0.31906519737951233 65.04510512439552 707.9493912274124 0.008719826623289514
0.2161559712464137 65.04224384750812 708.0307755022271 0.010180065055358515
0.33795955619309503 65.0411722993221 707.7877159882995 0.026518547406471225
0.3074660027055994 65.0432921347843 707.9957054153359 0.015874079049238942
0.35481223107101934 65.04126048088496 707.8456698901308 0.07171648501278043
0.2915736624393337 65.041749789559 707.9447039762341 0.020307597017812973
0.2526940600376895 65.05126320808368 707.9187212676865 0.009533715402230305
0.3204056479884176 65.04131833087773 707.8245486557149 0.002606801856767322
0.2768764289445868 65.03768232541309 707.9961292823917 0.014837075305763165
0.32011073311449983 65.03999311295864 708.0054217612039 0.006865914665307685
0.329207551975234 65.03948274080734 707.9317909213208 0.009877017611978296
0.3499440473771676 65.0425218426857 707.7506778768188 0.023693226783978425
0.23328155910018064 65.04182712899146 707.9616597824698 0.0038955549506530284
0.3340104909158312 65.04657221783644 707.7275672264827 0.025187460010099368
0.34315763959073875 65.04174941106572 707.993253895277 0.06091716082386642
0.26874930187637924 65.04040886979394 708.0080076197174 0.01331588041090339
0.19568026929743582 65.04121550788317 708.0041894178449 0.015044624129559767
0.32307045962884956 65.03880604760852 707.9735307818468 0.009362045066568164
0.32182386493864745 65.04045493265585 707.8761808536627 0.021049042001855405
0.25285664344837505 65.03758572272028 708.0161715627876 0.00720314244779548
0.28969066248213765 65.04036166759913 707.9779485467552 0.02141535404782883
0.34436306640130326 65.04223606984847 707.7283669966172 0.05598741872343915
0.3550591805227605 65.04997643368681 707.8907282425196 0.0705592519402741
0.3622529722253788 65.04183191581107 707.9982488081623 0.09113861767541295
0.3554126585471133 65.04739036915647 708.0292002170677 0.06630981513093366
0.3432731489467347 65.03777849008844 708.0288048426165 0.06403534333595724
0.3644711789618451 65.04044739323886 708.0277910684974 0.05358731749913412
0.3520744219490983 65.04106159414266 707.9392703875415 0.03451015810415078
0.3640156626375845 65.03957604999991 707.925837175511 0.053542848279447504
0.35233932844550603 65.03866197652687 707.7031171259761 0.023447438755716834
0.3681243790603679 64.9842278227965 708.0388406374448 0.011345504248645255
0.35903872510972745 64.95165600396956 708.0601118451449 0.07766227799895994
0.3678683076503935 64.9653596417423 708.0376378056206 0.01808546769527903
0.35897420989209833 65.01817791315122 708.0652268424394 0.06556324883711487
0.36492923588500237 64.99787566343926 708.0661553829935 0.06073504823341146
0.37036226385297144 64.97057684364215 708.0596215073389 0.052604186731094675
0.36093475768477873 65.0187618729033 708.0360805070236 0.04917657438475927
0.36715092087922657 64.99751828979181 708.0499352019871 0.0647087870152449
0.36656524824808295 65.01495974179915 708.0499938113408 0.08875827097017269
0.3637007563642046 65.02590120511282 708.046190994038 0.06989218197703688
0.3558699900587862 65.03705094887653 708.0460347792206 0.09907693043647217
0.34931259877374454 65.04901293928442 708.0538489977235 0.07086685622832828
0.28850799226424717 65.03995058451589 708.0595977395744 0.056362998575924556
0.25836494833891793 65.03609627496863 708.0420860009111 0.046062397009274
0.33695934083918677 65.0409269989659 708.0524501622596 0.07544913777894537
0.3456927604807618 65.03703268186274 708.0625448000302 0.06810153508059062
0.20027765348567955 65.03661844295279 708.0634861522511 0.0414173042041394
0.19679990112150703 65.04379652769539 708.0510019852488 0.02100415510474005
0.16004862569987857 65.04098974052272 708.0517975243548 0.051512488778085855
0.31423718377911225 65.03732125461853 708.0524835539436 0.04395566131247241
0.25303892903544467 65.04749891999866 708.0635678150285 0.039641960484680515
0.32014095522410574 65.03599046107468 708.060105362257 0.07518070538559518
0.23851067035234527 65.0381291385807 708.0592579742848 0.09412197931851685
0.21522000071612152 65.04058104214526 708.0585662856353 0.04860485422360237
0.17137243926958654 65.0355254595724 708.0544003380044 0.07508023275556831
0.26718627724041577 65.04630729074522 708.0626306429496 0.053510845001583644
0.09252715892176151 65.03062452891118 708.0648917234812 0.0357616899502949
0.01930032494068801 65.04862775049469 708.0627556891253 0.05436069773242516
0.13000564829461997 65.04652942030656 708.0423857613573 0.008477544872665069
0.1754443338573039 65.03449093204111 708.0631799558344 0.07821145628362552
0.18560459386108924 65.0378441294018 708.0596697010102 0.05764927021238571
0.11139810998833939 65.04207890696206 708.0496200275765 0.013209378615926921
0.06967977698329565 65.03536799062907 708.0599119055255 0.06995160406342826
0.15590662010741696 65.03974701288887 708.0305120493582 0.01008360873626058
0.025332802610045186 65.04390359523853 708.0476006320706 0.09112394032072386
0.03241319096804549 65.04629385350944 708.0540115472861 0.08882555936101125
0.09261577888650319 65.04539437519315 708.0443814293996 0.016530217153085173
0.057877555307763284 65.04578401432782 708.0562955691192 0.034640109751217896
0.006726750581354415 65.04041063217264 708.043968387499 0.020015898708813016
0.14466887146095092 65.03897534199233 708.0617013788074 0.052500157775416945
0.034323559589674604 65.03943315110602 708.0691547281028 0.03904289891492678
-0.0053711057581794525 65.03680916547877 708.064565633152 0.05198678852394799
0.11120019689988733 65.04648101451191 708.0266391706358 0.015083316978284772
0.3088846822894132 65.040078084069 708.0416068009565 0.0057324838599294575
0.18310692125116323 65.03674882138561 708.0318025262476 0.017600535573500404
0.12217653613368036 65.04610390222044 708.0285820243287 0.023306136180854784
0.0649771315110089 65.03664657229501 708.0255433789425 0.01232388179126519
0.23790572525563392 65.04403539076348 708.0425558868694 0.018734776216508257
0.008135962467493301 65.03927280217303 708.0353542346327 0.003985062908543845
0.0051395609812982775 65.03949463640528 708.0327191028373 0.003694164228740278
-0.0010829070693745505 65.04173163463264 707.9137846825791 0.011050455978990091
0.001361715651754379 65.02812437816834 707.8388857958206 0.031978563269023375
0.00020911419657690302 65.03104898913978 707.8549725760447 0.01961710604783326
-0.0003449685861958065 65.03723538205762 707.7070330812802 0.008672796870256651
-0.002872131359315261 65.02825612668883 707.8832938962407 0.009596761163290774
-0.003471456929719221 65.02181196394562 707.9774323101844 0.038760135319923866
-0.0019855478848855674 65.02919228162962 707.9844375789625 0.04000609573731361
-0.012311610141385428 64.97406874551766 707.9983526875252 
-0.00031360911646881144 65.02876337997898 707.9454539897044 0.012711191339487468
-0.007966112102816954 65.0285900222009 707.7723882831419 0.0015401437530537271
-0.006874599558323989 65.01430739416638 707.8572021812417 0.0006115007106998945
0.004094604904626686 65.0416702976467 707.7897270915932 0.019954685759931996
0.004223198485447013 65.03317782862194 707.7500074725828 0.01797883774047594
-0.007810238625798517 64.94489487951792 707.8397050496876 0.0016029002038680004
-0.004162990834852887 64.9378881112779 707.862654063289 0.00840182159805178
-0.007527053011710742 64.94400005806548 707.9094057177757 2.3057175244834836e-08
0.22002194083026 65.0387324954814 707.6837026331665 0.007665636602291718
0.3628267406591595 65.04213667871653 707.8660811984623 0.0734081014188972
0.356269863770905 65.02651561404508 707.677237030375 0.02744953447412654
0.3550865995386018 65.03837586968069 707.9194141446827 0.10327364110510216
0.37038476650751245 65.01513571712906 707.9193159735565 0.028185974654904706
0.366817482575276 65.0186617531657 707.8720093747204 0.024165445828074058
0.37260198941943484 65.01936599826088 707.9519264721115 0.03414850066681389
0.35762423756579137 64.9965021610998 707.862705218124 0.005663423757041839
0.3644521080950004 65.0361071262955 707.9709961047378 0.09453760437118629
0.3580906629865327 64.984117189773 707.9613490479818 0.007524968249351674
0.36944898091017897 64.97070394916614 707.9341228567309 0.013188456209284117
0.3634654297732958 65.01873622722572 707.8544360394054 0.03653449327359033
0.36337245265583357 64.98524066412709 707.9834223976543 0.008296115093756646
0.365231771244654 65.00788173764398 707.8501264487938 0.011498824048893281
0.3725480315376908 65.00623146992 708.0095524741805 0.005295001739708239
0.36729131827377404 65.01747026175553 708.0009123033667 0.057428562096383313
0.3608749840158021 64.99942875208478 707.8519449279396 0.010073942795741581
0.3617433209408998 65.0367641932004 707.8155706598777 0.04184416522677597
0.361357180061896 65.00180027813971 707.9646966181288 0.018411006453849778
0.37083619586583577 64.94798519076782 708.0331725208368 0.011014294253272766
0.3650870682155539 65.01524171065718 707.8425414646064 0.012790368318933616
0.36863891560187895 65.00248195292967 707.9419441655104 0.031582000086855876
0.3644449567090865 65.03679717749513 707.7343915410419 0.05655360582004002
0.36963027884672534 64.98364551771667 708.0087119381061 0.007346044845855998
0.3582174955015132 65.03384572017517 707.9012667337107 0.1220423248424041
0.3573813513725734 64.9919316597442 707.9061661367198 0.0034443164353355196
0.36533637793845547 64.99535094312961 708.0232619158124 0.006021995334625621
0.36084032339575267 65.00504359701308 707.8768884546911 0.00794555924856491
0.3674006798419267 65.00206244692538 707.7827963964554 0.008761500081867366
0.36607042390364736 64.97750826022344 707.9460569237987 0.00975620136534522
0.36741473815079495 64.99467500872105 707.9267857428496 0.02165856319130979
0.3659717088049524 65.00182776209029 707.826123018031 0.0104253002974662
0.369710933867944 64.95961365469209 708.0119578841958 0.0036027494370056766
0.36532517596967085 64.99507752457811 707.9219046144218 0.011335537269748541
0.36794239716938626 64.99828958059864 707.9922617629738 0.010646897119180779
0.36337563892211094 65.0251827180796 707.7506711022515 0.08086755925984823
0.36399450844828496 65.01447342092251 707.9938225735251 0.06957905923236363
0.3608762279656885 65.02955674083844 707.7857937525773 0.044154048525243836
0.3598492908303766 65.01948545833484 707.8212825504643 0.009808051222600422
0.3628548004523416 65.01081062250177 707.897892780163 0.0443406035602014
0.36662088736815623 64.9754286417678 708.0303340201385 0.010522225121045788
0.363765375256455 64.99143360219514 707.816978735675 0.007664615494627275
0.3678706571923654 64.97429699538225 707.8471653207936 0.00793035332343988
0.3621520623103108 64.9727691454488 707.810021047225 0.006372023242364224
0.36724119142455136 64.9617336202112 707.9560104594448 0.0094088949384871
0.3645470437396807 64.95687124825427 707.9775711853384 0.010525168421883977
0.36339916443910847 64.97186249689439 707.9035683814712 0.008620895736492563
0.366829378814916 65.00329237206087 707.7846750553753 0.012228499164356815
0.36333288853771795 64.98260229489117 707.8792909560422 0.011212689115488256
0.35852476200818045 64.96121076481157 707.6992887184323 0.0111441663862734
0.3643115857149238 64.97329108130985 707.7196746326197 0.00792783304474361
0.373571832207289 64.98361479367541 707.7669475731342 0.006068954412879172
0.36469763031556346 65.01366188854387 707.724656758806 0.034983921177692355
