x y z curv
2.474628764714805 153.43367135338664 1244.9208184028219 0.04237998954903846
2.478952186106687 153.42093273427656 1244.9291698031286 0.050530500316165176
2.462667421599335 153.43248867262494 1244.923768246372 0.05655662615505756
2.45039761275682 153.4278337319055 1244.9317307748427 0.02816474574884595
2.427628826773332 153.43047266702544 1244.9282588129859 0.01604166971955566
2.3735479266805024 153.42449215173474 1244.9230667211389 0.05424526084334415
2.2589915188546 153.428055963344 1244.9264977772054 0.10256341315125436
2.244202433873076 153.42607522168822 1244.925499875498 0.08436090887444896
2.230674172261781 153.42831042534021 1244.9288705180722 0.08350997971825572
2.154144345734638 153.43185724236116 1244.9196947188607 0.06475319210240814
2.1554477063461657 153.32408595933856 1244.935694910936 0.07186359407296994
2.151169985892226 153.31198095868623 1244.9270895659608 0.0630911010371621
2.197606051143178 153.2821210119486 1244.9187527960696 0.024468391208236885
2.246237222023713 153.28017245534764 1244.921959226693 0.05880857488446138
2.290351651656757 153.28243426663605 1244.9287947595674 0.06497225969258945
2.3245056217277114 153.2722521504453 1244.9240894142144 0.035561457461758116
2.436912401982139 153.27044283070092 1244.9217846873903 0.025022715523001813
2.447919531164964 153.27732147044915 1244.9241051883923 0.05212329661375108
2.5629726455884727 153.3059728807472 1244.928545919523 0.043172156867728274
2.5739394978284955 153.31220808627776 1244.9245701692544 0.10861584639016858
2.1773111296646688 153.29070285417336 1244.918400057788 0.03166512697950028
2.2382120410327975 153.21841266609513 1244.0364214212198 0.007949712997656535
2.2430114521983278 153.15741240158994 1244.0354130736864 0.010304533260419507
2.234245801748512 153.13307732547764 1244.0392939677304 0.0110536836225036
2.2380812396375713 153.0262271730847 1244.0358734593617 0.007063809516986773
2.2376636231652656 153.3098964933907 1244.0450790303023 0.010325757919091216
2.2374421334746275 153.26603334587514 1244.0397104233123 2.7728132348447065e-08
2.2365376763702645 153.12427329522765 1244.037123094075 0.0036131719138569464
2.2399141214714606 153.0650478585678 1244.038517730178 0.008949572977314265
2.2471466810882865 152.98225681299408 1244.0397021286353 0.015164691291553489
2.3672044287117444 153.35203747900482 1244.028866394847 0.00315085135618356
2.406854289500069 153.369727875149 1244.0411045118906 0.014401215553880173
2.316289416214737 153.3618291003231 1244.0386612953662 0.0020831192458588437
2.3401586488856916 153.36037983970678 1244.0382917258573 0.011145483298679515
2.4757633227827642 152.96433767952482 1244.0339174045382 
2.449489779838669 152.90948342235356 1244.0347075587401 
2.318054363618612 152.87731449099098 1244.0405829799718 0.013775484436299843
2.334973143889678 152.87569134004616 1244.0363784716683 0.015297879190126451
2.3654740551105187 152.8677156642639 1244.0348056624302 0.008818775492249334
2.304961701923712 152.88585492375248 1244.0377887037246 0.01459295225326998
2.2948467557777517 152.89786606056748 1244.0296439539914 0.016166101866713824
2.292870590957266 152.893442529278 1244.0355473221261 0.020284004119056457
2.2437669325592666 152.94048287373047 1244.0426330197724 0.003886113959468357
2.257825398647601 152.93124966613013 1244.0324102699954 0.0061501987536552
2.4719774972539916 153.36619546616305 1244.21859851573 0.00786608000614846
2.471678358894895 153.35895559408957 1244.1943913532073 0.022307039263662145
2.4671117375792546 153.36691320374442 1244.1343353863206 0.10709621475303013
2.475837422229604 153.3653734588296 1244.1448039721654 0.025242836325998014
2.481248587846502 153.3386295306741 1244.1296249196685 0.0036508326972873716
2.4673138458860464 153.3615814954424 1244.0840196814133 0.001976545081641682
2.488214959682686 153.36475314710952 1244.0529982552819 0.007388895834305757
2.4878960659927576 153.0101035375376 1244.0698276154542 
2.4843465966182516 152.97016957799113 1244.052426470589 
2.4793814524930955 152.96089727858205 1244.0978911866575 
2.4815839340086665 152.98392717155588 1244.106415562613 
2.4644471009702364 152.91417223105427 1244.0931898433828 
2.4652788584242877 152.92097951133192 1244.0587224532815 
2.468979793135532 152.9446165862042 1244.1582114220369 
2.4659174114540847 152.93283752322958 1244.1845734947988 -8.371806408630784e-09
2.4538379148697524 152.90505657119678 1244.177863538322 0.01940346383292125
2.4196168138282417 152.86983297533263 1244.0328225885498 -1.6148208759142683e-06
2.4373980587761106 152.88855475866387 1244.071234259815 0.0034731629113612583
2.4340698787741135 152.89593304622213 1244.1169566735439 0.011516126913338887
2.4333117361788004 152.89333832993373 1244.0924562726168 0.007658097541784591
2.440902650381181 152.90321843105124 1244.2017254212296 0.01877206131342701
2.421751606041372 152.89453111473603 1244.203073063746 0.003315589603555346
2.4307755202476042 152.9022469458435 1244.1890140788505 0.021193557307190677
2.420211089727868 152.89769949967348 1244.1652537637344 0.00980429501422748
2.412804041472474 152.89190517190332 1244.186924866347 0.010056080881179088
2.438477331209831 152.90439791353873 1244.1645112666572 0.00947671547716498
2.437579400484308 152.89805242096898 1244.1423412518209 0.016089889496834205
2.4156232185059325 152.8786295526468 1244.0619350751488 0.0052822755792418475
2.4246794562153537 152.89867331890102 1244.153715754699 0.00764007542286828
2.4268755120147194 152.88524565019398 1244.1180885816013 0.0034743633343896356
2.4227467856806046 152.8846596505899 1244.0939706618472 0.007634836728318363
2.4511015086719437 152.9205743037431 1244.2160904406016 2.7659836467865178e-08
2.407409924197557 152.88493100310626 1244.152620923011 0.016831543399509555
2.4118136396945857 152.88219173503504 1244.0995897026844 0.005695843375823879
2.402194942353194 152.87516470296364 1244.0568305573431 0.010706584279306082
2.3918959540954883 152.86994720612546 1244.1016739744523 0.017478087081023788
2.389078425607528 152.86515088808548 1244.0485877496787 0.018265340665997932
2.398306496371939 152.87525922137874 1244.0747046136016 0.011780591710511604
2.3998731630576966 152.8742848225571 1244.2087982717462 0.015930581168098548
2.3756559066978364 152.87587385222997 1244.1604074825846 0.025271563931768444
2.398648234367997 152.87760535462948 1244.1892587806767 0.017514421194274845
2.378059086147729 152.87603229651532 1244.1812405664687 0.028777747807358166
2.3930338168239893 152.880133396976 1244.2315658896325 8.994779476844079e-07
2.384774784998003 152.87013406834902 1244.1080927655769 0.025963392974712413
2.3821008372195966 152.8703340474182 1244.1046806886143 0.02278989375945283
2.388867054924109 152.86537116871105 1244.1330738651623 0.003341567706264113
2.367062426655495 152.8688545803337 1244.0937093865032 0.009814879600098365
2.395147135379466 152.8805096768542 1244.1497147514951 0.024394248626313477
2.38123220988225 152.86289668919568 1244.0837086159045 0.010793623451434434
2.3595302992430565 152.86783521327027 1244.131007538029 0.008239618982563758
2.3464126637277056 152.87030993328594 1244.0653148644215 0.012969786661243406
2.354815176710962 152.86821378717536 1244.0866424074572 0.005995100709310856
2.3618644574674823 152.8663117742729 1244.0622887103698 0.015287246300216557
2.3439350161542833 152.87072112025422 1244.118440965957 0.003705178094018588
2.33468156168499 152.86818735312733 1244.0469103395806 0.010346090712806646
2.35940649429749 152.87403278048862 1244.2007161440135 0.00752390948362956
2.345014115716884 152.87864361622778 1244.1762948433982 0.013073697564269963
2.331559478466191 152.8778595289479 1244.1665697037995 0.010162274395155851
2.363153868643739 152.87608103462765 1244.2268123260183 0.006006332917744266
2.3820932162413375 152.88144713300363 1244.2124426017951 0.004680544291811962
2.320103754581815 152.87836807593686 1244.1548919765107 0.010329898461585128
2.3471185992514574 152.86884549242964 1244.123938268182 0.0025398775499782308
2.3478497516208523 152.87183222522214 1244.1039877916917 0.0026117011175956534
2.331718269595019 152.86616062031175 1244.0648975695678 0.020758434128920953
2.360387066369815 152.8657323640759 1244.155703030433 0.011430924615580493
2.3398617721914525 152.870772129219 1244.1463714230558 0.008147223041238385
2.326167496063271 152.8757020404894 1244.1863375996104 0.00429778459980957
2.326625543075101 152.88196135382987 1244.2024358698266 0.015130499763981016
2.329062767768584 152.88342195379752 1244.2281983421005 0.00031142440104228324
2.3173924137401833 152.88141066971002 1244.2250146765343 0.039114865124094046
2.3237082169047434 152.8657031237072 1244.0855732805558 0.012741273674053314
2.3222704436779367 152.87053010338454 1244.1186752049132 0.009140235558198576
2.317818928889678 152.87134860435413 1244.1278266451448 0.00862477111381783
2.300064552070719 152.886766542165 1244.0493206534225 0.014422811285879383
2.295746808400885 152.8794803519737 1244.0943752191868 0.003562720102277163
2.3146151565754556 152.87648985068125 1244.051988962589 0.012132246385696667
2.2986155503629297 152.88732767368626 1244.0681671400873 0.0074796205410337475
2.2930897682630262 152.8967996787449 1244.1960986441698 0.00776889513512493
2.3155078413728187 152.878617443868 1244.1753031826481 0.015482016836648304
2.307154561687165 152.88492875349843 1244.1773385482904 0.02010811464800702
2.308305135448673 152.88331883224063 1244.2053278431413 0.011844949092694167
2.315707593491942 152.87894590514534 1244.2382015339228 0.02848439984452264
2.2856160835858366 152.89467611155746 1244.0504905787532 0.021529937860829587
2.2863618864328146 152.8888359651945 1244.1391615334599 0.004611117666430018
2.2843511693717082 152.89426072573937 1244.1181924344792 0.002570969521632052
2.2795916413260304 152.8987972737525 1244.06481077984 0.03450625589075531
2.2696142873306218 152.8951996745723 1244.0429637156633 0.015300378120922255
2.276197083486409 152.8981560023356 1244.0542146150176 0.030785514260881382
2.2892396782949103 152.90223836179902 1244.2218151320171 0.002938613498607035
2.2880459288679154 152.90067786944962 1244.1912346084564 0.0006677984409841732
2.2848495121190417 152.9026661523469 1244.2025442556073 0.003510862750147523
2.280315668734194 152.89770048402474 1244.1096582617163 0.0003339771413508392
2.268078347174649 152.90468670254512 1244.1489236057976 0.004894960044584712
2.2753538950998355 152.90992523744353 1244.1686774611621 0.010676141462133753
2.2495878865973653 152.93536981906155 1244.0581163261654 0.0090446424494128
2.265691454368923 152.91253274232375 1244.0724956442039 0.0076383956746321185
2.260741910547559 152.92575952263257 1244.0846586900777 0.004642374123781949
2.2683436801724945 152.91891482119368 1244.1023403445201 0.004374515378945221
2.2737209598858112 152.90909827202594 1244.1061690542747 0.004662791612594351
2.2665247623082028 152.90855248735605 1244.0456099732498 0.026905014357494785
2.2717044803590882 152.92381802111674 1244.2280894948972 0.00457926429325977
2.2637049166392416 152.91933713033842 1244.1950936293365 0.007871501069478705
2.2669867879138366 152.94019036799708 1244.2250566989192 0.006110506423452411
2.25971720088452 152.93879047757096 1244.201816482196 0.011881423212578483
2.2610461063186227 152.9250088977742 1244.1212017875785 0.006882226538654434
2.253659801435888 152.95296608487908 1244.1753396557485 0.013799503699793008
2.2520970072264315 152.94047448018588 1244.1868726768366 0.008741718792859196
2.244892125771364 152.9447329086592 1244.0733438572447 0.005393419268528992
2.263388369161144 152.92463458985424 1244.1549731316047 0.011536447705583831
2.2527785971023113 152.9389880069196 1244.0838859593482 0.001725250046128965
2.2566112820561983 152.9242398767383 1244.1358345076792 0.003784260553603989
2.2489838662899375 152.9426864431335 1244.1259398810923 0.0033366048496913407
2.25447385902878 152.9528841482237 1244.194519614899 0.012137245585255004
2.249948549970542 152.96576896076846 1244.2073533679343 0.028418753463955154
2.240971096998409 152.9569368121181 1244.141454440201 0.010864829661986215
2.2520934345524886 152.95597316931867 1244.21963955691 0.028042090218911613
2.2484493364488496 152.94568091829117 1244.1576827654517 0.013395469196579982
2.2489789627998924 152.96107731657165 1244.261109648578 
2.244042295505348 152.97432484649568 1244.1650314776275 0.008849620464652638
2.244730224126768 152.951376309768 1244.1624653149602 0.011249319405693148
2.2435074200532346 152.95112758306541 1244.0424025332354 0.026898986453372867
2.239361760062406 152.9655666336931 1244.056359842909 0.02369239739416878
2.2368701182149677 152.9711922333135 1244.0835670967883 0.02560683375346582
2.2438544696363665 152.95773131552295 1244.0943678519586 0.003601717123055315
2.249306784374608 152.9687081616986 1244.2046826240703 0.028708706737913117
2.2454495212619494 152.97337483663577 1244.2330492020778 0.0057405860813812
2.241948639810638 153.2181881439376 1244.1332644052193 0.008026876247496971
2.238520853530599 153.05848561934374 1244.1220371924564 0.014275721399731284
2.2416584254226315 153.21008583459698 1244.137434558347 0.009920614658481042
2.2423870229850027 153.18901220909993 1244.1437537009958 0.016904380886997087
2.2471496751188007 153.21870575271927 1244.1503937687446 0.010526942696585084
2.242269299682297 153.12570026051074 1244.1391210856564 0.009835303509681377
2.2434507872439853 153.03883270384915 1244.135201688898 0.01072122690113021
2.2435984278372585 153.20247283914165 1244.1604749375808 0.01312444433226154
2.244076474913886 153.31813779090373 1244.145091054156 0.010307052754018022
2.249035870848527 153.0810340874586 1244.1568994019278 0.015373909729265917
2.2456110909425475 153.00235758402465 1244.1409847320463 0.007124904837142366
2.235867255626945 152.97330079526813 1244.1046821676691 0.0027333652155117206
2.2382042783324936 152.98336775302135 1244.1512686529227 0.0073046433601816115
2.243169714303052 153.02754855110928 1244.129671268794 0.01158589210169598
2.248987125219164 153.23935261181336 1244.1460770956903 0.007568590631120736
2.245595008409631 153.09472695888954 1244.138534580644 0.010754230716935516
2.2440974760453627 153.05101740524833 1244.142137538403 0.02199553760041229
2.236076918389151 153.14660809262742 1244.1268492109925 0.0037460935571831827
2.2387105607988937 153.06781274701316 1244.1265512117136 0.00868998376667488
2.2448392076362635 153.18288393835724 1244.1541399098471 0.007513715340181904
2.247686009322133 153.00096030548852 1244.11791570081 0.0032526129021989247
2.244333779534504 153.3451743770587 1244.1545419450017 0.03188752750948165
2.240463790219905 153.02155089849222 1244.1028332767992 0.0011297057015917245
2.240152945954342 153.10028944073733 1244.2574879114152 0.0035791871713736346
2.245051781198776 153.06185831017052 1244.2203855135435 0.012877778976820114
2.2490652574219814 153.07475133891577 1244.2213985033557 0.01153686317948431
2.2510718753072796 153.12574161857975 1244.247158692143 0.005206470504256636
2.249562236127481 153.05230311404574 1244.2184779909217 0.004189482938271809
2.2487628886938267 153.0080550305119 1244.1948908844734 0.008205363489907282
2.2513747352785223 152.98765949439579 1244.1972853995833 0.012402235406857663
2.248843685744512 153.00431676959894 1244.1812689106057 0.004901398665706294
2.2452127702805993 153.0267419439783 1244.1956473844496 0.0071799342610839425
2.238484526301234 153.02232563534142 1244.1886582073137 0.002759908855265844
2.25200680284183 152.98890873588186 1244.2089574933425 0.006975810120583253
2.241241743559577 153.0612606429068 1244.2033000345332 0.0028955440825526617
2.246449187065598 153.0800429401452 1244.1726108448036 0.020415591919088014
2.251135165173835 153.11230197352472 1244.1930665046993 0.009166910885700147
2.2433108136553144 153.14578635901765 1244.1442890194144 0.009089177921965907
2.2446301228582377 153.24716323750764 1244.2100610341167 0.01377608858391937
2.2495576533929142 153.15252657907118 1244.2145146035004 0.00424583297548626
2.2489476976238816 153.1723569162546 1244.2266270943148 0.003800161090795907
2.2427124281526667 153.33628303581608 1244.1656048642521 0.02643029877696397
2.2496815749971626 153.10025365935448 1244.2275296368352 0.006097362525233087
2.248521920441295 153.2034317371575 1244.2418021605695 0.007030849501191693
2.248208753234482 153.14950606196336 1244.2619074327424 0.0022025292110713812
2.248969463238509 153.1456710888381 1244.2019187219325 0.006579722968510306
2.2418790434310822 153.2798546207591 1244.1665344160863 0.02881551490827719
2.248064692397871 153.15541919269478 1244.191519214181 0.0026139483812142807
2.248656322148897 153.15396498940257 1244.2051878442035 0.006139117883080819
2.2488509462748745 153.14878163170243 1244.2335269131731 0.0018789138292715016
2.2383246153031444 153.18884929975926 1244.1764315030657 0.007826561919122834
2.247555084658704 153.06489857178877 1244.1766987598667 0.00552956320529368
2.2460947279022907 153.0852475071584 1244.2121230808827 0.006198212862150796
2.2405013267856946 153.05834240242555 1244.1595706946484 0.015975370186656953
2.2457286056461165 153.09653833801488 1244.174346289222 0.013273698085227336
2.246675148828972 153.17338757934783 1244.2546795492299 0.007253301845459088
2.247552203857162 153.09855903932137 1244.2095490845659 0.0050796404780479405
2.248097896212953 153.26404418909445 1244.1568285557382 0.014670746516464677
2.2378367746292622 153.32791826395305 1244.1670970654793 0.007984857536812285
2.2365798909651198 153.11281730977728 1244.170140050193 0.004687373986224161
2.245586203231827 153.17714220012704 1244.2425639655842 0.0058069967525915265
2.243982611148115 153.13230554186717 1244.187985608661 0.006864780576287709
2.248439349027048 153.23938186909282 1244.21539701572 0.00755151264681693
2.246846653087721 153.31458707990868 1244.1718987518298 0.012153435281412104
2.246182294578072 153.17488010165772 1244.2192400447482 0.004503303545886471
2.2478757013563095 153.2445761014558 1244.2274342066846 0.0037368375182298386
2.242636276716784 153.00164702232544 1244.157239085033 0.019897782446623172
2.240011719635926 153.15455862116056 1244.1739611219132 0.008874395404492844
2.247575599475559 153.1255832709204 1244.236934598448 0.007430667157884507
2.2402533221758336 153.23842361761152 1244.1813235030554 0.0017966846516343413
2.2480485784119755 153.23069264415233 1244.1929212505904 0.0038374886868441497
2.241137712420198 153.20473277579808 1244.2154543005188 0.0034959323575104216
2.2428866377849848 153.19058735180013 1244.235666468992 0.010383017571129999
2.2464330977404168 153.25879946108017 1244.1749729763628 0.013088707804586458
2.23468488153047 153.03352865971056 1244.1642723010727 0.00926564189805957
2.242631645241131 153.16680274928683 1244.1809027596235 0.011217331558069261
2.23445910339219 153.28684904192323 1244.151308059953 0.0026342246712993084
2.2480389183227882 153.22997803100748 1244.2269020178844 0.00856563912740696
2.245777443992152 153.19508739967725 1244.2182421313848 0.014037461372575586
2.2481278289102122 153.12403637627295 1244.234880434981 0.006724693581113916
2.2459686640187826 153.25529834139056 1244.1876724312172 0.014785715274761791
2.2488921179732544 153.31119721308974 1244.1953928858038 0.01702198918483497
2.2446750008341545 152.98415218365008 1244.163011153705 0.011177103279007573
2.243644491386351 153.06843113306687 1244.2561426244129 0.01094324135041964
2.24638967069453 153.0843437759348 1244.249521993609 0.012932983641414831
2.2494780388592033 153.05942968679057 1244.2425094064376 0.007614157238255136
2.251930583416113 153.0080191583312 1244.2215646761263 0.0206707435691084
2.2530179276307067 153.0105135879436 1244.2205115906868 0.017245053432519416
2.2475835581178294 152.99207664037286 1244.2479260318114 0.010279432573154453
2.245386075653422 153.003310588587 1244.2416095793728 0.0027247519642640996
2.246017276855089 152.99523753285675 1244.2347434316669 0.0032378058214539976
2.2521648637356613 153.02871931267185 1244.2457247609163 0.004460050734623885
2.2348240274462574 153.28173178744072 1244.2057368537778 0.002274683886737204
2.246604488618219 153.27458908037377 1244.2323318106467 0.015919705014306826
2.2398681447861524 153.25067369878388 1244.267656919095 
2.2450592228743558 153.29009956586603 1244.2500550923098 0.002397179058563296
2.251607080465513 153.30582742643378 1244.2254746194897 0.019681197274623766
2.2452465663618417 153.23673548987406 1244.2411431814 0.005098103685048366
2.2457004245054257 153.33764874994324 1244.189146712207 0.04073024272175809
2.248540955869252 153.30046063733334 1244.2415299587472 0.011842028542568918
2.248478911498307 153.35570921139097 1244.2340282108132 0.05716048666074625
2.243889846922825 153.32662743239607 1244.2324089241906 0.011280127839030443
2.247304526662352 153.29727981156768 1244.2467309557462 0.012347901360629032
2.2483325097501927 153.3556302074887 1244.205511348359 0.0267431572058042
2.239967942619069 153.2268301065452 1244.1185070410218 0.003790367475528986
2.2461126511613987 153.33116958697127 1244.1136630150454 0.026358983446724913
2.2429273740075226 153.27235754545632 1244.1264611354222 0.015995455494342784
2.246191215124276 153.2502942459691 1244.1426859653411 0.0167774011492923
2.2463960950357547 153.24664071067346 1244.0972120370282 0.010396324555745604
2.2433928082178385 153.2094084057902 1244.0977137144814 0.009923584904338699
2.242262848514653 153.135522762757 1244.1064886789186 0.004556997728681139
2.245943432086044 153.36238580549258 1244.1102551240563 0.11523474863309598
2.243584080833279 153.3129530289857 1244.1229205286677 0.005094738420502201
2.2431173822432715 153.33705910488067 1244.1287640663588 0.03272893710205378
2.243643096178498 153.3267876825906 1244.1380405623595 0.025335866186193563
2.238658412450028 153.09713817138865 1244.1039819992384 0.01030870363594339
2.242372868991443 153.33030023546334 1244.1480569449936 0.026710179784796013
2.2386212396036225 153.11556324162797 1244.1064230994098 0.00568120633005037
2.2444763856824075 153.18235554865666 1244.120381661456 0.0038468376167363925
2.2456798370743507 153.0926326463871 1244.1177145013753 0.007254999743406681
2.233003543968708 153.06115569047827 1244.100586587742 0.008908876511471521
2.240073573234782 153.08568010102968 1244.107643393976 0.010480454733204114
2.2430079802365244 153.31044987299305 1244.1244361655608 0.00996545657372389
2.2424809016733023 153.31677724544522 1244.136128789653 0.010118513824848949
2.237773989779985 153.19675448512695 1244.124037258885 0.003079999285504828
2.237141163949886 153.26770467373493 1244.0999438703332 0.001983148446240888
2.2480817262019053 153.2504396657954 1244.1171969141635 0.01288752648793961
2.246639711981981 153.35430536562305 1244.1525312406884 0.046958793756780706
2.242390624087539 153.31385523452218 1244.1024552889337 0.004659328989267132
2.2449070381162297 153.35724049541344 1244.125026086622 0.07718324410680596
2.238458293940675 153.1527366054037 1244.1209197620278 0.006188152659695708
2.2456174754070535 153.37265302160478 1244.0995995088897 0.03331227687133621
2.246326711428671 153.32922238175175 1244.2600812636863 0.01618493667887449
2.245992692326601 153.35121953522358 1244.2440336720704 0.06247551076190407
2.249714091083555 153.30501606869765 1244.2611026190248 0.006082683806599082
2.2483839174332987 153.35974174509607 1244.2515145190735 0.06236633900250587
2.2409835708505557 153.08038887876475 1244.0377530192334 0.004726931432764775
2.2402740582652436 153.16683215241218 1244.0510657414754 0.007066616557542851
2.2417400476875335 153.2541742776551 1244.0382960399947 0.017864081180281977
2.2401843698938344 153.0193720293278 1244.0859310084804 0.010585241259966474
2.2300710018037173 153.2557377863071 1244.057410398287 0.010508951877133337
2.236526642050418 153.1788354617133 1244.0454000462544 0.0030944984489384695
2.2354737903100004 153.0231134303984 1244.075527121759 0.0028821264995676776
2.2335168265225462 153.05434573504965 1244.0493904910143 0.007047427363831835
2.2356563501241755 153.00723333730843 1244.0546059988408 0.022548237858560794
2.2380737653678953 153.2005593980077 1244.04545835264 0.007080377499653543
2.240953911455576 153.14884626876506 1244.0400971658928 0.013003018259433482
2.2303047499010527 152.9776790004549 1244.0628184836735 0.01149265054025493
2.2359368514278004 153.01215459042385 1244.0430591227832 0.00920992285235207
2.231596789806336 153.0993535844367 1244.0578038372912 0.018516747710574103
2.2323574583736114 153.0942799215401 1244.0696442647345 0.01570233544161258
2.234336077296349 153.28473389402814 1244.0435756409033 0.010870916677626501
2.2415258534376776 153.19378332682763 1244.0535775391672 0.003834061877018623
2.243877264565623 153.32945463584707 1244.0263972573036 0.024164556351569992
2.241590481830627 153.1208249163111 1244.059932714926 0.010750384373547873
2.2308291352133067 153.07161218871525 1244.0649641271766 0.0173692562254938
2.240901906174933 153.00019072793054 1244.0824381563887 0.007519682428252795
2.2402375670419103 153.02711215147127 1244.0479338462667 0.005123390657744674
2.2377750227203785 153.00174667516671 1244.0716908278662 0.017202427241474635
2.24166417380112 153.12712119882545 1244.0677276315942 0.009562675722388158
2.2370629176632773 153.05607880643916 1244.0384309371043 0.007444257331002333
2.238984775348942 153.1983623237079 1244.036381299227 0.007402027879633007
2.2377731941930126 153.29829562756558 1244.0740800248795 0.006960884141457312
2.2395022858790945 153.17075394337135 1244.0877727803659 0.0023610222867398462
2.242352820317649 153.23724000278833 1244.070000867194 0.017672233460196002
2.2385694722268403 153.13557007078012 1244.0918270097654 0.0031809861209871034
2.2383197785985125 153.304558179358 1244.0788170482626 0.0076819293373283715
2.235458014788107 153.22060389262612 1244.0633965194934 0.010606465378605488
2.2359239430434346 153.35085736635256 1244.095288797538 0.07909071563502537
2.244759016526207 153.36712362289188 1244.041415536462 0.08611381398835787
2.2386991559994267 153.33987925965067 1244.0527221417224 0.020703810124738944
2.241850196148787 153.20273403901083 1244.085931128539 0.010781451805608635
2.235042818886564 153.36650265968407 1244.0699375659133 0.07280651384281234
2.2417179684227926 153.19515803316904 1244.089225162687 0.011047662039222889
2.238568881872711 153.34225781713616 1244.0442751318326 0.03433962140586181
2.2449142721211417 153.22401501979814 1244.0876530519845 0.011626529123513016
2.242400412413305 153.1153011849364 1244.0850755753863 0.011628466063548793
2.2413918930394154 153.25731259287903 1244.087160521291 0.014588730736627004
2.246853160114659 153.23503039508762 1244.087029686615 0.016887952878412917
2.243075818949712 153.31954284017877 1244.0582259462012 0.007863730025978202
2.241816262102033 153.3135401822051 1244.0587738556276 0.008922404660442921
2.2410175836258546 153.28196226593752 1244.0849503006527 0.010437100652647389
2.2377822445034936 153.1463906923013 1244.0757122746988 0.005527850812603036
2.241499494064994 153.08439672623592 1244.0863358792913 0.007565557724925108
2.237582543271292 153.30197269031044 1244.0981741226121 0.002562480086831333
2.2390878369974265 152.97023595513886 1244.0490054879108 0.019724065328207255
2.4566606924878576 153.37286057516545 1244.2277507787967 0.0051073035049366495
2.474263910300313 153.36614932877072 1244.2580880636472 0.007104709985672991
2.445827451622151 153.36377849815423 1244.2660054703247 0.0060280542033411075
2.430686769779358 153.37173672752868 1244.2491869260039 0.014393946053293196
2.4230523612413184 153.367845388057 1244.2518390540472 0.014182598371214668
2.396881854436714 153.36216062277438 1244.2431778492714 0.005509257510858487
2.4114110304596355 153.37341463161255 1244.2200126669122 0.005674787843790115
2.4396888362014946 153.3612020488943 1244.1918685300054 0.008618280847222111
2.4563278042130006 153.36397715929982 1244.1895744237945 0.0245010823897697
2.4607707577702516 153.36932798520024 1244.179554643258 0.01232150289972944
2.4687537219934494 153.36676215308958 1244.195316206165 0.038552283646940036
2.4439461789948513 153.36550066738806 1244.2826777780754 0.0061759430787250375
2.4987518478469632 153.3701745578892 1244.3358349226385 1.4469556239978465e-08
2.476596180143987 153.3641714924877 1244.2979607805262 0.0013415809085987784
2.358676864882266 153.36389435483608 1244.3229252592384 0.007457602219723156
2.3806474056081206 153.37085951890123 1244.3249710394066 0.009767128634958362
2.38850422626136 153.37603353871305 1244.2883223748065 0.003346135395383811
2.483335348877296 153.37444158773073 1244.3420913465568 0.01200828469022232
2.3846115010191604 153.37159523767912 1244.3234396639186 0.019298220513050645
2.4567808152869763 153.36715890691445 1244.341963480725 0.01034002819250139
2.411648617226278 153.3722940119759 1244.320640403471 0.018858221028323345
2.3940101963749956 153.37706845764785 1244.336252172727 0.0122189049637803
2.393586708283784 153.3708043421851 1244.347651645211 0.008860143372492425
2.4496532050536564 153.37541503569201 1244.3248300517673 0.018737990050898858
2.4219398907581544 153.3714933905593 1244.2810458451277 0.00446568959895019
2.414480804542586 153.36670996462024 1244.3024311077686 0.0034093215081033392
2.4463780640623574 153.36544841478178 1244.3493728604615 0.009863418730157225
2.426839679016994 153.3699193576171 1244.33015688283 0.020347248430025215
2.4085179369134746 153.3664951819704 1244.0707545668508 0.007295538804530447
2.4665763778558616 153.36702854283786 1244.1108527926722 0.08476395903653473
2.4355294924417032 153.36998018456208 1244.0960229735547 0.006915205081337689
2.4454525388448483 153.36825834657753 1244.1030142829193 0.006600523482013617
2.475850678743501 153.3700269101771 1244.113273561148 0.05045534074390308
2.4127016608979868 153.36773462360043 1244.0686071167424 0.011415566757204726
2.378144795903602 153.37202089016074 1244.0864873629334 0.007148715390294357
2.3931186430481315 153.36560041688094 1244.132711143966 0.004482963137454246
2.3568257999940663 153.36551898489813 1244.200301721527 0.009877789235079735
2.449543930685845 153.3740666097266 1244.1548627723014 0.003509486513112465
2.3763879036604583 153.36054068937912 1244.1228751283288 0.010666554200729516
2.3995267011961747 153.36911646541185 1244.112138685701 0.011188318917720453
2.375506446482205 153.36305916877987 1244.1038771827373 0.009467991692016663
2.412045357438095 153.36531015478005 1244.1786601642311 0.007040693549426732
2.4165843590005696 153.37113479046462 1244.1291022318646 0.004238386538483318
2.381058647063526 153.367842960608 1244.268654984307 0.0021273420618327502
2.358275128652249 153.36960556625698 1244.0675173159411 0.00637341676230447
2.394523110248879 153.36686755745444 1244.0878287453497 0.009769988189546514
2.3754212952617615 153.36885092086703 1244.0901072166178 0.009650657678630473
2.3898112234946 153.36313383726977 1244.2027282262072 0.00809058612015953
2.365314777237713 153.36514863074464 1244.2512282676357 0.007570090417797061
2.409314461833316 153.36991055178055 1244.1596898810367 0.0068271896663303
2.3864759771154773 153.3640448587129 1244.2376489531391 0.009940322325913551
2.3715235929194582 153.36900132273118 1244.2215049357333 0.004998869007640365
2.425941712152705 153.36530630564238 1244.1891370322287 0.012556068723270175
2.3682494522125177 153.3705215717941 1244.0581792680298 0.012044217525925707
2.37254685766004 153.36347201253403 1244.193667386613 0.005986145229641256
2.4232072489866954 153.36821231102562 1244.175635850427 0.00956874413609548
2.400486374564367 153.3679949032011 1244.206367824872 0.011401603980312628
2.394915815224709 153.36745433463688 1244.1055576910217 0.01525641489913911
2.3745212686990693 153.36191587423696 1244.1342318531028 0.0100000021018853
2.3734707320015405 153.36877214006864 1244.1723116880125 0.009503800101418658
2.380940320253411 153.36566467895975 1244.2500751635046 0.011160726825361324
2.400996253870036 153.36647628582114 1244.1593497656959 0.007868299226830964
2.436076229578764 153.36537358876762 1244.1150030123144 0.005239572404682936
2.363973018221129 153.35957865406706 1244.1138298902927 0.007566206396891182
2.373057450954095 153.3627977817412 1244.1504239389944 0.004086681709773719
2.3969032350085633 153.36721357422536 1244.2272592385782 0.01373832696308587
2.4309877997918306 153.3687601916134 1244.169666302811 0.006801945674237384
2.3945108243640365 153.36988056141058 1244.1777989204265 0.005802503564429481
2.4116744436384985 153.3640780357417 1244.1002361450464 0.006630573935629965
2.2954216938235494 153.36724929484257 1244.2193906726484 0.009588273376384042
2.2940165259070335 153.36774144376156 1244.2311154406875 0.013749150186124576
2.3209679653933186 153.36798779004263 1244.277825395611 0.0175609712180815
2.340386146096684 153.36642607592788 1244.259967723986 0.0021374005417815183
2.2746639118173255 153.37020095708849 1244.2115661462376 0.00428325441987041
2.28818732184924 153.3689764302304 1244.203397401953 0.006369299686034518
2.312593803845966 153.36669369996991 1244.2471819207208 0.003247479981895831
2.2831281550637392 153.36993203722216 1244.1594422880908 0.0034677478660044988
2.3211285412913956 153.36511745075495 1244.2215970918808 0.0076055936106980745
2.3048159511097386 153.37082689731528 1244.121749109784 0.0035162852263610368
2.317078641750244 153.3698753846078 1244.163451957693 0.004822370027123497
2.3449141543624346 153.3673734119674 1244.1453634683533 0.005636510606844716
2.3466020271888026 153.36709594348036 1244.1300058567883 0.007672993501512411
2.253691351898678 153.3627662404302 1244.1659957369006 0.04217688455466851
2.354229380740434 153.37121406156564 1244.159078412751 0.004096314784087594
2.322749856942402 153.36464106928847 1244.0957373745032 0.004420856476356865
2.348921763028535 153.3673778319645 1244.0939525532267 0.01108804569397096
2.2938803465682907 153.3672729340535 1244.1824947713276 0.003689413006517033
2.2754617731527658 153.3662487226012 1244.1732839204399 0.008259919631153707
2.2736898989772993 153.36818019535878 1244.133360323129 0.006766161274684824
2.3572852041629697 153.36833708311778 1244.2120565221633 0.005149467304848419
2.334840246460302 153.36200300648537 1244.2118194116922 0.008075202602618408
2.3289560915191725 153.365384356324 1244.1531065503027 0.006539153252107845
2.326634374626567 153.3610407803173 1244.2316840066344 0.005900511814195435
2.346001595972238 153.3630341914957 1244.2283997285576 0.005365713606942834
2.3481476662948846 153.37148108601758 1244.07894589592 0.008895087264730811
2.3269280896413744 153.36470475667997 1244.120198687959 0.00533745422262924
2.326979401796428 153.36780544806626 1244.1663701865725 0.005893395289822422
2.3249674802508933 153.36601151554345 1244.1536581393495 0.006919077276802949
2.2644525884166637 153.3641339691749 1244.1685358112104 0.05867599880159459
2.362850130989374 153.36468577367603 1244.0398326701638 0.005820868954394266
2.3281909553621336 153.36551887843606 1244.1944406384068 0.00443618731291778
2.3126845396092395 153.37103470055067 1244.1345753389005 0.002939019541227311
2.2913262444190203 153.36921490690986 1244.1493338096402 0.006419719708052244
2.30383699331082 153.3698424747173 1244.0975798140867 0.007876518022156961
2.3185009132452397 153.37006869419 1244.194490346813 0.0022079531175825356
2.3425487491525816 153.3649611290012 1244.1219739364 0.006899032789007804
2.336610178398308 153.37145786232153 1244.3020234453388 0.005843870987652107
2.3237726287725695 153.3640592051132 1244.2964503285116 0.0112027354128604
2.3333968604675643 153.3711425493184 1244.2786599789813 0.01119449584602395
2.354685053490996 153.36881473747664 1244.3105765316602 0.005032085338846162
2.333995153195089 153.36512822705336 1244.3164584027045 0.008884440319583133
2.3524414732787293 153.37155653502822 1244.2833158072397 0.009461498592881418
2.4444193623091492 153.3667248133425 1244.0594828129217 0.017373179928485773
2.441606612990837 153.3601550329239 1244.0406113366296 0.027541725054496046
2.4560327622160023 153.36347966558358 1244.0696699221064 0.015605627166884718
2.4244313934095043 153.36054984039578 1244.0335628617918 0.015310352309745734
2.473588973545695 153.37136199521353 1244.0358709143686 0.006479528602584552
2.4813327621465078 153.36254093544196 1244.0508230231658 0.004016319955223017
2.4456744969681914 153.36464364993788 1244.0529312917286 0.02374573361408078
2.392548890543841 153.36538003416356 1244.0469848415657 0.020126540326637462
2.4242559450178622 153.37291468716833 1244.0641946163837 0.007618547390607894
2.269511614048092 153.36586489318051 1244.105918006204 0.025665317457892214
2.2513822209637024 153.36579929824717 1244.1152216651471 0.09420796401317358
2.2618178162865226 153.36061737919042 1244.1486340262277 0.06362740589845849
2.2813758564823505 153.36629789193827 1244.117038541773 0.004126303273036895
2.2881281061102343 153.36766788689127 1244.0921082710374 0.005658460463352298
2.3015323750429024 153.37075860976088 1244.0743884432216 0.0038482296039309906
2.261373711495844 153.3655743620423 1244.1163976317764 0.11113351535878793
2.250539942625347 153.37288577630383 1244.05434047206 0.10075991796699948
2.270964636763676 153.36631652767906 1244.0819292594836 0.005223670743153174
2.302588184524291 153.3655263820127 1244.055492361229 0.004889915380064005
2.263628473522356 153.37034405372685 1244.0360618031345 0.07408598519623406
2.3290500927092452 153.36211202186348 1244.0464602502852 0.0038652152525658723
2.250054505103318 153.3652214436361 1244.0353145069932 0.06687990299794305
2.270679972209032 153.3695512624338 1244.053131281357 0.007268491619576809
2.2951372388892195 153.36769156361996 1244.042852613999 0.0012748079981212156
2.241876800001787 153.36635183789144 1244.0875988900304 0.038120666610602
2.2562727201903283 153.3602220845127 1244.2218679968923 0.0641321271421035
2.2540114967956435 153.3643698117678 1244.1724230799132 0.0461888603844464
2.2759416433485278 153.36506081645643 1244.241908927088 0.0154468902957401
2.279982588210236 153.3693033404028 1244.2580473135674 0.003522682609507118
2.2584351577694144 153.36606436939792 1244.1860830114158 0.04170126818773368
2.256749704027597 153.3584251671814 1244.2428039779568 0.060907656021869566
2.253614911391595 153.36001142517372 1244.263034972085 0.05749205913864698
2.251735613670549 153.36671570554648 1244.307033147173 0.00806318202720699
2.3027989338032167 153.3696259360168 1244.284712495421 0.009118449742699123
2.256413023965853 153.36333238344906 1244.2870250402982 0.033909951074428915
2.2649567304534433 153.36790170627472 1244.2878004274319 0.029607368314590793
2.31301814532911 153.3607514422597 1244.30022659032 0.007965481848532508
2.3502166731886183 153.3676965152864 1244.3534645806565 0.007172770500520788
2.2351650036753368 153.36847139338883 1244.3316394634085 0.0108319419600596
2.2814077053056976 153.3645513354791 1244.335819241971 0.005598624637876125
2.3433096583398996 153.36306578869807 1244.3313928728564 0.008693471003296954
2.2860486293019853 153.36720614862045 1244.3488471358255 0.0043250829350292164
2.2613136509758935 153.36472753740776 1244.3322066694673 0.006927662043945262
2.2883327332791317 153.36730768360712 1244.3092657881602 0.0055810482439632185
2.276638130223386 153.36517842780498 1244.291746135001 0.014085931235314613
2.2146759869950374 153.3679140460588 1244.3429911609176 0.025441942568369194
2.272250192889634 153.36758877389505 1244.3144499600899 0.0029694220247904494
2.324677444778148 153.37126718469094 1244.3550408798114 0.005455311262705317
2.2460629689175304 153.37592141653894 1244.3584514676772 0.006299044858314892
2.2761696888980705 153.37291603064736 1244.3680196970724 0.011865221608424596
2.3312687307331106 153.36965848434457 1244.390708558916 0.008636093014978842
2.3233076991530637 153.36729634485195 1244.382198361041 0.006032896964736668
2.305650604457996 153.37267498034706 1244.3558333208443 0.009935108231382807
2.2689158854621883 153.36974388725545 1244.3823233725423 0.013508573919496569
2.3436381037030745 153.36167952104196 1244.4053204860697 0.006817751341141761
2.361922571796623 153.36173996021378 1244.3990126724364 0.006320919721342433
2.2998622615018243 153.36886608509298 1244.3645428327773 0.008397604773287867
2.3552565471957085 153.37080751439785 1244.3612980794023 0.007760626829979696
2.30791160664756 153.37137359008292 1244.407926284487 0.004545118164277296
2.300905320212785 153.36770563592535 1244.4185108038387 0.013646587114185104
2.236577173452027 153.3671695742149 1244.3742116928802 0.006435904413512352
2.2176507609764604 153.36315710471453 1244.3832682455575 0.027872218522541497
2.331192334246712 153.3688830604185 1244.4001655914763 0.01069387425521322
2.2792425362144284 153.3711893207207 1244.3959862830354 0.004793487117548803
2.2466201391800453 153.36700867807784 1244.3817106986405 0.006502805766775645
2.216426439193024 153.36535504570375 1244.4011215292503 0.018771496778922613
2.232555328332739 153.36080018056563 1244.3887016283334 0.009489121480430103
2.265781194717903 153.36819322286655 1244.3908788183712 0.005526395344459604
2.2561868497803643 153.36608315027001 1244.4105317949534 0.010222426491578647
2.210153156894958 153.36371133904646 1244.3886512484771 0.06089820929825815
2.237398594671029 153.36337706881463 1244.4078510381812 0.008782586241646744
2.2088749400527776 153.36676333694166 1244.3643745149843 0.025831015296431184
2.5125806678896927 153.3664875094167 1244.4555292120258 0.0028520733153814507
2.4166490562252574 153.36671507036266 1244.421039212804 0.007544134353963908
2.391639480507548 153.37020932900998 1244.4257027982533 0.004228965789336377
2.3996885142878774 153.36594389561003 1244.4329780535352 0.003044425138407702
2.5017863489211347 153.36487478209474 1244.419803105906 0.005310771624906064
2.537593480552954 153.36231401098763 1244.4173232710343 0.04001112577832089
2.4854586998596644 153.37080895124953 1244.4495290056484 0.0010284029218168632
2.4697382989082577 153.36966493239487 1244.4203939388963 0.012455789441856576
2.5280274824668996 153.3735818682724 1244.4519390758742 0.015006394151745586
2.489635145124552 153.37171625754058 1244.4626489925354 -4.449030333306061e-08
2.527185814952156 153.36777053794435 1244.4406979477308 0.03713154963288928
2.456505807583078 153.3718251172647 1244.4361060898586 0.003371665606327166
2.3691245183324465 153.36841981489098 1244.435928308852 0.003814063037089915
2.358984354601264 153.36512343757025 1244.4266552462193 0.008021615159542809
2.3722121817777104 153.36924864760766 1244.4580518355747 0.006707885476149414
2.4252390711807403 153.37000082969794 1244.4439138781456 0.00486788590486381
2.438377244658691 153.36953185863575 1244.4108790577918 0.0059251953458789
2.479590759830824 153.37259718911693 1244.398190807745 0.011991966221415924
2.446592590066312 153.3638546568395 1244.394936037979 0.0016421750884231692
2.5072669092804367 153.36670156614014 1244.4142403693052 0.008054158178447
2.3614933549716226 153.3683740929727 1244.3610818513077 0.011992872311048026
2.3609893080554216 153.36575484088775 1244.3702912549845 0.007783130500262766
2.382798629515404 153.3682696008568 1244.3757635181246 0.012588224106309609
2.411349652345582 153.36415387260928 1244.3859655134256 0.005693154247714094
2.3698674965910405 153.36920244788126 1244.3933366782956 0.012105157495861565
2.486603664827653 153.3640750534545 1244.4135954348747 0.0030008026040766766
2.3991314455267294 153.37145642111875 1244.407282565297 0.008572884553489526
2.398353460123352 153.36173870214364 1244.3754729616114 0.008399354853738607
2.274143430236895 153.36308054888812 1244.4294409309891 0.005114792889781623
2.345018921507517 153.3640566409307 1244.4427020672126 0.0019810576451443876
2.3133346719434402 153.37093354094452 1244.4514594644927 0.0009302780124539411
2.2842065188836504 153.3707306939613 1244.4158664304787 0.009038211846513995
2.328170153467202 153.3634601084069 1244.4227691971391 0.006487663878205278
2.2397080048352502 153.36658121968424 1244.426276502713 0.009388755352479523
2.225889667473231 153.36961868265547 1244.4192233900749 0.0071125592885780695
2.210559497775507 153.36975164547965 1244.4165493072526 0.021250085151243266
2.3501906567353013 153.36776561392713 1244.4519594095918 0.005442059092692829
2.2044572273193657 153.37017813541607 1244.4561622397703 0.017608715463722925
2.215617445460571 153.3676435087616 1244.452804674628 0.008719988516678991
2.2042833480545383 153.3727426199989 1244.4201202784666 0.018819817577085285
2.2340559503739983 153.36460348872166 1244.4405155007603 0.0075534177943677025
2.2544175607632493 153.37057259228297 1244.4412398855814 0.010919995820162304
2.191395046957999 153.3674663269971 1244.4302646281078 0.023487338978098404
2.224533546404086 153.36737910981574 1244.4435738467341 0.010309128847792403
2.1882361335200673 153.37093182268794 1244.46215389677 0.03691578890665243
2.1931460469858206 153.364844467611 1244.4179006188003 0.09707566304327997
2.5332897115144752 153.36668765293368 1244.4131076226827 0.022145667375584616
2.507064710557886 153.36687939452915 1244.388607663724 0.008263009311199495
2.4188077502282663 153.363096060428 1244.3509841100931 0.010062021585311203
2.4500083305251934 153.36557754612966 1244.3619165518667 0.00964695846657075
2.4383070444317316 153.36637322781615 1244.3739492455418 0.005694056770018223
2.4220982760350847 153.3623117750242 1244.3648051690511 0.00904742085687604
2.495717457267505 153.3725193946528 1244.3753507356096 0.0010620342171749357
2.4323781429444042 153.36098113052722 1244.3520558864473 0.007459422975927347
2.404639978633206 153.3656358007941 1244.3563206331796 0.011174540717161308
2.4654778545541367 153.37211527659696 1244.3959063055565 0.010335489966104384
2.1730341792662946 152.97621118352907 1244.4532374000873 0.011093135390123268
2.182475876493067 153.26913486964727 1244.4186957218342 0.007854206295333939
2.175395478658871 153.26935898583653 1244.4597348603718 0.002221208758665769
2.182129499076082 153.180707206686 1244.4443118250983 0.011228825120441642
2.1744587125809796 153.2103137118699 1244.4245522160368 0.018339688640026885
2.182663773256382 153.1672354551127 1244.4433801699868 0.009820776484496552
2.1828534068374896 153.28198044706846 1244.4366136003682 0.007005513941166079
2.185307193081517 153.3628905170414 1244.4237782352895 0.060578190502742366
2.1860979293939558 153.19627354306985 1244.4185408332091 0.009754895828123977
2.1840346605017515 153.24674274774773 1244.4286352612069 0.0026546891499288844
2.1760406633646765 153.13740401961988 1244.4244622258157 0.028819169441122842
2.186061346584558 153.11320243306153 1244.4181298957385 0.00708906129539342
2.1862077804583646 153.3133645248355 1244.4222128705567 0.005713283640433924
2.1778132303055266 153.2320939168454 1244.4220615788558 0.011204493272415248
2.1838740077278724 153.26875305766563 1244.4280961971833 0.006167600757287775
2.1786253321181577 153.3511654839513 1244.4300475844775 0.06710657606781499
2.1735814584850486 153.36314661639557 1244.4542126562915 0.0341153120148218
2.182056348062226 153.1642359927016 1244.4136103817125 0.014980094545669884
2.1757548313680113 153.25618202875413 1244.4492085557517 0.0054889039690354715
2.1787475830008605 153.05724501915867 1244.419168565529 0.00330320012996785
2.1840463991254997 153.0264723599352 1244.4153151840414 0.012439939803327978
2.1800877308028133 153.01670721962168 1244.4311771290795 0.020139373530665257
2.174469487357297 153.08871295408008 1244.4420593455259 0.007176065100829535
2.1758328299759073 153.01194802664898 1244.4148873838817 0.002241202952631433
2.1699362801276227 153.14014172118493 1244.4536822133164 0.019414784856222306
2.1825987113788647 152.97949840014354 1244.4193513011307 0.011899736490014268
2.1787251118894444 152.93939933737227 1244.438350976538 0.012201756204074139
2.182006738813417 152.91916822447786 1244.432929292687 0.003988089249634767
2.1800165248968963 152.93174487591418 1244.4345818569325 0.012271043172378582
2.1774063932789005 152.91950663699532 1244.4198362505706 0.00477731056378173
2.183755011789553 152.9387558468077 1244.4143994064602 0.01174275413520583
