x y z curv
0.3358730024841621 0.46117387116581854 800.457382543936 0.0042518770867004275
0.3402896429757196 0.49018656734640487 800.4701727351706 0.008109882483137648
0.06706875760376134 0.4267533530936644 800.2244006160073 0.0019007014683268763
0.06446334327736508 0.4133575357250818 800.2248999339846 0.0033542722465810136
0.06327089479070841 0.3949362817205692 800.2113295091436 0.00219289700874694
0.06398786842205646 0.36444554748271185 800.2139327854177 0.006374097934344304
0.06411037434656035 0.38200554593611563 800.2164543943468 0.005327297175368302
0.06461834832632453 0.38629902628212537 800.2029039330928 0.0046804997444257306
0.06139422900845495 0.3565412656787217 800.2060409298009 0.0007474477072554218
0.06437078900596245 0.3416070594048704 800.2124285617139 0.005143638860363414
0.060971745156851255 0.3971588240833763 800.2403658560041 0.002208818633693612
0.05972538835316204 0.3399437009030332 800.2462320996033 0.00020042564050961657
0.06460193387195276 0.33495580625880295 800.2193129953381 0.005048539335759399
0.06184412439216977 0.3055396441924118 800.22555845496 0.0009614735066470123
0.05399561799517027 0.3090487527179779 800.2847239169628 0.0026507190694953545
0.056910423066752945 0.28649424703073406 800.2740253898244 0.0006512213989179582
0.059832833329043364 0.30265066598641593 800.2679192520308 0.00021105289016622457
0.06295456667805148 0.27934948776920443 800.2202058438124 0.007071923059241305
0.056733320739413576 0.2558173695690511 800.2616498936742 3.254393055117854e-10
0.03435573208720637 0.25451771616497765 800.3193195870547 0.001585139054692205
0.045284889130476715 0.27772962041334665 800.3020721489671 5.349209882639528e-09
0.03989664207758485 0.24258415414269896 800.3258947577247 0.00295174933596604
0.032042050619118086 0.22636265909004954 800.3671100507607 0.0008899052008076553
0.03604235943984058 0.22510019952230273 800.3552264129428 0.0014766346298298717
0.041442739431748546 0.23584970105620096 800.3320362429604 0.0012959137996167364
0.04605019240356304 0.2228357355978328 800.3178285501275 0.003668860667756747
0.041979271975497535 0.2179689589350914 800.3434080584191 0.0023132633409316183
0.06033695732267679 0.255188327223343 800.2299698105984 0.005520545673463492
0.058499702837136874 0.23500202354158742 800.259536620957 0.0028927171083257272
0.05124725203622315 0.2053202137024646 800.3238986174375 0.0009344498009368658
0.04178578316514015 0.1892965041068766 800.3532662707944 0.005895148106475184
0.03790284123064376 0.16313145024369868 800.3917691946333 0.00012238576320342524
0.031820379216234485 0.16540265185192693 800.4071011753889 0.0003740480236279675
0.05536939057161397 0.19752965992833177 800.2945302037654 0.005002840777252115
0.051037904152150634 0.17001912629866184 800.3204756198985 0.005024120410880029
0.03524763730120995 0.13715657809228612 800.4222622357904 0.0027449083982752642
0.033683588208710875 0.13602552202225132 800.4371394254065 0.0014367715751323741
0.04217354755646334 0.1518287053574576 800.3898944804623 0.0007381061680241522
0.05016580764827755 0.1671742684198272 800.3465331648324 0.0024549385035182
0.03760593778103454 0.11856385405880057 800.4422305501297 0.0006148277802364306
0.04399076666240399 0.11391424019975957 800.4345458969877 0.0027334642265881533
0.046155480162043544 0.1230657412288835 800.4148561247719 0.002261047761823501
0.04958318501422009 0.093161453326523 800.4636779931402 0.001235538341931957
0.049200021705652755 0.09045484618797235 800.4731122630025 0.00040299768936576905
0.059716007374518154 0.08572774995865004 800.4498852991586 0.00223398839733251
0.06250625995919905 0.08459995585004466 800.4365547170421 0.0017387000173956267
0.0691622024505462 0.07442341793944275 800.455310481368 0.0007670392857906716
0.0636551335769585 0.0498924866362256 800.4989694656953 
0.08447292359702145 0.037692822321566344 800.5104423176691 1.4705412253174942e-08
0.11360147197890608 0.016869764861923618 800.5529413766808 0.00016918325430123819
0.10021563570980929 0.024323624688565384 800.5271353795979 0.001437465241191258
0.12716969006352152 0.016296689846493448 800.5175014466857 0.0010439105090525582
0.11169320649322985 0.019867264065785484 800.5278720404726 0.002145599595900501
0.13510108101342408 0.010830156336117017 800.5365213340637 0.0003935160692909405
0.12230178887947948 0.012704204981593617 800.5668414092021 2.1263190690753464e-05
0.15357719464884512 0.010558501947375488 800.5148231785737 
0.13228438915005758 0.027003890851910226 800.4619206421078 
0.15061463347899498 0.027924823747531368 800.4377548599349 
0.16586340883770714 0.015472798819041098 800.4769857854816 
0.14063801902378312 0.055434712180500625 800.3703261554521 
0.12402578716679907 0.11917241509308318 800.2418338148344 
0.10887184360143129 0.14927271265896425 800.2058678309871 
0.15991196832460797 -0.0006766748976909584 800.5712098058416 
0.13921992333429953 0.005033244677814859 800.5891523340961 0.003472789893285959
0.15110800352074272 -0.004089544584313363 800.6171449215694 -5.998873342821475e-11
0.10808134234731857 0.015753120322394985 800.5964967911812 0.0002237383029922799
0.07078542379327592 0.044397377645049176 800.5726882148498 -3.170356348164772e-08
0.05434167104611444 0.0720793076527822 800.514858333149 8.601955065383539e-10
0.04426160299210173 0.075345019571239 800.5536967016534 0.0030356663978513944
0.05844399529124853 0.05527854483538227 800.5854164323749 0.015246972654218876
0.03579021723958682 0.09699473234805434 800.4989714010351 0.00344403663023931
0.03410280380799188 0.09572190414858474 800.518369738924 0.0022223584833819467
0.029458620412118365 0.0919222541285846 800.5519806365288 0.004783693704064381
0.029166225762276052 0.12852464454575732 800.4770719333834 0.0003342977368896783
0.025761013898603205 0.14077464716978952 800.4571098770296 0.0028994663788994898
0.020081101146766724 0.13633031493497558 800.4898792649979 0.00043555487328921796
0.021884120829377043 0.14771534263953964 800.4621747441233 0.004338679450036888
0.01517488103138169 0.14653927581183826 800.4913763056692 0.0024979802616495812
0.016181808662068482 0.18117554492560065 800.4396465130469 0.002130092348367296
0.014984945847866702 0.15979838932408144 800.4605604101507 0.0021084628355513505
0.017098772332812692 0.17048387565518636 800.459310614405 0.004759982096192829
0.014585112638491842 0.20831051457042843 800.430861601129 0.010977795739680463
0.024798220985189055 0.18605339848235106 800.4120032823201 0.0018035994371419753
0.021274470687148505 0.20029845230338741 800.4031712813286 0.0005060560692292021
0.009945530488457638 0.20264309063522337 800.4438758796376 0.004327124424702864
0.015637387479491942 0.2342141959542863 800.4287029813638 0.005618845383523211
0.023667773473320827 0.24193708721678436 800.3981921807642 0.005778038543909767
0.013708685391787542 0.22920016923061612 800.4259439574048 0.003996309804993997
0.022101117419845304 0.2527711683204018 800.38633856603 0.005493203591912364
0.026439352796767405 0.2729871988038539 800.3579925246332 9.445284773664053e-12
0.02844896486481399 0.2900047917239936 800.3401491858383 3.500953753039931e-10
0.026091800218181693 0.27749555913970614 800.400487585368 0.0026001285367376736
0.014851687923930561 0.266114276826137 800.4303012087269 0.005178844649261461
0.01657944494616073 0.23328121478569308 800.444441242127 0.0010286450685598595
0.025167164908331985 0.2950541033545936 800.3940383913452 0.0002771228726844452
0.03650311315363468 0.32087291101136506 800.3429906410305 0.007952181561146096
0.030569615671615695 0.29932488516213357 800.3736695846857 0.006209297967471602
0.05364535818715744 0.31447067648776694 800.2826308899714 0.002141577304734644
0.05831949894405959 0.3273846164420894 800.2639907390336 0.0047355082931790785
0.043433607420463 0.3245546796189297 800.3206782067401 
0.029223128822678184 0.329033098804919 800.3746372548219 0.01041392317524925
0.021762965548374428 0.32265509950571397 800.4023029057321 0.0045694423259879284
0.05683419350141986 0.34733635924122985 800.2836561554234 0.0003251059318226723
0.03159796963902166 0.35650304690103063 800.3587529805674 0.003554357186368548
0.05041951758547063 0.37933893354947007 800.3072618167865 0.0008086213622426547
0.053587265821450306 0.3618268288565523 800.2883607960003 0.005463388105688552
0.040631923407726644 0.3696041692992974 800.335260732217 0.0022041459976787914
0.04113355631502941 0.3517499649796844 800.3229425480703 0.0004634739054379822
0.06356648147256189 0.3841612933916263 800.2412658922283 0.0018104462537843395
0.05748779857940686 0.37893534635751946 800.2667144806088 0.0032937643674705113
0.06402989499893558 0.4181288465781605 800.2582649364377 0.0046867892569390154
0.06854868221155953 0.42877082622872614 800.2404067473979 0.000493229903654395
0.06322246539632441 0.4145571580173111 800.2686717987211 0.004237787851152482
0.05817352694534954 0.4462142609469719 800.2809952205673 0.00046945189059732583
0.061723430717656264 0.41790645512787705 800.2795490292253 0.004667874342514695
0.05678968520680765 0.4099064374848794 800.2987038558355 0.0010489955804598094
0.044584920187462275 0.4101110913860209 800.347287492232 0.00012492653738497322
0.05894144335289358 0.43005660274675556 800.290801705066 0.003080240536801747
0.03660983502394979 0.38564436851306005 800.3953487649947 8.856465847586352e-09
0.0304116479215731 0.33778951790142464 800.3953374153018 2.504406440015917e-09
0.04159765494995819 0.37802811891755655 800.3546712918358 0.007687445021320739
0.03839153913793844 0.36465321749739144 800.384101722452 0.004896608674823562
0.05170677952088142 0.39653097133811643 800.3024139056587 0.00041381476851082484
0.06848864073413585 0.4583910315679027 800.2461841973101 0.004082820099639039
0.0646484585849618 0.4853543186272958 800.2644852538342 0.12718291685022462
0.0631146811897784 0.46675552324689445 800.2793052043457 0.002882889826508893
0.06384205768136539 0.41524796976439665 800.2355404120077 0.003123740060308871
0.0696021280318152 0.463798194591124 800.2298868071489 0.0010576044117680638
0.06553350245130875 0.4805384943562523 800.227424194243 0.007972457075635563
0.0673870621500503 0.4633747104071492 800.2104682206879 0.009990887048381365
0.06786425783512492 0.4681445797217419 800.1883359082544 0.0014632098051455664
0.07152674279779742 0.4308668888288823 800.1807462802137 -5.457467419409012e-08
0.08070302539671197 0.504126124039511 800.175098907154 
0.05938293786664496 0.4920361654564158 800.3656978985715 0.037300499736811696
0.062059669499065814 0.48101032032239527 800.307618020213 0.033519716962415874
0.05797275292359284 0.4758932325102636 800.337650136693 0.011152612766039396
0.06074592534445012 0.4583044668467785 800.3004433490933 0.001580905328671317
0.05769821738063866 0.48495856486881456 800.3514282163889 0.028284498992150724
0.04553833959775057 0.47641143267870784 800.3895008287551 0.005244107499804831
0.06118495312773267 0.4590845633872949 800.2982482979615 0.0015360936594120895
0.04796462336448434 0.4500502778921521 800.3557805365003 0.00039808950516145506
0.04995752223750022 0.48258697947907203 800.4018143145291 0.028028827227160134
0.05673609135724191 0.44927122279353304 800.3166850289554 0.001932922038054616
0.037035305226410464 0.4457149774831757 800.4004113814011 0.0017244607148016074
0.042140336060048064 0.43514998646283054 800.3711979118235 0.0008382504268957169
0.04827528061796511 0.43273426937544 800.3494826182513 0.0001834217301051923
0.053307058556128904 0.43239567508920246 800.3262889875728 0.0003660002803311845
0.035865953190178754 0.4081550235215675 800.3983994748618 0.00695496199661425
0.05505141487809019 0.4979290056824997 800.4282181474282 0.026693832078221638
0.02946982029700263 0.4297962431541365 800.448840640876 0.0023646414115860233
0.03721710859789114 0.41066148185983253 800.4313977340893 0.003580530205305938
0.04340250409536154 0.47371348219839865 800.4500460898511 0.039357173111702795
0.026644924470661562 0.3797319247338224 800.4443437273359 0.009242617959631225
0.02803954062486192 0.38253446530334645 800.4217473763382 0.006127635471480114
0.00788879994205343 0.3495270205906939 800.4519973126072 -2.0492580619549397e-09
0.01720203613088201 0.3005785763236041 800.4373991664991 0.009560480506331485
0.010030739022618466 0.2927980167406232 800.4770521223152 0.005746955368883046
0.008850825672188558 0.28072547485992383 800.4727383542902 0.005540399793572713
0.008085782105742038 0.28688494233384054 800.4571618326617 0.0008658513976235079
0.011862240998783585 0.26559131186746576 800.4433483967166 0.004189189446513072
0.008714848804850732 0.26507718710199624 800.4716037832848 0.004658030984719554
0.0035239016183042145 0.26898762717054564 800.4949386746312 0.007969670031402368
0.0008576625746422976 0.2520055465834521 800.4999674870003 0.001155063875085353
0.015148027468927246 0.318880130579593 800.4737805109271 0.0028903232990927096
0.014222743101387105 0.303643163210779 800.4726355037517 0.004029005564360649
0.011000469671157823 0.29670425367607733 800.4873558018483 0.0036862438599642405
0.003963233446993293 0.28351975091121634 800.498632613179 0.0016196444720463726
0.005129675686371907 0.2473411651293677 800.5211079434557 0.005003405871552524
0.005397685461934917 0.22233366130048693 800.5227095691987 0.008726624533718353
0.000852788313864615 0.20646161401047286 800.5246604934301 0.010033845071844726
0.006824250176794772 0.21593880843453298 800.4799830517277 0.0002572158182561789
0.007506050202049638 0.19524244096532892 800.4946213282245 0.012680172856352803
0.010902049437404642 0.1945008385328275 800.4824480539526 0.006257873928253694
0.002150374652335832 0.2020954094103316 800.5076039995739 0.013921684803013493
-0.0027223940234653698 0.19134488745045344 800.5192449932315 0.00549103425685257
0.002105536196085592 0.20761373025813168 800.5296537138026 0.011648716046135255
0.0034295551820689124 0.2052484953346974 800.5512582377074 0.008553954887249167
0.0042232434948851014 0.18165235546005393 800.5543697775156 0.00798743633732653
0.0013773759607515366 0.20038723709046102 800.5593666048418 0.005576273478270352
0.005061488695206524 0.1879839498215389 800.5443741541068 0.006879419954214634
0.006179152870515418 0.17866210458541945 800.5012421740543 0.007796691117403367
0.009772750818476963 0.1590415342895399 800.5251123805485 0.007327550073560989
0.001313111493792778 0.14763932944462238 800.5696709583784 3.6515147401206867e-06
0.014953676677557187 0.11869006488605208 800.5772054407723 0.0009459809791209837
0.012520784136364267 0.12691463851617119 800.5288269305807 1.0002127443501337e-08
0.016633896366985406 0.12237676132868448 800.5431797318295 3.910784751867006e-05
0.01825645858938334 0.10086378246460502 800.6121266438176 0.01063838808885832
0.0241593246367046 0.08988927936926447 800.5797668853903 0.0034815826817081756
0.027512254476719795 0.0927653314950779 800.5678528925356 0.010695931675568104
0.04194756694563678 0.07094003213968736 800.567986322932 0.004008652836024338
0.06158625106438383 0.045522976334495896 800.605188878004 0.003140182158297304
0.0514116612095584 0.06856565368806054 800.600803612089 0.0041934106913910085
0.08229241324559987 0.035502757442937675 800.6134582958433 0.0068031880527490325
0.004253381737139369 0.1792730294026296 800.5972122498465 0.00309650445895934
0.005843542279487856 0.16218256970205194 800.5888239568235 0.0017101968470751843
0.003932911586618882 0.16151919257553932 800.6120694619518 0.00995753308420081
0.005959784932250917 0.22706382545051132 800.5542223125325 0.0046083735927807965
-0.0008302919277473385 0.1993685527122312 800.5753328242068 0.004993126113969671
0.005591268490347492 0.24226119661288217 800.5636674658629 0.006221602519001701
-0.0018660408208184265 0.2612059906905182 800.5531131535124 0.003467558056464496
0.0054745676371076675 0.24646854487611808 800.5412888433806 0.008948486556511029
0.0008900361591665847 0.20773260850374403 800.576072837742 0.00528033399349938
0.004566163626477106 0.2747243858268986 800.5549985870758 0.008951767618033377
-0.0010146196002082074 0.25633010452604454 800.5799808049728 0.007391435886942152
0.008978351471408103 0.3025910938055105 800.5159975296103 0.005778629109158031
0.005186226069566705 0.3153559070904434 800.527063111491 0.005048293898103942
0.006112844583933889 0.2980077804881641 800.5378532716497 0.009092359168723089
0.004992051498579196 0.29513782628724866 800.5622072712918 0.006905028333936598
0.009141663564665678 0.3196624403762639 800.5486963097187 0.007181710739816403
0.0005949093973015226 0.3017369212605959 800.5753654571095 0.0059521608177408
0.004349205486463516 0.28374004493104443 800.5802766140758 0.007044510285614708
0.02449290041342972 0.3837502704800137 800.5174026502875 0.004700029822925074
0.020563812181061087 0.3808454121384541 800.495235873221 0.00502539053313055
0.012255988121088503 0.34495306848656293 800.540268976118 0.003203498074424469
0.014884356551408677 0.3533671368375667 800.5256048481746 0.00500174025288645
0.008355451703667784 0.3296012792639986 800.5326526014402 0.006503129464548226
0.020949656277131676 0.3698324143268487 800.4822001929922 0.014068928956741176
0.017057097770235778 0.3508881465972079 800.4960797756829 0.0033302809774723276
0.01837319363897738 0.3350673649194053 800.495895962521 0.001731169948082742
0.015523463194126558 0.3227574001803155 800.4966373965971 0.002834981538401459
0.031185330814578097 0.4080322862500959 800.4964650743883 0.0036867833061432313
0.03149341043631964 0.42457992715715254 800.476208757906 0.0023835586168060485
0.02159258836439444 0.3999358897561576 800.5224834075646 0.0041529922529630866
0.029392096063798865 0.4348995915273234 800.5277585442631 0.00094121931986289
0.026878867335777233 0.41464970544579033 800.5148099070574 0.0046263660134202265
0.033452809135595396 0.4405354292229742 800.5048033677152 0.002269710442030407
0.021735505086033592 0.3933149165843804 800.535862391172 0.012017436158033546
0.02361907382162668 0.38185478105255405 800.5284206061039 0.00399045049198409
0.03383495412209321 0.45375000114099046 800.5069017378895 0.005078154483127963
0.03734064553356393 0.46447687179257136 800.5276128016563 0.0024135140482968334
0.04234279876360594 0.48041278800857756 800.5020926950968 0.02062422599646619
0.036228890278970444 0.48276451425278366 800.4842248161793 0.026676042496794002
0.0419535589687598 0.49657216041508384 800.4789228694282 0.020075878348613185
0.03799819156821396 0.45847436294391297 800.4793649923297 0.004836873289916036
0.030986341997090293 0.4165525938711707 800.4516324890849 0.013038674754421454
0.029807941141659675 0.39912058219022395 800.4653850279931 0.008192605415160491
0.03776628449116298 0.46271565679585275 800.449194623003 0.001305853597948057
0.043029536351896304 0.48162711555661103 800.4642047344015 0.030079049257288645
0.03486225011391637 0.4531006715292421 800.5330066736103 0.002439169143847551
0.03795478332745227 0.4889727382038003 800.547355911093 0.012351260369053851
0.04558307470169835 0.500666391281353 800.5409023152692 0.07323517843648511
0.039409737680862506 0.472054867765963 800.5455487877192 0.008070451785494422
0.043712748910103336 0.48881524835089035 800.5744744680177 0.07152652207300246
0.041264478701799535 0.4837522128804411 800.5848416550201 0.03912114268414247
0.03859537097181459 0.4736853660377232 800.5690031998646 0.013452626127155348
0.027745644678693712 0.4548827000746892 800.574745810615 0.0022179322992494895
0.03199986811719989 0.45987704056201734 800.5662853137937 0.005430064690443223
0.02998469934012498 0.4324557651692375 800.53747645941 0.0014704172654991052
0.029780796040703095 0.43220154876553285 800.5471533682347 0.002198774536442165
0.02821164486404708 0.426094669382254 800.5375718183028 0.0015050617186666314
0.024335001664582186 0.39794814166813863 800.5603517511613 0.007165961585870862
0.026380982425018462 0.4340312805254484 800.5776395988541 0.0023579001229229153
0.022825126712607707 0.3950044677785021 800.5915187286706 0.015386291711031999
0.02435452844062251 0.4105386758076214 800.5748826074147 0.012089130832860224
0.029249675968671503 0.450653939750377 800.5944295184357 0.005153407976127586
0.036461125546651256 0.47119116280441614 800.610006746039 0.005565567524793975
0.045379625248106986 0.49989721697426365 800.6057573697242 0.05246134776180301
0.023620671674243574 0.40595160329916785 800.5929443168778 0.004571089634841231
0.02160278298764775 0.40104037072669113 800.600746127153 0.006190043029849601
0.02660508654452745 0.45479966434696106 800.6128575950878 0.0019596847443554685
0.02336824661953336 0.4326192002832949 800.5983383601217 0.005225581358539364
0.01584361959611083 0.3822144527984821 800.6042955811595 0.01194067362793092
0.010648322140561998 0.3762856123473808 800.5693054321475 0.0018841209185118247
0.011024663221493047 0.34751248388997247 800.5865184486792 0.00845501516332459
0.004551744574706953 0.3357491669997226 800.6028547744431 0.0025791444983434752
0.011193625683098072 0.3511245265463569 800.6107492554362 0.004310219733232954
0.013368844791480303 0.34652862745345614 800.5750335940909 0.004863899891501898
0.010897354400667658 0.3214638851596793 800.5620715466144 0.0052533151452424124
0.013167607775905765 0.33365115456940025 800.5584269802588 0.004289119528966017
0.0009393649280788523 0.30985859526931725 800.5962584536809 0.007670623223770097
0.003649337552856406 0.27371444348089363 800.5997877850992 0.003655389948551923
0.002534339807297907 0.25736242045769286 800.5866227613312 0.00795305482960256
0.0008493240630672878 0.2372506020317542 800.5899614720926 0.0078681588049281
0.0002443980159306399 0.23975102883269275 800.608271124407 0.006758255137281315
-0.003315173581831153 0.2269072525829497 800.6106267526876 0.00519435111252431
0.002517046944870706 0.20900218123411646 800.5953253933571 0.005008126306760347
-0.003423921004159311 0.22611693794607107 800.600852231084 0.004793243555142166
0.0012872859416319154 0.19876296973388846 800.5913634900421 0.005084519946916591
0.001930713281358572 0.1864053739591633 800.6143045112491 0.002675119964861367
0.09588578173140798 0.10595739019418783 800.3341573932028 
0.09045397416987762 0.14099993925432486 800.2780724604355 -4.4005295379784375e-08
0.0857323005509954 0.0995082396022498 800.3688082781038 -1.5482315441186035e-08
0.07591855924426068 0.10305210493342501 800.3863831524905 -8.006262262132252e-09
0.09530941139284012 0.11932923574107289 800.3058133604669 7.631693699158805e-06
0.08046106777155382 0.14306927735813996 800.301030655178 1.382081627755141e-08
0.080108249114882 0.13840430748496635 800.3122057922454 3.110774267917665e-05
0.07425460495393243 0.07228603420492946 800.432539021874 0.0004161647808058433
0.06019882000770714 0.10985816945411819 800.4072083652277 0.00042050592999360453
0.05919849500463674 0.12657395440415917 800.3632167543856 0.0012655849249851223
0.05425637295609871 0.13508785057242015 800.3738984411393 2.3908471348816988e-05
0.058381006624601176 0.15334582489422718 800.3371761722448 0.010683850363129428
0.054589751893924586 0.14999355486424137 800.3578358653198 0.00032007821555135986
0.07619577347471224 0.18974709919900676 800.2320683227483 -3.1098727267692117e-09
0.08432431278038664 0.16661944216554353 800.247139652652 
0.07136511721108672 0.21452579813998282 800.1924809695054 1.6186728280589713e-08
0.07366703416628387 0.23528324336367562 800.1861076710672 0.006409815145625488
0.06830949059471922 0.22895906641172709 800.2098280971164 0.00467514924924298
0.07210533399481205 0.21964499681660465 800.2283529895968 0.002129588240351485
0.07203160711437462 0.20351573531030467 800.2385836365578 0.0007510641433287118
0.060610757765600355 0.2023849673334918 800.2788790974836 
0.06251089062722709 0.2715574299192138 800.2152459681206 0.006758274746367326
0.061431788182056225 0.2653808354461387 800.2092021633895 0.0026482439372355706
0.06637435999759524 0.2908739868542024 800.2102309886333 0.007912597589525897
0.06877393079302141 0.30186473834894345 800.1872844000811 0.004439003923201493
0.07412948340349539 0.271205262125711 800.1872245592106 0.009250899321179262
0.08066403076909591 0.25380715172787144 800.1789646814655 -1.8357893647466028e-07
0.06965677878002455 0.3103508346950012 800.1782272730428 8.742466240913929e-10
0.07115782331317345 0.32845038773853924 800.1904588512813 0.0051544825887495
0.07057485046072402 0.35862535289305264 800.1876661407516 0.005899880695705942
0.10483003943201799 0.165932993242947 800.1773992846022 
0.08202976365435373 0.06741511717626415 800.4304178957954 0.002158765095801211
0.10171857494027857 0.05966114997250717 800.4012457395996 
0.05588420627372375 0.06422247609088139 800.6182876884661 0.014031771990085632
0.004404249658594378 0.24453390900249566 800.6178326103594 0.008556612140799311
0.039620541540275264 0.48827856804962805 800.6168903685153 0.06888381932439845
0.04512536128738015 0.5024892674801945 800.6183560441631 0.07808905791427832
0.023839346681387867 0.4430068207574254 800.6080920518831 0.004707333208261645
0.014414273631196354 0.41191857258975473 800.6213554589975 0.024076235186152872
-0.001400297187129959 0.29468163368356026 800.6069999327322 0.004194955153289474
0.0014005350184818645 0.27771881569267715 800.6098672998083 0.004573737586598981
0.3280406838429935 0.49843481381126814 800.6295205582159 0.13011632185686592
0.34167465204412134 0.4900888252577954 800.6214535370342 0.15082887686147647
0.37626761304629874 0.16381669439392996 800.6266346247313 0.008519034364278826
0.3292727008647738 0.06848462978249927 800.6160148937583 0.02080448298022928
0.3075146889722245 0.49696256439921227 800.6167538942484 0.02170852174814301
0.2552939562202564 0.47679062830737845 800.6290310810758 0.01183797718292869
0.21539870632078456 0.5020491940710015 800.6241627716682 0.02370267289232482
0.189327627486306 0.47169989627732656 800.623528816383 0.017826734372068626
0.17856182387174055 0.4852036665074731 800.6186728252412 0.03849722866476192
0.19465423858233125 0.501955541606971 800.6091691019064 0.05611590464212257
0.1990864635929152 0.49368558233776655 800.6165464279708 0.028333490696871893
0.14825871792769132 0.49706752517918557 800.6241463502166 0.011840098931205224
0.16037852633544397 0.4862384178746311 800.6233961173502 0.016181236747605014
0.13714378841565467 0.49644684022746305 800.6297711044845 0.03619704206033705
0.04883610279797772 0.4946205220493577 800.624529531081 0.12753826001990834
0.12925960631850514 0.009010358841912335 800.6245895980333 0.008495803082227797
0.1751380498819196 0.5049960951334052 800.1810488189352 0.008216587214040266
0.19265628928041684 0.4988635239466425 800.1739873040891 0.001786363604093881
0.14215103918566485 0.5035039379891697 800.179063316382 0.006430997067795637
0.07306226095067872 0.4086879300157001 800.1758768979946 0.0026590497440062465
0.07896594990904401 0.4474531699746128 800.1759674607898 3.566898576109021e-05
0.29334107137349663 0.38680072208713884 800.1691388114568 1.7462119571209783e-06
0.2953174018735818 0.47393818519048125 800.174384769207 0.0207225985496258
0.29861225526681595 0.5010619725413273 800.1792295386662 0.030281398503268057
0.3020615966554104 0.430882321782207 800.183174789734 0.00031317031602711993
0.23020700363705765 0.5042334502514353 800.1826664248459 -2.9107093280047947e-09
0.3010643097023887 0.2863721447947376 800.1764061459888 0.005580973047700196
0.2980153021907979 0.2615690454937666 800.1859227493961 0.00026734929416523444
0.22898290934203802 0.13385368793243474 800.1809200837686 
0.17819756662980932 0.12406632147432395 800.1767289502078 
0.23979363587085156 0.14938141629471266 800.1786420169047 1.1373084481709354e-07
0.24894742412200163 0.17167651638361342 800.1699958581416 5.596344769073286e-09
0.270212930251784 0.5044921932323941 800.544167125648 0.012456123297064687
0.25173545250199536 0.5014371913275394 800.5539401140815 0.009387377631791887
0.2798836016521859 0.5077003753765262 800.5323395543099 0.0061142425755103865
0.26825269500687593 0.501951575893956 800.5080631204864 0.005243408393095048
0.2855528885459379 0.5053168218059544 800.5472130983883 0.013335777070772001
0.2785390192969885 0.5036697980664471 800.5096002514651 0.0036098211919597008
0.26643332412639215 0.506124261610656 800.4913081422201 0.004673486983760951
0.2660734766705262 0.5025053171812653 800.470156421032 0.005140043682085541
0.23375714983546664 0.5014927139291081 800.5130685373849 0.002195441739872673
0.2341302158730283 0.503400740365401 800.5310495471127 0.005324737756679682
0.24159910117341113 0.5060258533794441 800.4966814838773 0.0035607084752457044
0.2157203026817621 0.5035228356887144 800.4493478237163 0.001947405160146629
0.24705044325169748 0.5075612268125412 800.4923302598762 0.004803781546738914
0.22029042584103195 0.5043730533942642 800.4972073858668 0.0036331518557144796
0.213800813159626 0.505460490204586 800.4684032378211 0.002393030668469187
0.2286789560834183 0.5056552033812951 800.4432280702705 0.0015846199551895535
0.23803379080908882 0.5024279644085367 800.4463677168502 0.0026564065904452895
0.28253449059441804 0.5050054856334063 800.4707355654975 0.0050468427697027245
0.26587260133143154 0.5042635825902254 800.4493870492075 0.009766253213081359
0.28644048615568857 0.5068624360696976 800.4615812252993 0.011683905871618196
0.2554119457156197 0.5003338076843648 800.4379962455033 0.004902819887903235
0.20756415618345478 0.5071091880696702 800.3941784246093 0.004285404658619177
0.22359956683783838 0.5034093323542441 800.382576967851 0.004076753028785267
0.2293008008853912 0.5023743012632429 800.420928194449 0.00490402332716335
0.23553749932337553 0.5054775963571189 800.3970686243571 0.0022977511875137764
0.18359433043456527 0.5031664299285362 800.4422086496489 0.003087530759698159
0.20267164941783058 0.5048311161376535 800.4767952672498 0.00809012255934659
0.18442823068315572 0.5018597988420244 800.4602378340334 0.004728780493188106
0.17164717202191604 0.5071997626335673 800.392817540182 0.005132977655199777
0.19751513320347389 0.5001862796928171 800.4219460875019 0.0018718216622940784
0.17203590695088614 0.5040823486234822 800.4010803042743 0.0049260314812185815
0.18295050699260898 0.5019932262724994 800.3673255527503 0.0050560697097502254
0.19416643546907733 0.5029546176442241 800.3809005807075 0.005139758637576457
0.20002384600511178 0.5047671431967411 800.3883631358624 0.007044719702881464
0.21150052963238655 0.5030867338934328 800.4056833581835 0.004357326206844829
0.22533367398061827 0.5050936527003187 800.352055839843 7.2954358301832466e-09
0.17124573937097448 0.5080957689487119 800.3175538136464 0.006564732376750305
0.18308493215423335 0.5079849630976943 800.3239490007405 0.0030632311234779852
0.19719417659058958 0.5080831506702764 800.34803257734 0.007126471346346245
0.25791737506223583 0.5025768204383704 800.3806963126517 0.005286426629065837
0.28766863009824384 0.5070359345451244 800.3697353450848 0.009758704832052397
0.27649855897289416 0.5113750448543003 800.3972638426004 0.009625651390956301
0.28672477154968967 0.5142388934203235 800.4260646191051 0.007687965113935025
0.23918717710979157 0.510088803480394 800.3468641890028 0.0007615845934047172
0.24051674885310836 0.5115032545512337 800.2977356029369 
0.21584774476456098 0.5091808173103399 800.2959218636516 0.00010325929174403423
0.16583054022057106 0.5041100090685284 800.2545611011648 0.001196096290725763
0.20750192082181804 0.5061502829107346 800.2577448354373 0.00280559101473971
0.19080064997651697 0.5044347438608896 800.2763639246994 8.071795107797557e-06
0.15786274465540684 0.5134776324886621 800.3459710016066 0.002699152413530423
0.14770948482977345 0.5117077782422227 800.2868256703276 0.004217613029420901
0.13819423682842674 0.5095160101654034 800.2608858427344 0.007343722932160042
0.16018272893697666 0.5069902622876457 800.2931732818175 0.005351373500283183
0.17502188052199635 0.5069191143345555 800.2381877493877 0.003898582368265391
0.1896323178311518 0.5058309457304855 800.2281050041894 0.0028244589815265312
0.14184702868995375 0.5110087282087679 800.2462213430466 0.005722813772474634
0.1361677322123849 0.5064790753173106 800.1958659065173 0.008977811851748242
0.1730651700513992 0.5093519697558189 800.1984637462926 0.002232072524347268
0.22989074092510478 0.5081528788601024 800.2585759974223 0.009301107354878251
0.22920533559020642 0.5133833866016412 800.2328270617388 0.001748312083506142
0.1900930468018111 0.5048863435551195 800.2177525391811 0.003028960710102268
0.19542723984963234 0.5053432630123588 800.1955332446988 0.008698905088656428
0.2596832940468646 0.5045650990011553 800.2502574167257 0.0043627314880403485
0.28720789974876476 0.50389311758251 800.2722822862652 0.050646445489587355
0.2602516200656902 0.5095350300667352 800.2707653051779 5.130105261255372e-05
0.24839652027008044 0.5100100966354589 800.2227904555014 0.0003595684103280207
0.25028445751829076 0.5107914403199548 800.203156269801 0.006475986307800659
0.2661481942105446 0.5079510470818779 800.2115759431198 0.009087613376400058
0.2778088338539354 0.5021676907907182 800.2410156785555 0.0202699697147475
0.27416592262909784 0.5101421023737587 800.3312542367906 0.024206775400458794
0.2790286009158686 0.5145377313524404 800.313451250448 0.0013136270814566632
0.3075522696488905 0.5012706819981693 800.2694191757953 0.024519975176591886
0.3095853190415964 0.5023591229272442 800.3671560869062 0.006819278476036322
0.2931555991248196 0.5033253261508595 800.3318212310036 0.01950071770970027
0.2984437951235167 0.5055104512239942 800.3972310558134 0.01016983934034757
0.2911345269624347 0.5071584513276197 800.3589616627496 0.03531054321662244
0.3063075743138056 0.5033153229727187 800.3834278449876 0.02110055748777468
0.31011637777371404 0.5060255033928356 800.4262773723747 0.010402403171358899
0.32483242409230895 0.4958497611160505 800.4078531454112 0.009820680590237928
0.30611528326622867 0.5084001932980524 800.4447805505117 0.004681297507630234
0.28923319455693197 0.5029750710727895 800.4841660245555 0.004312130531718282
0.32187526577029213 0.5035648303479381 800.4662413560052 0.03744640362290125
0.3171896901572098 0.5070443155841614 800.4956053059016 0.052294675682498355
0.3074671483208375 0.5083281780004106 800.490217079128 0.04300909794395729
0.31161671614031616 0.5036335759722402 800.5169853806415 0.04730251985349304
0.3129007712238628 0.513403259062234 800.5520117995127 0.0045505471275441725
0.2767565200388699 0.501424115873162 800.6310036508628 0.008733320789394204
0.28440674992974885 0.49575200545752746 800.6099640413495 0.044716440022343165
0.26202734997894833 0.4974374392937196 800.5707218627101 0.011082195689655128
0.2741514529881116 0.501951051216746 800.5586536228167 0.011883762621983393
0.2764631645832787 0.5029118396155999 800.5883502369943 0.007620302827542645
0.3097189815508264 0.5054132321960172 800.6005176876964 0.05598957523914498
0.3156747418363434 0.5034457603388928 800.584610897579 0.07973659140350696
0.3332538000797903 0.5016031285717322 800.5960197020307 0.04938486065208766
0.30295692109697514 0.5011095375109192 800.5735976923468 0.02647466188499279
0.316586787992206 0.5056105485813331 800.598563497407 0.06341667093422897
0.2461175574811912 0.5037571909843594 800.609244015669 0.05281162911791681
0.25015573749978404 0.49739457744501425 800.5697735546892 0.008939960350038308
0.24123170152137294 0.5000991541883678 800.5952622576103 0.009165925241176376
0.2215852452386814 0.5043086569408718 800.5360621040504 0.004348940924794566
0.20552732050552444 0.5074867361081459 800.4942238737963 0.00804594068319041
0.2382420957146328 0.507706369344981 800.5548112408702 0.009061453316421783
0.24104222834750327 0.4991889568171389 800.6175354842126 0.08900327899382461
0.21611903383258732 0.5048367123498269 800.5704029411793 0.006226636491408976
0.20786294272411937 0.5091927576002835 800.5762771832274 0.0046184222959174655
0.21518276937024636 0.5075084978496204 800.6081802262285 0.013354949287865478
0.18159315102970938 0.5081864063659927 800.5509174695055 0.010516921378084285
0.17610209076845396 0.515293804596397 800.5241343936383 0.003961450873032893
0.17506378342196946 0.5146812217077957 800.492579092908 0.00933369705547218
0.19392636761731272 0.5047459238444789 800.5995831237418 0.026578241393074013
0.18483555796802 0.5065059148341209 800.5760416351955 0.0055792279347655445
0.14906310655878333 0.5055361281391189 800.5116062042335 0.01043835372528235
0.14301792067862235 0.5048722364382573 800.504163838145 0.006940720883465301
0.14723627340342704 0.5073894159870078 800.5248728276389 0.023831875175363594
0.13602708520580936 0.5048176205446724 800.4834462905976 0.006667455188088481
0.15647131803080858 0.5109574956128529 800.4842331305584 0.01848049415751527
0.13561195250598362 0.5078555681494653 800.471092293858 0.005729075919074285
0.12179496484184257 0.5020154363950969 800.4326055768607 0.008219164810866467
0.13408188204918614 0.5049133998281894 800.4383351200418 0.0012263765550884704
0.16537988562447384 0.5053104444283831 800.4667702813999 0.011136687148686823
0.15780605844387496 0.5028643366021445 800.5388430258085 0.009461465729329066
0.12433668341015575 0.5064788547806895 800.5186200197187 0.003305053481329639
0.1476440795745624 0.501861488205822 800.5645631303727 0.004972387333390654
0.1652768814867837 0.49981386149937596 800.562561739295 0.003112369188057054
0.1616526883352568 0.500094526752773 800.6012782110521 0.020943826693167352
0.17195022225741857 0.4973321036235122 800.6036659788738 0.045738950757011954
0.1392158896867362 0.502650816087998 800.5721012734591 0.001740773649012515
0.0854525004638507 0.5016158837862504 800.4736753456099 0.001954263505476076
0.09047429611476128 0.5055767709886374 800.45656271763 0.015854181559751535
0.10099519798127525 0.5092439231480514 800.4988125900741 0.0009157893612968984
0.12374918001362661 0.5030130234848077 800.4560593310077 0.002348330174649453
0.13157650596615986 0.5041829307803504 800.4288745891696 0.0014038026165102348
0.1218911614944379 0.5048685869316711 800.3810517970697 0.0011996499860188739
0.15815274404862165 0.5060382512948617 800.4257652413145 0.0037896411163917407
0.13476579307312742 0.5032527664926867 800.3992179132827 0.0012447461668290047
0.09005793158949137 0.5024267925365142 800.3984066883872 0.0063139200486234245
0.1101784326634293 0.5040203334819818 800.392458489985 0.0021875289917505174
0.12785768652867277 0.5028413716485265 800.4215726100749 0.0010723872219482282
0.15917545439044925 0.5063246617523756 800.3800409166371 0.007086259394605298
0.12935345353731947 0.5058601161686084 800.3898117739166 0.0007977527472845697
0.16294702990290522 0.5063721493235628 800.4322913249634 0.002154513061045846
0.1476983822405797 0.5082917700104947 800.3301404939698 0.003363903090366264
0.1344111264932872 0.5082588835946831 800.3452370700213 0.003120493564223461
0.08007653877096323 0.5032399546057493 800.3649643940083 0.03259311556539031
0.10462691827271857 0.5052822608509473 800.3410106310386 0.005059089462018265
0.09673126770989966 0.5027967353434488 800.3578043322053 0.009497154899610918
0.0978039914801237 0.5065367720664254 800.3105004853065 0.009235595657332365
0.09633219714684477 0.5051402214046157 800.3271779200977 0.009841924500896888
0.08889005906200864 0.5133066847450146 800.4290053125743 0.007825169230551472
0.0795340719410296 0.5062340833833624 800.4117442343471 0.026199783793049675
0.06701192718448915 0.5004425580402067 800.3809590529243 0.026959185069418787
0.07858048627596009 0.5030753066958102 800.370949340907 0.028515939542602273
0.06593866823776154 0.5019815001809101 800.3323154390456 0.041841406276599546
0.07548646514780956 0.5074563424056315 800.3435587125415 0.03632366601740575
0.063427719833877 0.4974035518545202 800.3026364969984 0.04995750942520209
0.08818415028621523 0.5104147771766311 800.3139265875678 0.04430715817655992
0.09480339286651307 0.5051529434709956 800.2709290907768 0.039035135849504465
0.061183733536830924 0.5069179242405711 800.2603659245748 -1.0045776691006566e-09
0.07138669877441789 0.504501843437128 800.3034184663625 0.06963945770803207
0.11601813985690194 0.506180372990648 800.2913697692157 0.008287427645292422
0.12909966838156695 0.5040822438631503 800.3038836698805 0.0037593464311673716
0.10939260857578631 0.5040898803903832 800.2705707226631 0.005248291699754921
0.09339642860506576 0.5067278569001057 800.2490217400162 0.05580910222383163
0.10795072407153979 0.5038304472190166 800.2109119013039 0.011655365157366916
0.09643010237971744 0.5048623742491455 800.2069421889906 0.010031680167976453
0.07779826243949249 0.5061256965843354 800.2224713979334 0.030485596136740532
0.1301538178338768 0.5040105552941596 800.2255332231344 0.0034084886864587435
0.12661539939714922 0.5103731889260118 800.1861122185366 0.0018771067673708003
0.11510851317245918 0.5027989413908897 800.238966228164 0.0038329657268615118
0.07341937126938909 0.4960960870810623 800.2041720761065 0.08422638043556174
0.06159110938512163 0.5020073122576381 800.4109341660362 0.019054643975764163
0.05908506312285274 0.49859679449409633 800.4477517978485 0.04096460795476024
0.06566313327829731 0.5036041050293117 800.4469127524944 0.02936490550532886
0.05883601309874004 0.5035143553596462 800.4281996048943 0.013012099129886556
0.08382140273757266 0.5054144058233941 800.4950646374771 0.003853700957477466
0.06148173432623297 0.4995924361285902 800.462363394298 0.05133072115898354
0.06117982498313361 0.49877906383833903 800.4710269206957 0.04205575674770014
0.054582334836090526 0.4976080955098995 800.4812223278394 0.03926931649995906
0.11487118642069885 0.5017624716995727 800.5519381196234 0.00034532166219127615
0.1035141859855931 0.5057847618383438 800.5334171035141 0.00028959479736254145
0.08112972272324971 0.5057175937159414 800.5433787067341 0.004245831593203188
0.052747958977301355 0.5031689467802823 800.508789599602 0.03600637085090209
0.12304436914705918 0.5035029820877125 800.5683638182056 0.0008252753992820927
0.1408236817193832 0.49862282558717475 800.6120438564507 0.012653194191095557
0.13226606469487023 0.5012542983334455 800.5859974705627 0.002791689147037221
0.14304234520188802 0.49795809691335546 800.6093126309837 0.01673615570045558
0.14507964984074245 0.5024459975096717 800.581181274152 0.001107535101379142
0.10517831888058718 0.5043470218819166 800.5954836679146 0.013171827399564394
0.07374041447587437 0.5051122915120478 800.556665305437 0.017839265796300904
0.08128572301258344 0.5047423337108736 800.5782857491778 0.010761456462690718
0.10021619043989359 0.5031116255660932 800.5557707939399 0.0032691102241613934
0.08051557748045814 0.5075906100861287 800.589024045564 0.007480351498479956
0.09560310743653935 0.5125440902297826 800.6078661537288 0.011211324726534128
0.07016753616301806 0.500445585177026 800.5994030514447 0.024495942376080007
0.08043077870193854 0.5037571167237928 800.6240152712039 0.020203230501566
0.07635808608503813 0.5034607370822043 800.5687594678587 0.0179113526622319
0.053771370274728454 0.4999327034143737 800.5719387311393 0.04592648123408163
0.05048597348135898 0.5006136638731548 800.5962427825008 0.05604414878898056
0.04261531087590571 0.5022312765655101 800.5618693965667 0.06384300026462432
0.28583299101067094 0.5148499658463188 800.2048547716029 0.027367472206950565
0.2835701023390014 0.506294342340705 800.1749234020449 2.9643030940295555e-08
0.3396136453828351 0.2276452603657661 800.6631472743989 0.004829273540189919
0.3437184071142549 0.24663243102307897 800.6632042320438 0.011070114718215967
0.3336241157189902 0.27046592963416904 800.6677449445942 0.010788858277023888
0.3177254510488146 0.20507210731770562 800.6684553090224 0.0044758736198530595
0.30866998367898973 0.23859971465356522 800.6761483826983 0.00314201841646758
0.27863247388903706 0.23599673593618503 800.6813015238187 0.001228154265479662
0.29060320550259483 0.23136167404457683 800.6814700177771 0.003498461925127374
0.23721697962679578 0.24045060561018194 800.6796944744312 0.0008756530392244426
0.2514589051247559 0.22148602193306346 800.6843056740405 0.004341898241611668
0.26245295625392034 0.19743536513196586 800.677883974894 0.00027732435206295725
0.25349352011521553 0.1905319310350553 800.6781623117579 0.001162328601309378
0.23529924250901882 0.20248079966228114 800.6829433025631 0.008126406930770344
0.27608117340160054 0.1424591780762466 800.6781180205704 
0.2685242589408479 0.1526644118847749 800.6787534024003 
0.2780300791164174 0.09831458621949098 800.6692328835386 4.977016143700138e-05
0.3006704453125138 0.09724228627171908 800.6607518824533 0.0018862323678351333
0.24849478973896255 0.09631378394075017 800.6767239642122 9.273960564215651e-05
0.2720614066819558 0.05612908317508429 800.6686974074549 2.977165883471035e-08
0.25498292989440924 0.07127826303342566 800.6697575979033 0.004445603874372645
0.22725406764644665 0.10605108382195527 800.6797720795937 
0.2173163041592342 0.09930757792604239 800.6798441026042 -2.185431328549768e-07
0.19052526930756347 0.2178747892685333 800.6866169563801 -2.7298375908578843e-07
0.20520615023278624 0.24845987177155843 800.6791585450968 0.0010667970077815729
0.19277665212175726 0.2258859955162031 800.6872255545001 0.00037493259764591265
0.2992197201748112 0.08925374165989652 800.6602013517586 0.002238615223888205
0.3116743356540855 0.12492457899121098 800.6644913301951 0.0009695928077675064
0.31984380790227596 0.1434972501230034 800.6660444937224 2.784389967446882e-06
0.298827921826688 0.1711819715775204 800.676112719794 0.0028162029475401616
0.32273355301063295 0.19164339757776194 800.6722552249917 0.001167448782951147
0.29682259880416023 0.19417433029624603 800.6765724812669 0.009153148669948947
0.3594025496404536 0.2169659423402154 800.6541789286989 0.018218507149095915
0.35273603198285247 0.18463966297228207 800.6602117828503 0.003911149093270117
0.3521507238166508 0.2410912736109087 800.6574090831524 0.011731713308167795
0.31122309379124985 0.2789109853708607 800.6718834762816 0.0014149338364876822
0.3056437441829182 0.2640468618268036 800.675231529823 0.0019676664207874672
0.28742659588957364 0.2866740971968307 800.6779366430866 0.0014622410105454475
0.28549112322481135 0.2666409506321105 800.6769200775863 0.002244730469610215
0.2786689374020274 0.272791965373032 800.6771222644297 0.0025268098992432416
0.26111492015892634 0.26400731769084146 800.6776783792437 0.0008094160290381875
0.2261421818284016 0.2771544238767343 800.6767916243052 0.00011299047946432481
0.2495319484697965 0.2778133080752467 800.6781376887409 0.000599444825389068
0.34309442949575103 0.16153025133299562 800.663996790487 0.019786793464745787
0.34653503662238194 0.11907583388925848 800.6550885173189 0.03906317784170629
0.33640078807434354 0.0998419615032011 800.656309554974 0.036212313882247445
0.2863231124904038 0.18841199349871443 800.6762314432824 0.0025372581110327344
0.22329033842655485 0.048421634349810144 800.6688996526818 
0.2031490939115172 0.03689604018429209 800.6675789743248 6.214309797585766e-08
0.21606131503830067 0.002956576074661245 800.6525585110886 0.046806233020268054
0.28994488963866805 0.025945009730940487 800.6543163557272 0.0004831128105899836
0.3010999079843649 0.0617741569306821 800.6540808625803 0.02757759439467181
0.32203266007945963 0.0773369482495188 800.6514180473555 0.07654000485495518
0.3550019318610416 0.11134301212044737 800.6476518715193 0.00412701306762923
0.35422479483714153 0.13465706343338643 800.6440301735373 0.01645073595484679
0.35827052358573364 0.15180240488687038 800.6584750770702 0.01301569118056153
0.36378409551558705 0.19374171557548664 800.6535469085601 0.019117363805852706
0.3684404572794377 0.21655631444725482 800.6450953068102 0.026811493105567682
0.3734285592924062 0.23406322635394194 800.6434772246232 0.01784853125820975
0.3563349878421082 0.25745689926122206 800.6617955547338 0.004352184276870812
0.3619071115469088 0.2716259137655956 800.6462431517043 0.015317368957810534
0.3774181025226107 0.2827806537953679 800.6376137852196 0.066671992347398
0.0460957089314699 0.41326487641555865 800.6640664056813 0.02209399818538977
0.08139408002161795 0.4303087172319274 800.6668978481375 0.004866234934007907
0.07680197940590527 0.4221508853106803 800.6666645893004 0.006107915525707602
