x y z curv
0.05457186577250715 0.7310432628573263 0.5621321174594573 0.051152174018978605
0.057234467813678344 0.7264128893055019 0.5396880677088797 0.005579498806268645
0.049775252868402994 0.734267848558805 0.6275585709587169 0.05505073526534505
0.05746380588089046 0.7447941351774492 0.5963916325401096 0.05610951855549781
0.053805553757786534 0.7307286496148561 0.5977303927435239 0.049846598742351526
0.05141889182509959 0.7351715844092209 0.5916125536182805 0.05269115464127125
0.050423491850083706 0.7453216644308003 0.6494860031313989 0.022020836892481556
0.04602987393865761 0.744462693181103 0.6416145023552421 0.022616354115181137
0.044737280377884645 0.7405045986122619 0.6676948704887593 0.07615571632222735
0.05062055042407574 0.7500445960662516 0.6809559743777845 0.0196697313236476
0.05360233238739598 0.7522261329429822 0.7244097381555638 0.07040881889966043
0.0485018955800274 0.7422988042482354 0.7521769708446767 0.06018895745697103
0.05112090171851649 0.7420939111164878 0.7173361896204961 0.0688626879867259
0.048599994916558614 0.7332989036672016 0.7104496791761853 0.06303388694767341
0.042318495134302 0.713271098347897 0.5983647774704273 0.006148396986297634
0.021079414414745565 0.6357875337841923 0.4935113407687786 0.011168757439114687
0.24527725949522158 0.7426884193220568 0.491088456173809 0.025582817500293807
0.18970152388044675 0.7463127258922992 0.4862509716214442 0.008789111352263927
0.17328676369291612 0.7450798997313901 0.48889159822495215 0.01008498333176747
0.1372198057091723 0.7384029744356874 0.4826823548284786 0.005921094025079194
0.32001087460219 0.7412308885420469 0.4827140855979105 0.02040472454259497
0.0691988240199805 0.508473928547518 0.5259739873510271 0.000997226131970998
0.07400575826906597 0.5057752426110889 0.5062338257145428 0.0001004780123954523
0.02743690149728987 0.6582124303492654 0.4927176739877257 0.01629564340629176
0.024047431999122224 0.6386946425806318 0.491289810359811 0.01913383948881872
0.02474482866361476 0.6611246780157984 0.5229784473651112 0.008076260887536392
0.029609822928855778 0.6350487844403457 0.5153468967487227 0.007136575673896774
0.02303041425166965 0.6449998897727721 0.543928490949516 0.003847062457006937
0.025074500592746993 0.6436431582717443 0.5376693182595723 0.004518373696044337
0.02489348257727208 0.6307686054202176 0.5768906209945405 0.009306747083204982
0.0265706317119003 0.6276158406068856 0.5495186985785997 0.007082480524689331
0.024039700449175517 0.6597154128039977 0.5721342380588786 0.0030964393645387476
0.022839366523619085 0.6505842932827928 0.5936444545740185 0.008123516983264517
0.02610042801990977 0.6587673542623544 0.594070842107068 0.008580188244532872
0.02600691031903026 0.6318442361317219 0.627994137545126 0.015335564474866737
0.026303688076630583 0.6365250767270743 0.601340787533676 0.006414257821769853
0.02028816044686732 0.6278978312810969 0.6400734451647223 0.026918260206747577
0.02707715755570131 0.6449540857188297 0.6144640384028273 0.01171532186909746
0.020946675518286478 0.6167251085618052 0.6280403604531339 0.016552846854903606
0.020597207443771772 0.6204201940529953 0.6463072378940364 0.018766208387794598
0.013177109952745689 0.5950191607229962 0.6235109093635137 0.00417280842920546
0.0262591679766472 0.6200295726013041 0.5692367419488003 0.009547206285887065
0.017327002767133393 0.6136485923543115 0.6008841547270901 0.008258917833223942
0.026719344382578704 0.6095807860957554 0.5763842605838736 0.007804126279329446
0.02272445864891191 0.5989468975378814 0.5782578091971043 0.013608401834962466
0.027497385994303115 0.6139581879536267 0.5693794083126341 0.009482289543518449
0.016120993536459252 0.5876772638440302 0.5776284722903126 0.005875909856590247
0.025077729265292645 0.6257439892461772 0.5654503831937719 0.008000254838285849
0.2562089387089578 0.7484478027646475 0.7096720191114178 0.01167321058762804
0.2542678291012532 0.7441318607565823 0.5588747865194312 0.013247810921258643
0.24824865414386252 0.7637766340285147 0.8189760491045459 0.02301506015578263
0.25756666610854984 0.7506696380702411 0.7670012594715759 0.026215531765968424
0.2621235842301468 0.7500204816580979 0.8024786458115272 0.017177913690069088
0.2626333293413767 0.7462766815151403 0.7837695394075203 0.020330474844596786
0.2610446862550004 0.7531338669049571 0.6421772438204246 0.005354808885478693
0.2584376457652116 0.7476763471461345 0.6515802692425278 0.011988644969217742
0.2747317206468133 0.7526850135920286 0.7700000910024496 0.012465171267459385
0.24811985698020636 0.7460691550835964 0.7412079290936091 0.008577130918982023
0.24860402677150237 0.7465134337490914 0.620977090370725 0.009386397022204214
0.25520697480762844 0.7484014158090113 0.7834071888735396 0.020683315017315764
0.2525415382687303 0.7442465713564101 0.6861834866042305 0.013021771043636726
0.24269439410193655 0.748479490775377 0.713716072596964 0.01702551962219331
0.23937531992802968 0.7470024333352921 0.659059441154553 0.017326031474973858
0.25226085900066136 0.7476886396137955 0.5504552572918565 0.016232917242160083
0.280048026206115 0.754591299958297 0.8091839607719764 0.014017253584656062
0.2895778011356135 0.7509227254552282 0.7865483897123108 0.009436217297649374
0.27766104921292445 0.7485354088414474 0.7851087220439202 0.011380093472261632
0.27850755157847734 0.7523840594504617 0.5253352183082249 0.027450598660784274
0.2775207228942114 0.7478852044588534 0.6908237262016864 0.010680208195863182
0.2811200071844342 0.7551471174654897 0.7369903971160636 0.0036135903675585863
0.28957217926464196 0.7512703828182834 0.8023599365415479 0.009951407280106196
0.27250676130380774 0.7546732078214821 0.7475753696076339 0.009659141140591219
0.2741669461073668 0.7426327647177831 0.5861129442540833 0.010508244445146326
0.272163823418372 0.75036201478825 0.7140370868523251 0.009325061342691758
0.2904367005123343 0.7529397695002693 0.6443093933338068 0.013845186069734663
0.2781600237517406 0.7420990191375254 0.6051216464274386 0.008108386805219431
0.2915647164854615 0.7564578795001599 0.7283902506115076 0.0032898575567421565
0.2889382935628388 0.7481481350005983 0.81907711283624 0.0073935299430295705
0.2778492568607113 0.7546646023143593 0.5356100312260268 0.03474367090963563
0.2940040698717305 0.7477740259287995 0.5556896206950791 0.06644262486439541
0.28017335065736065 0.7551857542027909 0.6778151085214472 0.010638513139688093
0.2809062240179037 0.7470915461921975 0.5808222383158972 0.011216506515704161
0.2864463536275714 0.7512790984025097 0.5895116837148306 0.03054281740493119
0.2972729939294366 0.7448918993910068 0.4889962031977221 0.0705391014865029
0.21793361800283398 0.7455332782834146 0.49695720272192795 0.010274879935706223
0.19687014362281335 0.7410933327664155 0.49417237027413735 0.009135380466453798
0.21549703119311492 0.7485582878655851 0.5816489004367246 0.009182084979717469
0.22264775569000353 0.7420852743275892 0.5137856558399063 0.009600761419580642
0.20429598271801258 0.7496945648271482 0.5499709467456733 0.012141139280999937
0.21136385525155474 0.744571512192353 0.5397663493333916 0.013747909544335482
0.32989401500915916 0.742660197832877 0.8157711666542794 0.04834465597728656
0.3111624311157365 0.7506089571499187 0.6967276279818522 0.03335312233708739
0.31512700991022013 0.7554791648294027 0.7425998461184655 0.026423287788741253
0.31852389878816356 0.7538088707350933 0.6619430697165132 0.06106418108081587
0.3115404926465981 0.7481333685308716 0.5555964008779545 0.09820896859767783
0.3166809777094046 0.7517352257890054 0.6032841849285923 0.03428959840581991
0.3130178439162862 0.750366447250208 0.8178214382850799 0.025809383098858253
0.3164024815872753 0.7547874490633241 0.7833955642951459 0.020797954662704992
0.3097717927700325 0.7549990791228967 0.7201722881792538 0.026667942020447796
0.2955937087396032 0.7447394572529618 0.5006785108170292 0.0481528964736581
0.3033478023761797 0.7536055437680558 0.6001948017052272 0.03303761177155797
0.3038056019165518 0.7479506247334572 0.6600443107543027 0.029156704936221942
0.31030908345848845 0.7493015170709916 0.5667739461382336 0.0842459948813138
0.29835609983184047 0.7495444731965606 0.5217794980248381 0.04539731171388793
0.2898859653199227 0.7504455879377359 0.5929797539064207 0.031167367015019085
0.30079787117628676 0.7541936184672214 0.7096219834407849 0.028220174338041113
0.2980306610013219 0.7481776882243072 0.6168690031985997 0.035651631908580665
0.29969313306103024 0.7506915763891269 0.6472224814626765 0.014339109784285977
0.30762563468313975 0.7590357494239333 0.5533145902867249 0.04718143044344431
0.30428371313458774 0.7469333986958182 0.7699736934603993 0.01513442491550232
0.3060700452547658 0.7469122920030522 0.5259671251441356 0.04642460614540315
0.3131713068054407 0.7407051783187563 0.5174761974367627 0.04928938232351991
0.3121497415623516 0.739717058068417 0.5353845430608652 0.055793143532960436
0.31435074451439887 0.7321404275983956 0.5506654130265092 0.030102041155908674
0.32147288731494994 0.717641208423601 0.5318117285583992 0.007710560626590313
0.3164367718679607 0.7218083296432986 0.5102232146927791 0.028798486224241412
0.31323211932597117 0.7413639652528239 0.5622009801623125 0.09386250979096226
0.32342248515766014 0.7421030615354041 0.6192932412978625 0.07913666958968534
0.31970115481454514 0.7337391275489608 0.5967589126913722 0.07759641083291796
0.3156154739647772 0.742405688158592 0.6273602721482205 0.07084178326354074
0.3312745070461373 0.7524437870582952 0.6516592029418641 0.06257802521883733
0.3236383503036391 0.7403593490287558 0.640200010780191 0.0898566109807075
0.3296897098224852 0.7003745065174816 0.5058132470854535 0.003871741904663637
0.3342267139987658 0.6970166270851504 0.5161391193370047 0.008102593389893425
0.3394425500794218 0.6901896883425116 0.5929948262991337 0.015777579404866057
0.35758291962270167 0.6935374066064861 0.626153678633033 0.020571632702869852
0.3398387169118328 0.6916810875265105 0.5689182474040059 0.014877341228723215
0.3480599299449729 0.6909717488399546 0.5403878352921253 0.0077787755919668635
0.34543893114584334 0.6821909367201439 0.557222955921302 0.009763176768785506
0.3524058408524471 0.6899505773874727 0.6364549717609428 0.032976288434593624
0.3467784905357514 0.693149264511382 0.6834343801283819 0.009569569148595752
0.33900117595555884 0.7028986797291333 0.6603482672284741 0.008610013161157158
0.3335278414389306 0.7048730063985523 0.5472210559796444 0.006961708428527636
0.33382544775022044 0.7041113354934126 0.5536121232687701 0.006525071650955585
0.3320832874812387 0.708960858593272 0.5881424408866298 0.006195724304090233
0.3189078972639347 0.7213497734403825 0.5651684605090262 0.02149102770275697
0.3311611136749666 0.6949451877159857 0.4892139457828697 0.009629605981210479
0.3480851871115896 0.6747076978400524 0.4905625450979933 0.013665515924171036
0.3198901569504633 0.7509457027171085 0.5842516537459093 0.0649301961829964
0.3243010493801042 0.7523188767811182 0.6789923316820407 0.04205112931340075
0.3218474739174682 0.7357270712050344 0.6899593325263029 0.05612592771129417
0.33004622393099886 0.7400262895825888 0.7175319866669583 0.01420806524722546
0.04552732057475938 0.7425990302536972 0.8392664734131857 0.0349920897958183
0.05000059277582538 0.7318410927767596 0.8529439067683056 0.062413491264919456
0.05510157516848348 0.7123750726246948 0.8722080506037518 0.025055488247826007
0.3636322825940556 0.5533358523739806 0.847822038049423 0.041054415099948255
0.3662800610370898 0.599061279201572 0.8487812028215169 0.019766199754618134
0.3602719491572019 0.5811820921602892 0.8312653183820427 0.010273697676650784
0.36618988035700395 0.6253069235789693 0.8395043614552088 0.027304676076280295
0.3646339320219455 0.6546047068925852 0.8529791664470292 0.0183162205280469
0.36079406505125944 0.6622703809653878 0.8597268404726347 0.021194291022764357
0.35184583857395846 0.6505339254192097 0.8758003456316008 0.03823499772407617
0.36258688987620435 0.6306713453050189 0.865517452035369 0.05759213464626842
0.3490792105903667 0.6093850110194085 0.8684352656799998 0.045203458375594016
0.3334840242422254 0.6321238193550485 0.8733369154003011 0.003838886418945113
0.3448532299384118 0.5616492661184047 0.8667876002813899 0.08947011513864214
0.35302468709146295 0.6896453958062178 0.8664026341468508 0.025148926648818203
0.3608856915719532 0.5783039041877398 0.8507772423348543 0.04495180732820992
0.3503495491999146 0.681040278879487 0.8238502293416065 0.011477730592155939
0.35037615061459687 0.6658720681437305 0.8008047192005002 0.013687464276922903
0.35839018867180455 0.6840063203644885 0.7760029219083159 0.028511806333814293
0.35453609512313555 0.6819557731207812 0.7536101805089976 0.004807924058893284
0.3548013674187212 0.6930851387528683 0.7915737667328012 0.027158566864138825
0.3475231320405427 0.6920509434741352 0.8166571111647545 0.014941384970712904
0.3465156195322653 0.7007128267557652 0.8601211829203589 0.05169772818546014
0.33917913068729966 0.7091720487433496 0.7782951021413599 0.010438630773965783
0.34491323508939964 0.7026649066806044 0.7784502241896404 0.010255390205931598
0.33772469007378597 0.7049082565490788 0.7403570417403551 0.0027955124340148137
0.336738842304575 0.7155365033589366 0.729831465349998 0.0068632317896336155
0.3316602424353422 0.7358797173959826 0.8077271639901252 0.08345516208664056
0.06078382295391262 0.7604956072293211 0.8422833034526778 0.05724351458899352
0.15221137956849853 0.7576620759830202 0.8382758565583077 0.02333701024630923
0.2696338304385423 0.7530918279899249 0.8322495930719491 0.013842607710917866
0.1377382299976751 0.757190910829692 0.8398001215324805 0.04285613491463358
0.10663628079571562 0.7638214188670261 0.8344192920643083 0.026125017189743742
0.10940829776946104 0.7555009364496773 0.8672760838171284 0.03964209269469563
0.1768927460656571 0.7576031382656451 0.8283287589992709 0.013118429917689559
0.15058090028944296 0.7548536012706872 0.8495064945496125 0.027630916812094012
0.2454710240559587 0.7542880815733791 0.8340189653651423 0.03424969186959301
0.16387922177664152 0.755588017036697 0.848376163927957 0.02144378135182532
0.1211031429711877 0.7634644174792901 0.8543137419253051 0.04761888699717342
0.19470318108405366 0.7595763260003306 0.8397614522428294 0.035512964804015945
0.21125004592845054 0.7559131233022752 0.8478558387515449 0.0510865916008054
0.27477958315526657 0.7510406689270792 0.8414796320368948 0.06926896113119689
0.254475939025453 0.7581212976507792 0.8535225931706307 0.02634258479536676
0.18454269691408015 0.7514619467804271 0.8564441845656693 0.027842983421884168
0.3008072291580059 0.756329929855009 0.8525878002314815 0.07418948795505556
0.17698688474336952 0.7490487667703686 0.8678328077554486 0.03412648355979427
0.315326209155155 0.7505482497014606 0.8660038582951312 0.10853442635466544
0.32078225603272803 0.7594785664852725 0.83968201950918 0.04538469026732312
0.2938899648743806 0.7540218377196235 0.8369001077118993 0.02218302546498314
0.20672803950182211 0.760513346149307 0.8619263354407538 0.021673230372595997
0.22227511341510384 0.7524822534448834 0.8514083070399673 0.08721471176436384
0.31029480066127857 0.7616072224252409 0.8553197001961637 0.03307495228738871
0.22923042949234104 0.7489582460792448 0.8481073691841651 0.1013419348952645
0.32075325264343046 0.7550432542126359 0.8368503444554655 0.042130591101572704
0.05319032818122367 0.7431227952036996 0.8642659181172363 0.039860925912200536
0.07766899727204415 0.7604904467958873 0.8626456392226761 0.029603374876312358
0.06263835046089196 0.7511787565456556 0.8660115914551576 0.04509817472056076
0.27729027312382915 0.7621361225232642 0.8709405898488768 0.12790200159674112
0.21598099028359583 0.7576266178408121 0.8635156175032649 0.03650364010277937
0.11826036503871186 0.6959806469570307 0.874102293964998 0.00018257911441914355
0.12121887175079196 0.7498851035794453 0.8650651013140315 0.03934069973657168
0.10684131880931648 0.7455416340342691 0.8700383831159483 0.013454190482810886
0.13066512828355903 0.7454684013565839 0.8691269833530822 0.12448058581569889
0.1271190272068683 0.6804498055825461 0.8762056865249823 0.0010957388292702455
0.15047974617480722 0.7444519669525194 0.8780500122078514 0.08937298436262889
0.14534687933230978 0.6790014011640604 0.8755156880836561 0.0011483756879811016
0.15305585032799257 0.7604656009382776 0.8731465340925287 0.011007149720550632
0.13981593440137555 0.7119072990564133 0.8751707125685547 0.0047760063018197135
0.11403552948248935 0.6145696465980244 0.8766730258073752 -1.2597708386409593e-13
0.13012892471621865 0.5751188521120187 0.8770789820471454 0.0034843963334321806
0.10580455086800822 0.6019645547588608 0.8758109821535276 0.002453657620707576
0.08189755582041904 0.5869580028906554 0.875099177846326 0.0018207258972434135
0.06298853920229056 0.5641051219112643 0.8698271404332949 0.002431245966387141
0.0798303169334358 0.6276329981273692 0.8794657925499587 0.0005486256205707592
0.09012472573524224 0.7423459213350722 0.8688659128846232 0.0031753438632365323
0.05185038781164383 0.5812882192483437 0.8748910196712237 0.0006045225303783108
0.33978684885803834 0.7331123651454592 0.8559939691593708 0.01102729725941729
0.32056370216328156 0.7487436256722015 0.8606025369002925 0.06164430512699173
0.26476488077979027 0.7171703965948832 0.8736121459119074 0.0015094107428422377
0.2688906368143536 0.7543327089020041 0.869853163466526 0.15375256463423576
0.2846493585386755 0.7171341357164468 0.8729548254822398 0.0011861257302161691
0.2610577174268285 0.678003179504367 0.8740353469037435 0.0006790742157830747
0.2878068120968623 0.7613371427022307 0.8704041533003818 0.09615724786543761
0.2483021361595586 0.6810622165055353 0.8742103253900882 7.354218938948883e-05
0.24626933108428797 0.7195477474832419 0.8745650336612508 0.0006803235447292653
0.23373353914862213 0.7293552360080684 0.875371806249278 0.06520167228968995
0.23427978981095737 0.7463011862172105 0.8741210630145647 0.057221698332143134
0.30515451696423745 0.7470317939557218 0.871169379175608 0.11071807311655431
0.19233466519656678 0.7452272529198237 0.8690881230625338 0.07156428970419439
0.20909071699741763 0.7433682073035527 0.8680568861121737 0.074425793354826
0.18609861246214252 0.7433177988441749 0.8755117046340478 0.05459369746932017
0.2872469520704724 0.6189832075306028 0.8750642316174768 0.0005324127930137962
0.3091122681665885 0.5635768990451767 0.8732479948960248 0.004953913608887521
0.3033187848301607 0.5965217438637521 0.8744371537488531 0.0004808980254732776
0.3171598657729565 0.6335976346977169 0.8764982067089587 0.0017961837730799107
0.29718548551403196 0.7054114084784691 0.8717125929265546 0.001352683535549421
0.3167510098635792 0.6067783147630298 0.8740566816077109 0.0036852721541356195
0.3134418232072193 0.6503152852316993 0.8793950902014546 5.288012128996395e-06
0.08362239127785914 0.4910330053670685 0.8520727161889513 0.03024208766369034
0.08109703404983186 0.4954372635169103 0.8260238822504051 0.0032278071269175347
0.08894026258370097 0.5088258847605097 0.8688458597090056 0.0014493743006792203
0.18023814801214288 0.49774334839977136 0.8679922401914344 0.01829687797068008
0.21907006453354316 0.5062088466828414 0.869654816561261 0.025056866343266523
0.29486563887804673 0.49311895987812965 0.8669619970879642 0.03800863991018757
0.27572924456001685 0.51115670296181 0.8732834162917051 0.046615451343896365
0.28653869918695507 0.5042125650135121 0.8697377607547226 0.06279024423809648
0.06577964100317743 0.5104368689410397 0.8717177637960953 0.07887006200227317
0.044270348051203445 0.5280290235930313 0.8691302320810993 0.04653968174844155
0.02582579728357534 0.5362593052646812 0.8665482858640196 0.04259154359822243
0.04716812247601375 0.5085490002085392 0.8473817448774459 0.01584277577313449
0.04831675143918549 0.5026609674124255 0.8359784708217859 0.015047635829892925
0.017014177970521432 0.5701842022052227 0.8489238508309594 0.03802282870783547
0.021002746709836963 0.6284701645745029 0.8578308343061886 0.03906769231972675
0.01794528752565841 0.6192757956395771 0.858657563734929 0.03706965375951286
0.01986738966913766 0.6529987856226692 0.8573482554439438 0.03431291732310298
0.019030634359379326 0.6493125487496451 0.857989045431219 0.0339189568461834
0.014130586571083919 0.5847597407170926 0.848360687793104 0.035379840358344926
0.20472158403841342 0.5279686825165141 0.876240717665441 -1.1123941811468114e-13
0.24619816567601907 0.5354338757071848 0.8734038612911984 1.604558128779848e-13
0.2741316645364796 0.5285439943733509 0.8756659773624911 0.0020361347654548017
0.33992491503773536 0.5644101245207918 0.8703684922544579 0.08132442171242765
0.3538632965622837 0.5458228386301383 0.8659597471570607 0.04292624494148789
0.33523735136719357 0.5767876062548528 0.8739580996082081 0.025243255443708715
0.3238544938834342 0.6301771713550166 0.8742589129768341 0.004233612037559862
0.014404746557720217 0.5519428588111257 0.8579076482051496 0.04663191643670476
0.013387427367589248 0.5503449590250084 0.8562266415331272 0.05223037426684542
0.11508855268283699 0.5442028397670765 0.8749481536059744 0.0028969824777357682
0.14525051205556933 0.5679823754096449 0.8760034919006937 0.0016413401163703825
0.16704993912097355 0.7483088297888105 0.872815468528343 0.03186465230339134
0.1631514199526467 0.6713518128955563 0.8732311855060382 -2.1517038824170013e-14
0.108972952636374 0.6659682103573509 0.8762289294496877 1.5528241505381295e-12
0.09893090575745409 0.7138005561815106 0.8740989621515091 0.00038271236075543914
0.04466208949359437 0.6209829414805607 0.8708894508159811 0.0070318337641269765
0.044712399056295364 0.6415296014196552 0.866790249812981 0.015438466823888988
0.12350516111206754 0.751126824297039 0.5041524112850753 0.008476341086770287
0.11855673076075242 0.750564432379498 0.6299541939593327 0.017758220752909108
0.11656744679187644 0.7497374254003362 0.6932495047062384 0.017600091151697878
0.11486031869050747 0.7483399134125099 0.5438986445740294 0.012014114698010643
0.11583275319126875 0.7459761215212436 0.5931728158253928 0.017764779728687622
0.1127149189522886 0.7420767041851543 0.645884127104437 0.017731627856707215
0.11492759592261326 0.7621268673771825 0.728504860025628 0.010973546804504337
0.09792386100148431 0.7486714026687509 0.603469439382954 0.011218942582045222
0.10023862926969386 0.7421965335736351 0.6180665440410363 0.0108713758011629
0.10079692246861624 0.7456886211322482 0.5293591438689925 0.016716472593709952
0.1126866649559384 0.752212669138118 0.5181909355730985 0.010127760646265513
0.10143130484667742 0.7468540071286197 0.47561637589214434 0.011013265317541768
0.1035320977507152 0.7491794550327657 0.5830758403511235 0.021848426727854278
0.10713519562322572 0.7483257917061552 0.5003509327162959 0.026569341286299234
0.18894932119295363 0.7482479307973222 0.524396734394801 0.007512441696905828
0.18692962283071293 0.7450618626932656 0.5099689890614745 0.010374750981969738
0.18603811678644905 0.7442949868536599 0.5565169348681706 0.011839681009375823
0.19031407709228987 0.7431089140188433 0.5476115398001525 0.010096110257150188
0.1721906004166798 0.7462040566643698 0.49271673509558295 0.009343519480531049
0.18427145330481576 0.7459817957579284 0.6158050538095198 0.014999319363470116
0.17045553186508244 0.7519061324095044 0.5242561579725169 0.008258060399139504
0.17267606283311107 0.7502329014988659 0.7509531353351636 0.00969427201368718
0.17838454245120344 0.7509342791020562 0.7890714641527993 0.004024927361992641
0.1769896201434774 0.7480063761682364 0.5986041400460163 0.009771910556016485
0.1768500639812863 0.7465901334138905 0.7626548989167985 0.008274279692543983
0.1807644923080354 0.7456872276779553 0.6405324080614246 0.017971764047144942
0.19577945619837614 0.7536710234883456 0.8098000705826857 0.018034511792445414
0.16902295661882136 0.7571606539643926 0.5840508763572715 0.0033432630043246565
0.16934110066179878 0.748442653895723 0.675320664747931 0.017391795031089015
0.1785635350663221 0.7553821107745088 0.8091658691246861 0.010510350223265972
0.17268778480078292 0.7469207100251979 0.6569688013020756 0.023540831769470673
0.2046887988268652 0.7503841228399796 0.6807038941424959 0.021069924614730492
0.1998763605937768 0.7434692363757258 0.6210534375022525 0.004750060055527073
0.20570619077877578 0.7556774087885608 0.660978674624784 0.008105126611280085
0.1943631310128922 0.7538334564211377 0.7461470542745353 0.009821975404934114
0.19874351632003323 0.7530296483141569 0.7052328237725826 0.01503306919133892
0.18799393128488331 0.7463710987356914 0.774970297087393 0.009701000147075919
0.1893756659203142 0.7430462613384692 0.6654803612223633 0.010639979871899498
0.18618417698055142 0.7486181705399603 0.690744504064117 0.01979894552602417
0.1949622402431045 0.746962819480328 0.6123848034316606 0.01162756112162033
0.19370622593925596 0.751296519543027 0.693162675759125 0.021613420628410016
0.19387900644674366 0.7557324892665873 0.7424669040181106 0.007153200335912444
0.19510076515495578 0.752346151081765 0.7342768370316838 0.012280785133896127
0.20695218454715442 0.7504409466443399 0.7961999452633708 0.04096167451692498
0.20062149630108359 0.7451474834279568 0.5842036346526831 0.013402183714279627
0.21239415539810735 0.7393605636445684 0.523955286090962 0.008780356851135053
0.20066704841517544 0.7487056482335782 0.561756346345441 0.012147538905496073
0.049296877452560096 0.7273363209213599 0.7498919960635941 0.0304211857576865
0.032784670407371194 0.7039067494878793 0.6433096860689234 0.001254854175053444
0.04138748464617259 0.7007583811125975 0.5194638547393968 0.00545313326737866
0.028576852515219204 0.676320310525394 0.5077767349748066 0.0037729235238945723
0.02871392396262733 0.6734017567993317 0.5024875707571349 0.0036327015972602954
0.03467052034601397 0.6745976844223476 0.4887551926429501 0.003045826735857875
0.037003672832888905 0.6939818934772461 0.48800135773139935 0.0056713375403992855
0.03596183921003513 0.690752519609545 0.5310540816832093 0.004191330269013506
0.032373056445859166 0.6833536507154406 0.5265684085729235 0.004126713713965684
0.027931638968309313 0.6868669055744916 0.5710223837756925 0.004998919675491662
0.030144088961283132 0.6825423454122536 0.5384240829052691 0.008673703884618088
0.01823993074692276 0.6763510853294381 0.6265528887600326 0.014280221218882505
0.026138077077887123 0.6709814039765514 0.540355139468923 0.007652693358605612
0.022441402260241466 0.6702190538786419 0.5884022920189698 0.007663710309715755
0.02850966408546264 0.6800049981598194 0.560299227989598 0.00543031375494706
0.02341855362640373 0.6630658189940009 0.6210550353540081 0.01944016610116983
0.013127330044219716 0.6624661158236212 0.7024391938114761 0.0262337552898337
0.015791996738623984 0.6639603756318748 0.7254355153624106 0.02606681478421858
0.017215274949128546 0.6629275046339698 0.6356059646387875 0.0155481381252194
0.020788982813467256 0.656636970597293 0.6929133972919713 0.031472951052716074
0.02353489724521729 0.6353965973700522 0.6728385767720323 0.018199820911011313
0.011132547195999628 0.6554345279121051 0.7144317393011101 0.015186041914261773
0.013972035512366927 0.5993608938939342 0.6768557747505957 0.010954982875345538
0.022019309533637753 0.6349322182534114 0.7008905762431439 0.011359344858206291
0.01574522059706658 0.6503858029794923 0.736937950002642 0.015263304772115406
0.016141593613104174 0.6260134985487134 0.7323338563275509 0.01214016218305109
0.009875501507696177 0.6141819902766832 0.7464338499976323 0.018860294883510306
0.013940821865922486 0.6028384761673987 0.7047422211240024 0.011717220592782402
0.019722296397520853 0.612725094029207 0.7075315460692175 0.009386927707293732
0.015737718341322374 0.6259688670620919 0.693882568638647 0.016743223046201967
0.013618826419001348 0.5838371697136472 0.7247625856508466 0.009687249555681104
0.015016213265926264 0.5714808209427298 0.7395085673075724 0.008357489295822399
0.0210720222249093 0.5859150162515802 0.7430889937592088 0.008449610409089958
0.025413410446478987 0.5545224625264041 0.685886564973801 0.007628114100629817
0.017296619383609754 0.5650876944344063 0.722682484264479 0.012597972701209844
0.01975815324598179 0.5552284116444476 0.6709579672525987 0.008547086695910975
0.019909060609956786 0.5598618918015184 0.6276345206045353 0.014084912382255343
0.026216214713014552 0.5521152266368572 0.7317994658796919 0.010787424221329736
0.023757574834580734 0.5478105310674231 0.7553237311622645 0.012996163708448404
0.020373227238949874 0.5664688456073451 0.6047733817426764 0.014247854440167062
0.021484101739908126 0.5761947964310274 0.6128376937621371 0.014534272867670239
0.018935410000709182 0.5804900859814639 0.6216098948195228 0.007280879968037446
0.018616977721602295 0.5787943425471088 0.7709028949367838 0.008160779916965047
0.018280931787898143 0.5861445356656924 0.7952637902558359 0.009076947356966252
0.01812181031187352 0.5984825554620747 0.782882127086856 0.018828043945189433
0.023004879109139745 0.5750477873667452 0.6775149304953043 0.008294431600159396
0.025012220831418432 0.5609788532713028 0.5965635260963453 0.01411712092846308
0.026090708835038372 0.5640681548562854 0.5713384738498377 0.013764560669093989
0.025177250326725333 0.5517620340940528 0.5758248783921938 0.010880214600776374
0.021343549750661113 0.5610496877046134 0.6157355420054895 0.020371639225793
0.0317793233399069 0.5423400125133936 0.6313093483490577 0.037682989241137964
0.02226372155459354 0.5361958473829168 0.692465276381955 0.03375770836139795
0.020243927307677517 0.5573283779057069 0.6502120080901045 0.012053242504631948
0.02028929980242397 0.5450603628495548 0.723388910370436 0.006464059527848845
0.020204101643771483 0.5420581690163625 0.7740009949508848 0.015760473607251503
0.03619788810323825 0.5336601564507846 0.5331519792622618 0.005649272030549762
0.019544363772655435 0.5382588920632374 0.6098874381119105 0.007846935419488284
0.022356437677986764 0.532267629055851 0.6686358702831935 0.008208882243467892
0.02659830673675683 0.5328122042070791 0.7540256383959784 0.01894818339855377
0.028270971721282043 0.5305057138000483 0.7428544920675866 0.011924441129182487
0.02994681369237534 0.5290090609961826 0.6441522045929113 0.028076235422123643
0.035561252454153584 0.51320294369387 0.6823869425258766 0.018335585837352498
0.0294758136142998 0.5247092617998952 0.693084148710077 0.038250353934824635
0.03637225731330272 0.5254688372178797 0.5922598695651322 0.035768505569447114
0.03593079441432972 0.5318619966771378 0.5664796452700307 0.013314953388745464
0.04558620131527967 0.527448957162219 0.5357017787037144 0.010355019865247481
0.03923050151393507 0.5223705206431756 0.5788159492476096 0.014559340181618642
0.03407752055738372 0.5224612475865109 0.6085666540029951 0.016796695198163167
0.033021074225008634 0.526883038350048 0.7389728134024033 0.013345767385140015
0.04128297811713684 0.5075808639544819 0.7166486184911005 0.009958393632336486
0.04884714372645242 0.5206714609530134 0.6375323805717678 0.031610332843551685
0.058607007154747974 0.5123839554038837 0.6088302714876048 0.006055748970709322
0.06016847233069362 0.5063805971509353 0.5968470511242538 0.007049786636444857
0.06050116489458679 0.5058519982565897 0.5803710106207701 0.006410401719838399
0.0497808707959899 0.5243024961348436 0.53267307993405 0.006637402776393331
0.041604564099318134 0.5096823860345328 0.7543156604400282 0.003456513586718325
0.07009465645569463 0.5087130771203612 0.5486735785505459 0.006882361264252323
0.054279773075522855 0.5114541502670549 0.6528167723706281 0.00764387195694247
0.05078835673542544 0.5091244297987173 0.6874670575326216 0.015698220667474717
0.05952289980924396 0.5024980105629915 0.7039170663953327 0.01453251535594678
0.08500322948943459 0.5010380277613146 0.5468963253987381 -2.8878442438948243e-13
0.06901752505641359 0.5083129314300864 0.6235779750725836 0.009855937680550743
0.08661420867205827 0.49172921668366903 0.7059570400269938 
0.08397174809113152 0.48943289504493637 0.7523951012243718 
0.3261798979216787 0.518295377642311 0.5845306693366484 0.00801528281996192
0.33165810413893415 0.5170269785508044 0.6507534156684507 0.013339740606248185
0.32957692087014645 0.5184403243889187 0.5722455181706124 0.01404986597914846
0.32127046856637226 0.5162026844542668 0.5533250720493134 0.0069773035633669675
0.3176281069520337 0.519074662918554 0.5258544064921169 0.0080078978120845
0.32953067393740426 0.5277426635345198 0.5426061729755784 0.014719323232586776
0.32547424578750694 0.523361608264963 0.48223201992447917 0.011954874522929372
0.3329735744085141 0.5300546088135255 0.5232477032845878 0.006528312849828385
0.31370849450105387 0.5171153443512387 0.49459101952152557 0.024212258955284505
0.306742835574517 0.512395167732746 0.507996617221735 0.007638575549010231
0.29165980530897984 0.5053887568825196 0.5512644752966267 -2.644445763704558e-14
0.3347977530471361 0.5378023012663677 0.49980872826364425 0.01571396309732206
0.3509203737616058 0.5475114549862443 0.5106616141055336 0.018447828859155756
0.3479667763755313 0.5387636551423644 0.5542973137941399 0.007325741938244765
0.35358490967409123 0.5762668339166962 0.5190370754599636 0.009039977540628312
0.35363055293800494 0.5680122020652755 0.4980423333469861 0.02270261161622902
0.3461703193978655 0.5981218784646859 0.5488626674844191 0.007795604607525362
0.3490266066568646 0.5808099773620884 0.5530871270786942 0.014477528386327326
0.31959096981702084 0.5116984358565134 0.6174927253099116 0.009556819291910301
0.30806639656199475 0.5007088070703564 0.6747069620330686 0.0017807946021611229
0.2899789569452893 0.499630240501019 0.6501431849393585 -3.207264040026205e-13
0.32257624143460917 0.5059231549721167 0.6355134630384139 0.008116553562105777
0.342306662087609 0.5245704830054717 0.6320769669952593 0.007543887280931034
0.33854790434297694 0.5240486763789255 0.6766942793527018 0.02264502732796894
0.33899785014274686 0.5214897205495843 0.6870480104530573 0.019070596076278278
0.3421878435494575 0.5480884183151042 0.538622366732763 0.03242508790970614
0.34561219506853236 0.5375489400670249 0.5975726014401141 0.004519242577010695
0.34161820784269764 0.5284108181658659 0.6646480706897555 0.0301639487107996
0.3414062820013926 0.536050729433808 0.5593113387953863 0.007539808742012398
0.3473282361448505 0.5356657850173372 0.6244001753708298 0.010751685619996952
0.3483365986822675 0.5344777627159041 0.64516112582335 0.007921432627667684
0.35233654429650063 0.5350677764235484 0.7010005665233544 0.012698450621079079
0.3520882224198329 0.5480937359624575 0.644460333905756 0.019536013736010303
0.35094454766082384 0.5501464928995561 0.6199745833121502 0.024504949695921523
0.3532613686862238 0.5529129243464239 0.671143709498135 0.01260662574199327
0.3487223264013488 0.5493477182494505 0.5245475342525667 0.017232808935996425
0.34309047995846015 0.5372358480068499 0.5814113653165162 0.014605202015445958
0.34737095862647666 0.5528624190333211 0.5643336777054637 0.03034709322527734
0.35685310928318176 0.5541876798242937 0.5908596620525866 0.03851669465736486
0.3506885345263723 0.5368591577896962 0.6893934822193336 0.016371599401880977
0.35015352632041225 0.5760151644268036 0.6166788661399029 0.04362862967436511
0.3586059150170261 0.5575904208694222 0.6382242111812487 0.005053964404888413
0.3542871398788851 0.5635882346520095 0.6577104212359496 0.013990915292772445
0.3570889222131775 0.5579418736338403 0.6710504811401555 0.015219633128634778
0.36560819389909394 0.569103378888155 0.5992440929950552 0.02000544001341034
0.3455823287503809 0.5878273252541867 0.6064103565928289 0.035178121597531815
0.3417724022593323 0.6023259238726119 0.5983918255902873 0.01093785707480197
0.35644769399053094 0.6226722852312109 0.647742874746058 0.010228902746926545
0.3529381053801997 0.6222602574862908 0.6262342497589313 0.03346916481556378
0.3568664511540535 0.5942029175288994 0.7265566774982033 0.0006626289732263463
0.35597301693988653 0.6176792965725025 0.708302241325215 0.013384478275784864
0.3538118529774102 0.603611917960678 0.71536004414418 0.011245516721256012
0.35265612681790043 0.5951104590307232 0.7115992583958856 0.014004110203553171
0.3588568336489216 0.6245527113971274 0.7192733118314731 0.0061835906511609855
0.35638228926119103 0.6402330596575154 0.6996399200901067 0.008086525916280958
0.36662699566222673 0.6508294734795567 0.6882911313867726 0.0072869998769691914
0.35636191041941473 0.6471592973947312 0.6622357168871746 0.01613459128237405
0.3618823648838266 0.6331581821685682 0.6837869137904607 0.011572342649909924
0.35399748780192053 0.641961584836169 0.6493568267456065 0.01184149580510078
0.3604447502960279 0.5906333787682434 0.6722019284269378 0.01110909403123342
0.3553314288084411 0.605222599111473 0.6702441918199863 0.015675354364314744
0.3505833340206201 0.6594639058667715 0.6415881001193857 0.0043472960411955
0.36703646752962343 0.6586032080389106 0.7468018078507014 0.0016618782261963866
0.3615990530285061 0.6596221155326751 0.7247557600442848 0.03143620363128894
0.3497482254390565 0.6574672243401889 0.545890931030681 0.006461809763291795
0.3505898615038931 0.6533840033841023 0.5413282741466511 0.007028467728284772
0.3499316794784777 0.6270602463696933 0.5555021489078447 0.014101138450169833
0.35564780626066156 0.6396485029117832 0.5750266984492712 0.009442961383670512
0.3430280483268148 0.6638149471918234 0.48183309909791777 0.022289613503296907
0.34905351337552337 0.660458984343679 0.48680136061774204 0.019109784939494993
0.3526030187539131 0.6514561346662537 0.5155372856596083 0.006584099343320593
0.35613197208085645 0.6390043578441984 0.5319110386335777 0.001888974299828042
0.35049559873768443 0.6163404079267816 0.498767170765287 0.0015767402607826113
0.34983887180580514 0.6008229890270892 0.5078748854268642 0.004717311902283484
0.35027878609648366 0.6257970612645493 0.5232534148077163 0.005474472632638341
0.35736431437236393 0.6573419759298431 0.5979237285361892 0.0029180678814801765
0.3567971223127396 0.6641603212514997 0.6252517521540137 0.01609525420327455
0.34927585740547085 0.6655850096003597 0.5756235685990554 0.00727061955806946
0.3485882198609239 0.6686243772991672 0.5164480217922209 0.014691102644790854
0.3489088651447347 0.6688489469932046 0.5375064798659868 0.009096475721037249
0.3479752767051405 0.6725486523035747 0.5935078281060726 0.011498633675504749
0.349578995977225 0.6736288414322871 0.49306285342952905 0.01223111208390005
0.3453303718929288 0.6755616270871119 0.5797045026337263 0.007662513629443609
0.36131670322099635 0.6800884693097322 0.6762936364789627 0.015214990708133749
0.352330142896624 0.6791065655538392 0.6493183017235783 0.029659242597985656
0.3645598758134398 0.6766944479005814 0.7005345336860596 0.024800824870800788
0.35501397397470497 0.6704662136843383 0.7302564897417884 0.01479583268252876
0.3560811165758253 0.682765805900788 0.8046149528883402 0.017891284600258676
0.35447262801198204 0.6783488757257832 0.7925957480020565 0.0259056693436356
0.34184121416023655 0.6834877139612052 0.5076258164258898 0.016748511255102277
0.34223557834710044 0.6881889703085915 0.5197566036676636 0.010638901248159766
0.35088734972734925 0.6887868126169733 0.7229791553619407 0.01178134158903707
0.3320552646808157 0.7006135160889148 0.5736367192576355 0.009422728238490429
0.3383705997108364 0.7088887601250762 0.6828397558962134 0.00889768021714858
0.33381499606728343 0.7150433658324222 0.7601705640438564 0.00632986484546989
0.3350871561737734 0.7409670147542605 0.7862935848472026 0.08405211183663848
0.32885508976944794 0.7418468571382899 0.7568176407837676 0.0714506748156032
0.3319429420313474 0.7124880658986679 0.6667963189043936 0.0025277289044346772
0.32958777395380506 0.7195364386816004 0.6445532663963941 0.02840927510848742
0.031312870184797975 0.5731674490442676 0.5076499783485928 0.0016535654563191661
0.032376112341065 0.5678361892721363 0.4785881293580843 0.008442286925328226
0.031788129290992895 0.588596202983961 0.5046929025133362 0.0049552635820424695
0.028712183273253516 0.5900077647887785 0.5203228786530861 0.006978650913077471
0.02154246265082483 0.5976400845397853 0.5381204965648401 0.0038154700725406827
0.02603383409359648 0.5852687475116569 0.5240684544143087 0.004807617775971338
0.23530797802151637 0.7455138330248303 0.7731911998607276 0.01667313458850337
0.2365100818715553 0.7514908747798197 0.7192384229151833 0.016064630720854678
0.2310753293549189 0.7511962247461665 0.744329456480782 0.010229265417980792
0.24507346705954167 0.7428897255290811 0.7644088966108669 0.024436613350631332
0.21631718744711473 0.7419464360137441 0.818478758102251 0.02732807374472696
0.23471965263520453 0.7606864778900454 0.796114573791195 0.02303544175729572
0.21284096028104005 0.7491365132355692 0.6970058179160823 0.01733939139495035
0.22348009725365076 0.7449677320361722 0.702992400038701 0.010668563876698175
0.22278625082485912 0.7514297448036176 0.6666143894704694 0.01978679580011359
0.2146948130334506 0.747723527368507 0.7297510068011374 0.009837976425229699
0.21774094074980876 0.7517864949506996 0.6786244466256444 0.024610354274988824
0.21478769376475582 0.7492265799783722 0.7926782579806163 0.038867010262498905
0.21234435734605922 0.7472694587265792 0.7802835879403094 0.02537135923276604
0.22925200005232363 0.7513654265073552 0.8031003432330504 0.03644947657314329
0.22758165398577607 0.7574111547929401 0.6824121980805045 0.01483727534966032
0.23334035888114413 0.7472845548555351 0.6996124489636357 0.014706492089081551
0.2289558414288267 0.7423548933193072 0.7578608817431842 0.008183632042031121
0.25035134506638707 0.7446102582618414 0.5048626767130959 0.016387739543116977
0.23475180842608506 0.7393611316874025 0.5017707926056629 0.011138310872086093
0.23949841947281988 0.7509945194273643 0.6019643987514106 0.003873882163609605
0.22960158956540855 0.7404920219895221 0.5669150380703469 0.00478223394301383
0.24852423013982772 0.7425648558292011 0.49463678894398033 0.022338345331454196
0.2207227389201802 0.7373579317783167 0.4879076336384192 0.00657034618431332
0.23073186343163415 0.7486840944263707 0.619456092432117 0.007414057606602864
0.3424764568790516 0.6836239351949727 0.8686827415354651 0.02896702685752591
0.3295388353637723 0.7060220699388531 0.8706864145845282 0.08353168697068501
0.28457205744332 0.6861614003965946 0.8730112934358634 0.0017181515559030914
0.2812326300595953 0.7074521220966207 0.8753519492088639 7.334082897218255e-05
0.28550452529843606 0.7296234928891979 0.8722727461784068 0.09678570884283558
0.32187675008275096 0.5051166761597334 0.8626354696662493 0.058069777894349146
0.31514687889560095 0.5018868312451379 0.8633320075587351 0.063491908411051
0.33694790888930676 0.5382325455399928 0.8686227738928933 0.04207784811008457
0.20996176413375894 0.4872619520309835 0.8497638893566869 0.0014461007485124947
0.24757901742420657 0.4897396076768238 0.8643767647844711 
0.35550169038865664 0.5402577970812347 0.8568186816277906 0.041539164478594154
0.3546372287312816 0.5909007908971015 0.8737066522321795 0.05285273554578962
0.36264856610588364 0.5823348094888817 0.856060831826419 0.05781733401671095
0.3625922661873059 0.5579194044643724 0.8364258156848513 0.03309692136940609
0.3576677100943131 0.6609006829328633 0.8343662271327248 0.007427738046661412
0.3621060421837986 0.6322240762449352 0.8355526245952192 0.005638900468659514
0.3624288474372755 0.6436236689397232 0.838868633890888 0.020531885402098663
0.36294468680439584 0.5747372745705316 0.8633182946775442 0.04344388885466833
0.35826779573181466 0.5729845479599691 0.8396836433926774 0.037057923508658025
0.19674143275225817 0.5434013154725768 0.8789968332987607 
0.2629239204739538 0.5596828819571621 0.8743736185867687 0.0006695595119391019
0.24361137958415768 0.5939283551321124 0.873889347977759 0.00022530476291759407
0.25850916824952797 0.5863058569038201 0.8775918193136744 -6.455907778131065e-14
0.22311031029624417 0.5762380385076794 0.8739622553745855 
0.17900592422910774 0.649425354540866 0.8746565519227667 7.880433262041013e-06
0.16910233386282486 0.6128396322890878 0.8767152868691283 -7.97523379022373e-15
0.15382941213717047 0.6243569263783479 0.8760315350481811 2.9788562908609967e-13
0.21345241420318894 0.6178891856823735 0.8763974777498343 
0.29666065301724165 0.5254618243125 0.8743555814651651 0.0649371420207983
0.3448200767150626 0.5180576085096916 0.8647798159380684 0.01356077127377994
0.051291952862339826 0.5510038379884878 0.8687907897308839 0.013460933484995784
0.03604439394767081 0.5578676334985055 0.8672786206721484 0.0606410805839914
0.08794688468125372 0.5505157274037487 0.871151613299837 0.0006674301008270118
0.07075337523002692 0.5376692048775429 0.8704530230553547 0.0016035396899068814
0.06180646649708374 0.49623039927586915 0.8694766176301061 0.014083185479606262
0.07954031459165256 0.7356566868703912 0.8706310640192939 0.021375914545581774
0.06799808717409364 0.6765990765920676 0.8770487559877843 0.008868224330436027
0.07581478527413929 0.7140822091426836 0.8725655788068101 0.02971325522423299
0.13326655513275643 0.6007951740079313 0.8781153484518645 0.00101237699469521
0.015712897643266676 0.6634115679432446 0.8535510900759481 0.03302419202735192
0.013068408652424184 0.6813471110438536 0.8397728968445425 0.014785715387304395
0.027186954172615664 0.6934757886992592 0.8659063014380032 0.025848545046983334
0.021896019677322846 0.699447106785487 0.8486774647342343 0.016472031356808955
0.03283747323263069 0.7104604208615961 0.8329022173475875 0.0057516995539567
0.051323022929691715 0.732883487060695 0.8547512444463711 0.05557932928371264
0.04899088129833802 0.7459034650284637 0.8561096120931495 0.04128064311968884
0.04633829180155796 0.7545455135638673 0.8386333573414059 0.03960832200268191
0.34462164601347695 0.7055661883231069 0.8395405116421806 0.03670300146706424
0.33783780216241477 0.7062178478490007 0.8676307470648231 0.07396193127613665
0.353047658971324 0.6974357253223362 0.8570885782944337 0.03621368720491692
0.07041499078629253 0.751158535163644 0.7737623655072672 0.054815718399816464
0.07506296485766197 0.7543260621734593 0.7137721301550648 0.029072332140205433
0.06502825208199968 0.7461296220010848 0.6972956452489091 0.03280134143987749
0.06437508170100154 0.7557015718050452 0.7501849902401603 0.049499450631474866
0.08331383419365103 0.7559377610059015 0.8111031183239188 0.04465491114472985
0.06688558678774474 0.7483954893554172 0.6056057710240357 0.032192133393975184
0.0789018826288655 0.752569602342712 0.5380786413894786 0.03875959583024354
0.06920909325744135 0.7445167545176345 0.5814833026717388 0.03158354586719374
0.09200020607019722 0.7505962577003342 0.4942542980096544 0.004828310294006447
0.0739564259058087 0.7437925858301982 0.5224663341250521 0.035067715938197436
0.06489308913223217 0.7436707176051419 0.5568872579521543 0.03797445608681048
0.12419236594735565 0.7440235243857907 0.5893325368967132 0.01677245541995103
0.13897660929154035 0.7559390495775578 0.7760116267632469 0.006292216662527936
0.12794896739548545 0.7523621262550312 0.7427112150053942 0.022661823460363092
0.12367472148121697 0.7476689442479716 0.8184390762556839 0.006761390063170798
0.12039456649187585 0.7508524960300926 0.8091256250607155 0.020817704253588025
0.1157137844304023 0.7500005694007202 0.7724774178930671 0.02413800596037816
0.12645029795651314 0.7518083739293369 0.7192675553790044 0.01282336910129664
0.12226700323993701 0.7507935701624676 0.696013333543647 0.02476782061606042
0.1168975452352142 0.7474748597039101 0.7644474152835636 0.019931703913708153
0.11668690587361047 0.7475302895642029 0.6657735720706004 0.010663156499636256
0.13632464912585238 0.745226954544022 0.726068257617607 0.008721055600580724
0.03325858407217976 0.7061158098847871 0.7641036909381287 0.008234830214408415
0.01255018123336833 0.6618606296647388 0.6664294864978411 0.026533855153493616
0.01407828071484628 0.6414651144687482 0.6573200984132475 0.013067897477758415
0.022896426996521634 0.640090710693197 0.6352184846312711 0.012279515655532664
0.024324045354861223 0.6213095120369323 0.6626746348503997 0.010693758118742267
