x y z curv
2.4370647059134316 0.1629668583514448 794.6104399153544 0.018788961518338747
2.4423954782321013 0.25144689598352266 794.6123026778248 0.00983606654296366
2.4433701463697473 0.21152835189521213 794.5990999603551 0.0019458340744931677
2.445738745737521 0.23313096183610466 794.6029761556272 0.0020863991906804043
2.4371848066625503 0.16876161043499496 794.5946128264422 0.0010429522065393574
2.437590598747935 0.2636243778231599 794.5847712822499 0.0021266491302008514
2.4428799521429174 0.2350476877211915 794.5814041846005 0.006472149095204427
2.4448139557653983 0.1957665119718826 794.5819397836742 0.010870037306268008
2.438504223039764 0.13179556647732252 794.5857319613003 0.005213493989279312
2.447182038897145 0.24131814130332574 794.5599907133122 0.010415220050345704
2.4456029860408983 0.20825331631780616 794.57664940477 0.00634169725010547
2.443987794116291 0.15964503297850716 794.5600742775016 0.0018785039702710732
2.442622495179795 0.13719835331512154 794.5548749920887 0.0035461134239739615
2.4447805499670574 0.17855818627145212 794.5579071324352 0.013738576286752685
2.438414572246541 0.20214362189823065 794.55685231132 5.603713489772595e-05
2.44250400626681 0.16084349513494306 794.5455816199528 5.835054294182219e-05
2.4514448264651176 0.27096770464727055 794.5472038662323 0.004882274919319774
2.453931179921209 0.24071549318261018 794.506333162248 0.005607554277581041
2.4451924874893267 0.2377694990179138 794.5291087247421 0.0012582407756660365
2.448131287806969 0.261513798811031 794.5586383041313 0.008855733466926087
2.450404592918642 0.22064133193720373 794.5263465493266 0.007548082459172117
2.4540642610868537 0.19895225977500214 794.5117497813163 0.0003822824404935854
2.4463815945773195 0.16261977656542748 794.5201067589607 0.0035436253104968976
2.4480224995896434 0.17981713411156672 794.5095977823282 0.003562582681853123
2.45061093773376 0.15892521116740288 794.4972852240697 0.00443342357051134
2.4558062730401993 0.2649979822705601 794.5103621935814 0.00559582758754341
2.458551978371381 0.2492772723615317 794.4875996949842 0.004483067297516233
2.4533806181318485 0.1908449266492352 794.4637745821266 0.00404153123028206
2.4541432994584094 0.21592929521241705 794.4880175716323 0.0016986449512418195
2.456714057582966 0.26138221892211805 794.4676938419227 0.004713836376816792
2.4492110274189813 0.16717501748083086 794.4727463128999 0.0028675604763480204
2.4557415699249843 0.2379198179246671 794.4932543192461 0.005196648192312776
2.4610830908201637 0.2784145174860131 794.450993161613 0.010641712403490093
2.4544982809475755 0.28810102066282534 794.4631167476965 0.0055051900348247204
2.4577827074046676 0.22388428738132066 794.4667509971877 0.0040051267786223475
2.4562575547164553 0.2739034498657587 794.4881189227467 0.005248218644486232
2.45269982583242 0.14662423180671158 794.4757124876395 0.007614248645399319
2.4526542403259626 0.18944953578637436 794.4908288055633 0.0030110710597880588
2.4513470840317813 0.1341722316402755 794.4922637291155 0.004311907640226282
2.4649122168494975 0.24808411517731285 794.4510842100427 0.0017634348306461215
2.4551917221866177 0.197266220592684 794.458247825552 0.006090770372079344
2.46249483535107 0.2224158147356582 794.4327336429044 0.0016084676825285167
2.4648739838228577 0.18197383385343652 794.4293855982249 0.001157311388537247
2.4649073618069 0.16326051203537675 794.4199304970211 0.004002105817471439
2.4561611914810553 0.1637989535932229 794.4507129521955 0.0028070836943670492
2.4600526265805462 0.18019823090011 794.4450409925516 0.005063846950569234
2.465980491857291 0.26323658783607956 794.4155504601028 0.0025314616427079386
2.4699737317852017 0.24814663919648958 794.4063381641213 0.004118257500395864
2.4590672926172554 0.21211365910275654 794.4234681809363 0.004860207539390486
2.467111739869673 0.27068451617636025 794.402010743992 0.0007480392815021372
2.4638116994605284 0.2137281406771225 794.4110759675142 0.008219579535830785
2.4691843529991315 0.22788273749222412 794.4021545814562 0.005053579690497476
2.468243202725622 0.18573548993463868 794.3918568494348 0.0005643959067003117
2.46619469723524 0.1736959764475279 794.402634334055 0.0006814274648772453
2.4663877924386983 0.2093435349992812 794.3853428896956 0.004138773578381444
2.469272164220433 0.18430627738289965 794.3826340076769 0.0037268057407019773
2.471614959506924 0.2291859797846166 794.3874036031391 0.00221399081192578
2.4741733574436022 0.2676438834207928 794.3820331217536 0.004958115228970973
2.477723015414908 0.2842065667064332 794.3544320390583 0.004310914207948797
2.469912471074478 0.23681005475795505 794.3680477130675 0.0029594468687201437
2.4769346574137012 0.2592866533551172 794.3683636028843 0.007264451029533219
2.4772853398086925 0.2725177542354584 794.3667677290317 0.00689866277991212
2.4707159929521403 0.1718646115299122 794.3641051956731 0.0009220407236762532
2.477206386931999 0.20709152835580963 794.3524940030343 0.0003813380555369652
2.473977793416526 0.27367577629723805 794.3367800615355 0.005584440007662161
2.4749717273808813 0.2210342312355781 794.3329050633372 0.004694003446738137
2.4773116363004677 0.2517482112201893 794.3381423380054 0.00840434721345782
2.47736316151328 0.19965267060662134 794.3136284931559 0.0046770583791304315
2.479793112866709 0.18367816209147345 794.3082320962476 0.010489060501557509
2.429566685411631 0.09361501149013185 794.6625607088749 0.009377273319486132
2.432653350259845 0.08973888612378098 794.6499643486418 0.010288200750179251
2.450024758220984 0.5473149628716842 794.689779406455 0.0628976657771348
2.4557234295524477 0.5059094538454144 794.6935804581514 0.019610818722996
2.4358959582057067 0.06924802623799871 794.6816572178348 0.0067313487061542755
2.458184917679219 0.5274085651998668 794.691517723977 0.04518404088932152
2.599081620762884 0.512177044074275 794.6982213507991 -1.3583695993439832e-07
2.5371080569793145 0.5221522715157351 794.7026555665414 0.00010007636182767627
2.565792046694729 0.524638219238681 794.698059153916 0.006667688228081488
2.584902153779912 0.5618430602655039 794.691204021557 0.08489951472206848
2.5608289437408414 0.5460372096104593 794.6964993164531 0.03865794926422088
2.5726994567986035 0.5601183195646213 794.6957386578858 0.08896886261114031
2.5922714076118645 0.5255091715563722 794.6971391848205 0.010792679894921562
2.5323857716091025 0.5439852164580362 794.6972353986376 0.00691236514636546
2.510908591096714 0.5419447666894621 794.6967933145678 0.0044949562357516955
2.467947582429438 0.5585520009685458 794.6997278164647 0.07656976874905908
2.469417962399279 0.5147575428800754 794.6982101455601 0.02384165895708695
2.435389930919156 0.48417942519897206 794.6827607711217 0.04364642477662732
2.444441426913839 0.4114173797099325 794.6907586237063 0.05293553785170487
2.4571243263683997 0.5190890303635184 794.6923225985066 0.03457190605610038
2.4314261694386397 0.12313750299427828 794.678309996771 0.016859207371761303
2.4295204612872925 0.3319334938293588 794.6841357943767 0.00858813776466274
2.6128284552582866 0.5589968758179956 794.6974246600697 0.09418638904581805
2.597806046081139 0.563795972282017 794.6891125872379 0.10851084532336283
2.600555075248382 0.5594108314558262 794.6978173357434 0.021936707114162266
2.6149223524134872 0.5375419860936266 794.7008983981336 0.0110754638300971
2.6771232569370933 0.5156387582812123 794.6965420117317 
2.660329243036205 0.5593122269395393 794.6944967309005 0.02049746301266184
2.712277730059994 0.5118116264450668 794.6960813718513 0.0011838370255814773
2.7565552227565164 0.5041123171800411 794.6997131082371 0.05513267232031902
2.7747042309151126 0.5330421715458922 794.695889846744 0.06644753925407201
2.761127618092876 0.5501718284080866 794.694760125524 0.10256674408619053
2.7959153155273118 0.1517330882990581 794.6926232751275 0.006951679466690254
2.8007387258230168 0.10114885111448753 794.6866032997538 0.0036809521811836865
2.7927244207392694 0.28986588313133094 794.6888967912613 0.013276996717108408
2.778983262933384 0.5519382235527021 794.6926113302139 0.08813592454136089
2.7718890043146107 0.5001900108218524 794.6915212376857 0.07555495972848468
2.7981320744500064 0.10556608798047759 794.6800706471286 0.0037527566362683426
2.798105731425968 0.14680442618464437 794.6799323320591 0.006080098858207414
2.7949499252729346 0.12892564100049528 794.6789824775844 0.008461022041451648
2.800249368002336 0.09949997193945737 794.6577684749556 0.005858347083206918
2.789604052181898 0.08779512183861544 794.6332761611623 0.006393559900531375
2.7928224296151134 0.07087505039367321 794.6479672837964 0.01680573943181811
2.7821338598801684 0.09211803956980481 794.5684441703884 0.014166318659423882
2.7798975392924663 0.08127913819424963 794.5909046941733 0.014242538889588152
2.7866426384642433 0.06416241211635632 794.6188658304537 0.01004829223372425
2.786391848998334 0.05112732297994102 794.6456237754644 0.010468256310205122
2.7852795650671727 0.07621198515922323 794.5700938006879 0.012954421751039042
2.771729043456168 0.038232733435361335 794.6495661052376 0.007825692511105698
2.7747747593260677 0.06169381680799869 794.5872700059233 0.017653238496949084
2.7709774120560025 0.10284715667900088 794.5106786952111 0.004872150933439439
2.771210234174573 0.08371643068356335 794.5224073872297 0.004522155127920622
2.76537980026361 0.03970945719332037 794.615926665662 0.0019424421073397891
2.774465075387443 0.05506374913748237 794.5438022401167 1.385657980670397e-05
2.7614475375339826 0.045514485172937665 794.5727710192723 0.008405019774761048
2.756676809188776 0.09827251435796495 794.4417538511074 0.0013621564942617988
2.762811844908844 0.08613532671073525 794.4836227400076 0.0059496041016068625
2.758281910943379 0.0700656015088296 794.4953349942833 0.0012694653144875298
2.753282279540392 0.041901225152675366 794.5592480450275 0.002565979107917966
2.7496335558071863 0.030136065476192696 794.5913432815573 0.000943732402308273
2.7594767058830274 0.06873305840917512 794.4582879419264 0.0009648052114174368
2.750369556739612 0.10933464516271722 794.3811477830694 0.007575995229921693
2.749676134207826 0.08331167429270114 794.4190152739559 3.200259564036428e-06
2.7308776267924877 0.04430782129047919 794.4730735185093 
2.7308180893591993 0.0687564422518286 794.4038589874651 
2.7373771998589067 0.09525156815932637 794.3524493726128 
2.7165090627170594 0.09652826072724169 794.3175555027226 
2.7301473722424334 0.11723128830808849 794.309329933424 0.0021663172323668446
2.732609732060703 0.1256818981752279 794.297944885008 0.0023724361933779477
2.7362477367605273 0.14074462794422218 794.290994655068 0.0031684672763661412
2.741550005144067 0.14902987955622932 794.3024690456382 0.005316991038372427
2.7368455050921736 0.16444872798558288 794.2789659037941 0.0001953161446518566
2.7588153935937374 0.12489549946636772 794.3558143305912 -1.4965797075281874e-08
2.753630628609506 0.15484348278991272 794.3278971232633 3.2438747263707954e-05
2.756248393594439 0.1390281160782031 794.3641042620683 0.016940655524859315
2.754696409961533 0.11391875800602869 794.4115594854239 0.0027247047537335913
2.757179142642021 0.10962857241182841 794.4256369821397 0.0007144028650733157
2.7421322520499456 0.17312729573237096 794.2940246128534 4.8351556335823437e-05
2.7367085023220032 0.22651672257303457 794.2855649759452 0.00018082362272078635
2.740846233524107 0.35206854628990875 794.2787492542437 -1.1552293662618675e-07
2.73484668725487 0.40424606796732526 794.2982753494907 0.000413776650070721
2.740280686236244 0.3636658258267743 794.2873629349754 0.009051886674310757
2.7390007882599705 0.3978300466946149 794.2792361411657 0.010716888423003668
2.7413930368988035 0.4156245933260748 794.2727396043188 -5.916640497628706e-09
2.743938794804448 0.28261615176445615 794.2751343290959 
2.743037095729757 0.303403963994893 794.2757875319569 
2.7393099882046505 0.23918113133659175 794.2934600668164 0.0010995453772019673
2.7471804479083133 0.3318299103811188 794.295820934227 0.0009144369120940808
2.7439051881683203 0.3375082122929828 794.324247861057 0.0021955009832837196
2.7439233621564174 0.3117733553381628 794.3150874142904 0.006537624931141081
2.742656976508387 0.2532091117869506 794.318808098925 0.006859131714679078
2.7473598943763498 0.29223896154461115 794.3213333172292 0.0022238614614350665
2.747026616506792 0.22953185352134198 794.3180994119053 0.0014290043281238614
2.7404926639187526 0.26436720061642544 794.305777776516 0.006415507755980548
2.7514366478092103 0.18683565165579238 794.3153901191366 -3.703424213714588e-08
2.7405603256308155 0.43932954651174133 794.309086253967 0.003623923783624221
2.7504180106832745 0.3678455315007171 794.3234305456193 0.008517685135673546
2.747260713181407 0.3255918334581851 794.3297669997241 0.007723181089959225
2.75114488357816 0.33032021035694603 794.3483641433323 0.0021617458210284966
2.753015371852046 0.3065796712971889 794.3510025073379 0.002697698518564368
2.7389646599470265 0.3957807053411228 794.3274332236549 0.0030682961769394456
2.7483576358358976 0.25251828224372497 794.3362848649899 0.0018050952219859804
2.7486563084693056 0.29419220564735915 794.3466622981325 0.003441807886555894
2.7439441624867906 0.2716672415730101 794.3395251556418 0.003207531105892944
2.74674037897608 0.5025099524417092 794.3185744727983 0.0018749016402201735
2.745090713003986 0.4920548390218067 794.3167049718189 0.0025268826832942504
2.7389205521875484 0.4652233788583112 794.3227958051092 0.0048975147503761175
2.7508596405025867 0.5416154364934392 794.3222277766386 0.0008146612231062393
2.7398606896827475 0.5732439391433112 794.3455614497091 
2.7390539447886932 0.45852944649119337 794.3337697831698 0.0038378518957698374
2.7468728944411516 0.5059081946634714 794.3521116789418 0.00416152414061242
2.743865254978 0.42782614320596 794.3391609254717 0.0043814331420457125
2.741856010561799 0.471829676531455 794.3393713577834 0.0036240554365489126
2.7444138910230924 0.4601714255841581 794.3570651734714 0.0015511812752940807
2.7420711799595754 0.44183014593298375 794.3463634345208 0.001759854519717589
2.756736181306473 0.3211785383424606 794.377827698943 0.004332103309266967
2.752651413288796 0.3728533239050874 794.3548371365611 0.00385854887922212
2.7531136703475196 0.39847314405055007 794.3770299527076 0.0016945221301901939
2.7466884458946477 0.4255918287213517 794.355652814342 0.0008439701196344469
2.758220841144727 0.3648510512032007 794.3727644631501 0.0002714623453282322
2.7518574854616222 0.4225368635750714 794.3902564556763 0.0004895207909806403
2.7516612413096033 0.5449772075324659 794.3787045296931 0.0025972165746961638
2.7456152455072025 0.5005656728271004 794.3635267533909 0.0032216941424191774
2.7424163400092847 0.5285537853890113 794.3547981843712 6.065032640005067e-05
2.7521953503905987 0.4847717795139559 794.3905937313117 0.0030176341132477644
2.7504681102348845 0.4727848270956021 794.3813200569543 0.003024843248244487
2.767554198093504 0.3041660686942151 794.4418446242221 0.001938648296416991
2.763252168058679 0.309567143342125 794.4026866246347 0.0011325636183286507
2.7607929145144525 0.3459370285964418 794.3850855131324 0.0009733593497402046
2.7623904091418012 0.28808684723649336 794.4052502995221 5.445775869141664e-05
2.7570433688556473 0.37984073237404525 794.3956933586683 0.0008635813368758767
2.759224891917582 0.33815331369496293 794.4095271852717 0.003942030280917562
2.760083601545765 0.4105759758784575 794.4112524744279 0.0005598699648954666
2.7634626800551314 0.32817275760715714 794.4325658684011 0.001964284580502401
2.7606399564003397 0.35074879044341917 794.4244696107024 -9.771506190644443e-09
2.761983294256096 0.4055070485234515 794.4378282713199 0.0023296772605395488
2.757235043903317 0.45359683874765466 794.4178641227852 0.002141277259506381
2.7560757054032954 0.5561919150406792 794.4475802653519 0.023914194457715497
2.7605302248797434 0.441540871757776 794.4508530140434 0.0037111022056724526
2.7520060178721737 0.4451503286083166 794.4005884086581 0.0023890047299509943
2.758715653617832 0.464696411891049 794.4175968676955 0.0013180041525760087
2.7481159911917867 0.5070737941056473 794.3949873337071 0.0005436502846691453
2.752546025444785 0.54754502157282 794.3953366929334 0.0152534101617973
2.7546559746704573 0.48693697730936963 794.413181538961 0.0027307630145658925
2.7535109309921846 0.5043528261119772 794.4146064861177 0.000793818900421982
2.751927621275282 0.5330488380980538 794.4244688112184 0.003552761758957817
2.7503340526996483 0.4702624538400859 794.3862570375555 0.002856012225707976
2.74951622728254 0.4584813442139307 794.3907163075826 0.0013129571247366086
2.7664621121524258 0.27193392763539653 794.4829403345439 0.0013876565102796886
2.7667955663107016 0.2800968501740168 794.4488673003683 0.0031175681065416794
2.775453915953314 0.303566612178345 794.4876640463028 0.0027606974570013477
2.7695230512764195 0.3036904193645028 794.4613590115662 0.004518563144305401
2.762291320331504 0.41260635083698816 794.4508125370406 0.0021095629631604543
2.7718528652918373 0.3382585243486447 794.4703057696785 0.007980099280479774
2.7725709233937224 0.3925943048190478 794.4809803464501 0.004861685641912802
2.7682062090656667 0.3399084999955607 794.5042506952658 0.00375987168237746
2.7657827883549144 0.40709052064870493 794.504521562087 0.005019854995834437
2.7702324838530514 0.37120432385962526 794.4879391686566 0.005503836029448804
2.768351902506827 0.41777095001781195 794.4875891827141 0.005323725505434532
2.774069442829499 0.36505377605484257 794.4759280426416 0.0026599039050586738
2.772508901770403 0.3254467667498427 794.4841784921041 0.006424661061839296
2.7694871786743462 0.37906321118500536 794.4655379414672 0.005446834282065568
2.7659469777980963 0.49788861568196285 794.4710539740665 0.003522370593287831
2.764519424049077 0.556036461615721 794.490303721222 0.021541691220780562
2.7603610340869227 0.5117073498186291 794.4919922255605 0.0006944336496370714
2.7599487638262254 0.48275725472094416 794.445738253102 0.003963636236234626
2.7641237037734063 0.5392602393794175 794.4722347100591 0.0003552941571020662
2.758452173257423 0.46050633770435534 794.4458817515722 0.0023173120169342936
2.761722630428741 0.5261603062895617 794.4986558366451 0.020144634547935584
2.7576720117469473 0.42613558670662355 794.4413989846712 3.0627424058334336e-05
2.761149092583087 0.4585774340761383 794.4707234013113 0.002034611044618
2.7616214357111963 0.43247097088620173 794.4576230365407 0.00129706463802913
2.763659723921501 0.45413991245591967 794.4903567401096 0.010220230538089037
2.7661170168327596 0.4701653035033868 794.4742145687859 0.005240084517366616
2.770090529674366 0.3237473466766778 794.5086319309953 0.007494100693536782
2.775076236297458 0.3546934752047929 794.528546798365 0.0002538691775152921
2.774378896098547 0.30066843096119966 794.5245950745629 0.006773080794900061
2.7775573338362274 0.29244673106653646 794.5325344621524 0.0025795861959099086
2.7726617465351096 0.3067356107430371 794.5491969451233 0.006875644868458459
2.7717071929999357 0.32841550387748836 794.5191366628634 0.006324054090785426
2.7790078501746485 0.36831247101302184 794.5508701726859 0.0002191777382199096
2.7783708934570925 0.2747817783276544 794.5626306387193 0.0016668249568413456
2.7764196528206564 0.3441063870201726 794.5429731178085 0.005303843410533798
2.7733367158391973 0.4009544822226379 794.549332586612 0.001992402891355568
2.77109155106256 0.3751536746499308 794.5200476287558 0.0034399176471589885
2.777586159356557 0.31933922927302716 794.5508745660248 0.009071617177772755
2.768674550046068 0.4143059483716156 794.5250966566559 0.005741020254304768
2.765201498962122 0.40566052219750476 794.5124452026334 0.005935003447982789
2.768782585071987 0.41325999756624565 794.5575670865956 0.0020521552565837746
2.7741251128319355 0.47359921227995944 794.5090236759513 0.003053044570963658
2.7648718798478513 0.44739708358439556 794.5027929504108 0.009478165208645029
2.7651675584202122 0.4950528982041429 794.4990839294945 0.006341747326768663
2.767227372338867 0.45511358755408493 794.5072923340425 0.008439071700157279
2.7699988590583264 0.47723608237267434 794.5235369169081 0.012133980307425516
2.768154664693361 0.5222572263870292 794.5306131943701 0.021530944956917653
2.7713668571712597 0.5395027691225004 794.5233881245949 0.03132732789006854
2.7662825448753448 0.5327182807197645 794.548710562567 0.027662251668967186
2.7696898402968384 0.4543490885617799 794.5338613279222 0.00725632269594188
2.772432355111905 0.5092445960283878 794.564286497218 0.0016309535789338378
2.76798944251934 0.47501244798989056 794.5396296191108 0.008568407893446095
2.76630666846864 0.5498866380183518 794.5611856540835 0.05217649610238007
2.769209079081587 0.48727835492787774 794.5493178000418 0.0014897004373199986
2.7809436335988647 0.3368003625012779 794.5657200133335 0.0023650843108899517
2.773688007067008 0.31873862473503156 794.5729643153978 0.0025617395988320212
2.7796714101462805 0.27165295639824244 794.5795345107302 0.0017131690102105113
2.775196574483182 0.29919186804023046 794.5737420141307 0.008850447740076995
2.7799519568458306 0.38976255067740584 794.6025400242966 0.00812727065601556
2.7793792555071457 0.391078737756111 794.5831891999956 0.005241068826382758
2.7786662577422434 0.35765296766987004 794.5974221202359 0.0018512836148057927
2.772852509981369 0.43854801390028386 794.5770570628555 0.0015016194847619223
2.7697043339639045 0.429991830261148 794.563437039598 0.007559870248541459
2.774448639718656 0.40868099794283036 794.5890044899361 0.00935006883199364
2.7731636050382127 0.5170980675332758 794.5893342906622 0.0036525947556024637
2.7742378747443155 0.4835578001982397 794.5965477751407 0.002504173000845012
2.783011485440483 0.4631001518324909 794.5872106334116 -1.4512842735821105e-08
2.7705728095618496 0.5045174888140789 794.5834689213934 0.0007489513904823843
2.771989197127881 0.5436916007523782 794.5842028233038 0.033317661621547014
2.7715724890622853 0.5285896288065386 794.5819926629041 0.005711109913235173
2.7801998976578455 0.33117038507898405 794.5987047827549 0.006982671351258988
2.78786398629124 0.2704825874816285 794.6202208635234 0.003014790311503358
2.7837222494284997 0.28403586268377035 794.6244880380999 0.004611697788274621
2.784882441203301 0.31135526190273033 794.6109911590572 0.0007352129574642907
2.779598452150334 0.31092028716436426 794.5990106560743 0.002146335621344996
2.7798404531752796 0.18398139498918695 794.584349237504 0.003270393863701692
2.7833149196875673 0.17156631337157752 794.5737731438919 0.00600279009355321
2.7852277884617838 0.15603584254185415 794.5953108619863 0.007671444800476956
2.7870606574895107 0.21971530525505284 794.6045861259453 0.012521064177332347
2.781096191672212 0.16683500587608793 794.6063692456827 0.004242112520243093
2.794981515297861 0.24032555202473632 794.614046023625 0.0011655190818075903
2.779834138428823 0.40405233271819563 794.622288902728 0.01448691244560926
2.7841617118999644 0.3455252264374015 794.6292668150991 0.0023862706965187544
2.7829866568905186 0.2931479147135173 794.6307696643775 0.0035193841100972286
2.784641169282612 0.3863511621593749 794.6193158381602 0.005535445044599881
2.7805768001576 0.34600321495642705 794.6021364408458 0.0050424135138989285
2.77867963293523 0.41051615203295083 794.6063365258077 0.011784553662111275
2.771651073366303 0.5587179733558298 794.6277757657125 0.04891716571534205
2.7823988284942076 0.43633073194519784 794.5999163074091 0.009504532858221955
2.77846840218831 0.5493446978453316 794.6002365592133 0.03467849483037427
2.7744344639093894 0.42394730594088215 794.6177845562487 0.009887927961867316
2.7865438633418695 0.31719517186273805 794.6354335368128 0.001642028011198366
2.786109721814263 0.28268353694675996 794.6415423459144 0.0033247793157279173
2.787857367603058 0.27150813949227104 794.6420891041415 0.0035232110587700765
2.7869885979511237 0.26469757353208334 794.6484054330704 0.0035839498977399313
2.7809937221355927 0.39422760794395356 794.6247834851506 0.0021841489456997723
2.7903834152549694 0.36432239358685725 794.6454787276273 0.0018628617307433466
2.7879617762115307 0.27622337170454164 794.6460572235777 0.003342743660127748
2.775786168019743 0.4225382910529064 794.6437149492267 0.007840537320730992
2.7825800950507866 0.4478240848893617 794.6431885926928 0.01870780658310051
2.783937990109394 0.4517681273893619 794.6401034397214 0.017271067705334642
2.7790822141345504 0.40664743018588123 794.6389871683834 0.003946533232590241
2.7769268581441087 0.5087108655698549 794.6518187712454 0.007683803159426174
2.7759550487038824 0.47798452075029246 794.6522965589747 0.004078733848190869
2.7781394931196237 0.5053398379908065 794.6240372669464 0.010893058427908876
2.777935481248103 0.5166608474008136 794.6353249296735 0.0037365990643617626
2.7732764500139186 0.5567111423976513 794.6420237115932 0.060216612973858545
2.784447505047504 0.4799618589911662 794.6279501882512 0.005052931203648837
2.7816121524879938 0.4609134492482014 794.6302199921657 0.01653570633850785
2.776387423949199 0.4311564583577748 794.6332145786793 0.00968367140834629
2.780639345376515 0.5139880799125828 794.6671274429301 0.006953912854817408
2.776948117607061 0.5445204012450447 794.6589056623154 0.044839517704056364
2.7787295626063266 0.5197237960241171 794.6705934238206 0.03529848952732315
2.776798094452988 0.47772398895943413 794.6831006625584 0.07304758228780693
2.786651397229349 0.437688399684746 794.6726994768059 0.007349719626577869
2.786390972444388 0.45777963294942603 794.6962972005961 0.06694229424565802
2.790600966580871 0.3975872405566985 794.6746540264277 1.0411748639101668e-08
2.7892708256365357 0.33430891458186973 794.6636019245019 0.0028012654095145723
2.786011108361021 0.32125575946940554 794.6759098716524 0.001732668791608427
2.7881165291670675 0.3588157772690715 794.6627931199304 0.0015638545336283173
2.781757069472832 0.5083478628311471 794.6790954854997 0.04131488741684224
2.7744461186724103 0.5378026508701959 794.6744568927354 0.10448406645427993
2.777098500384634 0.5545821087114611 794.6630444355931 0.045928067895085606
2.7868009403143543 0.25395037474568954 794.6655895517605 0.004652445329628248
2.786647319849415 0.2673985756908258 794.6726997720637 0.0036671235680324514
2.7867597823042654 0.29705882837328196 794.6677144062711 0.003213233921375477
2.786048084907054 0.25469940400733593 794.6603459609208 0.005359240103025581
2.795154051514865 0.22796706227720887 794.6844425131047 0.012371424773833859
2.7903608155480235 0.23194570882755777 794.6588320373044 0.004428356957610636
2.79891464093771 0.19960601807341732 794.6750261135116 0.004203709177244919
2.7931019331796794 0.13449676908724592 794.66762035012 0.007190328420147157
2.7924531574499096 0.15863687111613092 794.670119574688 0.003050423056331271
2.799376640522733 0.11116176954327688 794.6558925673866 0.007024140637283887
2.794299158408136 0.18557558158595128 794.6604975754707 0.014591733060671973
2.796072632535928 0.16391822931846026 794.6500251430231 0.0023718414428918993
2.7928898476018653 0.12270035232487696 794.6464845932554 0.011730861197104852
2.790362950433874 0.1952543507467299 794.6328003849205 0.011116954964017682
2.784826707731413 0.21482274846847482 794.6398021942321 0.012775702783056106
2.785207692969893 0.23137553098228075 794.6337989286679 0.007309753211671616
2.7922088905173914 0.12821488159818736 794.6255005468469 0.010943221264497897
2.783639495822256 0.17127104462594467 794.6238765330954 0.006221506724634818
2.793278589759728 0.1303187445463718 794.6203999353086 0.005146514029844743
2.788290701844402 0.20137686119448872 794.6185827119574 0.010751971807604132
2.7882516090109264 0.1123171655099699 794.6221209764118 0.0091623986658531
2.784987425022925 0.12621184970247715 794.5935459116702 0.006319030420697592
2.7826816937292858 0.18443393649730289 794.5737467319218 0.005476867063702343
2.7832635560649175 0.15922749290498597 794.5765661391937 0.004632899401410794
2.7831571692162624 0.1492821591488936 794.5871490366125 0.006930759355971154
2.781636928788808 0.14658467878251588 794.57667820669 0.003509590475471791
2.784235651033367 0.2419477388546228 794.5628815500653 0.0038661530922488386
2.7830450644740523 0.25131376305391107 794.5391456622324 0.0009685475543095223
2.787514839385389 0.1979390444191321 794.5519673206725 0.010284851685913907
2.780924840304825 0.14878262924471677 794.549836103839 0.002211846910568571
2.7726326276479054 0.26018509713558674 794.5094835070622 0.00046439941010499174
2.779203229820849 0.25574540027909115 794.5616215338554 0.00022966562728571777
2.7763697685614255 0.2421879806468776 794.5163139141949 0.006121044833769078
2.7775443893640612 0.16476715887447593 794.5344750437874 0.00249817493842886
2.7847803853272484 0.18798224420654427 794.5555300331979 0.011436055685706763
2.7804393988247873 0.11692684030174484 794.531785223331 0.0051824430402269426
2.778187439695958 0.1571041699359298 794.5283197684408 0.0015640971138431404
2.7684457765672725 0.21586499118018715 794.495145204985 0.008288702501638087
2.7810525963717554 0.14723205557626332 794.4880612210694 0.0035935822005849507
2.773889577196188 0.19103135340657215 794.492714594093 0.008422619966512147
2.769643895199986 0.2306367888333426 794.4684847491927 0.007647099639988718
2.7735665241315175 0.18201817259220823 794.4763085058082 0.00543089567343962
2.7707954741420946 0.2385720804690017 794.4847782902295 0.005065538312388737
2.7677746766833917 0.25610210971989644 794.4634166982311 0.003942994606638863
2.770020055937897 0.25145534165902406 794.4703388799096 0.0030824793981114713
2.775946839746929 0.1987305800608888 794.4829927353906 0.00386235149836143
2.7686844413942646 0.21310732741586147 794.4661177966486 0.010582900874545014
2.7706633817826716 0.2213575174079303 794.4846362774522 0.010526667511309786
2.769077098111081 0.2083339682317678 794.5037016824182 0.006385769548839013
2.7754338287174827 0.1757507495229849 794.5030610204649 0.004031540621784928
2.770590496667776 0.17322696313723987 794.4597922271969 0.006904090546491588
2.7642802374518456 0.15461527853564583 794.4188595515978 0.007075990263620787
2.763616202956005 0.24518994967164318 794.4345194002268 0.0008125468794119794
2.7626976440610966 0.2250523324377086 794.4449007888096 0.00025183029905395855
2.7697100603324434 0.17778285094859775 794.443890675463 0.0002854618907657979
2.7576125472916773 0.2730258460973912 794.3889360355448 1.9698646673044116e-06
2.7607342300073254 0.22667801850197075 794.4222752700467 0.014446298822149933
2.764057314309815 0.27550831302774237 794.4333430376539 2.9696942948956654e-05
2.7721050156989833 0.19436427856996755 794.4091646781246 0.0007312491304541825
2.7583033173017824 0.21840618232771628 794.3965936166736 0.00035530553761091974
2.7649236410545694 0.1429184068852534 794.3955967527264 0.002355442994049567
2.7541445010595322 0.2669363254712225 794.3741821906669 0.00397365251948531
2.75481907720442 0.26331381701588213 794.3787757553852 0.0022004581533883894
2.7566462589731078 0.22723185912647756 794.3812126713768 0.0007313432629813091
2.7569975167321603 0.1627169811153166 794.3813880053385 0.006357586280012736
2.7599008235168925 0.21404807500132556 794.3767319458483 0.00499861814899146
2.761493105705719 0.19295738971475512 794.3602776599373 0.00018495405129961444
2.754406981427276 0.2474846483250761 794.3551864621224 0.003316826738831885
2.7565491374021964 0.21670050210702618 794.3443060198736 0.0022525426722293626
2.754400825875291 0.17932789775439548 794.3332705504439 0.004377947871650622
2.740118677381998 0.47567401760135075 794.2985742518441 0.00702287727050932
2.7366840483789163 0.5526729889543099 794.2946364793335 0.01897277394856257
2.7360661425965045 0.47900438215801755 794.2887971913946 0.0028659371668652233
2.7353879549179387 0.49642334465163507 794.2702445862462 3.663701923607259e-08
2.741894683379862 0.5386970963945409 794.2871907804802 6.329422013167991e-05
2.755300641506857 0.16322482637034325 794.367788379361 0.006117761655440061
2.7591609992341275 0.12614581022354548 794.4137042787123 0.0038155848544246707
2.761590867125825 0.13205799679708274 794.4327500192428 0.004078188055433562
2.762416796729791 0.11462004409776112 794.4489130903638 0.002528959981789435
2.76358580067664 0.1032166604932734 794.4681249666706 0.0052071501056916245
2.765144907606652 0.09830728145155575 794.474455984732 0.006448399839284296
2.770173526763153 0.10808705961821972 794.4917023366171 0.005521231693588402
2.7746742335835664 0.1247071408462651 794.4798803519691 0.004279841016725432
2.7783698270008093 0.12269675778658531 794.5008617515631 0.003745389773883758
2.7756278354717367 0.10521801519090192 794.5331810856247 0.005419151571363873
2.781457496473802 0.1134065843012589 794.5538856361313 0.0034505896840194106
2.776118657623585 0.1264668534997963 794.5217049652164 0.008188376556543489
2.777158273862549 0.13675385186326056 794.5060816054029 0.009883296160137304
2.7662804033789268 0.13105009975750948 794.4578831580405 0.001340027245919791
2.764340835327945 0.13907885301631853 794.4404525327734 0.0008679744583014168
2.762710780130578 0.13587252828989094 794.4322310533857 0.004233204249503086
2.791078738262838 0.10974323663503538 794.5929474959802 0.003523472391337113
2.723204550224592 0.024608890010763853 794.5486173487117 
2.7287334113946144 0.03268446601835751 794.5224951406401 
2.7185524636949565 0.0074937070080966246 794.6129231761364 
2.740394026229244 0.015019877256930976 794.6209322771011 0.004910771952699707
2.757149586548985 0.027589595366343755 794.6187598479639 7.283225266520488e-05
2.746746421776328 0.02111125586216687 794.6161350813738 0.008875696720065366
2.781918992846718 0.037950124494741264 794.6752912558493 0.008241646690562874
2.7828842150061344 0.04215293750328684 794.6831935667213 0.01779199411005776
2.7497295115135434 0.015774316172261906 794.6559902957775 0.0022693335135463605
2.739360673446291 0.008470394212326076 794.6610020736221 
2.7512754040034797 0.010006966414180708 794.6835280598245 8.634537554987931e-05
2.7119538484804164 0.5507398781349857 794.691978849739 0.045434622707483115
2.724969934631589 0.5562176014192923 794.6875659851775 0.06628992081481215
2.7216212891635205 0.5424151805065118 794.6954130479929 0.0029952168382543173
2.7416410198270436 0.5465821201625128 794.6899896406386 0.06648029292744079
2.7446379519819764 0.5239929907114198 794.694397295708 0.03737663445148964
2.685371245708664 0.5404723788147576 794.6946265259076 0.04210207091406105
2.517925393100742 0.5749848659498009 794.4210687432252 0.0045957155435438785
2.501361784061253 0.5659066772926714 794.37774190409 0.005681386806420761
2.512005750632274 0.5676431413670274 794.4346139362307 0.015394172083649477
2.5060559166613556 0.5627417275007494 794.4476378905118 0.00342643943444648
2.5185495408435945 0.5665161294533472 794.4796668842822 0.005478016993683386
2.5352048101562312 0.5667964280840067 794.5061772622242 0.002214334289276392
2.555528660035015 0.5658638212336126 794.444187919797 4.615293918483302e-06
2.5593879456908897 0.5696083138414066 794.424879892086 0.0017972287505940814
2.5487054119312647 0.5630386464430367 794.4029940744992 0.001502569280110499
2.5706743407153816 0.5672809976807394 794.4764249265086 0.004684366232704937
2.582007594553759 0.5712492482725466 794.4871352453781 0.0037129678573198095
2.586317405107563 0.5721944353414626 794.5075495864645 0.0023386557710619632
2.5397275553479353 0.5732327273060073 794.4772424762298 0.0012925320551207583
2.5626617176961513 0.5707335971204894 794.49259938839 0.007186802390284948
2.4736591961409498 0.5695624085269205 794.3767482376696 -4.998890962964877e-09
2.5167705785105388 0.5681231747798754 794.3804203850736 0.003445482202172803
2.496370707831322 0.5662543622043251 794.4384778914134 0.01462388945872671
2.497552112062068 0.5655936745856414 794.4043194789198 0.04404897341456702
2.4843697521314354 0.5673019859086934 794.4183474566105 0.04057178612822749
2.5162408717112896 0.5668412980446623 794.3380410164467 0.0036471343271170078
2.529423203493006 0.5630866166039268 794.3400717695781 0.005029924111057821
2.506849648599686 0.5639501261632822 794.3518801235714 0.0024800044628689798
2.5444865340830556 0.5606323358950712 794.3755838772034 0.006276595075767164
2.5137445285740285 0.5651553255031752 794.3081656623482 0.023628316175815824
2.5267144316227386 0.5663133510995841 794.2989625043708 0.03833275996694667
2.5381206150391025 0.5621500515098391 794.315830639327 0.005911718328513063
2.504013244101172 0.5618654148626777 794.2755407799514 0.0442743287117003
2.49372989502209 0.567973515200253 794.2962785082768 0.02464144495525198
2.5141701122064317 0.5626201275939439 794.2828936199639 0.07027279128968215
2.5350611106666303 0.5595659650570645 794.2814900092746 0.012886506828885588
2.571243119647056 0.5661153444641527 794.3367161425358 0.002914056708451669
2.552312617190692 0.5637656341506062 794.3521993835378 0.010673923139022944
2.581742506900211 0.5706859101699591 794.3776347625161 0.007700947091115627
2.540203822712613 0.5665500127428029 794.3595190322457 0.007785056485575726
2.560195118537825 0.5649515752525044 794.4029827396588 0.009300421350132997
2.569318872811989 0.5670761483818214 794.2885856628828 0.0036109088814868188
2.5462850887696407 0.5606844431180525 794.3234634516001 0.0023476061949178565
2.583379831361337 0.5659168466847561 794.3179042262226 0.0029681546829060457
2.579892584651192 0.5606163396513127 794.2741999938336 0.008405877519772429
2.594455240387004 0.5671968730098373 794.2941224085441 0.005202387448663144
2.579582518854997 0.5655090238803183 794.3068998594139 0.005413977875341081
2.6074886772968955 0.5697212996556619 794.3423340402861 0.0032585143732310608
2.585071296247767 0.5748285156197679 794.3690662290442 0.002440464320994645
2.622177774267399 0.5645190063666148 794.3834072526254 0.0039363413054805795
2.6118566292279604 0.565983861226874 794.2899062318181 0.003515030270727016
2.6210647031194174 0.5663786087617375 794.2741547680156 9.175295907885487e-05
2.572049986953115 0.5651222829143184 794.3997213469064 0.011957481126736991
2.5902671766652965 0.5633761116728464 794.4383041954966 0.0018229226420918138
2.617793450011052 0.5629208029425762 794.4207094348554 0.0027991722237062323
2.6180662989639774 0.5622272060365504 794.4032086093455 0.0022804342662451275
2.5970725050789354 0.5674726277841258 794.4004026192958 0.00783952061993697
2.616770408392171 0.5638346590406245 794.4405392214132 0.005178766932531175
2.622804880961643 0.5653942532995041 794.4366821467116 0.004880402253028255
2.599673671600748 0.5674465922577822 794.4242070037847 0.0026504070345730562
2.639059241439878 0.564573852774329 794.3770174829191 0.0030642448335653793
2.6418564011267023 0.5627151364949962 794.3582556296506 0.004589788717363773
2.675371052183904 0.5646155105223714 794.3930997081211 0.006794365992717435
2.658666894706389 0.5623920069278903 794.3861680839435 0.0032558426584816335
2.6767419574661067 0.5614254648865826 794.4213163557821 0.008638550713384239
2.6863357075753034 0.5621914061586473 794.4330533120706 0.01050366135457445
2.6540496646633533 0.568966908906668 794.440371050134 0.0025587575550610774
2.643376403790582 0.5663965463633145 794.3965555891614 0.0011542866257618959
2.6476538781326107 0.5636269939148087 794.4115223793472 0.0038321072959838485
2.6724919129775375 0.5622228638964791 794.4386006301428 0.007586047438063297
2.651139568842985 0.5662597213517634 794.3316541894346 0.007108450432709461
2.670336094979253 0.5712307560613825 794.3423987835141 0.0007297477527149303
2.6799617742072575 0.5623060110135979 794.3778057466297 0.002444281038749353
2.6351314661351335 0.5657136620889999 794.3017420582141 0.003410401287056538
2.6515334162708255 0.5676926022196972 794.3016161414174 0.0038855783989138804
2.6757903969385466 0.5654575957814513 794.3058834252693 0.0022487020531563756
2.702499839294875 0.5700057704617777 794.3942221825104 0.0017139848301909756
2.717056468851708 0.5671883481165321 794.4532803332502 0.004155693356429522
2.697865562811371 0.5671409372383871 794.4166545536289 0.0025177041481511614
2.7204715633175947 0.567838987945183 794.3417829629898 
2.6962938991668906 0.5668236346815354 794.3823804961346 0.004418362228151669
2.6598731493767502 0.5663940670297588 794.4631702079723 0.009477856138697359
2.674291368823357 0.5651223881069929 794.4881310877283 0.002032873266971514
2.6666974646111403 0.5631495681664852 794.4464192722079 0.004286220519514288
2.7165374322185567 0.5636864036280734 794.4725370681672 0.0020975781168887926
2.7073003679710195 0.5634596896962921 794.484989245764 0.0064402175136882645
2.6994990490313957 0.5640687212862444 794.5070850910696 0.0070531267853856956
2.715271594094923 0.563884563077555 794.5039765555225 0.009729474288240706
2.6924062568655915 0.5672589360411198 794.4619788438786 0.0027988834916029357
2.6995690458980883 0.5651812341855058 794.4880509410475 0.004383815147700126
2.6413898260704287 0.5686918241986564 794.4994347896094 0.002144119539803064
2.671674842896572 0.5652681453217634 794.5087490278925 0.0019105711013466063
2.6427377177254474 0.5675799332523773 794.4520537667121 0.007339365736391368
2.655662426068422 0.566050118108734 794.5426085932618 0.016516847447564334
2.69223093596571 0.5663889236480218 794.5212241356795 0.0022442443324669045
2.67390038247497 0.5619601197876167 794.55694796913 0.0034157487381415437
2.6879671262912126 0.5683585907641853 794.5191193110102 0.0014980042512841864
2.7100213386548613 0.5630749817953548 794.5096652998924 0.006889657150632328
2.7232270864547186 0.5625089650935262 794.5295492363362 0.014150791557507546
2.6941024871149404 0.5660079110737134 794.5365536532536 0.003896717991392567
2.6938185715990643 0.562769626631474 794.568656337148 0.007380933931712228
2.6995127435929778 0.568052858012131 794.5485021123853 0.008697234463889167
2.6896962930714463 0.5656138769012579 794.5404651516511 0.0039657153671824865
2.7260679909756846 0.5647369790612279 794.5533591001994 0.008970221742554588
2.7315162694264425 0.5659763567421658 794.5644325943503 0.024456144062391195
2.74235365315477 0.5646815620665432 794.5461375096912 0.003580780492589663
2.754759758595159 0.5535174289451219 794.5264151202929 0.06680191469062675
2.7492081428394926 0.5584373067855778 794.5383930342367 0.03588016134848285
2.7371764196615462 0.5716011361491241 794.5069759071896 0.007998553748966328
2.7175441962245492 0.571613077610223 794.5737237780631 0.008081106912746657
2.7205570730682767 0.5633057473329316 794.6228728661862 0.008142397522968602
2.731817777500532 0.5717749973482535 794.5908807926922 0.008121051071028373
2.7703174563041464 0.5624805650206496 794.5836108605195 0.04888686692953187
2.65807574478166 0.5666244602805195 794.5585783595599 0.016132069302073844
2.685030460202158 0.5636115089156313 794.5652768508751 0.009378765811867156
2.664235905331164 0.5663227697155718 794.5887327670013 0.005874030722321198
2.686614421940557 0.565593166732082 794.6184070312037 0.009520068161620095
2.6930273901529405 0.563054714186134 794.5820601167493 0.01672249033248962
2.713292358150451 0.5619658160836446 794.615034344203 0.01270668962190868
2.6774519428930064 0.5735562846266742 794.6105697886496 0.00023446303716832129
2.6155255905988173 0.5709068993344534 794.5604844273379 0.025338732934402062
2.6266732371081503 0.5848758439542608 794.5458206290446 0.0006270060647448094
2.603354360635908 0.5674704507068409 794.5383340119151 0.009119254371514365
2.6307156378774783 0.5669176364459606 794.5905035318599 0.00419199516376619
2.6372939665310353 0.5682283130943021 794.5948861918054 0.0029316706592777938
2.5801560007543793 0.5640261404064907 794.5484975691861 0.001702856913748142
2.5578605540489856 0.5668990997380227 794.534356826046 0.002650388648691185
2.5819779126950566 0.5696067867357842 794.5141391094943 0.003294340187479861
2.5449006759510047 0.5687630307293527 794.5029796906988 0.004320731769742079
2.6069812908932986 0.5709467838203078 794.4872756575396 0.003919225811025759
2.578087008297287 0.5668659324010225 794.5616846597462 0.003679346200710523
2.55069743904645 0.5681556288761775 794.5509248276296 0.00187833537977147
2.541870658295077 0.565039569777531 794.5616697660026 0.000942265934461587
2.5808672543228135 0.5666664895439915 794.5763265964845 0.006958670552652049
2.546102705727369 0.5637503327616258 794.5873191055161 0.010007754611861614
2.5711959884953357 0.5741949262982564 794.6068582767092 0.015434383007508429
2.6124921591887658 0.5698094036369367 794.6350195813732 0.01458809306685541
2.608165438443695 0.5695981246939671 794.6211954779473 0.011731294681367294
2.5859105737596826 0.5699598766552911 794.6208597066795 0.014392353257428927
2.627459223275903 0.5736674278068421 794.6193517976196 0.00193003368717523
2.6002145895124507 0.5695133171481492 794.6009732285135 0.008808479695020558
2.4978579573658255 0.5649422586513861 794.4759614049243 0.01204269605767056
2.490065163438959 0.5659380680598642 794.5043828202264 0.006471099800269297
2.5183199509096097 0.5668808385476671 794.503498008376 0.003785439099949656
2.521310479420526 0.5639768740001898 794.5229933003753 0.001263897412800862
2.487872924611725 0.565144650783183 794.5246212628341 0.013171451340576512
2.507224619755158 0.5679778526843324 794.5576818848893 0.0004181509651768013
2.5428145478147557 0.5734294286687786 794.619489074709 0.01344861021850725
2.5349149079406366 0.5652046749216647 794.5875381841432 0.004723664330787576
2.5574489674741274 0.5605824174726134 794.6345930981481 0.012384328463747565
2.566926677422242 0.5639580825784696 794.619782542307 0.01792755741926568
2.4834371880884563 0.5650383615328475 794.5137540211259 0.014276105180853859
2.4650539344705265 0.5669980228001308 794.5346158793448 0.04679717216904186
2.4711777123965195 0.5643887923598894 794.4950507422443 0.05356027133407756
2.4724396630770706 0.5628086929572896 794.5734085718182 0.046246792755653784
2.4998021565683235 0.5626447170087547 794.5713300746247 0.0059284208144595495
2.4882815538008995 0.5630286121345949 794.5440944463976 0.01210080469896903
2.4705859317629457 0.5631359988262792 794.4736601813252 0.07003563452792735
2.488993115929296 0.5628326717432145 794.4410880586406 0.0166070378301922
2.5019323872580257 0.5631487152831802 794.5884750601455 0.0034443459592124527
2.5159319168728644 0.5660044007085266 794.6071218635918 0.003057996465083397
2.4949568178740957 0.5634100355326537 794.5858337866712 0.0032560243040632175
2.4606560076130295 0.5635316842601978 794.5913263143758 0.087905607917072
2.4802210868774672 0.5646016161460274 794.6063771745702 0.0625092425223957
2.461960635290803 0.5637416619993679 794.5958211242336 0.08861703900405096
2.47525611555973 0.567134313178038 794.6210558537794 0.06669632965934359
2.449221414247018 0.5654031214651131 794.6248341905265 0.0282323188061746
2.480105456046352 0.5741370763972642 794.6542713840863 0.015005947131158335
2.485036610721715 0.5630394337232303 794.6883441978694 0.05365545307893817
2.4870234761932872 0.5724729999557906 794.6381372963593 4.47858885496399e-09
2.4999194044163318 0.5751111726756692 794.677695213019 0.0324965347974987
2.536343368984255 0.5682185151976913 794.622265126732 0.020705674916928606
2.520014713611907 0.5594206991531976 794.685897210475 0.06619718071859505
2.5336957765255597 0.5616415754811925 794.6492864207644 0.018955812447070206
2.459105374483104 0.5611446409334248 794.6822519299828 0.09374376904030972
2.4672700077394376 0.5709091407677378 794.6891242392593 0.01530892620253606
2.581842713028161 0.561573311368323 794.6432821803869 0.009345415742362398
2.5748075939361303 0.5641305563051318 794.6824600042323 0.030740776939029085
2.5734157464829255 0.5638528042436263 794.6592424722137 0.009356664283524689
2.5506087091800342 0.5578055764979194 794.6888524429429 0.09040519713621416
2.545103804982938 0.5671325925421221 794.6820652257318 0.03341912526788338
2.554465851528681 0.5670639499731739 794.6683953328477 0.025482153071520443
2.5479013423292036 0.5629837877665148 794.6570689147143 0.016579955277450573
2.5883115408037085 0.5654033717105946 794.6872070010426 0.015483112528721428
