x y z curv
0.01619796225876392 0.5602386009277629 846.2789451265851 0.03475900097572271
0.01882701562251339 0.5541526434293121 846.3413677116608 0.00655801128365478
0.0208960432217905 0.5478259005581709 846.2578290354497 0.018787440506437467
0.01904617119374937 0.5625816310567102 846.3033359398372 0.04483778858933247
0.00623757092456441 0.5654201156654672 846.3858988583961 0.018791009259988486
0.008704342227609102 0.5665241423470191 846.3466071266477 0.02184952959029983
0.016544491913702986 0.5553673884867156 846.1491684056848 0.007561442759315551
0.02241169370789458 0.5541086095107689 846.1663732672569 0.03897196064999174
0.008925628530249462 0.5687544348934949 846.3176568325991 0.03723292237313535
0.003260391764326789 0.5731449236999896 846.3112570278895 0.02396622888730146
0.007694016121327022 0.5649023015804547 846.2718953499603 0.019622604160268398
-0.0029454984494556363 0.5787394353282516 846.3211146783951 0.01347643481209232
0.008932387479589134 0.5689582897106004 846.3515582941891 0.021391563295674616
0.007202174189709491 0.565127576106093 846.2067229745824 0.00981342424015038
0.011915193596619508 0.5709346926280597 846.2419742668634 0.03345415642563781
0.003972270535763785 0.5780619540594514 846.3881113689889 0.02522143163810016
0.011663653812744704 0.5780488164721235 846.2784916446104 0.01723551375934411
0.015217095199155388 0.5638087862639638 846.1560052829119 0.011979840724079049
0.017602476501298522 0.5671855996681622 846.1726726766519 0.03568508280439223
0.0011254349657239338 0.5922990665543205 846.3529646911809 0.014119937306267403
-0.002079696797318009 0.5995161403508873 846.359176949182 0.014958199078841761
0.0018644910267441193 0.5991837028382495 846.3807177236802 0.008993701995333466
0.006650092257390861 0.5865135787227927 846.2392073089298 0.009748885618400505
0.006842785945417872 0.593422135844553 846.2836636721426 0.011763587683363837
0.0033954741076799543 0.5984485986709935 846.3174909134708 0.012308941715923935
0.0011626218878904233 0.617048976122513 846.4048225054546 0.00421875022416427
0.0026416765071191318 0.6063088569596926 846.3881198025123 0.0056207072515186834
-0.004932405650316337 0.6015132820462635 846.3387101323883 0.018212687180936354
-0.0025668589147454565 0.6094977536908934 846.3692766755955 0.006422088507224225
0.0012132429370904736 0.5967863685941426 846.265449143354 0.006775479980992805
0.006345411302645919 0.5969012350186905 846.2883681436875 0.018537224481765046
0.0022683321212503575 0.5907182243038135 846.2181290626273 0.011274248105781407
0.0038640131042876743 0.5994704078611738 846.1580535020838 0.011452791753442344
0.0038228951265209584 0.5852360683259593 846.2073461245914 0.010535308562680928
0.0049776258274126265 0.6124648999694657 846.2495191651371 0.012393409565830267
0.006920276222224711 0.6117017922028565 846.2175546734877 0.008822022337427354
0.0071606853555423134 0.602270151198031 846.2490570498992 0.010517013702946144
0.011552996981674411 0.6008623096914723 846.1787503546763 0.027109614804702954
0.004126490543411684 0.5914838200982359 846.172857935959 0.025611806792517375
0.0036643130375105977 0.6232464799299635 846.3549214573296 0.0041142509765945325
0.00274668402241488 0.6039445684373832 846.3180797688988 0.012214064105162039
0.008396382046376454 0.5778061176253984 846.1430377756905 0.01934133386580422
-0.0031817077088128307 0.6762473746797829 846.402206511889 0.015910238161640965
-0.0008607910343457368 0.6290531076313058 846.2871092726157 0.010231549959323209
0.0005668513449483532 0.63702740560662 846.386030701614 0.006754848789994731
-0.0003376062654270853 0.6509161796822104 846.4041775311783 0.0063733424496200215
0.0012393405383729576 0.6178534313753223 846.23850974186 0.008811285445059595
0.0036543613899901284 0.6460003802413976 846.2542794229034 0.005454021448808898
0.01040614625887306 0.6245221641268559 846.2050698480884 0.004233863466953891
7.33634827239679e-05 0.642509459241024 846.3645021591582 0.010190858526948532
-0.0007138682810422833 0.649832453671733 846.3717853568387 0.008658629494307356
-0.00764870711160456 0.6557289564171296 846.3558632093714 0.008220460724207096
-0.008463449681793666 0.6298030835389485 846.3319476385391 0.009519762001662005
-0.0006743468331703857 0.6586760818071972 846.3887350546958 0.011518024046492988
0.006578151888424658 0.609018757646565 846.2357925883869 0.014604044956491874
0.0009753699661041858 0.6562833209962194 846.3996822658627 0.006853669468962398
0.007114654169778554 0.6400048911465043 846.2244831965617 0.0048142391984155805
-0.0010618374331177079 0.6238166516343296 846.3957168267485 0.0025702154396059903
0.0006895979399317683 0.6607649713860173 846.3713557340823 0.005437822159221838
-0.004231557707928926 0.6230307576818547 846.2665657963308 0.006101241297078099
0.0010285769118978936 0.6166435968807925 846.3678095459921 0.008221489416688136
-0.0036720347488697243 0.6572310455351457 846.3117949158802 0.007278957171976078
0.0020086829556053257 0.6173858198956453 846.3003045844032 0.01550961028824117
0.0034225476266944495 0.6452586385419813 846.2807407539044 0.01184218907157607
0.008224385461385361 0.6334777674657345 846.1437657833031 0.007264683856811618
0.003476583823893914 0.650295882952707 846.2722422133455 0.010443792033495478
0.007199379033109714 0.6645893504150499 846.2170130751732 0.028337494191437648
0.010008050226358941 0.6646998174677999 846.1656432043893 0.020687721783095976
0.008202155938229816 0.6599490068467297 846.2403372929665 0.01600668424802159
-0.0051016691134898075 0.6731775722402328 846.3357622624723 0.00793332162966165
0.010094029842609147 0.672651444095999 846.1899324079535 0.02397593598656988
0.005250802154043707 0.6297179546238174 846.1606061683084 0.007672102341307859
0.01015778455665327 0.6232934520496229 846.1453051175775 0.011365831794104234
-0.0011303864387769294 0.6631067447391054 846.2919019054009 0.011487725115993165
0.010330367123059599 0.6418750488122758 846.1819785622547 0.026165203432674092
0.005825908974649371 0.6459471873986532 846.2303584608192 0.015286738651940685
0.010874889878908134 0.6188206013888384 846.1297884768337 0.006508597125784207
0.00525360837786417 0.6526699279921441 846.2057824175547 0.019455943635125875
0.010910406420598949 0.6507977856919585 846.1632288723699 0.02316915575128
0.007178539032021258 0.6735571335040091 846.3004410548912 0.001591133964592633
0.005550042633844917 0.6705637047291392 846.2540121236973 0.0018936335031673902
0.011774841948992917 0.6263172206242456 846.180556070145 0.009010236701700628
0.003349851363634435 0.6484648219908337 846.1337114634822 0.023991518330753293
0.0055608301222045825 0.6337055782638156 846.1233699302242 0.004961251581053886
0.007100505630373171 0.6720242031743976 846.1294650470368 0.018186674606759816
0.005862759970478328 0.3741578418338412 846.1414915536668 0.00542650332765565
0.016035362344222783 0.47477627664914995 846.132565886088 0.039785178134167196
0.012677318435047684 0.4536413179777264 846.1285878796676 0.031940860339922925
0.013647967610512894 0.563112054299724 846.1333927218702 0.014821222015297598
0.014090635024598393 0.32232263247604326 846.1267470455482 0.007747044970472959
0.3611703508554665 0.1049082390964808 846.130524820304 0.013507305315372987
0.3438952260119005 0.048594379879888905 846.1362527961372 0.020225104040422947
0.34844372354216285 0.059130293341349914 846.1275589690559 0.009745264115782195
0.3564112254279907 0.068337108419163 846.1146619284872 0.010390091472623634
0.3577923464852438 0.07990072308938061 846.1362768049686 0.06228292354618936
0.3395820106083508 0.04540990401176568 846.1115375426107 0.02460587055949051
0.3357912530306902 0.0346215929687248 846.1003074091994 0.009470899682726049
0.33982997533286974 0.06439016045694257 846.0835589894831 0.011472707051396134
0.31670128719926527 0.05479400312863665 846.0677235681856 0.006806436613309883
0.32013025096456277 0.06625781004197083 846.0566358010192 0.012014176364130198
0.33477533311705066 0.06508330781009239 846.0700396264975 0.007414574737090687
0.27440904301600455 0.03833191183112307 846.0426933789212 
0.22769655475404776 0.019827966159918907 846.0537392301972 5.062618627571237e-09
0.20349795064451504 0.016722781949593254 846.05780443358 0.0060062455401329925
0.18090086093041477 0.027374912066554055 846.0476205652851 
0.20117840548030208 0.010536596850842132 846.0793636880255 0.005114001758800744
0.18783760948773442 0.002448702843692568 846.0819493874535 0.001298851029939151
0.16553235373842864 0.00860330515249843 846.0871539131834 0.006187459237467619
0.16789409030628366 0.0145151042830476 846.0706078512873 0.00483215609767432
0.17275986617242392 0.0026818380211456904 846.109417397109 0.002949589920467641
0.17003278395188923 -0.004961149754957639 846.1368582075156 0.00697252559923553
0.1578092992465504 0.004703000128879664 846.0996164457235 0.003828800346940879
0.14566979981713576 0.0011414292050708381 846.1136682243979 0.003583397527194167
0.1494597471994834 -0.0035719011864558175 846.1270095253536 0.004836587867837681
0.14108000828311723 0.0006699265843339887 846.1227855199552 0.011137213668610256
0.05311690630367567 0.039872482877222885 846.1233589896592 0.007804778560510478
0.03041052896691105 0.050092168515160254 846.134094175986 0.04534950315436922
0.013603563628712276 0.07513562137572755 846.1267582456913 0.008577591378505304
0.024899820480377612 0.06082271813253973 846.0981147767269 0.005270620944194431
0.01974701119943473 0.08398971058404475 846.1117242062967 0.01122426071000371
0.02801247446483329 0.07646803486395098 846.086591299457 0.008980882868540279
0.012457974361970083 0.10950112931787526 846.1220636747132 0.004840422998514993
0.01752060055201832 0.09832638942983926 846.1027478093121 0.004493343947754618
0.016996418163526858 0.10930859110057546 846.0796598090567 0.0006686717101027651
0.0074387394325944834 0.15855913421054105 846.1182935917302 0.010855174683991168
0.010564602177418201 0.12532951073199144 846.115562445624 0.00430715223634709
0.011281057101068654 0.11394938693758813 846.1209555375656 0.00460523577097932
0.010019693155876735 0.13969625038267927 846.1124314858239 0.011463688334173473
0.011924501528231548 0.1293434792982258 846.1059358012155 0.0032241822135756506
0.01060394207010815 0.13838190612851414 846.1011332425261 0.002032311479848544
0.006101884440731681 0.294258212344021 846.1120088645781 0.00933136151478993
0.011149293981243412 0.1760463890002618 846.1095009326464 0.0038180641663800867
0.00621128612703189 0.26421362222729855 846.1187110852097 0.007808240465434906
0.007811583981515398 0.21426325362427004 846.1239795747591 0.010749211092135925
0.013953227140697367 0.23421726708628524 846.1170564888217 0.010918140887823504
0.011088616639281108 0.16607763135475456 846.1059577717583 0.0026191077555630295
0.012316684458959788 0.31632509291312016 846.1105551145954 0.01068880689412289
0.010593345160741893 0.19242284662526873 846.1097459041722 0.0036256565598723747
0.009809751584625298 0.15990242904075763 846.1241044068724 0.005853790195884306
0.00724365638198593 0.28292797272294173 846.1220995074756 0.010452862938128816
0.013792998437922048 0.3403513413951869 846.1252363327949 0.006849746107143353
0.008972288582609398 0.39741161147439835 846.1177391816128 0.014368559571974823
0.010905713991198267 0.2000290444820946 846.1249524562058 0.008100540641700937
0.011476884845342077 0.3742221274717376 846.1010260583985 0.01026165543771887
0.013659348016583271 0.2675336852495617 846.0999031124883 0.0151994089088697
0.01631773306538843 0.34742549664653166 846.1086796158525 0.005272633615201298
0.00439217998552238 0.4280859543259483 846.1123647047158 0.03317734450365184
0.011854931507185973 0.5435186682061008 846.1209111486198 0.014794700041263318
0.006427558219382926 0.5531881445185518 846.1190058718031 0.009974641528038213
0.008590770514681718 0.5120186935775756 846.1183945617213 0.017895621998601577
0.011460242444243148 0.4898483680150291 846.1131095789766 0.0219448323336926
0.015420197009051397 0.4771149356489635 846.1163673835229 0.024429605984880105
-8.644361505884268e-05 0.42279228928250984 846.1143018505228 0.020853538568825294
0.006962944681538044 0.49066846151223376 846.1273861362464 0.02229351849553536
0.016254941740530895 0.4498560193249225 846.1162803386185 0.011687034921298835
0.016188221916186293 0.2261673531263343 846.0921100151589 0.011052329554962744
0.009698570884479327 0.20678718027175064 846.0989830673578 0.0020096618541200063
0.010487701303363553 0.34809736897017785 846.0933093057602 0.0035872626829292695
0.011378232559622253 0.37004440869706395 846.0985111749851 0.009820540506110618
0.01596460210697373 0.32649169778173537 846.090425595029 0.004917057983784045
0.016161971208995374 0.38430027598242716 846.0890839756064 0.0030849964253901125
0.014217380090088123 0.46633843957498056 846.0846512114355 0.0026529439805550326
0.011221004604207238 0.5351311084443765 846.087316218291 0.004708874673677268
0.017303167050597947 0.47236306856778043 846.0936675379584 0.005591224528169649
0.012805952296666973 0.5493950597164137 846.0980090019161 0.009635221858810432
0.018716519020420857 0.45752161954426174 846.1022192288367 0.012300311239069007
0.007687310688624771 0.6051114287003866 846.127777520179 0.006497638212573308
0.003371636506091801 0.5747175319060691 846.1249138679208 0.010045072745210102
0.006946712748734551 0.6178372113126948 846.1191902901302 0.006613927030887196
0.007619962450844155 0.5531427531673903 846.121751029629 0.01091879155752871
0.009684693714352717 0.5739895455424505 846.1088747918793 0.012102952688994511
0.009012715687298197 0.559654975406814 846.093014139863 0.006048443977397186
0.01582104662680814 0.4904329301681797 846.0901089647869 0.005069238446753032
0.012795394938646525 0.5270378442458985 846.0774599424865 0.0025345704552703643
0.013628451029898781 0.5357336053916425 846.0780952948011 0.004823327596618616
0.01747286636171768 0.5892729699854379 846.0788223521308 0.007674784342101909
0.012983485418087547 0.6677683635070011 846.098439242368 0.024433105998206046
0.007078274230860324 0.6057013846556374 846.096277314942 0.006668426076459456
0.011054796502892443 0.5995799196594358 846.0903892529852 0.008123480575783751
0.01946061763148032 0.4472410787709358 846.0736398005344 0.010687684348844586
0.01623136214570586 0.4788263437450098 846.0824777914424 0.0053505384872869185
0.0177718198248036 0.4662082266052694 846.0677577088616 0.005635042422643881
0.0183327754010129 0.4940774468687553 846.0639295573665 0.004072665532539907
0.021072392652565115 0.5111923328673049 846.0638709400852 0.0009864235086177063
0.013437262636436964 0.5530624819814592 846.0721437709042 0.0028324519715058876
0.012041011696346592 0.6045655591413006 846.0685559636413 0.006978437476071873
0.01101149981120763 0.6244374542507574 846.0892423040897 0.006229571328504792
0.009208031178914756 0.6522730888910336 846.0978235930181 0.025266588255811042
0.017927123113725685 0.3515158424505035 846.0628468308164 0.003968657062270133
0.016461086752524758 0.3211857210087102 846.0594383959577 0.009708311276963384
0.016221882123070845 0.37472091681037945 846.0648141250699 0.0031237775223535284
0.017358231585960025 0.3900540346384316 846.0575747427738 0.0016122446373491224
0.022634586244765317 0.4231800530099002 846.0668825981941 0.013781853439723584
0.022264497510877047 0.46972775364022235 846.0590184325018 0.007782563413574707
0.019662141456580788 0.512052999608791 846.0501726806602 0.005660051633075867
0.017545110366260906 0.43337065465974667 846.0516817494903 0.004135840668159692
0.020993862935529996 0.4055895473589859 846.0752874621462 0.004733555997195975
0.01969149552555983 0.4531003657469299 846.0511303360694 0.009211687206735557
0.017740676761339058 0.5301995373342915 846.0606428215277 0.0028503529716026195
0.020209439964676088 0.5831761766790011 846.067651583704 0.006418712338332535
0.011213689581025942 0.6110839158814855 846.0662016471247 0.005298932922487467
0.01832905916342508 0.6495948303836133 846.0655846940635 0.01706465064595951
0.01822032999867899 0.557166104204746 846.0533173520888 0.002050697331013496
0.021046871207823302 0.6419570662683425 846.0537897882568 0.007046305328970474
0.01804801989999332 0.31098463204235943 846.0553096323563 0.011929900904838283
0.02833495214684397 0.43918966464026193 846.0366696014711 0.020169170800016935
0.023989715896180725 0.6110937384561566 846.0395551741759 0.005498044321650099
0.02359920526942979 0.5738380453323082 846.0436163384485 0.00891334839634816
0.02573926045087348 0.5938793875238146 846.0378390802349 0.007392405400012463
0.027182442035697564 0.6390045436726252 846.0426114082276 0.006382729353650137
0.03462453080682064 0.3729806671784324 846.0183790976413 0.005993067198851012
0.032360008138518644 0.39488381756186786 846.0182393622608 
0.020447654996843687 0.35960650569182817 846.0432504893208 0.0010646515773036845
0.02614344117668046 0.3247481954149345 846.0354071799344 0.0033829521462210837
0.032795291338562745 0.47954427583270415 846.0259200990897 0.004249772443290951
0.03410157817059784 0.2954740628963355 846.0260584328861 0.00015104306327712525
0.038716868876279474 0.20963903997672417 846.0206263772429 0.0006952655503085348
0.02771749430688945 0.26395138901833765 846.0419384123518 0.005638858005151325
0.021279661897620247 0.24749466095868067 846.0429616482701 0.0019848973856620563
0.027412012243199724 0.19509583295301117 846.0440450048777 0.0008899116018500697
0.04745198482671437 0.20646314200167515 846.0014008397221 0.0006437355310482075
0.04587022650526844 0.23108824275374262 846.0107488148271 4.984671904638679e-08
0.0455665965178959 0.29574936509105937 846.003588943709 
0.03416195717020723 0.34354925812238835 846.012477459244 0.00015521274658693618
0.06171861273068534 0.19739025549626063 845.9831533085293 
0.04543916223833273 0.25215414740987246 845.9955357117194 
0.05906322420728423 0.16967790107578268 845.9914265464348 -9.303722605973785e-08
0.07360770639140303 0.17220422678177155 845.8873989168682 0.020450657097212985
0.07962560019690172 0.17105681538478015 845.9163265734343 0.020721863955180213
0.07797841355473654 0.1589989740116983 845.8418106173792 0.0009021631368065023
0.07154582734349078 0.1650586363784109 845.8997643598724 0.010155803058347769
0.0611199067599303 0.18874858689176183 845.8102700646083 0.010153519295769844
0.06936008893702258 0.18025165145016342 845.7498179792192 0.050869468020137865
0.06099330095098515 0.18238743647733052 845.7695635551937 0.014188500845030146
0.06882858613563918 0.18632155643167336 845.8654160654643 0.004020283153149601
0.06213983977959099 0.17560394463731355 845.8026613149044 0.06218384415087715
0.06511218605756608 0.2061372849774374 845.755379390532 0.01531129584539932
0.06777980255866717 0.24147777593702777 845.7847563268639 0.006113787999926638
0.06859690432623868 0.27396485400336634 845.7475482130455 0.010264514808951401
0.07162954668908637 0.20536189020431106 845.7795594824566 0.011001593670898382
0.06926794571709281 0.21124921083430956 845.8783851874192 0.007173421054931059
0.07079247085121827 0.18536954822094087 845.8192344639549 0.04398438143377185
0.07261669217705295 0.246260119312542 845.7503286998486 0.003435440436343677
0.0778612724590046 0.23209297824961098 845.8434768914168 0.009501226101224296
0.06881156995805578 0.22770287899649483 845.767266223391 0.007897310203022603
0.06995008786047542 0.2084258596488477 845.8004122603016 0.014534973674350265
0.06726691057920457 0.2281145740871742 845.7439354306276 4.325704967660249e-11
0.07143415284759114 0.22101963665359847 845.839902778104 0.00737542061979869
0.06859934704260744 0.22815446947374812 845.8190955375634 0.010595233979285289
0.07131825724937471 0.2137857709336056 845.8484972435864 0.009823325856764214
0.07500308597154036 0.18411332039613956 845.9092427492042 0.014059146612055139
0.07652205450067186 0.19032734277212712 845.9031262559382 0.006773325171520241
0.07164598415391937 0.2107103928359292 845.7920990117469 0.01084208921181543
0.07224296583457651 0.22340292626961564 845.8819946630722 0.010697115409604822
0.07202951424151534 0.2078055205264787 845.9135395909244 0.004925432291220181
0.06414892964585002 0.2700099691965276 845.7711427599878 0.006779754218532116
0.07979229078357483 0.24013643425004366 845.8656606070623 0.007959765216740139
0.07428355903952462 0.23111328335404166 845.8976959403783 0.010001406174852526
0.07210330460281404 0.285416308872202 845.9351905343158 0.0026116594459409323
0.07076746584186216 0.28536177793353856 845.9146773764536 0.0024489464695206043
0.0708424919533761 0.2702942332481383 845.8379789069311 0.013339713680860442
0.07129219715374027 0.22962443737324995 845.9261964694675 0.004574339876839877
0.07133486113737476 0.2693840591540654 845.8027963510423 0.0061384668868787115
0.07121721347947348 0.20490356757907663 845.9395453078877 0.0018548103465770463
0.06669627519625905 0.2828708169821314 845.8224981842269 0.0057021337337031875
0.07082346386069541 0.2601035230388385 845.8985378340269 0.012406938062929234
0.06898140732344539 0.2625606335578072 845.8443149730289 0.004181424589396047
0.07364062092537019 0.2653375141434132 845.9310867959074 0.0015016018572409852
0.06863610193628562 0.25055769796336863 845.9155908321678 0.003976036923705277
0.06384713391431301 0.2523294820118372 845.8136827285249 0.008876951485116762
0.07234084244184313 0.22860317913237846 845.9408146368504 0.003383113488377348
0.06745220839360998 0.2715756444801346 845.8944824170304 0.0019191764001556882
0.06749616855853678 0.3127262362325224 845.8310081843558 0.0005086874675095857
0.0734266103393143 0.3177934505716356 845.8916446048147 0.0007869111819770328
0.06985861396809244 0.29768215782949076 845.880341769928 0.0010053543262051367
0.07242346105679554 0.3448008133892024 845.7879679095255 0.0020014178539256486
0.06945162521602803 0.2957004887629193 845.8713733044525 0.001104999260988246
0.07052741804400324 0.33812011609106507 845.7535240678019 0.00601461645163064
0.07474165077747533 0.30862010088947567 845.7708022393284 0.01205210319420599
0.07724823687893839 0.30222866000099713 845.7466052291561 0.008442365465080615
0.06901193162172493 0.28455865581064416 845.8543166001816 0.001434510481909008
0.06599050464495751 0.286425978270158 845.763740648302 0.010908313348294651
0.0727244356196559 0.3253578204695509 845.8594338390841 0.006421322020491649
0.07045346820571954 0.33968281928391997 845.8342829327211 0.012262699198383884
0.07240057946402895 0.3579719524478628 845.781430669643 0.008933839322410634
0.07215721841057708 0.3226236532696873 845.7555790022294 0.021816908876706027
0.06240146192166009 0.35584356279127044 845.7502022658734 0.00030696104589878024
0.07266208019503648 0.2989148043309829 845.7691584464155 0.009135387678055825
0.070810271424296 0.2846526446338284 845.8596156153288 0.002394942019364478
0.07155995343551227 0.3257827935497272 845.8396017108502 0.011975885159952387
0.07284113511715476 0.33073146489598937 845.7781806312231 0.011931743852502834
0.06866193170472751 0.32595128090160097 845.7960070351469 0.0007469609391717171
0.0698258126553513 0.29373373235421835 845.7914123778945 0.010463685953723566
0.07034353238894323 0.3290905350442792 845.8234379411251 0.002615177360498923
0.07009821231967152 0.34602069382443296 845.8244474166867 0.006282483135704473
0.06846258325437114 0.3299434009767233 845.9438198309444 0.0031369507754400545
0.07263201493807551 0.31906940032263603 845.9320172356308 0.0032509804137116384
0.06655973378044157 0.35268424287561245 845.9150785633249 0.001275605902663275
0.06682464261991328 0.3945335815057056 845.9402596344498 0.0011408600130064846
0.07169134609382785 0.3429442938653108 845.8879895120662 0.011683014648396937
0.06340202317757479 0.3542936427700649 845.8627510596307 0.00097788828914094
0.07056333708408584 0.3398261170967972 845.8761004456175 0.007159457906601914
0.06845922674886545 0.39159126211621503 845.8066463232672 0.003914993279860114
0.06544294788223766 0.3796534740036407 845.8154918148016 0.0011280581587093691
0.07174748188689847 0.3431788128957027 845.9129324564672 0.0028858116829245835
0.07043663057702473 0.3050964344220514 845.9483728614337 0.003957100480232553
0.0670352672547943 0.3867243425463109 845.880014030635 0.007337293801953195
0.06780634937373312 0.37903294358769285 845.9103899532973 0.003240378774691485
0.06948427245821977 0.37469315046256635 845.8796273831391 0.008184079001168824
0.07134013805905254 0.37399973400629666 845.954274683878 
0.0726191221266 0.3618125704808459 845.8870280537179 0.008684557019614155
0.06949813410226276 0.3799189236598374 845.7773650059271 0.006293959681546343
0.07226744613930275 0.3073223418506145 845.9417012965367 0.00327983902409567
0.07227215175998057 0.36397513910597873 845.8008557347121 0.005129562258309486
0.07218776209636939 0.35513599694457937 845.8100122930305 0.004414203575238324
0.07151793941385325 0.3308159969724176 845.9327665361668 0.0022076399722991548
0.06674710177386217 0.3980408120666084 845.8509719468129 0.006406841773951283
0.06532764934545053 0.4096635719435063 845.8022520744489 0.006700613870205825
0.06599881445676731 0.44889521628054946 845.7947280111816 0.0036711802465938734
0.06623970040226633 0.4420705534826406 845.7748881072467 0.0047488601233651095
0.07114952742291752 0.4314814966833413 845.8330173295179 0.002874046890108963
0.06845782806279799 0.4377167326665217 845.7963877799434 0.003957602746106143
0.0631811733664907 0.42929532820983685 845.8661851990313 0.001641127828318848
0.06762095795954422 0.41865590183275847 845.7571980828932 4.848648530363863e-10
0.06568465954636073 0.47123446695254395 845.7552260212607 0.0051652006861129035
0.0668784312540205 0.4079316170143376 845.9293874130602 0.0018525086152924412
0.06488564892499682 0.4075897557009906 845.826694807706 0.0030996623490963634
0.061533838208054144 0.40758484848650656 845.7744146170774 0.0018308431728802474
0.06905957274890832 0.4580956134517964 845.7551965034105 0.0020819104409672503
0.06847188671117559 0.40366275936282503 845.8501991097191 0.00911102676915433
0.06559905356751909 0.4196859684766705 845.8958996070637 0.005410713025511683
0.06581707546435424 0.43901387350429044 845.8113534752314 0.005766015433162264
0.06244289968226072 0.48452999699832106 845.7982519350952 0.008945758166807732
0.06955303129282753 0.47958949352676067 845.8386721781158 0.002849550780007039
0.07048137585988123 0.48029766087266634 845.8474287149444 0.013134447551824873
0.07140142542796306 0.4733021484769071 845.9415897637496 0.0016184692774157176
0.06423262190828045 0.4636346552368183 845.8079233980845 0.005157114282667644
0.06742663361634567 0.46827076115719835 845.8585465023222 0.0013522527504802044
0.0735876223685133 0.48435412785142734 845.9219862482776 0.003228661058755998
0.0706102713844563 0.4184031629163947 845.9516455451983 0.00029646841584523664
0.06558293618541985 0.46855415241897547 845.8760851435177 0.00298865614838199
0.07199314499723208 0.4454574272816072 845.9518713812247 0.00019457750684217533
0.07559218486778513 0.4590040649705076 845.9156590531854 0.006447845521872388
0.06806061190825834 0.5035355259031514 845.9253996800876 0.008650558863598322
0.06809767248258815 0.4474440797327923 845.8268567324251 0.004260299988960199
0.07437687962551436 0.44642119024563603 845.9169982135924 0.003486099012758302
0.07009280840809354 0.48205223610600706 845.8708887292946 0.009476544159627304
0.06815270899927428 0.4369433933444784 845.8956115903297 0.0018525916413436837
0.06930738555129404 0.48099989599929316 845.8764246982513 0.010391624662033682
0.06659654701664781 0.4504406473738226 845.8546736186147 0.003971972140099089
0.06779033079355472 0.4566516505528635 845.8843339356627 0.009206936738188376
0.07098613755937444 0.42663669474394567 845.9475115443853 0.0017130220599797473
0.06479552802664237 0.4915021563150905 845.9022019440295 0.0058765560877823775
0.055651225726979704 0.5216075676601671 845.9812373423581 0.0007038395545310606
0.06013147030363656 0.4937275553119553 845.9775330207073 0.0023928621476650208
0.0552801815265558 0.6096876633505576 845.975670037051 
0.0541828199351893 0.5037499105197336 845.989593661693 0.0010481855714782242
0.057325208690946955 0.48020735910740886 845.9849415894598 -2.4563531129245237e-08
0.0501473173991861 0.5517950902454054 845.9928002669709 0.00029664179305326536
0.057081841897354206 0.6612782457775481 845.9936247238332 1.9556471184809243e-07
0.05274130136763008 0.323456236818693 845.9951363156873 
0.05011981260971937 0.3669156228042367 845.9964272069685 5.636750966184418e-09
0.04349877052002822 0.45699792219079793 846.0079368528978 0.0001617473231275507
0.05072507518803325 0.43218193017430107 845.9992278921823 
0.040573296487389755 0.5079236153200418 846.0125520222932 0.0006345439843361662
0.04557908701476084 0.5215588927764383 845.9999471545897 0.0012464744067721455
0.04673539932179559 0.6428860014719878 846.0046514672728 0.0006587748857284808
0.04219906743929805 0.5707648223064951 846.0057553341315 0.0008935736778916446
0.034781632078237826 0.5357982454325599 846.0161913481168 0.0003839060760641989
0.03550155374976271 0.49089749881709793 846.0182515888102 0.0006058186728979196
0.03637097598243064 0.632079382464919 846.017341888215 0.00557248854715371
0.04583887293427821 0.6687651889735425 846.0095270339207 0.0025733341385272123
0.03609773457000629 0.5916390065536324 846.0220061721178 0.0003268852588235564
0.03724650703685562 0.6075939156784076 846.0162494240366 0.0012706410407849302
0.024708671608641958 0.6616666989012016 846.0327399310337 0.005831028155768285
0.06928067186007908 0.5358682702001354 845.9126553282217 0.0019979607509449646
0.0642083491647577 0.5472459007607506 845.8286266905385 0.001082990017013143
0.06953723359775793 0.5555089102898311 845.9345262369221 0.0007941510532307184
0.06699076750802781 0.5686388300635266 845.7646416566098 0.04296211207254313
0.06875862591043265 0.5627992388765544 845.8360353625377 0.0137655753429591
0.06404117732758091 0.5757387362056111 845.7640584956241 0.04447577128010124
0.06976322734336216 0.5276652714829935 845.9152089051123 0.002133459934924948
0.0709552172078714 0.5666950162190381 845.9253192625937 0.0025919903519248744
0.06739957055100422 0.5081588785959795 845.9436136784539 0.010159838530522798
0.07148385535176102 0.5322523811456544 845.9313684543572 0.0007851518954054616
0.0696759499409072 0.5685733371425483 845.9370384989498 0.0012087603727083558
0.07375054318097675 0.5643967377340338 845.8813268584415 0.005798463922151358
0.06785595878972182 0.5767665553327466 845.8597268608202 0.013367793809465503
0.06620177539789247 0.540062492766235 845.8643366766016 0.009572785379184798
0.07247048062138495 0.5565071791958939 845.8811261033914 0.005172174437209507
0.06427341443554274 0.5670688944979491 845.8601969918144 0.010265968754787554
0.07093253311699763 0.4867443925818501 845.8286915753159 0.004078833261539003
0.06894234960435326 0.4859957854318774 845.7640216934267 0.002348566381044596
0.06406504825790384 0.5321703160304233 845.7565765509815 0.003713162361552771
0.0695713457867381 0.5222001859680212 845.8126254018016 0.006964813363890834
0.06338262189533136 0.526108080710794 845.8738362539532 0.00043421039725505056
0.06646974723362788 0.5113480038306543 845.9105446303737 0.008160022313143722
0.059182771844828924 0.5133613038258829 845.858439272222 0.0013940065572028732
0.06880195740638372 0.5146664669043971 845.8044968503822 0.0032643754431342753
0.06408231219587751 0.5167885105805327 845.7573009851817 0.008314535007365266
0.06850826287632121 0.5416343164351716 845.7934696762525 0.0034728868085028104
0.06612696913005914 0.5371761043611869 845.8576629359201 0.009256909581200635
0.06831704734981425 0.5420669583533977 845.7469277737598 0.0013474242008167615
0.07065100683878632 0.49948190558909245 845.805889389254 0.0009780426576375997
0.06099019331488705 0.5064777322818544 845.7688784457646 0.00754176570888873
0.06324375910086066 0.5133160298519559 845.7815267927018 0.008459175977166299
0.06522439101710142 0.5319243283008639 845.763345339811 0.003892289682409144
0.07303568665043013 0.5792295078679087 845.8919030505429 0.01585835287322957
0.067914168237396 0.5695624445188673 845.8029619692454 0.0030574650161132337
0.06567053402266515 0.5738166750451907 845.8169108587231 0.0040658090576039555
0.06375967703388008 0.5704846283517169 845.7766876939944 0.0012281226684116157
0.0658672224224258 0.5951182314067867 845.796423082573 0.002126940007485321
0.06579024353265955 0.5868057006764511 845.7538807388509 0.01913052158976464
0.06751038994529122 0.5831209818936407 845.8207928453941 0.016538174787224535
0.07052895951916238 0.5857096462519294 845.8659583116809 0.022913103994058902
0.06841344683683867 0.5851123577172211 845.9173200370361 0.00012422870895068875
0.07640700002835664 0.5970425644698506 845.8780373036559 0.030580454156536273
0.08216695293389407 0.5989688979589237 845.8455157398248 0.00905385363967524
0.0895171786973422 0.5952506537173865 845.7482176615943 4.3114862139731247e-07
0.29837405949149964 0.5967425539175502 845.7933768679468 0.09062987033272381
0.2772137839067996 0.6039806885575167 845.8044773321279 2.0722484094439205e-08
0.302060245302557 0.5948715523454694 845.7822931961324 0.0508228479257327
0.30945036833459194 0.5837906677429436 845.8000759323857 0.07782240713243604
0.311196857314365 0.5917945263989228 845.8942674218774 
0.30274174668371495 0.5884997436780044 845.911666155893 0.00015032543742841647
0.29779211410517364 0.5890686192888601 845.8503656273338 9.832969343130476e-09
0.31443070724546257 0.5845433384271593 845.8165563428813 0.011700187884490875
0.3153900065056615 0.5839736077840854 845.7528818137368 
0.3087079677234117 0.5747797262308726 845.9436143538989 0.0017970156798159033
0.3091561450022202 0.5720965829874947 845.9006618379296 0.009359054912425228
0.30923508033028874 0.570909853429604 845.8326015180671 0.03329666443618549
0.3111332911966954 0.4944425970309282 845.8558694531532 0.005198161712608694
0.3191568071790237 0.4834097197683494 845.7713536824402 0.003324123466717208
0.31205555802511004 0.513155855921873 845.868794326804 0.006061620299149852
0.3153723181019096 0.49971442210288486 845.8753921683648 0.00190635222513533
0.31372368190854527 0.5051464777808538 845.8334736865858 0.0021184024117842644
0.30903781877461073 0.48918352534230597 845.8096186876419 0.004447447448992243
0.30825776559434703 0.5003751426743548 845.892535452434 0.006360281708861611
0.3156708671196413 0.48352388116523953 845.7569669650119 -7.374467624816245e-10
0.3095372577819839 0.5268279928029085 845.8350366059366 0.0029929842840108536
0.3091771821181619 0.5197017587657131 845.8867485856479 0.006759949776387721
0.3060709087487044 0.519370290340262 845.8957715143378 0.007715929195615951
0.3208477800511272 0.5259937216765106 845.7558438872638 0.0003078200567425886
0.31139474314071275 0.5312910220312226 845.8080417828842 0.0035531151333018213
0.3149852094865503 0.4909328500435126 845.7462289527837 8.06841115873321e-09
0.31787464338677274 0.5459772600327487 845.7846821591846 0.0007285503350125002
0.3174650526465539 0.5182494100560887 845.7876705816439 0.0018749934455687984
0.30988816114677276 0.5182836479912765 845.8547028112896 0.004013830291956662
0.3141249399585487 0.5160444178575381 845.7976584551182 0.005909691165319378
0.31178693713869 0.5012439265280205 845.8187039644982 0.0058177443667179925
0.3128867303357601 0.5381028495002751 845.85033460265 0.006587032056849214
0.3120473241331621 0.5122900805148062 845.8123141007445 0.006487334163810108
0.30824706538609126 0.5693516440102144 845.9351774456275 0.0019050296310310832
0.3127196703721351 0.5499698659748442 845.9475470706518 0.006337198191013548
0.3082220371331239 0.5692300755970203 845.8137894674599 0.031733302198063876
0.3207997219042198 0.565665684267967 845.7512450199154 -1.754801114796675e-10
0.314780673183358 0.5377910665599202 845.9280571325756 0.0015195633155702004
0.3171676800362731 0.565888633693723 845.8602571325031 0.007605471805527908
0.3134128099129255 0.5134897345941682 845.9398282759001 0.009590083474918036
0.30942602476436454 0.5741049863666835 845.9476123127208 0.0014710039189410745
0.30923750556298735 0.5652477741627268 845.8037335647202 0.026162914927308184
0.31259656712141426 0.5486966938536869 845.875186604792 0.00302087090011658
0.3066565354778691 0.5588817172503547 845.8140762106158 0.009097639713026415
0.3071241181648643 0.5179793690864862 845.919859518658 0.002586516188866656
0.3058347532484595 0.3873393983783283 845.8045963764182 0.011473098009111591
0.3086988177071046 0.4351576224183704 845.8453219523785 0.005535280067411991
0.31129774821402695 0.44355300604004716 845.8436186913696 0.0052305533282575424
0.32469733577620424 0.43087258572841963 845.7946791272058 0.0004005134191741615
0.30461243303789837 0.4050314965542857 845.8923186439654 0.003802807057151572
0.3073159528178545 0.4000158614944526 845.7868286952614 0.009174019868085685
0.30424894425009863 0.4126116291860971 845.9228160000515 0.006299593969214475
0.31261830463545565 0.3897627788516679 845.7691299049653 0.0017176932490633378
0.31310429136962104 0.45746253373058504 845.7958773483962 0.018965137859068698
0.3095289517921687 0.4070063770599612 845.8452114369662 0.0029168354400323543
0.3081983139276369 0.4129464460609399 845.8605447387672 0.006383297633153391
0.31238122592486317 0.4433948472318222 845.8160325425978 0.010627319009773028
0.31234013318371 0.42793840119132026 845.8782879772274 0.004764302763093019
0.3115546025108322 0.41158394813174964 845.7589801106134 0.008038944340980495
0.30865636265579943 0.388121514054373 845.7529984071567 0.005124827456240041
0.3113752142490923 0.4155415870365558 845.8260225468882 0.011916201126479765
0.3098595723987539 0.42554598972288854 845.7528334105681 9.373390264430437e-05
0.3150343822682533 0.46048211662691185 845.8045246951704 0.011316847497009053
0.31280644220485143 0.45302671841979814 845.7607003127686 0.0019228066868176327
0.31225406065970324 0.40663897230351825 845.8707928193627 0.003676974327287088
0.3093926251612421 0.4213736275634119 845.8347014407417 0.006132112256611635
0.306589559860604 0.4049223963219237 845.8332913462602 0.0035240864042710117
0.3037350233701036 0.47517355601127453 845.9068964470277 0.007075843287158633
0.3093235832872256 0.43315070167766306 845.9132656514655 0.009225406134324573
0.3047472708109839 0.4188443583685928 845.9347057002342 0.004931981135957153
0.3118881249796894 0.480862930068032 845.8161979225061 0.0069750889669800325
0.3107400583184181 0.43888833800041627 845.8939644595533 0.007753337756772644
0.309441893866926 0.4468936621779736 845.9419338542441 0.006332417726525963
0.31062470940147896 0.4813521325915237 845.891149757147 0.006347460399981885
0.309780388402393 0.46453512814627596 845.943372498083 0.0034947306932205744
0.3112573725645363 0.4953107540746839 845.9321591415501 0.0033950697841590213
0.3052117840915208 0.4658898758409037 845.8301475045616 0.002250145004901841
0.3104937446885262 0.47220130545799727 845.8594576291755 0.004772295592853885
0.3071403877370191 0.4857576713991419 845.9107159775359 0.0106912126830442
0.3065315223852113 0.45121230649598604 845.931615475921 0.009878252805920798
0.30861883520282196 0.46402370510459284 845.8809340986829 0.00726103786871234
0.312609098065706 0.44578527789589717 845.8888993845651 0.005876798574556313
0.31038402575262436 0.48607537432055153 845.8388854691112 0.005766887908490433
0.30393870352748836 0.45708815544215703 845.9047925005299 0.005174034816147913
0.3061446701274224 0.47150132215696294 845.9338685889123 0.001085997996221342
0.3089317533103532 0.3614898346256556 845.8067201754109 0.010573652972144998
0.31561681843833317 0.3605768261254318 845.8457815058372 0.0008297349577881666
0.30804348264795767 0.3831108650850982 845.9219053596647 0.003996621266815227
0.3056274573522987 0.362732008679923 845.8985277464377 0.005610932928717832
0.31242804983704214 0.3884616121135058 845.9411677396988 0.0011193712437800884
0.3159721718411039 0.3587546871607549 845.8721782840104 0.0023624146073184635
0.3091821616618789 0.3741474645643585 845.7814951115612 0.00902516431513829
0.31455104152254987 0.3353243006753742 845.8770661793767 0.010509159461137863
0.30891127577722105 0.35962070299642734 845.8917431024433 0.008220857237802599
0.3111193731745764 0.33000970557871856 845.9120019713586 0.004774181403271593
0.30811149431817697 0.384403422869743 845.8933161938916 0.009061821532846542
0.30910752676027364 0.3753023516387662 845.8644043693047 0.005820359906960983
0.3098776839980244 0.31098244850552414 845.9300652006295 0.001811965649464344
0.30678070549572317 0.3469998962956181 845.9072540262395 0.006376020912176607
0.305249750823703 0.3770189302433977 845.7958047735752 0.004779368848626683
0.30895385774055084 0.3517115339254931 845.9463155593609 -1.239007592686911e-08
0.308435652464468 0.3920383702991323 845.9256034601619 0.005222373538520755
0.30575469790333415 0.38072324168309685 845.8203197934381 0.007402994766695018
0.3099188465976536 0.2829206703103921 845.8793727554329 0.0038296897632075877
0.3043404701229124 0.29451988160445125 845.890245567986 0.0036933810951619924
0.3113597488679223 0.3055823399511388 845.8811800053047 0.007459392177982416
0.30744306928685905 0.28202326047135434 845.8362078236295 0.005914341707909479
0.3057654755428808 0.2959635807102424 845.8310203937829 0.002401855349377284
0.3164394616853538 0.33722076571281695 845.8438593626194 0.0026328175552386528
0.31551094622828446 0.35400255208470277 845.79492586349 0.002304850926086073
0.31405792070566146 0.29626557456635183 845.7923641898565 0.005818134172219928
0.3092905205639639 0.33575532599521507 845.7842504728181 0.005021815427321891
0.3072052084037775 0.31627041768645536 845.9059325458152 0.008780814847726946
0.3098915567116401 0.31104843193813664 845.7545849713287 5.2783783918143784e-05
0.3076119060406919 0.3303923641615908 845.7603050698768 0.0003476766838279028
0.30773916820912783 0.30995174265750125 845.9155279148738 0.006554527291561549
0.3062482333643081 0.31182364155021286 845.8603415059114 0.008048132743820872
0.3082690819343746 0.33195952403347095 845.7645273271944 0.005180995789693301
0.30817463819061636 0.3694530068887107 845.7555639792179 0.0018117099231626623
0.30742308283659264 0.2956221426413058 845.9405754362052 1.1001960182069152e-05
0.30494748305515296 0.3065005667555472 845.8505542844687 0.011060719152425832
0.3105374544784277 0.3173899810397078 845.8107808674607 0.011657036076004082
0.3108429512343573 0.3372551084093057 845.8011198882921 0.010831938334647956
0.3059740387767267 0.22323608415088214 845.9412565727421 0.0019934559189933305
0.30393211718899443 0.2545744142758829 845.8506632523885 0.00398657660277393
0.3095085593295387 0.23528180195986192 845.9229897434856 0.0012549263283545993
0.3062027050799815 0.277692619556234 845.9107223870786 0.002651702181268399
0.30337792450731216 0.23078869869769753 845.8587604001829 0.009595209088104146
0.3057748658179401 0.20781573188870456 845.9349530583982 0.004970528483536049
0.3132183166754341 0.2848335357393445 845.8200206354442 0.0021537086075490313
0.30942559009719994 0.25138582032630036 845.9443239178164 0.0034209191696609295
0.305842352057083 0.2776330282642506 845.8665556031729 0.00420465980741908
0.3060930803499027 0.26370865283996825 845.8497995276227 0.009776572738877793
0.31262243281806174 0.27660905376709405 845.824789489988 0.003237688714044206
0.30659073279351284 0.263921686144761 845.9025336826271 0.003601876047623381
0.30545585627872296 0.2550530506320592 845.8907555524839 0.0026748264054346827
0.3057145883661667 0.22127594066999887 845.8843544489614 0.0008548652623567957
0.3125241242984104 0.25976370883397787 845.9510868673904 0.0023745171899531084
0.3065522877545267 0.24009427160796767 845.8852946343612 0.0007716916459168943
0.30743290958381636 0.24307810263680923 845.917361857369 0.0021164907296735737
0.3113755607014662 0.2571507793277267 845.8209807807655 0.0016476532500212223
0.3058201343635475 0.2221027370836513 845.9132511838656 0.002805938497238421
0.3272702265208626 0.5312423717393135 845.9890959560266 0.0017438322297392854
0.31920164355650066 0.5631904954736716 845.9733450665266 0.001502584986332431
0.3240130101504717 0.6226663042906279 845.9797552535285 
0.3287317086616126 0.5440939196216824 845.9892448661228 -5.2651366941245474e-08
0.33161391991855016 0.593296288875223 845.9900189064421 3.8817896548659646e-08
0.3312876387462618 0.458810916744427 846.0019416504213 0.0003084996225283223
0.3384772435157492 0.5116362858561323 846.0142268089348 0.0012274543994381115
0.3419826808870217 0.5511647589472835 846.0097777331875 0.00027104276838072334
0.33590333176277454 0.4978135599569797 846.0046133348733 0.0010560353535136473
0.3315047394787962 0.6597157709309447 845.9988722235048 9.91474942784887e-09
0.3352500857338998 0.4243126485133959 846.0095531772204 2.4658289194166457e-05
0.337971498634438 0.4913979963829464 846.0088419019437 0.0014521091447363761
0.34027348209726294 0.6602429682042332 846.0181553511148 0.005171529985188841
0.3412975462043391 0.6430772462802062 846.0160036449013 0.00011167087623678777
0.34542380788957594 0.6131251048983214 846.0198126338547 0.0008385211393907386
0.3449634165589853 0.3690043947583547 846.0181712035427 0.016640456995039733
0.35075657400554994 0.3608349719801927 846.0272385787642 0.012066245472971361
0.34637355115236496 0.46014780969394 846.0287743839367 0.01076178613135934
0.3398972206887923 0.44902324289663864 846.0137777937896 0.005093666958035558
0.3566680201808579 0.4394294573576925 846.03532406718 0.007893016097715875
0.3348662250617961 0.20994466252821503 846.0047306665813 6.116801476536288e-08
0.3384158243298057 0.2546426688219742 846.0054199261992 8.53278624642073e-09
0.3411358668987263 0.29307699957165756 846.0113173594347 
0.3525235214980201 0.20215282996605025 846.0253034848281 0.004274423635883897
0.357766114623879 0.37722437759414906 846.0342772106737 0.009728496975503811
0.35565936146626476 0.32936520950529136 846.027880443868 0.0006425905204032526
0.35036650726971563 0.5278857996224636 846.032355035271 1.2325528487084443e-08
0.3594748491922761 0.4844180488684195 846.0468531257635 0.0024430177824317115
0.3555725315300821 0.47676329967436676 846.0410975840393 0.009705165560677574
0.3534864879335026 0.3465410925649423 846.0360108155489 0.008580926929732245
0.3621406507793709 0.4029161688451371 846.0439565501933 0.0021186320845641236
0.34215606330367876 0.23764689741022493 846.0253826129212 0.002535788254030111
0.35602679749999544 0.19200784545807256 846.0418349230123 0.0001114062357274386
0.3583752657105282 0.34658860706643796 846.0504071928873 0.00356016802701567
0.35844549570603446 0.31709650164961706 846.0484613994256 0.0012512113609161781
0.3582454321504337 0.33643087038075736 846.0458551959889 0.0011269118479661016
0.36413506774001425 0.24994070448914937 846.0703751055356 0.012886809853676
0.3608269386045713 0.2702252234019585 846.0557755109974 
0.3581205825169838 0.4017008743137749 846.0590977244018 0.0018287435514611084
0.35794270699516023 0.37874971676341196 846.0541812741081 0.012921386690643041
0.36335739502378 0.3105526998418424 846.063687600351 0.0018705854310685814
0.35710694527064124 0.36263974568673624 846.0542022000513 0.008281484760279989
0.3690960269345037 0.21548931951497993 846.0591774198141 0.004533549014754919
0.34348898181497695 0.15849100096361363 846.0331786107985 0.0002175483857795218
0.37034487694090495 0.18589223105393154 846.0815717767767 0.011502569780990114
0.3613655301802528 0.1402703009447684 846.0688963778014 7.700107864182023e-05
0.35991609204533515 0.1453975369529504 846.0853816693661 0.019594128152913344
0.34868688267368925 0.12990665378022517 846.0516132532161 0.008758210543316013
0.35659234567381587 0.12436465136173275 846.0696130486556 0.008817579024004851
0.362727843935147 0.12402578464545465 846.087498327822 0.01993348934630563
0.3439973174224576 0.07881613786434515 846.0660993249895 0.007072309312586375
0.34487967551365517 0.09140199587639039 846.0618196546895 0.011666059621147553
0.3144046772076276 0.1040093149511036 846.0222201335409 
0.24432232873159532 0.13341024184289277 845.7490753879806 4.007683222306359e-09
