x y z curv
0.12355137120067847 0.05389728266850692 0.1758611610067946 0.0012594627085634781
0.14977986537445906 0.05502777419096392 0.15858653598324718 0.00027364633388391043
0.1335258478620014 0.03749192142316146 0.20916895602962468 0.0030410026830639566
0.15395985050074326 0.032408406310367 0.19956458818286327 -1.4694560532657245e-15
0.1237347850055459 0.027821092677091368 0.24708027484655673 8.1928359201528325e-16
0.13663443474564238 0.1579753220995712 0.027526709017715128 
0.11587497319987629 0.16766694950796962 0.0287713150992825 
0.18856640772429253 0.07391013115272892 0.11861572556160878 0.0019569888731415094
0.17676633236026856 0.1081719079020063 0.07299770438249364 5.985580564053798e-17
0.15380733197852473 0.06540892868822984 0.13516568681025865 0.0010055616166802157
0.055170868168199654 0.058515919732606385 0.26718604553799424 0.0005032329403733636
0.07633035173895181 0.03753198740585385 0.2903483281211041 0.005907794961106767
0.0926629264534474 0.03076470502419975 0.2728144463151294 0.00024048187405119396
0.12099074934680157 0.012806729956618758 0.28547180812213085 0.038265913478734634
0.18430769164156866 0.06777222814122659 0.1280738131521094 0.0017929200798637124
0.1634633495613529 0.03029040976064095 0.2105573783565779 0.005803594764920473
0.14900462758354854 0.021278706359621036 0.23768199959175526 0.002488628444137171
0.1702247115449386 0.017632809364942482 0.2505144493831746 0.0006990577109303234
0.18448060356237547 0.00866377159839406 0.2710576578088658 0.0017957830158755392
0.15737679438183838 0.013300225648281799 0.25992225758345316 0.005565005586077206
0.15924278376119422 0.010148001611659458 0.2725260892315085 0.007399748159942598
0.18425272648683422 0.05784096645975639 0.14158751210325285 0.0022587752076822856
0.1875780638511965 0.02346726431934074 0.23303691088926923 0.00580426939733621
0.21411036524190513 0.023103760196182647 0.23731168989223064 0.004659068083142619
0.19295745009507811 0.02730218293667687 0.21448994978417316 0.004393501380239609
0.20562283322781233 0.027586444666864753 0.22375466089153645 0.002970334151780119
0.18823132837278392 0.03321979412341788 0.18502767433831202 0.0006677026982371601
0.2440539734274016 0.16481045074753792 0.024509298629258696 
0.17914973722903907 0.0535338015693191 0.15119880967622434 0.003248306584452958
0.20892637264983366 0.05210984375163771 0.1649428189174517 0.0031772161590926757
0.19736135272985864 0.07145678168561412 0.12045453317557708 0.0026020141422551137
0.20414705440914938 0.01135400194085032 0.260876314517355 0.0033660256457252926
0.21128505804065217 0.008553733104840642 0.275656247329324 0.007770195427903391
0.23637881597864235 0.013103408515278258 0.2883863462389379 0.008875333630707383
0.25683981914787385 0.021629243137906266 0.269132832662027 0.0011738421801585624
0.2259811107687146 0.017777681425305256 0.2661907544170288 0.002453927717193931
0.3024882397647164 0.055233981590053036 0.2538077946919622 0.0010343855602428476
0.2821045076788343 0.18079354351664992 0.033349368456172326 
0.31765445637175155 0.22050932251462552 0.05099609533098522 0.0040446479380230604
0.31109465745334364 0.23403441479886006 0.03502876834704305 -1.667369923287107e-14
0.3613983974701816 0.23014511959175485 0.2161628500708292 0.012976114595321844
0.3444099686883724 0.13279368713130488 0.24882331524169804 -7.081633248028932e-16
0.360912683616093 0.17724525063212238 0.2580244380067627 0.006767140031667769
0.35707373978031587 0.15860450324642256 0.26826244327366694 0.003753179891751636
0.3617288972037793 0.25508200402041137 0.20535130792554213 0.010012418762327743
0.3561675081905356 0.2966960192273192 0.20679546792032416 0.01168552395219457
0.3566203948848434 0.2981368494943621 0.2179978855017564 0.0076551191068982925
0.35222793363468574 0.3095901704711418 0.2252720363097865 0.011870161932441035
0.35702270129159347 0.22036249589376763 0.2540254353866003 0.0034475235060348122
0.35953856807815876 0.20844815932245106 0.2737024679201669 0.007968287330331105
0.36471547402009646 0.3283174096616895 0.2930886202435961 0.015851427951323285
0.3374197791378823 0.2963847472712522 0.1015708498942093 0.006523702105252292
0.3427079103076508 0.29636921551252476 0.11784058863752558 0.002526011403522093
0.3631613083059683 0.2238183644540088 0.23491491396358655 0.0040372529470641474
0.3621166858563502 0.2602167050176941 0.2701537098263151 0.009277147502019653
0.3597799860790514 0.25115066451685625 0.2530539797724416 0.013714634865440509
0.3550879511594544 0.27141235877248726 0.24126677846858868 0.005677782025407884
0.34128037025956587 0.3115511350954646 0.12523660617467536 0.011655820004974074
0.34814756992682094 0.3088215851430461 0.1539768407814483 0.01096370391498318
0.35424516651261717 0.30878001967603885 0.20926998217006762 0.012680760400246838
0.34898031622210407 0.3069277155273772 0.18205481704397422 0.009479267823257878
0.35752997998855607 0.32222165156838645 0.2185145078142979 0.013229731250577099
0.3512149364323794 0.32414042440358537 0.25473087474161304 0.017711147376462285
0.3662552155959082 0.28639779297377405 0.27991412957743705 0.014098181788983939
0.3608166303363385 0.29403249679084764 0.2565449328560126 0.00971922076035195
0.3523381878558504 0.3190659419073597 0.26494941203932915 0.019217175389659846
0.35584052236024144 0.3369460976333931 0.2589627298269888 0.02047934336796625
0.3607265213166499 0.3470853513865821 0.2720299272719764 0.01656056610075435
0.3630034321376156 0.3651994108194718 0.2701130394230515 0.01699147110220344
0.36178734868575024 0.343576390267906 0.22786509656302517 0.033072681048040224
0.3621526737283821 0.3438207129548386 0.2440842572253638 0.026123796324774986
0.291810943846215 0.21355953978508174 0.02501648920944631 -7.202554062264671e-15
0.358446908055736 0.3374887708345526 0.2169562112353775 0.03449878587442375
0.3602469447032805 0.3288833574254632 0.19396040747858231 0.01316932230458462
0.36046815351602324 0.3499734657203444 0.2108008980507366 0.015290717968429337
0.35352103011390024 0.3589154464946295 0.22815661562395223 0.02975891656722438
0.3452854234307604 0.34092189513313753 0.16585760456522383 0.022186019391568362
0.3458740342403059 0.32922747375999406 0.15351976297770834 0.014987891656797469
0.350522925609024 0.3219647976028168 0.1514957765562887 0.009005152388896312
0.3516627727440343 0.327353955847885 0.17316832458260384 0.022942718948930612
0.3094503159227185 0.2812509981267111 0.02774584179816644 0.012353840589157452
0.19917215403406108 0.1572533135816568 0.025165256817375053 
0.29901947102125753 0.3057249658657946 0.018155991674352792 -7.15324104776124e-14
0.3023034846888937 0.331556631848245 0.058709371006737614 8.469554832286896e-05
0.3701605064404071 0.52007747025236 0.29880259057636893 0.026928596706648343
0.3630316153313449 0.4077756655447586 0.2870107442917177 0.00214573394716126
0.3655618788228399 0.47591748518103183 0.2906464101858146 0.028722185017292585
0.21309234586198583 0.0006950668403700004 0.2929964638810209 0.0073444157975756765
0.18442923013954943 0.0020904342779728643 0.2874399876913652 0.011977068590597379
0.17028155611213422 -0.003116630948963798 0.3040695327025786 0.006563172323323979
0.14581311274568431 0.002830004729153532 0.3202857250791392 0.007939762171220633
0.11251298148966984 0.014971221972212054 0.31186842100580514 0.01354663702944106
0.07725391372494317 0.0231516956436472 0.3200298930382164 0.019138242121888374
0.06224002171430144 0.04066185294791194 0.32521697093229296 0.019038734313724125
0.14215262163327508 0.008500059746892457 0.30014835955488295 0.010518288769951386
0.09735794135267133 0.007728133976302768 0.307547903777485 0.004140611237166709
0.032895736363538375 0.07528362377056379 0.3141178428519322 0.005565381852328323
0.01612837463324246 0.10672455649318395 0.3035491053320368 -1.0411216954952683e-15
0.006705952160671869 0.12320536883985282 0.32559396002995894 0.0016923890450449427
-0.002471947921605688 0.1734175807964304 0.33095530384286903 
0.0008113901901816998 0.14362306423336815 0.29450233782989255 
0.051674063426946255 0.06373519340651425 0.2860664965896898 0.0006216917470586397
0.06778888114077118 0.042842262950930035 0.29672508975454964 0.004770469575520379
0.12054448649188833 0.009348941519959384 0.3002835781829895 0.018398636835816707
0.13077769802670478 0.0046062475546284004 0.29042848979827385 0.01107183329282291
0.04033462545183347 0.06784472170598102 0.2987712205029024 0.0022605988744749776
0.3026365980056414 0.03914209654631252 0.2875518581688367 0.009120228353441295
0.17098498435418027 -0.0012635444476158855 0.29052784115325975 0.006751987987488801
0.21874315536324004 0.5383993251551484 0.3415110379921949 
0.13990964695391642 0.6063021458516501 0.3939552527261322 0.0026901122209880422
0.05173789958344261 0.6543020106313152 0.3685375382553585 0.031659354142282485
0.1487814936463947 0.634449599212773 0.4182784510268781 0.020048503758029718
0.15067969664761108 0.6105687441206672 0.4109092740821608 0.008318183932016963
0.1969840057849671 0.6074251398787311 0.4168412727841672 0.030682515064864215
0.20797809553283447 0.6447809633073742 0.4226889717242828 0.02931020257907514
0.2068139809333207 0.6285568848925014 0.4190590922711112 0.03387633160219126
0.21491961371022655 0.6572516300183121 0.40492206391995456 0.017146938876869387
0.23595321500347022 0.6672794959315634 0.38507745736251675 0.006706905040784934
0.21987897676654813 0.6515067930633691 0.39588165985145113 0.014925237452619436
0.2966204607860333 0.6632180334154162 0.3714811287490996 0.05731541680606845
0.3525230052612612 0.6582900021744404 0.3656593530686462 0.07349744745927397
0.34737298166655467 0.6243710689298628 0.3584503917894278 0.04285056387075209
0.29289628279331636 0.6268978350082166 0.36825067313322934 0.04012604488468293
0.3118898654788363 0.6241477768953566 0.36427816392871654 0.018847635567356188
0.2171055842849995 0.6255409308512915 0.40191811013384177 0.024060482454172347
0.21671376488426233 0.6306908815521497 0.41152729489576084 0.01936417619211687
0.21756065863685198 0.6411932720080752 0.406403846379035 0.028256561652962094
0.19676914863595843 0.6126204609301211 0.4178016038437681 0.033497225031401325
0.16427778074780564 0.6250947718425686 0.41280956891032977 0.011280329214858931
0.1827027694501289 0.6484613136072062 0.4270773734923472 0.00463902273394405
0.022210725176897816 0.6285454444341182 0.3798071923793219 0.0018609647982175284
0.09611202372194887 0.638847664192615 0.376905023264221 
0.05562550564810348 0.6347895759779789 0.3721655266583685 0.01730452180461507
0.027031237817436778 0.6642690663915874 0.3577077886143038 0.01915709431362302
0.005872461096894153 0.6397869384239692 0.3685049531838008 0.07353714637675467
0.05600574613546897 0.6489262368095096 0.37267788581641276 0.032659263035567515
0.24597040016090774 0.6324166262251197 0.37306454457567634 0.02923461221278517
0.2723490019784444 0.649190160572877 0.3762978273435173 0.027637085371537497
0.28076674848361516 0.6573960091778585 0.37311847158381933 0.06077980324103315
0.3310791600058781 0.6400526125882036 0.375470948411333 0.05452897266217922
0.3616940210323201 0.6403888881208538 0.370126036984203 0.05818730567846716
0.3340947493168627 0.6511232711541832 0.3746964887162628 0.04847066597846694
0.32148902032391935 0.6507423622379838 0.37024247986419234 0.0558939860214988
0.20681535313284577 0.5995065337859923 0.3951366472209196 0.026050328913222336
0.16494317348818097 0.5889595142421669 0.39867499627125547 0.01839916386747972
0.16813608525883333 0.6055479503175027 0.40713513874470525 0.027330894427472302
0.20450707953598798 0.6111070290677789 0.4030247211166427 0.043904897380309005
0.1945231233166927 0.5851684199233831 0.39486302065852313 0.04348939690033035
0.1838602634170797 0.5859209213548897 0.40044356975420264 0.054012433418494404
0.1712895661047688 0.6004906217802598 0.40440194662864254 0.03773034724020668
0.19573059388598357 0.5802053425436662 0.3917677564787364 0.03957418068893479
0.21934001831307703 0.5656190475788228 0.35133999967903645 0.0018630573506863877
0.2212317323188107 0.5869073867213477 0.37400202062270793 0.002701711122101445
0.22266377544960408 0.579297956762102 0.36131421656753687 0.00835106990680713
0.21318764879495758 0.6042068193399585 0.3882367598303873 0.01317447982765693
0.23217173072385305 0.5798076887228472 0.35383290219029445 0.0008106045208477694
0.23011141372618235 0.6137249560321055 0.38309216182965566 0.012237670341140584
0.24246214537351202 0.6105857574416652 0.37209682878052897 0.0059825952005901645
0.24080738937541646 0.5984283619997091 0.3554503165695579 0.007415205843823492
0.22381396583475094 0.6414177632305142 0.3921030469100526 0.022606567787078903
0.23741370074857368 0.6481260615010184 0.38382625572172424 0.04212773516749096
0.24970249044146695 0.5200453339731775 0.3411739776044779 
0.35841301974669354 0.5621804068665475 0.3396416164804852 0.020810821150450607
0.3576545679126707 0.5507896809577655 0.3373811359804641 0.02030805615035548
0.31783587253962686 0.552754667341686 0.34541277618423577 -6.825802777976811e-15
0.303029403743621 0.5370985020460332 0.34108921848993656 
0.29819057648080594 0.5684039490261358 0.34356837614470914 -5.146672221916611e-14
0.36119693578308043 0.515758060185051 0.335350088612062 0.028301352925887216
0.3558245954807795 0.19754691727053236 0.3310249474608364 0.005511628773395511
0.26366583676479627 0.5508630816451695 0.3388111098555184 
0.35493755003474864 0.5807976156232217 0.3374430383355733 0.015189755662279198
0.3519382117170725 0.5375386128535566 0.34110779987191014 0.0716407069506005
0.3246786722962074 0.6165384130697124 0.35723033858041986 0.019432243436197486
0.27363314916889786 0.017110184954563238 0.3242033053162432 0.0204992476082074
0.24044909661806915 0.0014256980424070566 0.3248413422613236 0.011250498932111755
0.3208215097497462 0.0555441242441328 0.32471656941114174 0.004019404538534421
0.36101505555690605 0.5871438484786947 0.28850081865041716 0.00878917667004651
0.3671412209388881 0.5498503002358565 0.29808358979880306 0.021295721861771647
0.3654615081026227 0.4620209411148366 0.29471256237091364 0.024082564156294096
0.3733637066572803 0.6348875506662421 0.2906589358393946 0.07432751618958697
0.37595388885078157 0.4706687443358091 0.30519221040485306 0.016984061876800422
0.23499756747538078 0.004784786429615683 0.3018673579964947 0.015573389725904255
0.23755550961399086 0.005135995152571075 0.334274639231773 0.01136106453817851
0.21560133909257284 0.005366216079754807 0.30916837734927327 0.01290991018402362
0.28929093064042927 0.03839286190547548 0.3188033864559506 0.007826247248835216
0.3046655515208757 0.047565836395314115 0.2942205670759444 0.008030191709483778
0.27681896724541816 0.0240868208341268 0.29394991923514224 0.016732792686728476
0.28584492692440766 0.03060602318127894 0.30899634870739695 0.007184135793224493
0.18400673622411426 -0.00029232867619102354 0.31810560314323916 0.011304513882422141
0.200080278585584 -0.0005782322957605772 0.3141490495561067 0.009321952608168359
0.19460837817867854 -0.003024549519643345 0.30230917773112026 0.009468476414893704
0.307282411613503 0.05313865478576668 0.307189588375373 0.0065416264196794015
0.3222603231629937 0.05908866554486276 0.2884372017263325 0.018243928859661866
0.33243567198444723 0.06793937565345784 0.3010158241765199 0.010883149069370447
0.34762946168347514 0.1021488205124601 0.3255511715837001 0.008645245191720123
0.34844430542871613 0.09064784602349649 0.30874641614600956 0.0012575008196080487
0.3571606368465247 0.11367761245867392 0.29980541846257924 0.028124200316371466
0.35966046815534597 0.14568270550689752 0.2925803950609743 0.012329211923222153
0.3707146722122906 0.14568681411459086 0.31396604898495 0.01355166220560838
0.36232382616375475 0.17206354909455956 0.3303795592599339 0.01437677854499885
0.3688956923538466 0.16322667512989558 0.32298587912257365 0.020220791033218142
0.3670729730989859 0.1668542977398291 0.3037541364047319 0.01825542974152174
0.36479628415365334 0.14050912608974941 0.3306051624186658 0.01268922709641042
0.3721550211681129 0.5087008469961642 0.33377396665650566 0.011382543146955058
0.36489547301130226 0.35507378955085867 0.3295886030065372 0.009502485257218878
0.3669317083716089 0.5707982539298079 0.3323012992061165 0.01731276565476333
0.3665161317310173 0.265136663027462 0.33455850020866973 0.017656047079221904
0.3621491492352505 0.23180464265843512 0.32846068295023234 0.011661827593014238
0.36285926992406975 0.45111747014590653 0.3313974499538202 0.009542390517160501
0.37063577781941476 0.6071365815300009 0.3328633382346398 0.05255486124591541
0.3669728278676781 0.3386116578387737 0.3242482141794056 0.018212750569066946
0.37002252494421656 0.519773362576659 0.3261766186834721 0.040176545060703374
0.37996070872855786 0.30848649153044067 0.3285187701199027 0.0048505429077548125
0.3685463085008793 0.5547735816959464 0.32142345470605527 0.03530279762052039
0.368914556947657 0.622116043265065 0.33635560173740015 0.061548561344073625
0.3728357922981343 0.6341438259507363 0.3599985489438728 0.06360105809833587
-0.004747014160844095 0.521724182803886 0.32476997975950167 
0.37185565004346605 0.23084109241353917 0.29866274128012266 0.03539151342450221
0.3747829128011532 0.23651195094496347 0.3086558665703182 0.0031715121802470153
0.36706037563329114 0.17606304845963894 0.29875017027811757 0.01490922178592735
0.3621306334916482 0.1817373396154926 0.3240075007923951 0.0151186354238322
0.36784112089312637 0.5451885055847374 0.322378725968035 0.029475327227513604
0.3693968605249812 0.6124258301397204 0.3143960583669042 0.02624405481102629
0.3810925971164352 0.635444175774264 0.3050188726585929 0.05273090584741786
0.3767216687782809 0.586184670476432 0.3241942463696133 0.03727989635676485
0.37533163984213824 0.6374094341275475 0.3586367516839901 0.0910347186705444
0.3727421359922204 0.6592619085764626 0.32093799903256126 0.04708499576105901
0.376582542610946 0.6416572895490008 0.3398411664971669 0.05684944415279566
0.36302360545679996 0.6659611106964342 0.35450195755502817 0.04619632128446603
0.3683405156734596 0.6590722986084837 0.3590992518886487 0.041961879608407804
0.3743479400110658 0.5133217519081771 0.30324004668195986 0.018500564942430388
0.36743645025799726 0.3839539196004467 0.30446801853969074 0.00958283737426124
0.37127308823144506 0.4602699459306747 0.31209806717657973 0.025371699492902168
0.3697985485449037 0.6023044526196318 0.2989664232378046 0.03186969232197327
0.37394910474901316 0.5836208314211537 0.30555805971002253 0.04747837948144883
0.3685849594866801 0.3677999957395045 0.29794782665690417 0.00809650917318986
0.3688392965723664 0.4350886182581317 0.31489540782329567 0.016404569440847845
0.3742053173603681 0.4520168448416137 0.31306672899848165 0.020245481385189903
0.36649713356178987 0.534602149506717 0.3091527750133236 0.043214319938498724
0.37420349835410377 0.5603167457622196 0.3070574588861711 0.04825968950049638
0.3680621095591496 0.49570277425205495 0.32314395712971405 0.022647447461487735
0.36316796028378423 0.5013210157400994 0.29259599135120806 0.016835663763362787
0.37181848712770443 0.4252871469563322 0.30707619717063117 0.01116048561038858
0.36818947898583354 0.33019632303439345 0.30258096876820356 0.0222008525408989
0.3672288915869441 0.3708303086482325 0.3060367902441023 0.008974228726494466
0.36570225299559156 0.3935697976012849 0.3146775616243391 0.006877886731494479
0.369245415618119 0.4051893893473367 0.31157881392763725 0.005961031376496519
0.3659763826900562 0.42179371020862 0.33080473232110474 0.010796935159315593
0.3653970669212657 0.47233956936103966 0.3200274727326854 0.02556895791912966
0.36595923778932005 0.1897465001460392 0.2981930993425209 0.024484753052564704
0.3703681355809483 0.22469453150309443 0.307207602760476 0.02624883042864907
0.36394483204913475 0.19357795460612098 0.3148521984771977 0.013037896172336071
0.36257457638389323 0.21692595060004308 0.3283789644281969 0.013988092215297692
0.37144722944692943 0.3510844177176704 0.30948978445793646 0.009894467834135395
0.3699637887046044 0.2995022525516045 0.30228959918396103 0.020087737587443904
0.36263780082998887 0.2084637963752281 0.3211039546630338 0.009865185603570227
0.3645308331505997 0.27493591600709444 0.3012121283070571 0.0008281101336877508
0.3692730386130387 0.36993735424227897 0.32121009422103436 0.0027568333436079895
0.3629303844858797 0.24376843207371232 0.32630344198088174 0.007273526434389824
0.3792820322484285 0.6483004440762119 0.2943130014975626 0.039553829921168425
0.3681943097403079 0.657166340495936 0.2704328398085284 0.031298390393915486
0.37116531295529004 0.6453860872746395 0.27854131585058706 0.03620828042200335
0.3629812420123376 0.6401956674317463 0.2459695764064916 0.06493842064470502
0.3575479999111418 0.6629463835624165 0.23629261923629716 0.08102330333782862
0.3576439552010575 0.6424048021716938 0.22109594377277184 0.06688766395057857
0.35270152031215846 0.6313973898696154 0.17333130399150748 0.02708777175220282
0.3488136468483649 0.6495141924822039 0.1655453699862116 0.02986506536922548
0.33738722855384395 0.6395208510885599 0.06735824270007311 0.08908576869377487
0.34635323961957365 0.6596633286390307 0.13418235801810277 0.07351190735801343
0.34122256354527425 0.638400242585456 0.12045175995927554 0.13991167630127394
0.34275697884569495 0.6559319395658529 0.11918113417057419 0.14926145184935855
0.3399555953150454 0.6495808397980282 0.08199526103715164 0.13774809057898343
0.3392424722154473 0.6527091753169422 0.10425054291752922 0.11834746481241609
0.325878503881218 0.6501273521661445 0.04241140407732588 0.024148433993055347
0.3168915200770747 0.6375548205037339 0.017928278943256756 0.0936485489293702
0.2936733809318928 0.6455468747486364 0.0014078364220678399 0.020905190398023438
0.32182552530607433 0.6581527127473524 0.019297916402732776 0.014915288979871691
0.14215168056174618 0.6582140163646097 0.00821908748050034 0.00636339655036145
0.11072635673895877 0.6530336869380821 0.007114893164174893 0.0006492761968423364
0.09773723353438728 0.6596518883340332 0.015868651839157557 0.0031751745756027853
0.079663822168694 0.6554293060276203 0.006824579322983563 0.008328902176411915
0.050614744152066356 0.650988608157076 0.025163330502237492 0.003759221968736269
0.029498466665763078 0.6528602191008387 0.08070910924334243 0.0016948651393714487
0.029884630859570643 0.662459080737255 0.11425109169448164 0.011638531413540406
0.004321000636259717 0.6473480523148526 0.20324231361027606 0.0017402679279987993
0.012508427971958072 0.6597045563709198 0.1947060334402039 0.026570944396097695
0.014516753195489557 0.6601898790932503 0.1836248010153985 0.027915276184154375
0.012336552106788155 0.6609077091696786 0.16321825942260368 0.008817222065047347
-0.005245049028721795 0.6396307990683502 0.33371272282140946 0.0538614824017671
-0.003808286466668668 0.662227606195818 0.3455373872301652 0.04995460511074617
0.004181221104436292 0.6519276546484255 0.35983765360280423 0.050149861258442605
-0.0068415081569194 0.6502632645962673 0.3152968501975223 0.06436414145896895
0.3684501384988056 0.6569580761869038 0.29692194038858727 0.07019969016267766
0.3270740332052467 0.6595835651521432 0.06318801942381551 0.030244007683133175
0.3455413616851194 0.6518338057222526 0.13663730169514296 0.08470965567283169
0.3546420131115938 0.6621570738158942 0.2080489678360436 0.11927352724395304
0.21014927366014757 0.6556393518891185 -0.00501850906848525 0.004489281350003209
0.1870311943754521 0.6656610303807293 0.012269527086242288 0.00924576466786821
0.23465287860866785 0.6597825244468616 0.004973608819350657 0.0011411592599535412
0.2745774080654924 0.6636112020382393 0.02146940721661188 0.001851784486285048
0.07014431184329999 0.6565120286268318 0.014934534795084322 0.007769671331258334
0.051160919082267324 0.6619883980237663 0.03568844798370908 0.002028953625546204
0.016639535669883975 0.6597012158498784 0.23629501001920908 0.024179335891612724
0.005587301722585141 0.6528884858395932 0.2729190838057472 0.008330043744931322
0.011115228989185426 0.6614214520097356 0.22303470164132255 0.01519741428892661
0.041934165199398264 0.6589809626076607 0.09804382049712974 0.02652132328591545
0.01275651725809097 0.6588740395384549 0.2925875288484997 0.008945555803195816
-0.004308015975883514 0.6600602168467289 0.32882538576863124 0.05631502608495741
0.005054970713838388 0.652404936867029 0.2996456179725103 0.042972047898999874
0.35506708649821106 0.627176513973875 0.23069489224919626 0.07418076517210258
0.3271850716542047 0.6220579489432168 0.11062233421192033 0.026328352254936585
0.3524062036131635 0.6338302205305182 0.1584011811245884 0.02511890556817785
0.3506487812355217 0.6327104585326927 0.20331618590503195 0.03548816422968647
0.33697498157147604 0.6353530085213668 0.09320389513823595 0.1335083765478878
0.31169175321293985 0.6228506811139523 0.07875319543205782 0.004573302723591665
0.33840064917509466 0.6354559418268061 0.11205164581765942 0.16002946621162767
0.10332789545738671 0.6593052374009607 0.015408911261558172 0.005259782146344186
0.08661700150990301 0.6626611333389634 0.08200227322460506 0.0020086862718540644
0.08489892703143098 0.6631965562866088 0.11275676304764108 0.0053041874993569
0.08083538313193403 0.6680471047883019 0.03800186335040948 0.008622057140557648
0.06791490064574185 0.6601298069385101 0.1102574679028298 0.007764447399353155
0.07659536362652096 0.6640406387792168 0.15807444929316244 -7.941157034253005e-14
0.09946649817026966 0.6563923926499368 0.16524531837225065 0.008322892771300482
0.13282244182401734 0.6626861808479942 0.15804128808811357 0.005811780928467345
0.05412643460522193 0.6575824894498704 0.21381686318245063 0.005245344927440852
0.03471328736075696 0.6632067443373382 0.185381832593083 0.019657807653118208
0.08481295379261328 0.6644328428118678 0.23175491309379576 0.0019703817417691936
0.08601829518792588 0.6677115596034264 0.20861399196609537 0.00015596630893724623
0.11512082777065485 0.6630641647698409 0.19148676051461366 0.02236213482005521
0.09583118867028026 0.6563850151772598 0.1513318221077017 0.013685477830814138
0.06973573727162705 0.6666620696410264 0.29298817609525263 0.0025126547057570453
0.08872798630595366 0.6699159218792972 0.2578502741464673 4.7400400127337406e-14
0.06061194347723438 0.6643050445926917 0.2670196091299092 0.0009441999635652851
0.07320200188403227 0.6623011553770028 0.2492117849263552 0.00030757436239238966
0.058987311707421344 0.6648368085610347 0.3487801889658685 0.07085366325824474
0.011765236656498972 0.6630929103286481 0.2588857427451443 0.005149373366801823
0.025830217853601775 0.6589697563724718 0.24391138729523618 0.012595703726220165
0.0299517150097695 0.6605499406127654 0.3289224006324664 0.02097021208626719
0.04089585720275379 0.661002466679279 0.3186971251349239 0.0036155561312195827
0.059278977132103255 0.6569408352554841 0.11741910539090047 0.007131136171661567
0.0468015678345476 0.6599622736947747 0.1483017461823919 0.007231002745434441
0.04124899711328756 0.6633636691100804 0.20005728721294555 0.002616681983434694
0.06434978859661385 0.6597202431753317 0.2251899077865664 0.012391315808162648
0.04960435225793684 0.6601073697893823 0.3180855524366467 0.001136323109199475
0.06755279148059018 0.6591973184372121 0.21235702841364748 0.006208306477649753
0.05106898808408024 0.6648514580710687 0.057087463562515976 0.02421607861887804
0.04262806518526728 0.6679689429113804 0.06527169362377361 0.0010288232585095869
0.1316836614957258 0.6649426849399868 0.04188026666162862 0.004441589990035237
0.1523062248995359 0.6601375499562492 0.05923791383584581 0.0016935189271357794
0.21111857926453292 0.6693872275040185 0.15233980369967332 0.0072286023249553705
0.12894585367440067 0.6630257963641734 0.016982769270731633 0.0033330966928018005
0.18324344324180947 0.6612885047344684 0.0937490140465131 0.0030732829351764654
0.1519750823686011 0.6634688645259249 0.02363731307064925 0.011104504477761512
0.1623048313539234 0.6661536894380039 0.0348446345783491 0.011022918429495047
0.1681949063577887 0.6678301095116147 0.08321932171486325 0.0005278468793157573
0.1658516909013778 0.6698336322797155 0.10963727689487865 0.002889415174723335
0.19295958295709764 0.6611168504134558 0.11693562083394812 0.008775156711518895
0.13595963387726603 0.6657691716035636 0.06615506250719871 0.005752860169785788
0.19157389352486717 0.6595264041923585 0.1361325016938383 0.011411568292122254
0.10971619001708925 0.6623379748014182 0.08975126164622185 0.0018054103216551052
0.11842766375828558 0.6627927937562978 0.07601674181475128 0.00530232811055693
0.10379310746549257 0.6638367725245947 0.07042787328398507 0.0029717096189176982
0.12103926872548194 0.6622686139248914 0.0637129572202043 0.004626877918120809
0.12517136613646096 0.6648575648860758 0.0901708584724933 0.003040722457471719
0.13868502427691404 0.6675136538464336 0.12918970342090835 0.004008650712789101
0.11968088201716848 0.6604534430478957 0.13708802509664433 0.001019417646983787
0.1151301524576429 0.6673955566556037 0.10896375182136087 0.003707124027551001
0.16973704125159408 0.6642171123104085 0.13564748902429913 0.005194158236905555
0.14393079452312132 0.6652565058938589 0.15222066696034883 0.009936083634332887
0.13051738169648122 0.6656086308506272 0.11938845253803475 0.003677398594622895
0.030872471869845937 0.6668774718211808 0.1437497381167675 0.0017537794752269353
0.06775037893732129 0.6623929398608127 0.10400783623427211 0.005830199695943269
0.044202506094651 0.66078982728291 0.07640131944122683 0.01598911545289397
0.1425859335462399 0.6700336882650454 0.17747837674084785 0.0042246558987398194
0.21709636671089544 0.6586952232805722 0.1645318778156582 0.0199349245891981
0.19363676199067295 0.6644470945182597 0.17779312751411266 0.011968219368115013
0.1673789619346915 0.6664501473445599 0.1637973123435856 0.004632489292180664
0.22380758282396082 0.6635322524464354 0.08047600540574405 0.004373530805673477
0.2363589999989374 0.6606644473056142 0.027607831713643626 0.0032515112307715667
0.23016378396348033 0.665902436852658 0.047030585549523274 0.0026076158944904745
0.21669487950391025 0.6603063768903681 0.031131188201910017 0.006209171599606898
0.22430859152238 0.6613046341467177 0.10246785538887582 0.007400163975745414
0.21097535177773796 0.6587090417170106 0.013563539970698178 0.009370867025899175
0.22706166303310857 0.6595336347668641 0.12235174286912123 0.004281315729386269
0.22567468135386815 0.6631539196265226 0.03591560030000732 0.0023675520217999774
0.2131678536614393 0.6636390118086488 0.13467650930522257 0.01131689948726131
0.2546800922559545 0.6631262917395597 0.03577147126363961 0.0035609303401755487
0.31024359875312985 0.6675348088378287 0.05036246210552131 0.010310564316427356
0.2810791619664776 0.6614380968409163 0.13716745964285862 0.0020088384419153726
0.25688733132857083 0.6571254173204337 0.1696327176874189 -7.25741027229875e-14
0.3059016795846674 0.6549492789440632 0.12365957841035112 0.06665293663120575
0.26700413983276194 0.6568086615099469 0.17646742409966812 0.010566263885693589
0.24621767303435715 0.6489583710444068 0.18513074579879513 0.0033675885572266692
0.30004803912357814 0.6577102390055032 0.15280339992761785 0.006906751279374664
0.3111963002072169 0.656004697403736 0.14793545607992634 0.012387610873471476
0.31654618356906206 0.6571786141282441 0.2012325487207174 0.006442229838211769
0.3093279892805634 0.6546934867816816 0.17101997590626364 0.0016462087792558384
0.3044333553052312 0.6572999210301923 0.17061243657520897 0.0030062370285604636
0.29961698350954946 0.6610775025865304 0.20410173931236586 0.0027638761329195497
0.297871354431414 0.6592113840509853 0.19008970315748674 0.00455448715967622
0.29623317503210556 0.6580012695447195 0.2215207000878753 0.005438791669091835
0.30421339495267014 0.6599677585876265 0.2576665697343996 0.008731164067455843
0.29929269197386893 0.6608864005563757 0.2743521089409755 0.018931259247067178
0.28358915188356315 0.6625275072002748 0.2912477739685131 0.02118375214395989
0.2728461940269587 0.6682959136800196 0.2808368642932374 0.00249162062314043
0.28881907035826015 0.6578628705754981 0.29799193467919854 0.010666178147612945
0.26367869488444173 0.6625265953531078 0.23088144589641088 7.897610335085123e-13
0.3354608563265341 0.6597840513485869 0.31924935827691897 0.013753541757119576
0.2744911952129791 0.6634832910745603 0.21333080904424845 0.0060042136431173385
0.295712990093236 0.6568080848353067 0.23113067295367237 0.005982204805159987
0.31874114069572407 0.6626321778952017 0.2982715582925673 0.0028766120515738517
0.3136835371237874 0.6519341164548534 0.24217696730280258 0.0017767011976456376
0.217118140102656 0.6650372365045721 0.21984296443982687 
0.2645379016860458 0.6667235044133014 0.10245001601262696 0.010382188318211314
0.23363987513251278 0.6546871440005778 0.1707272194392582 0.019523446636544883
0.2851990178743663 0.6602749760786648 0.10116516909887867 0.009615422722522048
0.3354373358926827 0.6562153678861496 0.13459044850953722 0.08277430365085608
0.32387842679275325 0.661006474780869 0.12842430793947995 0.08558802601586082
0.338671813175408 0.6579406543389503 0.16532441938975206 0.1103597798717651
0.35575299248407427 0.6608453888296765 0.3025581066871597 0.07222044712283714
0.2887122869394619 0.6613722765114465 0.029057037555267933 0.029854000342451267
0.32232978023550246 0.6640303703124054 0.09888421827027606 0.08560754509245423
0.3403253701917888 0.6565088792986148 0.23211308913710055 0.16347918262941966
0.3453310645892621 0.6637853360947 0.21723707810111623 0.12630008941018153
0.25242633468041814 0.658485288437418 0.01953980312918889 0.002459733950622023
0.20535881300009742 0.6648117929040798 0.06521489708522746 0.003272436482958121
0.24080209162031466 0.6690283814814979 0.078000203229671 0.0032165283980634734
0.23115544384455997 0.6608769551775396 0.10233366653874135 0.0063842574692914945
0.26214459741065543 0.6627770179720672 0.0874333529330025 0.01260495925170719
0.2456314383480878 0.665562982161369 0.12938153150179524 0.005737381925964966
0.2603802371012787 0.6634702914361021 0.06731110424860196 0.007512446146974479
0.18351156072538252 0.6657562926701017 0.01760485516238821 0.01006397713190283
0.20475014135249064 0.6609454908086202 0.12200821908579998 0.006720662786790618
0.20476224256600634 0.6598566280103988 0.09635191772604218 0.00425837826969549
0.2046040045443716 0.6591649129240241 0.11071756333332221 0.0030864853233254245
0.17635869443345503 0.6702023827802399 0.033871932884019414 0.0024997468039249754
0.19659209681273032 0.6617263336091925 0.05057500014476725 0.007087468007203378
0.32761303681102405 0.660404128160935 0.0796631909654254 0.029438669286843123
0.31187351292202525 0.6617024736781344 0.09836825437084182 0.0753218889613227
0.2861621505302119 0.6706570940402962 0.07284901510887246 0.005551362418134463
0.3294341438919116 0.6644239738550468 0.11677652748398544 0.0850655094165161
0.3450039037282538 0.6560657339172764 0.18705227837514465 0.10767838152126144
0.010926109403398387 0.6540584020569253 0.31804875660032117 0.047220006491008715
0.019465562041609454 0.649733509596593 0.36264545144783145 0.06915308599865144
0.03615553244666023 0.6580958460359717 0.3613089247666391 0.04344975138129381
0.06648168964650757 0.6632037230388872 0.3624314447338957 0.03808218811911011
0.22146216331711832 0.6594405777849277 0.19764424658653018 0.003035298712727917
0.34911293266339294 0.6600380756773017 0.2633728528363344 0.03614994103977235
0.3428527637105776 0.6578892613132977 0.2429948355442703 0.1418477534169306
0.35745289634461497 0.6653765181981022 0.29828858926598945 0.06341689810268446
0.2941469136407997 0.6608962087613596 0.35837230273797416 0.026201928965848904
0.32284244801602735 0.6655256794429731 0.3569353491111673 0.027527924775935023
0.33744969914109374 0.657006955900669 0.36846429335997766 0.075846429087817
0.19701197533409937 0.6543777460747205 0.42049847887155506 0.02539672614709343
0.0328877542909203 0.6609375800158055 0.1987607776874546 0.02833794306026232
0.011862786440774056 0.6586673048224816 0.3394605228026148 0.06105430309978469
0.34461583374032334 0.21580940364466406 0.14691989519933782 0.010793027734952231
0.3486283089685001 0.2584662728643322 0.15599010144664843 0.007237764425595337
0.36436207181035224 0.24037832364942213 0.2399199379391851 0.01100678084408178
0.35839881569272114 0.2854187133231662 0.23771198549121272 0.005379062139587012
0.35085755460626195 0.3059467799304631 0.16227499192801664 0.012825780921323528
0.3546763370649204 0.37752978572723844 0.2574103158167024 0.014010818432492843
0.3468159616765614 0.3662800421431865 0.22375574530558287 0.01342447119928485
0.3091811665252587 0.6585534148626107 0.2585050413282081 0.009616051151814449
0.3205880677172318 0.663927215519539 0.2782317198579998 0.0071100227074938896
0.0432032777828667 0.6584831717230863 0.28175000730134064 0.0057385372087694515
0.33743811948320623 0.33088965874394055 0.1374483277610115 0.008067558842914505
0.3289925422863111 0.31505930682362476 0.08395952946241718 0.004009537427635204
0.32629984138446083 0.3361966171273627 0.08978533674639835 6.744343722413749e-14
0.30908616874476835 0.31194369815118334 0.04494978657348986 0.010387518568498615
0.3659190464088717 0.1265081918976936 0.2957378875971781 0.021384454338771456
0.11441755270372503 0.01418432570935969 0.3275364062408781 0.01719278648625882
0.20718221378998905 0.0009717758232904174 0.32624799031954577 0.011710132011072223
0.37185908654082805 0.3600295778738582 0.2862619235897295 0.00375600944286678
0.3512251558098453 0.6239241709093153 0.15847866803866306 0.01336018187368531
0.3469902856763369 0.6396327521255784 0.13922236040195402 0.049703345905316464
0.33461921445501375 0.628524050857593 0.041117387332654624 0.015135045816026649
0.14472563460141155 0.6595529025169318 0.19612540488189947 
0.35360964991329435 0.6592238180636155 0.18229334836026737 0.02232158432269091
0.13249077791537764 0.7776718875849823 0.6851824419475494 0.019600569018591925
0.22144369224953633 0.8141445076032119 0.6726185231172358 0.044759990054674056
0.21497806223346058 0.7432706038664866 0.6709429791593908 0.004523204912657146
0.1867340459342609 0.8251355444458014 0.668422157142837 0.038352847502035554
0.17403900699208313 0.7295970613994164 0.6682567685029659 0.024810881036498467
0.19595775307482932 0.7305546988425581 0.6932446251205854 0.020422190977478338
0.1395760449319554 0.7633385285270148 0.6723988351700169 0.03412459258946027
0.18355334731050382 0.7277103807731021 0.6701007450771017 0.021364679575362144
0.2121746172364152 0.7392715530975434 0.6653902447816736 0.0038765845067998675
0.14239008160557418 0.79940947557015 0.6692245643169942 0.020598794865757112
0.15190247391576714 0.8130033933812595 0.6874183684698729 0.005699170848819773
0.17012372002701914 0.8272622731074994 0.6742814108869131 0.009281432313677875
0.19920124175925444 0.8250121600620169 0.669170768352136 0.011753332962045091
0.20411388699430108 0.8281752199719107 0.6735871684896415 0.006338954497820391
0.16769123403940406 0.821375771587554 0.6955598285132352 0.021452053736765214
0.17066418804602398 0.8244115212340277 0.7154616385299922 0.020192405351799204
0.15551426743729896 0.8169896815883001 0.7202749919081052 0.014769033979563334
0.1406312852935135 0.7986062675431037 0.7064370652354688 0.013556657712687176
0.17034411319427575 0.8246041026833077 0.728583545629168 0.02047140251201041
0.194445447306146 0.8287755127970098 0.7137256216668448 0.02748977827194131
0.18885722873366345 0.8227727390341744 0.7431466953719004 0.04246715543646546
0.15764373386007136 0.814104959233254 0.7363010470776267 0.03899549001828162
0.1761116138811614 0.8261035848961632 0.7542862213473887 0.0566273119350868
0.1348263498637705 0.7623172475725519 0.6908847640292346 0.02534568534652333
0.23171107769606125 0.7682847223295762 0.7323400753394154 0.019481689933928924
0.19962377309286103 0.8162284175929829 0.7423023161937375 0.04924495104800296
0.1950169662947439 0.818556098245019 0.74397318369487 0.04712793667301765
0.14211923960683875 0.7944522220064726 0.7466244196665641 0.014010893593938057
0.2093959299189438 0.8005937045621238 0.7664164592678588 0.062111666876026664
0.2165268157587261 0.8183555000069738 0.6855430144864075 0.0538805554417671
0.22433782901521765 0.8163837554447826 0.6911675047229466 0.04968901668296747
0.19247490755925753 0.812726579751767 0.771175476125561 0.027935718320693314
0.22950273309560262 0.7879821991264064 0.7426968756113915 0.029483695742778645
0.22620836113774695 0.7891731612312544 0.7224375310663967 0.018068961551697675
0.23192343650198496 0.7848419102263147 0.6947580559907827 0.04314746598821905
0.22529622640914804 0.77359543674097 0.7074350235332558 0.027432857620751937
0.22728092482751028 0.7628394959439723 0.7138133992373622 0.024758615590133676
0.2216636018991592 0.7482170539927263 0.7070915292927816 0.020343123438507055
0.1461534736123999 0.7511131828722722 0.7025119713006632 0.014756505600905783
0.15381663428629241 0.7352629596395136 0.6846220188590922 0.004310868448689254
0.1712570347299759 0.7319952386695168 0.6943344354989054 0.02707519284080334
0.13879301595037496 0.7594831192680082 0.7247369194001253 0.02457222456474365
0.22314849199902886 0.8095400476999404 0.7045182334441924 0.05349889996039757
0.2237678150879489 0.8033980737780987 0.7042313428336073 0.04684417522379766
0.21700046985736657 0.8185718705755537 0.6884183784989807 0.05345630041985346
0.19060434859935077 0.8275295777372376 0.7075149926733223 0.019320839359927885
0.18254738706939977 0.8311624417086438 0.6935231070716581 0.024480271746937683
0.1611297060927676 0.8117602207042816 0.752815087079089 0.05234374290490348
0.1693298588637127 0.8186735380335514 0.7546108175644115 0.054931873501342626
0.19336041999298192 0.8215955892752158 0.7558828551107877 0.049724112710135465
0.1905244149082707 0.8264875660128841 0.6802011258499651 0.023908269838430574
0.22604681133276439 0.8048816503029002 0.7468378481240519 0.05994340498468884
0.19717352981441705 0.8211728104609612 0.724908854317234 0.029967012486446388
0.16225290346471735 0.8041798389355966 0.7657961121105749 0.043352381993492256
0.21538188047295395 0.8256361537925744 0.7207542887094207 0.032387137830384286
0.14052143769446568 0.7890388545826111 0.7350871979270098 0.022553239698050266
0.22000806677483006 0.8189557822320487 0.7461535262367766 0.04807292484385312
0.2165189547568349 0.8087779717634928 0.7519862537932452 0.07736625118026706
0.19939449990540986 0.6897525637163369 0.39683641679111076 0.0018734890613789994
0.20105328856898722 0.7014061133328876 0.3902312050175349 0.016066167104684465
0.18290369650769103 0.7044868193107845 0.40008375490544634 0.01332890839173236
0.2016046407733717 0.7346856933369317 0.3664387848900307 0.023839098184607492
0.20381642437066394 0.7431202725514127 0.3864198973117187 0.01221307694166197
0.2068085634507719 0.781930344743056 0.3720752358596407 0.014559720214062686
0.19085694378504653 0.7908932022270755 0.38062474749076497 0.05530620329695937
0.1656960113540579 0.7827135187290926 0.3651982148481051 0.03191152883826189
0.1683723795028749 0.7890944364708892 0.3827221404120672 0.0241726276034639
0.2063420364119021 0.7624246139887981 0.3677670182763647 0.029693914770771004
0.20260038274840697 0.7506110975460858 0.36099424846071637 0.015705002562784023
0.19124009265603936 0.7345749483287612 0.39569832703976976 0.028061237867449726
0.18832556292472988 0.7493248163533838 0.47186963407823734 0.06683029185251588
0.20075568937537494 0.7608358584505397 0.4916375389202335 0.09394025548771726
0.18532157322172021 0.7526800926024371 0.577413260175285 0.010676348931229367
0.18548129550435669 0.7565145168976883 0.5630462959943462 0.014330959439261756
0.1736405573147965 0.761866648218723 0.4979669292153304 0.1857468414394322
0.18464910288771147 0.7658050622332346 0.5333537237527687 0.20336621487379222
0.16640563434335112 0.7527589479363651 0.46839275281440707 0.0043681599770630936
0.17210403688610007 0.7593014388117462 0.5702898472711676 0.02814160767924389
0.16658887131613287 0.7621879486125717 0.5329584225771626 0.14988881403876123
0.16006375488755353 0.7626362741322056 0.5236665608579161 0.17851529931853452
0.1657601648761388 0.7624106744439015 0.49756272036069066 0.16867682581129764
0.17586504770157155 0.7963737965033749 0.520197547751082 0.1921645529909934
0.1795146909960485 0.7962605865251781 0.5299777366958051 0.2348505902491587
0.17229278133050996 0.7956596218952192 0.42002290297732936 0.07203124993498217
0.17029878285348163 0.7950392962493649 0.5036256879046747 0.18686574555135974
0.1795913649826187 0.8016030955557445 0.5518069212100108 0.06725150739852608
0.17919392590973032 0.8002330808505198 0.43894706503804354 0.08636120609283503
0.1883597722359925 0.8007145241211323 0.4872714909465042 0.05431552805174423
0.20491857902862007 0.7759720995303189 0.4867719632906066 0.11798551061582996
0.2077282675316523 0.7897441965086701 0.5302871247490125 0.17223074503462288
0.20428823860621678 0.7813098464296803 0.46232672464983876 0.0764397904983933
0.20478120516762519 0.7772389784200187 0.45466914547140014 0.07483824725851068
0.2053914005183371 0.7577774169385006 0.4148558070968211 0.005017149240530091
0.16579329887407057 0.7933417655478174 0.40935726167640074 0.022874610910443186
0.15850331616464053 0.7899899487879125 0.45298936237464293 0.02734536391658485
0.160420036402902 0.7791874810229406 0.4075312028009361 0.015187844500522279
0.15626529243398068 0.7812052048669196 0.5168452758459693 0.07404904300978955
0.16229711336764444 0.768214693094779 0.5840426765815614 0.07438079553703268
0.19186415566922152 0.7522609324822151 0.5845035042914374 0.011110217796668273
0.1919951627225851 0.7519671605548863 0.5960964633523673 0.006733821566437509
0.18707195682567004 0.7505788404960303 0.5809768544681424 0.008200530029060038
0.18219851705888024 0.8035998112687358 0.5742740750202 0.04192068494099483
0.15806772411964257 0.785286140908628 0.5754514068706802 0.07781915827489574
0.20198968563980318 0.7997420476362609 0.5723747824154307 0.03349272612527375
0.1951162872065496 0.8069266137578377 0.582474410982522 0.020009445438857378
0.1737815574662651 0.7987798709674736 0.578781680745257 0.08778017207085932
0.2108418068386794 0.792039258830336 0.5848492870794589 0.02885719217404856
0.20490114551618369 0.756443437371681 0.5446559255149196 0.013455107892867899
0.20857592642725917 0.7594515438279504 0.4773532744292891 0.03043341279814778
0.19598434555676847 0.7679870022888234 0.5144838833372757 0.260769503698276
0.20175404745196232 0.7619324351086231 0.406954943102052 0.02524379682181889
0.20150360477022702 0.7757228995505555 0.4248067457242421 0.10218402767946609
0.20799330703454086 0.7875197483608111 0.40995717686743005 0.09233791386431078
0.20796601880873053 0.7848401369274967 0.4042005290202918 0.08519587230896548
0.20155357532197418 0.7897042435455721 0.5171369353006955 0.16660314901990955
0.215394925208943 0.7860780505504443 0.5380556292272183 0.1251035783923783
0.19489293891086784 0.7965829277317101 0.42199787846222775 0.07789396521017268
0.2013649521259127 0.7976615219777043 0.4603209902305116 0.02063936122494252
0.1988412760155236 0.7831773324216615 0.43894194020344435 0.07991318361097656
0.2003667728648314 0.7989971680173619 0.4148938151389419 0.07990811758592178
0.19911530226543003 0.7898949853748178 0.5001064171623923 0.13589974713541295
0.19852713211407594 0.8010548244105692 0.5391999760536661 0.1197664706675792
0.1757323688062747 0.7997060054166157 0.48047781197174527 0.07446839568493048
0.19182198096922895 0.8004911244124294 0.4684358526780956 0.06363547055559143
0.16014601451576466 0.7975294041052304 0.5682546423026736 0.04442061605743621
0.1653959721327235 0.794390939169652 0.5418666211032951 0.0905587263713264
0.1606924066051841 0.7695320448909321 0.5546741145636408 0.09071211568813806
0.16144238166971275 0.7655823897708169 0.46485091120601996 0.055445133495182174
0.19001125252071693 0.8055926029093957 0.5039573699209257 0.08670178332693686
0.17493957556962747 0.7980492214622847 0.5116889138703334 0.2104086235879397
0.15868337377744257 0.7782789978175291 0.38782043401379684 0.027981851831612396
