x y z curv
0.3374319941756164 0.6678042972707796 0.16229986299064486 0.0525590209868214
0.32301792990354994 0.671654476408062 0.15034695237644688 0.021221430366974138
0.03432042371622519 0.6628326202747007 0.11893975256223106 0.05226942261334112
0.3439120893935649 0.6662829013920412 0.15313915128378586 0.051386809649930316
0.30761118460555203 0.6655678252660188 0.04651740264971181 0.03657914593635253
0.3327282095577187 0.661163156441301 0.10392829035555097 0.05621433542583349
0.3088887606327593 0.6699862763924838 0.0868244604563998 0.00513673210696241
0.06047413755007695 0.6578955010151449 0.018405143031874592 0.0321629261537335
0.05419171010169853 0.6603553829769135 0.032330021413623324 0.04116792093054608
0.31377957599548334 0.6494254508623368 0.3766210689384533 0.0072379537725791605
0.3559200856051503 0.6627124514769069 0.35306359075732197 0.0734102210204001
0.3284010797428829 0.6648165234225886 0.3575698316392552 0.04199270712397234
0.341769395381459 0.6594062532814585 0.3685299700618583 0.03851032719760334
0.3610687281915314 0.660415594555597 0.34164367005192836 0.06835901692154701
-0.0013160584122793692 0.6579168300705628 0.3656491134802828 0.02067499252965089
0.033841501779196134 0.6453036369663695 0.3738161476848814 0.03012010992542701
0.0702103074884223 0.651096163957939 0.3785677688552139 0.0303738859087369
0.029219246617303796 0.6310879819164642 0.36973781235517983 0.035465928686408264
0.24575443018855356 0.655643539497103 0.37333350374926066 0.00135205882081509
0.21467247818660334 0.6417754878162316 0.38327288242256896 
0.25499253169246766 0.6372070716606062 0.37231971282563037 0.006840977909085508
0.3475358941871528 0.6328260355816449 0.3695674410865188 0.026915095195563822
0.3363864269045888 0.6239515815808323 0.36833722465504404 0.004903795618087422
0.36414376413626826 0.6427215321942287 0.3614115573206293 0.07594047143288445
0.010175813199010699 0.644494380637874 0.3711610962704346 0.047773535897702946
-0.0026988174723112726 0.6352897589968978 0.370433962901874 0.02945582066823726
0.11423934918274131 0.6242859616725005 0.36242581436562776 
0.02400042244139495 0.6131085541404582 0.36587298017926856 0.021100475561414672
0.07103574122096916 0.6352399916259227 0.3703977791058321 1.0593839253859752e-13
0.36340227372438105 0.5485620728726726 0.3291235809747691 0.08923969403924262
0.3734762985556143 0.6184925242884043 0.31452681302592744 0.015439733223474156
0.37120295550988225 0.4663735713665318 0.31780829127718396 0.006386538375617113
0.3755057340328632 0.5624618591134889 0.308831976588162 0.03221686795035742
0.36579715453536954 0.4905796540033063 0.30770656906788013 0.005648676707418583
0.37163186171263896 0.3059068957090163 0.30759106190131497 0.018004523733249206
0.3742872790735897 0.578945308067202 0.32028262908972205 0.029339090452205605
0.36804261684677525 0.5951812308263487 0.3015112565402249 0.03314672853456154
0.370809176572617 0.4181216661455692 0.3184709228070011 0.007474227115856738
0.36749559804011156 0.4420532974587206 0.3132128533983164 0.014667320793257622
0.3747639785091507 0.6267887916440404 0.297357167315641 0.0065189961786405164
0.3678549599704125 0.5373643207700944 0.2990190645221562 0.049602699413852695
0.37208781713585987 0.3913117319809463 0.3043688205131202 0.011501461734655683
0.3732578649202982 0.5939821673883765 0.315342950805914 0.04449492961531685
0.37584886315238153 0.5540642630166948 0.2974350219328575 0.003076497186290931
0.3720036624203023 0.6305647884488469 0.32990787989459186 0.02180423640088347
0.36813224832689295 0.6417938985572974 0.3290996980477451 0.013976279628810326
0.36701341363513584 0.6679838561825798 0.3228939187014953 0.0005465452538700499
0.37060071188993116 0.205235408440002 0.31194028511162536 0.008116093723051183
0.3752376285340131 0.2773897891275944 0.3189270318061977 0.012963715681534076
0.37212865885436563 0.3233682777335305 0.307017442695144 0.015342242412421197
0.37147884585320784 0.1925876212639793 0.31682577307259385 0.0070831374686349015
0.369047106807273 0.22076011499665102 0.3109049523040103 0.009378466991602516
0.369885047515534 0.3759072333869314 0.3079269482878358 0.020405439741058136
0.37240018369965694 0.324807067017149 0.32736736594081606 0.012375717916400599
0.365215354230793 0.35908656645904186 0.30728274369626496 0.01585002223942332
0.369670790450642 0.48736543505808205 0.32601709064107615 0.011073589268592506
0.3673741816078241 0.427054843797965 0.3147953178332694 0.013496136564307485
0.3632030182830512 0.4404850145931924 0.3206468796180259 0.013340586118778648
0.3711083361944629 0.3385760700686585 0.32339294072505054 0.02637774485976129
0.3741739442585426 0.629875083777544 0.3571955186115101 0.044787141045970036
0.36258014547376666 0.6530733724803438 0.3599563656932616 0.07993441031858006
0.367770176695892 0.6201697237580067 0.32582188625430164 0.039818136378327165
0.35939588233882064 0.14003719133349204 0.29539426238922556 0.01021386087316341
0.3571076764093996 0.11241557254489336 0.3108619335037021 0.0023832145399259753
0.3344157608553443 0.06823549666954944 0.3263344574407893 0.005002102989602817
0.3373146880774728 0.07894818978017457 0.3072766475457873 0.009130885630215439
0.36042613053522093 0.14184284888605944 0.3140036931242118 0.014212783984467244
0.36689502506755806 0.1601228072571747 0.3054617375968844 0.004465054169475247
0.36715368973890017 0.18184799677500282 0.3033999502838347 0.010883979266211923
0.27451650272295025 0.028119248169350103 0.313557955621139 0.008743580594316375
0.27366683582748186 0.01694235823249805 0.29819195945690247 0.0055186407933883325
0.25923358584039874 0.014861440673624578 0.312652761725707 0.013010391787583337
0.1961692402137601 -0.0015685516773436131 0.3032772115626928 0.017595839158841293
0.19643263248629708 -0.0046711123493412875 0.2925922578384875 0.0010429566924044923
0.2240304447828438 0.008600878034745255 0.292352064677871 0.0035591547098416105
0.23730204271352448 0.012895268913178829 0.31099565492882186 0.004282655895372457
0.22046746901859188 0.004298428363699326 0.29965773736032264 0.002876773938601578
0.20453256565796546 -0.0060348679655145825 0.3266135018924438 0.007656805390150542
0.17507801539726442 -0.005585532446415943 0.3073356458958768 0.005793425135772432
0.15156117631260327 -0.0018709391505656262 0.3160644394783248 0.007367017569126981
0.1607123595411992 -0.0054112164918037955 0.3199667394632465 0.006965911258306769
0.1466728366390865 0.0017309083973476745 0.30849277735446706 0.006104227680402761
0.12028594355818673 0.007793010141147394 0.3112823112616668 0.007372698460204871
0.10771336453113121 0.019447078964507647 0.3187268220342064 0.008332203041815242
0.09042354439678646 0.01929360379547209 0.30818535633355437 0.013546433293030331
0.08116125959693188 0.02967124495341129 0.3090886499347286 0.018624017528825705
0.07681092664424169 0.03727043919284775 0.30012393634834 0.013682254171059472
0.09421893747417698 0.024008362642666283 0.3216576640004676 0.013972574004667657
0.03985357793451996 0.06741551155468928 0.30847803047395417 0.01865503859280199
0.05265385131962208 0.060993385194594546 0.3020229630944131 0.009154284967527123
0.041863138172473904 0.06284559562270688 0.3122440374055023 0.021325609700654096
0.029654230533143134 0.09170694998845651 0.3215411483991974 0.008564731182750683
0.020604415073692362 0.09965093187987832 0.31722883244221733 0.014997389434789364
0.026979523834079706 0.09371354897306075 0.3172948799449706 0.012359146184793848
0.004503939535881749 0.1268144201750709 0.30434300472751696 0.016507849286559483
0.008193970423763745 0.14376630351862957 0.30922847649657365 0.0160595564779263
0.008268485002602872 0.14072015375570235 0.3100792411056472 0.014889981608806042
0.005320765761189247 0.17627355915994744 0.30781564214566237 0.018413117655881946
0.004596109156688319 0.16216058990252724 0.3105593827505187 0.020734656421902257
-0.0018923609296037786 0.24432547471875363 0.3137509394523131 0.0023312800508268738
-0.0021135115836436883 0.29872835099016976 0.31223383890138307 0.008223584014975027
-0.0007808940081569815 0.3402949999276686 0.31178043615533235 0.009244932705833552
0.0004947271513639777 0.27019322817618413 0.32081344184758365 0.009567445125559331
-0.0018132735524930468 0.48351791515254305 0.3290032087536803 0.021549196030004925
-0.004494193867318686 0.4513760877165958 0.3194083914850146 0.007776024765578009
0.004236088496483209 0.221807791244276 0.3164431084829312 0.013314909727008722
-0.00041928190684676573 0.19023709540157757 0.3148805536355497 0.012184542590237863
-0.004010380385779065 0.6120386239931056 0.3247431537592699 0.018216853108985513
-0.0045819080139640695 0.6185889021270946 0.3143713651384495 0.027305558620537903
0.00461060738744338 0.2718527124633666 0.3062327882697278 0.010645240098590102
-0.0012969046602039343 0.30486123019581185 0.30419570512587374 0.0029208975706331267
-0.0024015528022994148 0.46151814702589494 0.2989048800231042 0.012797856649156506
-0.01039706913149518 0.5923685841734789 0.3156862422589077 0.01048075016902847
-0.008384895957291794 0.5188754651647419 0.3169885782125174 0.036017479617874805
-0.0011117911762575515 0.45706634128399337 0.3023177089620623 0.011435136417667106
0.0032229453956975134 0.2656611093280513 0.2955758387008525 0.005837957380874871
-0.009211175621129537 0.644804690320132 0.30576006346952306 0.007327669381474517
0.0027721965507761645 0.3933680558757518 0.29296790886158813 0.005555934295906742
-0.00413164926361184 0.4186799146275064 0.3027410159088407 0.00418414836165577
0.0023032306367148096 0.3655123675098341 0.3104367301220709 0.0072685256027342875
-0.0027965014373166337 0.5565786493052568 0.30364563299308817 0.028828182703596595
-0.007314376377626132 0.5790343678687565 0.3204046800539063 0.010287362504977643
-0.0032764817799072997 0.5456206523959027 0.3065274384802922 0.049278230916066
-0.003636211440582541 0.6083188450804186 0.3038710001953336 0.038077340329580496
-0.008102590755515815 0.4863890329812263 0.30954836635358823 0.01102153850942054
-0.00973845544646136 0.6367153084251882 0.3483199487731734 0.021414097249323933
-0.0018665717274934314 0.6549708806776179 0.32327540877677335 0.003964127785617353
-0.006996597482912295 0.6609309155195335 0.3109014905743035 0.0010124685470220111
-0.005578368541602387 0.6209727900804993 0.3366966382988174 0.015150665896889076
-0.0022426766831587165 0.6331484544213529 0.35823050912183063 0.0337514281879872
0.0028251506376609646 0.6100179365412933 0.334102697593649 0.054686441973676794
0.3509981370603353 0.6247512022515537 0.3625306364344543 0.09413550249384925
0.35564375680361915 0.5531750540564417 0.333373598099666 0.0708793681094843
0.36413373159594237 0.49282769606954135 0.34057141300116095 0.031563571310229535
0.371989165413111 0.2434354648749789 0.3233366013388922 0.0068194272343745305
0.36615796315772464 0.5668619080677891 0.32810681843258926 0.03344577954980827
0.36549419424318896 0.22129085638123774 0.3265446555288698 0.006698469673074923
0.37180077905445374 0.5234889455175258 0.3320854220538122 0.013234506343648656
0.3669684112141346 0.4589923222869295 0.3327058118450026 0.009067840616659906
0.36688708691537514 0.5907607625160742 0.3255092891403404 0.0466709361641142
0.36711305969441643 0.22965253501586982 0.327519119462813 0.005124128375771999
0.37383526419704477 0.3541103180508666 0.32612087833116876 0.014521456174232414
0.3672798015798407 0.3855095305064373 0.33272463789670204 0.008481338075660323
0.36395992318685266 0.30001305666783473 0.33216040155045506 0.016708731148795345
0.007398255389912969 0.15370143398625646 0.32058259854457444 0.01713837712285274
0.01562505642691315 0.11256776469852202 0.3204817361070366 0.02030405257220404
0.13478878792061305 0.003172825845592463 0.3255223446640105 0.005482809915124642
0.23057337096924604 0.006865466539554528 0.32826703476667124 0.009771588906185059
0.29884687749240946 0.03612622742175155 0.3216136749751413 0.00770460669426509
0.34119439375608773 0.08504455173903856 0.3163000820000624 0.015481275307474883
0.36078926522868515 0.14341934226716685 0.33091061306429137 0.01414694327422306
-0.001908958166188939 0.3652879951316849 0.3311301176894561 0.005227024028651553
0.0008202268226518547 0.41574152847357837 0.3254450147187026 0.01447892941669025
-0.002071865700789925 0.42963997115194624 0.3216405675471673 0.005159052246713797
-0.0014609767946550383 0.5833981140216423 0.32779668172902915 0.01646061161395918
-0.003987693475482003 0.4978639144389115 0.33158405254128387 0.036169683646289155
-0.0009177303329099516 0.31528175389627255 0.3347710383274687 0.004038583194921199
-0.001026202218689431 0.535450080755905 0.3240884046516063 0.05005462961952143
-0.0016083482631172505 0.5426820471444629 0.3357201602433593 0.029265558479648852
0.0001663533144323397 0.5141984269564365 0.33319748340254235 0.03815809679616807
0.012201907000365659 0.18485593061530486 0.3391054458141675 0.0076127003796527815
0.10925149112424357 0.5463363737608044 0.34085574997673457 
0.014624219759341958 0.5147893853230107 0.3400438352754797 0.03520655739144173
0.05982028514175851 0.5590019462951936 0.34429168100424645 
0.0307392560912064 0.5127184588677003 0.3423551426596094 0.01979973113461821
0.010215234542253789 0.5305513240724233 0.3386250521724484 0.07595057850191833
0.32571413839155655 0.5513658939769716 0.3408047904084211 0.011936476139690351
0.3658852201151016 0.378105897489093 0.3374368715976825 0.010952824476094504
0.3637297046740391 0.5901668262486249 0.3311811265121528 0.03248821819131607
0.3528781226903285 0.5730121531375675 0.3323965566713943 0.0276731698595158
0.3440492208214337 0.5598144555830816 0.3396045360259909 0.007518743126367875
0.29416724308914405 0.5539326559540125 0.3412865867717377 
0.3495327580666034 0.5910178950912091 0.33402993846454065 0.04571183995003371
0.35355103732502713 0.5326438022612977 0.33964305904308706 0.009833403861958896
0.3599141817968104 0.2595215123525783 0.3421785479999309 0.010689159528775763
0.3566641478978803 0.348974392943809 0.22099212965976925 0.028048108715272725
0.35244786079201706 0.3368471600005534 0.17410763041597296 0.011746677626481138
0.3433494468050873 0.339889129108079 0.1459412062680471 0.012465314301654516
0.34870440199799185 0.2445393523906544 0.1436151904494589 0.0027707606235423668
0.34854241624146637 0.2477368606683994 0.16322059867562602 0.0027433515123515165
0.17964005021370674 0.11871779954943598 0.054116028563582434 
0.19586795703941562 0.07588379998858584 0.12236051903023959 
0.014382850929487982 0.3506506084667917 0.2522630773534978 0.006372241495835761
0.04348824708862438 0.6271130960945156 0.07262493626184059 0.020869297337679275
0.05307950434548895 0.06770383954914772 0.2866867150074556 0.0016020553849100878
0.36948946181747844 0.398996525325138 0.29333493733991145 0.007764618312744485
0.36990686682571255 0.23570359361710816 0.30332295223009503 0.010389371519427584
0.3341895115078471 0.07713555416652919 0.30300756445753213 0.005841251026176276
0.3572551400003194 0.12648162083583225 0.2934258621612107 0.006419345333031807
0.15114777282735845 0.0020868886019841985 0.2809525251045494 1.5236716943977487e-05
0.10524719193284644 0.022460914730565426 0.29528611469673455 0.014506311495602735
0.026030051699234807 0.082241065806209 0.29078465744980175 0.013259889599621436
0.010216170661804054 0.11026607923936287 0.3045230509375125 0.015699560867885334
0.0060706018796695335 0.6146515139111679 0.2833631618670085 -1.3608956551671603e-15
0.005162866914669064 0.2795397838229569 0.2907337678042385 0.0033078507561136853
-0.008938146688523434 0.5424091483029926 0.29927665227291844 0.016883971532519824
0.05272925086986666 0.04992044278637388 0.3220636801917347 0.010833105360070676
0.12382976615515562 0.010297812837893262 0.32723274065581603 0.006892221380254752
0.31336576729716026 0.04585564546191352 0.3194394622906775 0.010697316762271068
0.2861069626101467 0.3341913159034299 0.053119253726602395 
0.07538413394912587 0.24536951918475547 0.022465662298459192 0.00046731870625590775
0.3296284067018178 0.3789185293043779 0.22112644165444456 
0.32109565154174696 0.3259818435197708 0.08703007527132836 0.00031926735562648435
0.31915525493885566 0.29846876059208605 0.05410301931545728 0.0037910904240031325
0.04671024667196943 0.32133384163646395 0.07219875994961263 0.001662331858931661
0.04765151088599716 0.308139926044429 0.06381386663975258 0.0034124837376965575
0.34874569553862433 0.2814249986997269 0.1533032722938656 0.009029264168347102
0.3496855161269961 0.28675747240148663 0.140176321583463 0.003234331955547296
0.35867848281996395 0.19142510751081726 0.25800981949430746 0.006032481699515279
0.0326957756783271 0.2433995783059567 0.08345628464098488 0.0018074845444749847
0.05309974263944038 0.2658421428229515 0.038040826700786144 0.013990457550243696
0.022207779609016404 0.21876252823024492 0.16618813870465154 0.0032906172838964728
0.047456732017980695 0.25049753289916443 0.041977481247525275 0.00967922432824031
0.015371476268133268 0.18899480661166013 0.275301613425656 0.008444622025390223
0.023614243796767048 0.28181615442219 0.1554336966298386 0.003602520057252059
0.0037658471862626625 0.3184837526750462 0.28584476516001545 0.0034686802740616393
0.0028772646298930275 0.29730739754628693 0.27013346596257237 0.0014926294342812896
0.020523865843947095 0.3731193207753818 0.2415211747832678 0.005714428436091328
0.0026744679766864954 0.3792952675958621 0.29626679620435403 0.00873579091895033
0.03459553503623796 0.6316155962797069 0.10638148503962173 0.0445674925725688
0.36580799826830435 0.28048127233889414 0.2907304326110264 0.005065378842369711
0.03736755527069738 0.6583542988891666 0.06641216868121341 0.03437557626846973
0.029469136857499197 0.6491783667452032 0.07931416841247284 0.016876682011099323
0.028365077768296866 0.6607661743482356 0.08858888765530966 0.04054972552454536
0.14075602367706647 0.6352218331506347 0.37408271472335203 
0.37020189729798136 0.6229102480767378 0.29125389125927775 0.009157565749364624
0.2534053269222197 0.6252818999274944 0.3725819074194929 
0.3637507096869154 0.46609853745939 0.337605509004831 0.02552379471477891
0.3745719537737119 0.5066170218856945 0.3223930603904462 0.02761712331486619
0.37054749000103365 0.4199179247239512 0.32641536996593173 0.007281663397480299
-0.0033450320841323516 0.5721135640709294 0.34297244921065817 0.0007532024323442854
-0.003438490775196451 0.42938680120537587 0.3272388010564803 0.019214999436587096
0.15098904148497272 0.5803946769638211 0.6287934416873675 0.019959877245115547
0.15986471404961125 0.5731381865220008 0.6080847569630428 0.09462912895974633
0.1794472784504227 0.5491575300215469 0.6340373257382844 0.019411439166552538
0.1729324514658411 0.5533890447545086 0.6165130534630564 0.08944181973297542
0.19620940200564904 0.5504556493652305 0.6299118884308516 0.006963701967567299
0.20557402779223438 0.5580704691182949 0.6131069943579446 0.0015608078065092138
0.1720754014444386 0.5361610226965894 0.6623534209363972 0.05300115509613254
0.14752714094755193 0.6248427354002732 0.6510961361194307 0.012953676284577081
0.1509718001465531 0.5935621728529311 0.608618498252272 0.030290396719896612
0.1750500512091644 0.5546690975334397 0.6097752056911511 0.07412649245288967
0.16412654258586207 0.5631384311169298 0.6092416064139443 0.06538220433545311
0.1948596945491219 0.561723686613872 0.6027498393263435 0.04842063727230442
0.15705831244994484 0.6008377983827489 0.6064275844828172 0.03398354492869434
0.158476511209469 0.6009779073107514 0.5867959331870681 0.02244149303331265
0.1572385844304441 0.5736022748079052 0.5987318216694226 0.07341897303802672
0.20252630918323192 0.5646677574406676 0.5918318829755098 0.002488490429634621
0.20277186016299956 0.5454142380030768 0.6452862093829684 0.03354072975065046
0.15066453476508276 0.5856633862000372 0.6071148547338335 0.04830701762823833
0.13604574629318444 0.5962497901783207 0.6739444757671476 0.04991025030503307
0.14006277590860577 0.6068796419353355 0.6845620692657358 0.025367934368266957
0.1316496390375956 0.5816115714116532 0.6899396636304145 0.025882686071880344
0.14201481105924493 0.6171011864240866 0.7141222954594408 0.012569075124372598
0.14185445236485109 0.5951199186893732 0.7357887894812599 0.006099803650816178
0.15946874530676183 0.6261504295287655 0.7328128381924925 0.018555918757924176
0.1558281494978604 0.6307676777073783 0.7117526708901011 0.016261967957964515
0.20530347322888504 0.634560630364171 0.7185590128581828 0.00789999741460102
0.15744965628480706 0.6241260340520575 0.6890824938082107 0.023239103708803915
0.1734141588732578 0.6364823119671497 0.688180922781159 0.031186261059631147
0.20683724726233427 0.6282928962253788 0.6990443194818211 0.02093596320053339
0.13732707721044632 0.595661398056224 0.7120078802979057 0.014759199951295217
0.21132287513362716 0.6210892596336347 0.7325462286054231 0.05921937859661802
0.23364878815366866 0.6073923637143983 0.7338544721495147 0.02115870406382079
0.17223624550259697 0.6308306995069625 0.7426974787424149 0.0766424238821287
0.1386548815967685 0.5729408897405005 0.7143634383988031 0.021412189966311373
0.1304366115657735 0.5891260212479523 0.6843155159871439 0.021105448322074897
0.13922822155579656 0.5732370342890136 0.6779553499407066 0.03258641591411844
0.18354191517914012 0.6397283013927897 0.6819672630725218 0.02794826586249474
0.22701490054171908 0.6141887051789084 0.6993670510806633 0.03209236246859156
0.22424461509551394 0.5975808544196908 0.7402148252204633 0.06804321856176625
0.22896906989175272 0.585379105548993 0.7297632821527726 0.06783142644844742
0.2321263476921112 0.5903887036872381 0.6939534700800282 0.021191983719249387
0.2318546824072673 0.5748756948910069 0.6922821122050012 0.03790452282489443
0.2349950432825616 0.5941464774718281 0.7108624984639853 0.011337494818286695
0.2284233855126607 0.5602363291330757 0.7000467212245239 0.038418933637806685
0.21564307488038137 0.5453183570755881 0.6790650448185183 0.024236556631131823
0.23942057660630836 0.6052875532221222 0.6881411777472511 0.014684956295968735
0.1475247748819588 0.561301420768269 0.6717339136150545 0.02411157948407437
0.16127601806532896 0.5341023264763 0.6821927891719619 0.014084436071061851
0.20277759318365868 0.6156171779392051 0.7480158127772364 0.027407425696569832
0.17158385790861538 0.623548060653777 0.7599917298885036 0.04847153004297454
0.15777868880759233 0.6093010829980005 0.7468094444852993 0.08297649667847148
0.1820376592265342 0.6195482581544264 0.7561546241788817 0.06662640542189541
0.15743220031529023 0.6040260566062474 0.7469265189946205 0.08379411930049749
0.13909444325471024 0.5646831691134432 0.705095025301012 0.014022766542568637
0.14459452811537638 0.6130244864617795 0.6696299796725346 0.023136769206047247
0.13582141739335418 0.6001343335195187 0.6484085364147828 0.008683157339648001
0.1501811466276235 0.5534300063424606 0.6508688079482139 0.029357554162552563
0.15665938915961877 0.5453322501096485 0.6682814189049955 0.01492260082461071
0.1611010923126541 0.5372159217438335 0.6484652608961073 0.019905131492761383
0.19705188506529542 0.5258545648486465 0.673169727993339 0.016127907930668362
0.19520515516806977 0.5326117607129143 0.657717355805353 0.029792505927731056
0.17309309843714316 0.6340756188212446 0.6574325276411661 0.009079766040502847
0.13793107759790937 0.5941210959592539 0.6665876145374149 0.0406071936715264
0.13690235281337718 0.5668415879349765 0.6581111176154668 0.007975152578258508
0.13799823279119902 0.5711715734808277 0.6707279563350106 0.031384605526239284
0.15976292479662346 0.5744760542047013 0.449474736621893 0.06406776550820435
0.16766498798095375 0.5804489421095823 0.5242547034066422 0.08986010249097408
0.16401831885496534 0.5838834151703624 0.4679136205463484 0.2502070237543493
0.16113554440195038 0.5827563217064446 0.4984817727259451 0.07822418535751284
0.16880569040159626 0.5915054015960585 0.5129804191157289 0.10007517875179768
0.16903083054532966 0.5932366223607651 0.45075616124939905 0.25413543607055883
0.17223964548029305 0.6056121983158291 0.4154393503331362 0.049535898415707436
0.17966324144299753 0.6133121797280142 0.49477162156940035 0.0049817380986043125
0.16668170145692954 0.5922987946239673 0.3859841320442888 0.19801750476123609
0.1627879784945589 0.5815621299751027 0.44575327171006485 0.08275648554261063
0.19623525985179582 0.6013849675799657 0.40280232869925886 0.14248579172135553
0.2030492106936332 0.5870495700107367 0.39212957440648727 0.16580142112858792
0.19859589862838473 0.602058707180831 0.46067655834670196 0.11351739917314752
0.20253294167505334 0.5908801244147482 0.41318892998651874 0.13949871287528892
0.19862148817947786 0.5947401449829922 0.42577551378232675 0.20972276197074846
0.17710983289758947 0.5698616009942415 0.514752249788944 0.08375658879034617
0.2032630752965851 0.5850794006495602 0.40990904874801876 0.11459773416500342
0.20208199050231476 0.5776987646673019 0.38068244326098144 0.15692044998061222
0.17372463396629376 0.5626748114874878 0.45936308798281283 0.15687614305549535
0.1693304301323761 0.5716376639294419 0.46627713423964945 0.14583375386457212
0.16396622812474101 0.5795448700838173 0.41632887293017057 0.15940766955728988
0.16751656000601414 0.5686625652304935 0.4985791629160192 0.02297236489903254
0.190764408151268 0.5660543445729525 0.4422709531599113 0.09907542271002073
0.1876150267338075 0.5562221042375226 0.5386022484298234 0.02708089417086287
0.19764097082260645 0.5681011965415909 0.38961569144978797 0.15633141800480907
0.18507702776300036 0.5624933539046528 0.4019735880192146 0.11036622250776948
0.19080917864936411 0.5690649282957349 0.4158301815051736 0.15708258751028106
0.19343249860902728 0.5643474463582663 0.509353947292301 0.051125208116984164
0.1861409580421529 0.5665447351950227 0.47167506211024357 0.18543216297125514
0.19898691960417472 0.5756988281868424 0.46735307427141787 0.21121426395731188
0.19884120640749844 0.5697690787095941 0.5347386485600453 0.07655311846088683
0.19377395091309463 0.5634010471689 0.4873962088182352 0.0744748482587428
0.19890515156243935 0.5735547567088776 0.41419675129002526 0.15585769624020093
0.19431971800027778 0.5699584043371178 0.4045136950596382 0.18806764111087904
0.20626171105433752 0.5847528442944083 0.46378700886553137 0.119952666979954
0.20160239828557813 0.5919711123814921 0.4434402809186756 0.1379145848719983
0.1694249649426712 0.6119783194917641 0.48029072066800554 0.05239347372752713
0.16454239066763973 0.5917443136246814 0.47516430492352746 0.18315422753760718
0.16658943303469884 0.5983108017424699 0.46991104113150395 0.2248553192839548
0.17258456561488475 0.5961896194397434 0.5306376381360765 0.043859447302878114
0.1594339890032561 0.5766772345368889 0.40879164138501656 0.11662312719301379
0.15570154414952544 0.5729089573054525 0.3770542742968179 0.010688408607749939
0.1692180256396683 0.5762935560701667 0.5360045101029348 0.08184498790207052
0.16364533257801644 0.5923906525961249 0.3770991992692499 -3.127741732155698e-14
0.1617370158947289 0.5930578941405232 0.5624250259640229 0.028938159919981714
0.1701981191060703 0.5649148153255882 0.5647546432567976 0.09423208485782139
0.15221458130406645 0.5719039427362782 0.5713205202211968 0.02416259522344833
0.19389014456045475 0.564774035974641 0.5675020398863592 0.018111081130057355
0.20924454126818332 0.5682792484819333 0.5590388070712183 0.02879917456456313
0.1800035236023246 0.559069051925485 0.5805429937364744 0.05846669047552732
0.16517693466327688 0.6047073688755044 0.560567745840166 0.0032352213376877063
0.15758703251183245 0.5900794444822139 0.5715963894705466 0.05045732572926189
0.16445357446875647 0.6171494797882019 0.5836488563091429 0.001915344641696727
0.17298614437678597 0.5567662461035814 0.5846064602914207 0.06464494600408344
0.21123925528977486 0.5859063508236058 0.3629339035106288 0.012409948750321682
0.3240886018861618 0.6287587613859104 0.6203959891845108 0.03267740268423215
0.31606000753171853 0.6340156096935754 0.6393108683183947 0.059822921082873265
0.3132738242217008 0.6279965123920982 0.6500223198587234 0.04884635329031358
0.3172577335257376 0.6308724367578981 0.6106035769165068 0.02777807529468236
0.31517338768207975 0.6088424768237254 0.5939538026421092 0.010439146931354368
0.2468670145911538 0.5689053270534398 0.6003063031774266 
0.25176493314536774 0.5696293762479446 0.6157135292488269 
0.3005525042487971 0.5433602844072141 0.6263062177422246 0.0243934919831043
0.28592474310062865 0.5459424120768536 0.6420695707892932 0.013708445047201272
0.3169704805768006 0.5517731378882196 0.6313865379524771 0.06966809614083581
0.3189365853617976 0.5545924195882613 0.6197578847094045 0.059545069973549844
0.31010164991453837 0.5387411286508392 0.5983251720470592 0.008358379367689314
0.300432537007089 0.5491291358094537 0.6488613436549507 0.10159752691110871
0.29086763014648914 0.5471243495901801 0.6132427450654938 0.025855761301596503
0.30617724166614246 0.5513023135716134 0.6521497129641135 0.05137879684637426
0.32848558841464665 0.5582237247876997 0.6310302947206466 0.06125173641023767
0.3212037533596354 0.5568011129029589 0.6064567690069456 0.057264854104244825
0.31948866651454194 0.5519565172282428 0.6374107065296926 0.07501020223352037
0.28447696113533577 0.599069783022031 0.6543682200697797 
0.3301389545057563 0.5898653164849714 0.6059719239045457 0.027600148081503423
0.32220534761088204 0.5912582878670284 0.5925695387202569 0.0371314953830976
0.33107693120578885 0.5782660206205447 0.6123874549473031 0.02542203657854437
0.33161862859660524 0.5796061223478227 0.6348933437219487 0.054927179591850915
0.3291677252598428 0.572857023701759 0.6475910892229587 0.03789785431881514
0.32614115300436547 0.5827031450773544 0.6502563698660823 0.047733616039444676
0.321704372954272 0.6048565147651052 0.6150391060835573 0.022721497051399833
0.32672825191152377 0.5936371946769335 0.6329400588922067 0.06425025579307074
0.33304752622046757 0.6086021915682254 0.6430379553287757 0.04584334084741375
0.30614490621734874 0.5808398258425348 0.6517693735655541 0.046965667632397214
0.31993960929683524 0.6043687567778162 0.6500067684256005 0.09684738560171265
0.213550470334173 0.565097693445574 0.3530826905433977 0.03496886194358795
0.22664478449964187 0.5778512558139464 0.3474776226676715 2.609093069764973e-14
0.20076917697999086 0.5633581963809504 0.3615597694604001 0.0152812947253309
0.21225389693472319 0.012848119661530256 0.36546195762835404 0.007186208641154241
0.08949058372685999 0.04411855188032099 0.37010974592586965 0.05405986517007008
0.18557989636177927 0.0017244926328953709 0.3703346735200139 0.03819216974839278
0.2940456482250942 0.04939100903072697 0.3728044338467049 0.06160891425419419
0.01638658266200149 0.1461421701525798 0.36399929309546614 0.054367700469988484
0.02293844883388149 0.1176980723727131 0.3666668189821521 0.04685222126659785
0.11187382790297697 0.01869820587106534 0.3601242592259624 0.05149367530886717
0.02734561706594142 0.10091360077487174 0.3668037968841232 0.028107904209535503
0.1422757079448901 0.008479936652718697 0.37470949612315135 0.01874092882151141
0.27246582777111333 0.03495196384077628 0.3677983708169715 0.03861436236681478
0.2557403544719904 0.03429791954951555 0.3668576419518371 0.022478327477519055
0.35123386300868753 0.11100796531373189 0.37111426905889444 0.03127947173896012
0.3563743958250082 0.1567224938235672 0.36815401341018417 0.04858284533028785
0.313575307576877 0.06826997308749434 0.37339419393248513 0.05981705840389686
0.357387231652645 0.2387992549267841 0.3705511070150564 0.04216289568792226
0.3556074286676989 0.38347505980257435 0.3692806948198533 0.058728049674391186
0.35775992548556473 0.43020737038906903 0.3684129124089104 0.0426449769530239
0.35739652465472505 0.35555921512293476 0.36543685860036046 0.03535725633199501
0.3548063528861166 0.263460625884685 0.36838801280257133 0.015764329454081686
0.3504798879878117 0.4483903439929733 0.36689048997914586 0.05895459717722019
0.0694197949142139 0.4748115198169045 0.3671199114869594 0.012835419932014407
0.16241467226956097 0.48407230624962505 0.3700889205938181 
0.32678884356626875 0.4838475649812359 0.3691837744466526 0.014325965164468622
0.3498636850770792 0.47583806865751166 0.36368244858487775 0.026551533740957946
0.010961359095924997 0.4700456421232061 0.36096559710928094 0.06048068411987373
0.012817843793067423 0.45829174316006377 0.3706962321984539 0.04087278793270154
0.014430122407764012 0.19505664722332683 0.37703270519857385 0.05983371017933771
0.019059375205985253 0.3381808657867229 0.3776210063347129 0.015448652809874178
0.015145874555794237 0.25938226297177785 0.366023334054499 0.032707905568249755
0.014596443257831333 0.18342829027493657 0.35890520678530424 0.06866320421860247
0.009391346950467283 0.40714842023917924 0.36214059595979725 0.07680422034838345
0.018784917247744445 0.28514762587149367 0.36437251462620557 0.05506193068977811
0.007156958392944897 0.3181689011929259 0.3780073588287036 0.014007407965410128
0.009058257485032327 0.3560617356318361 0.3587892374207012 0.018785467268196212
0.008387100928213168 0.4401902882318999 0.36692720100083814 0.05679007918342751
0.010294647487692614 0.3748165217438484 0.3694311677447373 0.0778873947564804
0.3521748854649179 0.4751383493951769 0.3613387928592437 0.030416225722148808
0.365688746631943 0.4791164282552555 0.34200693593554593 0.025767769780233134
0.3628203037387828 0.40303715228042275 0.35210497961050236 0.03691053433906976
0.3588280951928807 0.477576840297267 0.3527307778794876 0.02978638851232556
0.3608046440602126 0.23821029576992633 0.35282897826218984 0.004768540802203969
0.35998835167945775 0.18486478798888634 0.3494724410088479 0.04350752144414166
0.36216494851555375 0.20515289792352384 0.3557758937930369 0.028843025561401735
0.36197517071146273 0.42700057046889994 0.3465198565486118 0.029929829757050833
0.36354634383574497 0.30562023382084735 0.367823662136797 0.020856696043181893
0.36061638262102513 0.3000941250482942 0.3463959395564975 0.028210755813668113
0.36250245403702186 0.401691143189236 0.3535758639179164 0.036576332249501714
0.36130891205855925 0.35444605661988726 0.3514475962892306 0.009632402730023679
0.3621071617845105 0.2836806523979898 0.34665858691288004 0.024613071590013986
0.35943302659688686 0.3162599398181437 0.3453327764596259 0.027450493973838315
0.3607780400681197 0.37524255894693664 0.3465566717233771 0.03407167244986232
0.36746248818539257 0.36526381468137914 0.33684470168591807 0.013127452745537211
0.3611119702680176 0.4583993900050776 0.3497626883735166 0.02572384479407939
0.35950210442051084 0.36552626943315514 0.3538330293866556 0.011525404029667664
0.3683792139483808 0.18098833722144153 0.3304360172192819 0.008404460984840902
0.36251534452440987 0.2095556263419096 0.3434989500256111 0.004259148647320226
0.3621773584258928 0.28584998560220337 0.3344232029036015 0.018579902340568485
0.36232495093830747 0.18709165208512094 0.3373609411537895 0.01005306436196672
0.361619026744085 0.40808129865508264 0.337631243548353 0.02626284948276721
0.36012195145228265 0.2690002044948759 0.34648951126010213 0.00841647264666924
0.3596959555878807 0.4442962986453488 0.3480173764890895 0.01479640800002819
0.36179435133478305 0.23820865270445524 0.34923366418571916 0.004732886963049519
0.01896876846043168 0.12404588606497943 0.3362356632381405 0.018899862518651986
0.018896044473237714 0.12573641544939868 0.35630268038782265 0.046006226179594906
0.025343114959486518 0.101714693302607 0.3374654066278035 0.010587350072348038
0.04248431607294679 0.07110712011451169 0.3458504813886568 0.016170563326423196
0.05045874256915539 0.06172868966998758 0.362114031838123 0.02806389232521159
0.12583683922918346 0.0148060979564023 0.3628478459119277 0.055164995265914896
0.11924875449390825 0.012464344674989183 0.3431932312621862 0.018473424880836427
0.132882862288851 0.007819687242955686 0.3412717017123608 0.0037792079829633836
0.0026942962956500267 0.17204219371663843 0.33531534167417415 0.013143962157571127
0.014054858524449898 0.1674412621109203 0.35096396119124446 0.059623696658854926
0.015999626343605744 0.13784083798819163 0.32984619694097383 0.012639882181966253
0.0077827603727335356 0.15199104667881272 0.34229100179668676 0.011828514455068426
0.009566833262285418 0.1392779588077832 0.35621564406246 0.02764055473385097
0.03294163953960156 0.07996719384702346 0.3518598029333319 0.040655626119148025
0.01793867276093732 0.12944077244729899 0.35868369914559833 0.047357226309022595
0.03189807152060277 0.08753837904105047 0.35144853326570386 0.039925319694621146
0.027756139546831943 0.09650905535073911 0.33238583781122555 0.009662721472449598
0.05580286185271547 0.05436356990572868 0.3352886633099911 0.022091288329446086
0.0875560614148034 0.02966322478588749 0.3652005532387784 0.02836675924995534
0.0854273079035072 0.027757376164342536 0.3254463373298095 0.013600092547215472
0.1713509862839416 0.004536514672970796 0.35782742070865325 0.025099141021972908
0.17956182028012796 -0.0004898322260757713 0.34161933182970566 0.010543199587524435
0.07291185300141244 0.044235611207553885 0.3337367467190434 0.019958408733399973
0.08706152951273789 0.032559559092584706 0.34949066549092933 0.03835692844464983
0.15772730783510877 0.00024691094857766036 0.3340413637576918 0.007001164594418233
0.15806150442396363 0.0007409907194218671 0.33916908601229756 0.0062649573715175
0.27529007778646586 0.02461853386438266 0.3504080942646543 0.05254860841617592
0.2804890606186431 0.03170057326117683 0.359541346088364 0.04201956893312529
0.2676427030896738 0.022389347979250653 0.3498761840422464 0.03822470105641572
0.20880369460268347 -0.0026213583714960213 0.3613077406549274 0.0275788836852589
0.25649814297525064 0.01947333444740981 0.3463423283604673 0.03024878816564575
0.1808539497075029 -0.0003902409768802434 0.33115489138666016 0.0076057774600936994
0.3468496743850307 0.09450156659574063 0.324436694145315 0.013828423125651931
0.32837257874172554 0.07168360084382809 0.34553138856337684 0.02063928602169331
0.3463248412005118 0.11011382558022638 0.3430313256899484 0.033322408063420884
0.23390295133667502 0.01475418381920951 0.3576495034866124 0.03199055796327332
0.28627275002684727 0.035568986654474666 0.3549454361539355 0.04641623109847888
0.28126586959513217 0.03150736610059639 0.35473287755164407 0.04749751226865966
0.24301222016789958 0.015428837228317775 0.3630805154789468 0.02777749796511491
0.347736032623368 0.09049464104918555 0.36214883826918554 0.013109092096963117
0.36710258336446383 0.14152381565461422 0.3492209413144735 0.012513603077948618
0.3638972899464586 0.1600021653880248 0.3536860898739653 0.02383994195646421
0.31875494578450425 0.06850725972568031 0.36523725027730314 0.04832238736913061
0.3061636647230372 0.04725389565561556 0.3348734518005782 0.0026755373678846563
0.35323594713087586 0.12726055927863708 0.35013585854318807 0.033442812214708864
0.3090735020537658 0.053784722485876665 0.3676374532294206 0.03915989579751294
0.2563681028794719 0.03307047298203643 0.36626523307874775 0.02237638697713157
0.2322292654942428 0.029668858113382372 0.3723918062123007 0.04638110094814641
0.2496441697480701 0.04204588213512781 0.3730480925430933 0.031110542251392825
0.2254471499950778 0.018791320017617172 0.36613253554609393 0.013363675677144301
0.28578224017282755 0.06508713837746721 0.37199215556905973 0.025045506318946722
0.27687697620426593 0.055797116442468056 0.3715029408278399 0.025824505630411776
0.34084200762052924 0.13178565157857208 0.36755755332633483 0.05760119598269255
0.3042718499409636 0.0716443812735074 0.37121296148528 0.059351616333757906
0.3484708581282422 0.136979116727281 0.3668443937670429 0.10097510267263914
0.2158201409789553 0.39184181657229483 0.37397710261636935 -9.695545198235318e-15
0.27375446091440836 0.30095905252486244 0.37178498029392076 -1.0419090652552069e-13
0.23197687468734268 0.07697175638533477 0.37440621015411024 0.003267006963560559
0.3003852279601719 0.2624419605146745 0.3700800391235405 
0.2468453965451551 0.1476367154032807 0.37058941120932803 0.0041083187127282286
0.21924296504751553 0.22324808308464558 0.37795159845848514 6.673161391265001e-05
0.31019231464050917 0.14495737469408052 0.3708335103912065 0.0016346615117556241
0.2835291066795722 0.13428353797452114 0.3726934080128055 0.011541672520175895
0.19136871638218453 0.3335282662935348 0.3737123631788842 0.0035741347634060394
0.2349054484735893 0.13077065435735227 0.372436610072212 4.8197775476491325e-14
0.2572788904613782 0.06889534976861258 0.37179635441808645 0.002934813902688831
0.1889650486438507 0.4744295549287586 0.3712018275285461 
0.27773880997934175 0.2952823943176073 0.3731897729078355 1.492155960597376e-14
0.24547839491982618 0.3599647641391668 0.3741782941707902 2.2007984918450348e-14
0.21288625301932199 0.1684796268431387 0.372662460068737 0.0012232081821640292
0.22820110757150947 0.3089304291114901 0.367923860007215 
0.33358540806229975 0.19125382820262382 0.3741644055703736 0.05885423994147416
0.23166518175641418 0.3337707478882462 0.3717124736918551 0.0013918409411763266
0.2964429619955582 0.2831886993699741 0.37062147294746406 0.0009486412162516273
0.25117954943651033 0.09374644970616967 0.3777820102558013 0.00013937840557933363
0.2758660705907461 0.21261967366157145 0.3716489579361484 
0.2302517274807089 0.25683666207593564 0.3734113124793945 -3.1308497163875945e-14
0.24221187910604303 0.18209775620716206 0.3733948468661501 
0.3289730783314949 0.16897438184508948 0.3746676935450063 0.002499951364988372
0.31745554832369954 0.14683916401014746 0.37023098602461335 0.0015606453615322408
0.2980946669160093 0.1692612594911134 0.3762367415033664 8.41826436960356e-06
0.22052858182730448 0.031195215902182348 0.3730348601666272 0.023119150535568848
0.21103348365288296 0.11055374219477836 0.37069018215820143 0.0011845958213430627
0.35318725127806455 0.1863367360224233 0.3664517924367322 0.06899850622824258
0.2538720050387911 0.25375803951750986 0.37653454244300544 
0.2839476472167367 0.22101687235758247 0.3703047318624306 
0.22434103079397155 0.3135401062292487 0.3678796487105565 3.2440250243976096e-14
0.27035116073745263 0.11966983795867953 0.37929163077600814 0.00036314587657121903
0.20243546546278074 0.3490063905627781 0.37381670884583956 1.2714264928738644e-13
0.302857400922488 0.12274597875153781 0.37220499721656913 0.00196715981351562
0.2712385210620569 0.07849900020022858 0.3736003545704816 0.0023806400287356023
0.29325393206776396 0.30599912466529977 0.3732759944982043 -8.676362486089603e-14
0.3411329573921405 0.3232304373084782 0.37035569733382934 0.06449457384560867
0.3485160278318606 0.31142558379569396 0.3687597901379316 0.04928428547744404
0.24987112586973284 0.4102141871786412 0.37341045457605343 0.0011904780079087292
0.24929586798922088 0.3647158057192869 0.3734031970714361 0.0012959990981651255
0.35729780558960733 0.2027899782373933 0.3747627771399026 0.03011945691270322
0.25772034769880026 0.39955045554436136 0.37128180797768584 0.00011667101486171258
0.3216073159374243 0.34679691993073325 0.3793679014960225 0.005384087315736907
0.334987208289219 0.33303715447775595 0.37265695589884473 0.004713665922912197
0.2807750353381497 0.3637501164548671 0.37239759556990426 1.3315864963865236e-05
0.32418648333791794 0.22604808654068276 0.3766539734188508 
0.3078241594235354 0.3588088914358797 0.3775520490573237 0.007191240447255435
0.34319941151021666 0.2723262927339675 0.3734202921738967 0.021977838889932308
0.3319798968855681 0.45981210158653746 0.37514717420183097 0.03307922049138492
0.3514255956028813 0.3966345283230804 0.3687677404694278 0.0598103713558474
0.3187948638506398 0.3789623868987743 0.3695638454630573 0.01025050577665347
0.3123950500724843 0.4522158216793051 0.37349318737846465 0.018162551766288892
0.2355377956792287 0.4492348479760551 0.37486095493995936 0.0021459154916963555
0.3558801127690225 0.369590949736473 0.36359009368175205 0.06519219459632296
0.2755540571778808 0.43468876285100955 0.3729853373904821 0.002442493169121238
0.24653507968697577 0.46795290541604684 0.3676300262608055 0.0007809444304312166
0.2477872978127771 0.4330501714830734 0.3732690032597286 0.005084881791983664
0.3366498141968069 0.4098794277305013 0.36563561922664567 0.09382170320153055
0.33466153730253345 0.3945910637295217 0.3697566748205423 0.047153970817428996
0.2581741885560964 0.4498922504378611 0.37161688261068515 0.004373310458728482
0.2755484111291789 0.4073269397003815 0.3740657280183718 0.000496604774926913
0.3576415142390581 0.3356827518121192 0.3637621846832787 0.03303431962116482
0.3427630775965581 0.4664968016444408 0.3677302909202025 0.058107867817775084
0.29912883760376907 0.3916955475947955 0.3682108246417185 0.006727386507175671
0.3215443496216096 0.4256454673519513 0.3652242038306459 0.0058696905104294785
0.34319106216888784 0.3637660902570016 0.3714004199810751 0.03848533970415905
0.20982683735531643 0.466042172177447 0.3746792171939309 2.2069204428254378e-14
0.19630294313708516 0.19152352909152132 0.37002885580333544 0.005096656840683787
0.2000179582786136 0.2050711602437738 0.3706514237222109 0.005077348652249159
0.19935722953689233 0.250673956977988 0.37269539292160003 0.003479419958066356
0.18690292824821989 0.2270909325027937 0.37073302165703087 0.004897349941576951
0.1987764196378689 0.1510669551407689 0.37034835516039516 0.0013472331291682232
0.19478354675648762 0.13903294206263914 0.3719428247830267 0.004595980250021676
0.20779262400865936 0.05751240095913369 0.3683369191553945 0.002249957778894064
0.20350649645542307 0.36198780816451415 0.3716665469235763 1.463317477515619e-05
0.19379431755412851 0.28661537332729653 0.372463922086009 -5.345610477779641e-14
0.22217830874948127 0.023131587344525244 0.3698742619944687 0.023832535484105678
0.2031214890735288 0.02516006190243889 0.3747774015691525 0.031593005235884264
0.1890777783402969 0.130926475819916 0.37139472563641285 0.0045624749775561415
0.2007633690672306 0.012039912390886934 0.3701444767194803 0.04548844372434533
0.18864908590231463 0.2192770699510971 0.37053441620765837 0.004906446189337744
0.1895428857907237 0.10470292987445926 0.3760529045071666 0.0002053223175781122
0.1604571593880001 0.1491294371498509 0.3684934136687719 0.003186879984322396
0.18572765743054262 0.40987474414476205 0.3730818224775577 1.7975191197453775e-14
0.16097289013861865 0.022402229810215793 0.3774079479533747 0.05154261868412764
0.17375938299854207 0.311970031774158 0.3761857686025348 0.0024127628633643762
0.17365658356054894 0.2167608078249434 0.3723626680553554 0.0006683409377064794
0.17453285592673096 0.17499376420275836 0.372571613964473 0.002264117902447175
0.16257906941730238 0.0722599854544165 0.371322169823959 
0.05479980752082752 0.27169986576724925 0.3713008952516145 0.007662595073241545
0.1175983462207498 0.36269237474113103 0.37251551118199006 
0.04230724377745158 0.29600005043995 0.3776299787448981 0.00017303633209022636
0.06398271598736106 0.3197537757606971 0.3785791223368808 -7.576056368505515e-15
0.02651963408068095 0.2743407991321073 0.36521145563085516 0.043105000839754576
0.037730661285266365 0.23032778635515547 0.3703698816536899 0.040083946577779264
0.030622806356780198 0.28571260167406726 0.36805026553808373 0.03680133338046136
0.06034428830306372 0.31008840614403876 0.37617829546050574 0.009077863759936668
0.09963642187807473 0.36890963755150386 0.3756080510482507 0.0006378594186662083
0.13084737965360393 0.4008257273259564 0.3814033254292942 
0.036113544472128126 0.20786973924225544 0.3696887994842314 0.046631510245287985
0.015835693185977138 0.2387716520088843 0.36588105912345315 0.03952757663881233
0.028205246864124435 0.21994778825718406 0.3702705812518405 0.045680236119661904
0.0822974950770743 0.4413719837264596 0.3717161646345844 0.002263130437032045
0.07782231603811068 0.3819411261773746 0.3757152804252487 6.262624974725877e-14
0.06542505939085916 0.3740591224641912 0.3738888512426418 -2.6313513870237246e-14
0.08820312677856149 0.46165426957935796 0.3702514447141924 0.0012618354187126086
0.14598573870979012 0.44996363017572905 0.37753313670389466 0.001388459753705332
0.1091784255017738 0.4610710361605959 0.3717785586497706 0.002293508597493642
