x y z curv
0.2972336809629166 0.46545250247173714 0.08597657434710494 0.008127266379407744
0.29991952795340565 0.5217618355449204 0.09965061707663872 0.0026407243054136897
0.29782281919989734 0.5534144897419602 0.09378650915053384 0.008791350663181968
0.3049960008406704 0.42520796564644014 0.12070062308829896 0.0003259007674824128
0.3040871393335162 0.36384149969526025 0.10931238910073994 0.023278828239965122
0.30073927055977295 0.22875415405011953 0.11713846100152776 0.011225245366901237
0.2970348275400738 0.25613467458212197 0.11202780808056613 0.005397688125696173
0.3020127363819485 0.22737482178335117 0.12180889020505785 0.016160593279285623
0.30831594654616784 0.5648358574724334 0.027098014537673316 0.0035744856871454426
0.30584615313934194 0.4446118499858837 0.06414600700279469 0.014986411484896904
0.30540020862408085 0.507525227801073 0.034518104790704836 0.007626075635745772
0.3092504633122717 0.6451804612670149 0.03461516032048646 0.005281124453258762
0.3070509225443018 0.5229266421767028 0.03881233807011657 0.007494657082283229
0.30582343020311203 0.4396944575472554 0.05640169828159593 0.020460991188650128
0.30461443564688734 0.4296276374769274 0.04576905826476425 0.015517664258789152
0.3042908366050723 0.5772404935382158 0.05925952173939803 0.005113470012312692
0.3046782949249526 0.42251745974191346 0.06646246923932177 0.012481532258127348
0.29971369565332406 0.5324412386269133 0.046268974668120966 0.002763509346164854
0.3084495187693976 0.36098355612077065 0.059863404479079965 0.010102523930712133
0.30261578827355046 0.5546915531189407 0.037623614664677583 0.0043518461550783516
0.30002015303982765 0.32001048870219256 0.050727085224426406 0.002453850827417108
0.3020796809847256 0.5690048382532904 0.06219095588809213 0.003115639442873164
0.3040427580259401 0.4886727128178474 0.06744741890627085 0.005033136093931806
0.30826286878375575 0.3941081582548535 0.05151043825104773 0.004869998408637471
0.30633952843522616 0.46848782558150026 0.027396082784516884 0.008752922865025515
0.3004806372452379 0.5552718889645021 0.05571664015627928 0.0044998095664270585
0.3106501654183562 0.6389098974812065 0.055976684462386364 0.0020448517043608464
0.30549340239437006 0.4979942548464444 0.04182098754294722 0.005705918187967846
0.30231255085444675 0.5163186891479687 0.0652967245694864 0.004004563434752721
0.2994300041672623 0.33229136188294706 0.04202701509398431 0.004285003609378434
0.31059999487399287 0.45268750675207176 0.04853919865778961 0.007449670299559502
0.30972962296323087 0.6434445377295094 0.04961954923717548 0.0029620290554867703
0.30892536408866417 0.2733871045922049 0.05477186579520635 0.006786106978140745
0.30970793179052086 0.5025462306074406 0.024700367625516778 0.00535013698661538
0.3120691614483184 0.6202323250528448 0.044413573304250324 0.00160345860451592
0.30495212307289105 0.4365972906928448 0.03284471644981097 0.012441971349732902
0.30616712586394745 0.5763984431697255 0.024586002844712046 0.0015775068067091496
0.30341441517256185 0.27963674130422184 0.0716481241981942 0.008543851257045178
0.3116358769730694 0.4851401453278969 0.025675733674483697 0.010618722889111564
0.308267000761978 0.5308580559773318 0.021080836631110364 0.005874980595812965
0.31253026288986796 0.6056186452372219 0.04442714111268606 0.0015989344513742496
0.3088086033631781 0.6574368052917137 0.06653838283224942 0.001008506916114481
0.2994846288599151 0.32070551181318624 0.05993494230899002 0.002011861722752791
0.3013423811612334 0.5424737857616964 0.07505294250737221 0.002120724586080441
0.2999777596123152 0.28223120373084903 0.09807431366818839 0.005986987684876862
0.2997708991373158 0.23263873406419838 0.05827404187565238 0.0024557574147424867
0.297931965970054 0.2381769999645818 0.08124928974522769 0.0010458709961911838
0.30951606215812727 0.20165881457608129 0.09512575805379125 0.002220893063141394
0.3019910561900991 0.30280835580024773 0.07466555961411889 0.005145626310386623
0.3017225787986018 0.3136712215178814 0.10118452967653119 0.005869495326465276
0.29824983655314513 0.25914576760516655 0.09442231780092597 0.006546051278124829
0.3023625104546186 0.46559987475955306 0.06256269017459437 0.009109567623213091
0.3049354979895156 0.27803699919162644 0.08291378713991351 0.0075912473440371084
0.30113991616670266 0.3385071206762907 0.08370019542182972 0.012499347579828644
0.29623579470237643 0.4504788481567118 0.07877895155058887 0.010840202612004515
0.3071102660431372 0.3951736071626929 0.08365953817996633 0.008518336550956476
0.3004486936204941 0.21370757851841105 0.07166578373375825 0.009951464391489032
0.30146436533722654 0.5050278316215948 0.07542810329614942 0.002891987559111121
0.30168573435681045 0.5291181228118911 0.07707097964786076 0.004009100174127307
0.30386831047245777 0.4909937425970905 0.07288318721109653 0.004926296911186206
0.3166052032611912 0.3729270928908113 0.0820373632238144 0.0018552391578486335
0.306040613706987 0.30081515537278963 0.09397896754198257 0.0029546290954046953
0.3019296861758629 0.24552080515058133 0.04764196308791623 0.005552638665959384
0.3047898590983251 0.3902545489707615 0.021623489613927533 0.007124487159482735
0.302211491435951 0.21328414036306037 0.05230421496089608 0.0014749365071254083
0.29956709707529255 0.1989662477804323 0.053146447849141416 0.0017661483182163527
0.3026943820294454 0.31246315201329733 0.0413515612723051 0.0018417548571950026
0.3122545199795184 0.5122222178644776 0.020308861285915865 0.005856457527723541
0.30389330789838154 0.20854207616332857 0.03619672995300718 0.0075341401300579895
0.3132226362036961 0.48663893885269466 0.01237397750911835 0.004715504806624375
0.30170706565361793 0.22309933866820944 0.04136662664680645 0.009008167829507361
0.3005743959387555 0.2266804488864902 0.04484579168541531 0.007905087786283802
0.3063639664347568 0.46577518425344916 0.022881619767028745 0.009496360913115015
0.3044929011548012 0.42675464222383863 0.023081073853948805 0.01036644656897463
0.3060413150129501 0.37438114190560207 0.0350707102572569 0.0063251615941611605
0.3085750281364733 0.2819893695008015 0.04134877432171197 0.006581196811713895
0.307123855730753 0.5691022421760034 0.009415793755581792 0.00270552883147553
0.30898086515139367 0.45761812598017254 0.011699421421045747 0.018323552781670124
0.30429942992953174 0.2994915651573433 0.03121154825427503 0.0031053087788299122
0.3007254251683932 0.21576385486145877 0.06307692324066476 0.008352677796031487
0.30399576961784663 0.1923327742196262 0.0013464170167570926 0.014647319472747437
0.312035480599623 0.40049922140697036 0.010014212427483833 0.0003781951184056295
0.31483727539388456 0.243367027298639 0.018269779692346378 0.0015655691340371004
0.31008638747272954 0.27327519283120943 -0.006384882594547091 0.008480360329789077
0.3112253073080335 0.5773821204810725 0.00115302226000016 0.003116876366348494
0.30487432193633507 0.2583299131502236 -0.0057460730531442746 0.015133724231541927
0.3162067227392962 0.44304221413653305 0.005269196572179958 0.0011821144161581808
0.30754563703986637 0.3043631728110534 -0.007881588453179971 0.003473888219775352
0.30651194267596404 0.38268182234271636 0.014783457392493555 0.007738266835281865
0.3057354184868915 0.32870146521898747 0.012017400696648963 0.008030241550279984
0.30658663004017384 0.25246941318229754 -0.0011738367536309633 0.01533038902465471
0.3066473912082705 0.2749882279238234 0.006380387733194784 0.008543077074009453
0.3069371183223357 0.37663137583975503 0.006890039838665114 0.011487473461055428
0.3086061753480911 0.3485175806267779 0.016236187776835182 0.0037496277037791
0.301674838913526 0.2244251862826075 -0.005488589271451083 0.008904779181059846
0.30875131066193745 0.2758229830116951 0.02917832102626059 0.011784084765392791
0.3035743825946814 0.20203947576625736 0.026197762017408113 0.008438546971326812
0.30355469265354734 0.16770994303938458 0.07500831188351127 0.011166624029359125
0.298146852656486 0.1795931336860701 0.08658582249888036 0.00987033320343867
0.29757362556374295 0.15102366500214712 0.1020254549295861 0.008054534331266882
0.2950179124143363 0.14890026641730056 0.0763243954192931 0.009963188967730784
0.291411138422831 0.146596147338521 0.12184421670574576 0.012429479535801872
0.2795929648133986 0.12086175648226125 0.0952944253169307 0.0074281534566412
0.25041267731241174 0.09992185806663369 0.10318033373724557 0.0023070670618063733
0.273292858433575 0.11401030709803557 0.0902796857525462 0.013046591198893787
0.2701161706354262 0.10313366199069784 0.06810058124191484 0.010850575805913261
0.2625864554146692 0.10199336645494123 0.07428040147738355 0.005990984514151548
0.23057234246929031 0.08293657708454324 0.0777022706977793 0.011633510089286423
0.21772486260103208 0.0834489390382748 0.12141480115065491 0.0010514631367765737
0.20528027531047766 0.08311277942021625 0.10723155637343043 0.009892504268485838
0.2996931957386654 0.18357941943812542 0.12463633509462792 0.006473551255232115
0.3018780131719417 0.16456855956459693 0.05163383683893744 0.017946950321627405
0.3009887320892418 0.15792170185851617 0.03580729552079201 0.016289517124675478
0.3020037815974246 0.1823104078519266 0.0822519042689661 0.012272307588960016
0.30193026318118116 0.18184698995677745 0.057235260246382064 0.009921597074897369
0.2873539386875382 0.12804369881970068 0.031345050296008474 0.004772719763866425
0.28962675951965644 0.12551419740303832 0.05955583096580493 0.008749397911212375
0.2889599068634991 0.11983276516344563 0.047870130645533554 0.0038929722269909674
0.2892684869176467 0.12902011365603633 0.04582724428887785 0.006800119586549659
0.29319347697888265 0.14033156951438797 0.012364208430034303 0.0034699656824725648
0.291345719052719 0.13678503208869183 0.03377391479898463 0.0070031781445000765
0.30055693699710395 0.15876514646959416 0.05495420934172114 0.011875307223932208
0.3002326392737651 0.1532833035032319 0.01843644481843324 0.019330317315986584
0.30301455607757083 0.14772120287199486 -0.0012152044549546177 0.0016002375707982392
0.3135447230590755 0.1750082014994198 0.021923413235116703 0.0005432078478996342
0.3015477544534709 0.18711772341748836 0.03413297880061332 0.010829373271252205
0.2774471711587476 0.11037006321734007 0.04637931694940579 0.01400310796465212
0.26938977842121065 0.09959759509326213 0.020057903940096 0.04566255789116494
0.27134690060526434 0.08850554024084716 0.009864537497191152 
0.2047214343778187 0.08319149944118681 0.08150152980283336 0.0061817100750393966
0.23895597006759708 0.08629995902733961 0.034458091829626204 0.0068649686497318126
0.2124500718409603 0.07403464669318408 0.04186198154367563 0.015372204975063846
0.208351099398533 0.07762710965333272 0.05434649121187369 0.012108564743756616
0.19121586712506164 0.07994922777779599 0.052855793548872494 0.00710808501128988
0.19734514818035653 0.06914047801534562 0.017256087894388993 0.014123401456681787
0.2268592195348964 0.08373115713576781 0.014400659435258126 0.009926120423684962
0.23530569435707677 0.0790568156529636 0.0627966603538056 0.007759450602363222
0.21442849717723603 0.07974321684609224 0.013797264078680227 0.009519302868138102
0.2093588451118306 0.07469048069713169 0.03800010115842821 0.014758886650890776
0.08084552034205919 0.19555382998441065 -0.003962800358741216 2.8661304072602498e-05
0.0907519870940843 0.4259785724333808 -0.007860333469168453 0.001572114471554169
0.0862299268822733 0.6481831160420622 -0.002690219382836242 0.01759500410841401
0.07679877784341922 0.49520915922345743 0.005632972634757533 0.0011212790206178342
0.08540856416129437 0.4521458233568707 0.0027099376023488712 0.004210836960428994
0.08638354619046826 0.3492469287548204 -0.010657697680774578 6.255434063116145e-05
0.08302952898907603 0.39186952754630755 0.0018250228098802804 0.011646068389734532
0.07992482555073485 0.605729049325976 0.001462800590004148 -2.0279432024199908e-16
0.08727659064058674 0.3695639171926895 -0.006412309394479422 0.022124813034624068
0.0871670160866797 0.23626166112368613 0.0010666563319059312 0.0008435564138043132
0.09031398262547091 0.28689641354544004 -0.004014515878815387 0.003960728711871624
0.230471423882696 0.08141688209604352 0.002047518570693754 0.0026358685664459765
0.19516377398110543 0.0765069597017702 -0.001374503992884626 0.032723190942913996
0.30387537645638635 0.19873365507391258 -0.000908251764397369 0.016490986212003154
0.30521679984922806 0.2911913584898365 -0.009045428674937435 0.006826563733002924
0.30814988464525805 0.37560670577029937 -0.008805653346950009 0.015422898415615624
0.31480197796508974 0.6452679901879035 -0.008947615366383308 
0.3022813924955162 0.3470989000291447 0.0032623591922972205 0.001956573777402542
0.3124737095281467 0.6140507289990187 0.002747096409139161 
0.3101157373697498 0.5406059261759872 0.0049195412819854414 0.004475382796404552
0.3177243284190895 0.5283744338896619 0.004560107779573168 0.006630402078569452
0.2733858615669234 0.11158371733516832 -0.008405866259338101 
0.3830540196470707 0.6443543472297337 0.3883529179036933 0.009908363931949146
0.39576028314199985 0.585714126602253 0.3914497690915157 0.016040593072429065
0.3838999162652042 0.6308044376767303 0.3891668152283094 0.014183977130034485
0.3838337564591851 0.6189923010244774 0.40263261392664806 0.017461768571849196
0.3805222571294288 0.5586478526613732 0.39977583552522467 0.01407317526602619
0.38224226726743415 0.6578208468922306 0.4131149536262543 0.003740305712034849
0.38288387329927526 0.6302448981245575 0.4002295260368476 0.015694834894926384
0.37906814773506603 0.2934722743006934 0.3634247964795602 0.010693544665533714
0.3750220384068285 0.3982676523553507 0.3525866102794419 0.02977099308255733
0.3867963576355535 0.42635471894909893 0.3600568790067463 0.004270382658330246
0.378603069166023 0.4953873493070522 0.3920997038797228 0.01686710904980149
0.3904224282157137 0.6153841335769327 0.37943746222692143 0.028627467185898245
0.3817856255579785 0.5321093686985625 0.3653408805727165 0.034063384570401804
0.38298791366802093 0.6236437665842035 0.3514073189811239 0.009026127074676081
0.37857246118254934 0.6532613182672617 0.37125001236074956 0.00882477326874798
0.38304004205939646 0.5981072151263954 0.359818592507696 0.005719377000860162
0.3811707123568043 0.25315218348101903 0.36333564716125094 0.002643219872864526
0.3826007046722588 0.44793619045813704 0.3558253500707393 0.010702286725571874
0.3786565582872073 0.4117402516222418 0.35730488933218885 0.020358394809315394
0.3764395382254321 0.5766122809947724 0.3585468277998468 0.00040719652660713845
0.38127962076813693 0.6522838918433987 0.3532236151837674 0.0009524307967328018
0.37594647927691344 0.47310249220209927 0.37095983744855976 0.03753381566285616
0.38107733951443373 0.3771615257725805 0.35873132737726976 0.010137244094001645
0.3779639074196389 0.6575268273611262 0.359264779905685 0.010717138927257685
0.37992490141274204 0.4043607289393977 0.37098707541715964 0.02174356380786945
0.38167229743642284 0.3173946016565202 0.36561596078921804 0.015571329474060609
0.388975573464381 0.6111485506014558 0.3832619848278269 0.031401554537615936
0.3816772790279048 0.5295844589611213 0.38985928637834527 0.01470188125889328
0.3927955932020183 0.5084579914013769 0.3704109122146845 0.004588436410579547
0.3796691996753741 0.3755999397074927 0.38573942956494084 0.027791758219285857
0.3846215505304639 0.3492988398984694 0.3855195090920405 0.014869591924336853
0.3789507721742816 0.40851955108768245 0.38141266165510646 0.016695636168918487
0.3844050877746956 0.5574111061923713 0.3726870383459181 0.023929854110757556
0.3785692575856732 0.43891488514068117 0.38079496263965124 0.00855211794834982
0.3784527078582713 0.4743818203531031 0.3850086913329613 0.021199573675908634
0.3774891356206716 0.4912810916195075 0.37817367284502246 0.03379716157156186
0.37844622943535394 0.453833297083418 0.37041767458171826 0.007585407975341196
0.3775060775884412 0.219258801715467 0.36396932903419554 0.0034329272080766684
0.3805477963030902 0.26695058817786055 0.3679182188226277 0.007119156608325757
0.3805409946149883 0.20790277994490175 0.3763158061834968 0.012048493008514644
0.3789454849594778 0.4569490309261481 0.3773876208282482 0.0079069988648502
0.3853311865089863 0.5179372811886458 0.35721726828241945 0.03285948646520529
0.3742835233584775 0.5465462181094068 0.3483352200747105 0.003299483281914672
0.38131570881525256 0.35193136038904227 0.35695031939583327 0.011830459697910616
0.3767798074672318 0.2956053740868727 0.3603585728915752 0.007453431254803464
0.3749000143847267 0.22441236756013755 0.3547237333057712 0.004830453331890963
0.37800814429619445 0.4660047538964362 0.3558857145137376 0.008991287610720645
0.3824844362705329 0.2732969861772543 0.3535403229152501 0.0006890571253481344
0.37891041711075557 0.19198593858267507 0.37983867746992356 0.01469205623559893
0.37906439940315856 0.22865975066536243 0.3748161204312071 0.0034150085494672974
0.37887212313696267 0.5234560056266507 0.3947820726977638 0.025159561562846346
0.3804736188738146 0.5639071373579191 0.4115778919230321 0.030377419388405977
0.3737394930009167 0.5744214269745824 0.34546197388987054 0.003557637325830061
0.3686782452515454 0.3324321314263263 0.3440036307041505 -4.1634629186296175e-14
0.3543656805154133 0.6476009480671173 0.29635300532857656 0.0013980612869989217
0.3600596354429878 0.6367610823812897 0.3099897752732778 3.1923126074338283e-06
0.34980285345445106 0.4792819436529284 0.30333016374055644 1.2467488211212385e-13
0.3502694208656305 0.5442871237236642 0.2992084552293717 0.005360308087763202
0.34897274578781556 0.3393282368909197 0.3007460707579917 0.00920917265848424
0.3525799779946159 0.29183470465022854 0.3081188740798032 0.007309439653461851
0.3528962135029851 0.38926882035475396 0.29347241822872405 0.008943608224143447
0.3599519545338075 0.377884426413218 0.3249285362121791 0.0016077832362926205
0.3481627017901869 0.5865216613499812 0.2749433162848175 0.011186775103532925
0.35047158786691046 0.4402544811802499 0.2648589310299521 0.00032377836826176493
0.35503131153740297 0.5661226237946875 0.2813261320794872 0.0024043171736875275
0.35258686248998167 0.6296620751757968 0.2634369418890524 0.0015145604749317266
0.3480578298008572 0.4043091996239866 0.24597285183792214 0.0005587559693439572
0.3427161255394101 0.455294359186281 0.249936563255046 0.00461558047369826
0.340527190705647 0.571819361548225 0.244175387534517 0.004169297088640532
0.34189824778669775 0.5492600359337858 0.25118540972596587 0.0032110399808701067
0.34672224626709547 0.6492250124581396 0.25007683162127614 0.0009544920037401071
0.3449366279299023 0.5327376497230358 0.25755636954383576 0.0007908123468824944
0.35211266495218574 0.6546969001350352 0.2880353780540271 0.0009261513610245424
0.3481457427143028 0.2568521380694521 0.2979029874450515 0.0012062610303675543
0.3518879943926595 0.4050244218044205 0.288538004966412 6.740529108471067e-05
0.3529226640445272 0.5774008352386816 0.30095611537334893 0.011734587830635645
0.35192604627696356 0.41483988456133397 0.29431084028337756 0.0036257557679578423
0.3545151148566295 0.5039195601466415 0.29770261196146247 -4.0997004659082676e-14
0.36312233578895475 0.6134983960782561 0.285762690670842 0.004587925798353098
0.35655050939817773 0.6373301664184315 0.28428658777541893 0.0008296937061833352
0.3534442628129764 0.31468625972461844 0.31058361847150573 8.10768314430652e-05
0.3547515021259266 0.5259979254051772 0.30298324850657515 9.254546783975209e-05
0.3559427901481489 0.4953572407936679 0.283072413227498 0.005446460989493142
0.36219945371026335 0.362314390313689 0.2841286864246052 0.0003723315543297662
0.35140585469926294 0.2960410305091802 0.2869196712580212 0.002147127369534176
0.3368601416277773 0.5378181969983294 0.22193534534516302 0.003995823455622969
0.3422261530320277 0.25467783907193653 0.22951506528559015 0.002267696226589469
0.34229711462807316 0.6124649784006908 0.22184079584331765 -2.1188417438331894e-14
0.33964450516798983 0.6369191048073467 0.22191809499290222 0.0021393120574577035
0.3430474982558795 0.6343668913201632 0.23358302522480978 0.0023688037945869605
0.3380232983338775 0.45120124529611905 0.23215665023426946 0.004082532708360725
0.3400990499746976 0.4166206603228612 0.22799175848227862 0.004382080627526367
0.34203353247326185 0.4661524852919293 0.24103967787958447 0.006705544909563328
0.3411750577746625 0.5146858956900611 0.2315237147248289 0.0007822621238432966
0.33654039452767104 0.5450957990912345 0.22692247929787396 0.002720385407721856
0.351804367689961 0.6030018747108752 0.2354547542679967 0.0028050349760112693
0.3316410667849426 0.5781723861027087 0.19611132824967328 
0.3311167593438097 0.5134173121591279 0.19842362070623942 0.0026586506190015512
0.3255563592322768 0.40047423745721106 0.19041851539409166 0.0012497767151483426
0.3325670973266839 0.4591090938760164 0.1983107143598399 0.002073035415897768
0.3326064184089097 0.5517899750590779 0.1970009691888618 0.004180740742442142
0.3310163640312888 0.34989713439881337 0.20167740404457765 0.004870345769311207
0.32553204433791094 0.3135797428721714 0.1939436928401128 0.009990297900141961
0.3255013029504098 0.48041617328245 0.19618965909933483 0.0012755372466496826
0.3173989202606153 0.6407180694470044 0.1741715383415367 -3.250688488657012e-14
0.3124386334061498 0.524100073472597 0.16213897290802312 0.0013256259614003634
0.31956681316562774 0.6530354474081315 0.17725002226869113 0.0041004890022358085
0.32251183529856686 0.6180982350559934 0.1715940559404032 1.0849789723674415e-15
0.32343795276144754 0.3455900363928353 0.1709776398644923 0.004274597505838754
0.3222357123956534 0.42748353223330676 0.17685901046737404 0.000333328432095716
0.3225738938851662 0.4433992469706316 0.1783264966838215 0.0009292652133074137
0.321730824359053 0.3267978700778846 0.18548991749423133 0.005994736397224786
0.31975320334834395 0.46843364499085016 0.1749686518232363 0.0032777488930353874
0.31542312433937136 0.5438147127314541 0.16617833114442543 6.077037952132454e-07
0.3179978051793538 0.5031292131194088 0.17006965271167884 0.0025317791305195566
0.31935049415636096 0.38111328351173646 0.16674170856163972 0.0024238987142666066
0.316077750516585 0.4904028105882671 0.17114872374997947 0.0029867067416384997
0.31695079888402483 0.2910421965107787 0.1614006550001491 
0.308307649457308 0.3371104141092344 0.13770420815998083 0.0003812436323509231
0.30777504156135244 0.5622761627550731 0.1384594739686568 -4.429620213896373e-15
0.3076943112423833 0.30113490041796936 0.13887407982514974 2.1888262204802354e-14
0.3151886824032402 0.4333953308282382 0.16375466176426443 0.0008645684187389099
0.32642139495140726 0.5909604231514263 0.1518653876789236 
0.3173997046660022 0.46422053803961444 0.16488972645294886 0.00226557974178972
0.3177327343831245 0.34687707106884785 0.15133121698292812 0.006522881510511444
0.3353799226867938 0.6549465305010004 0.20999099834265186 0.00024369693453495954
0.33851457312713906 0.5707074538571183 0.21810756986117258 0.008258518657016224
0.339747246257038 0.5006940084248312 0.2189933091107542 0.0035384695789321395
0.3374496926425395 0.5171964454287009 0.22352484164230146 0.0008412122409499229
0.33632592914637555 0.44410763155407895 0.21105618672638327 0.0028493107702541195
0.32917822248816736 0.3801535420757349 0.20281182525089964 0.002722574474030103
0.3711004310596382 0.21131770955220758 0.35417985444080086 0.0018749463287987976
0.35598168754386333 0.43292547100067774 0.312875508046201 -4.48657346693352e-14
0.3578081384405183 0.5886686240744212 0.3181045785022251 
0.35629565179860007 0.26910685826573255 0.31078429316866013 1.4339303356359537e-14
0.35611042966655215 0.21536292549687874 0.31268085397855944 -2.258092929418228e-15
0.3470879909327012 0.21737142889573133 0.27001842285319455 0.0098911548607893
0.3500647872734245 0.541236670884219 0.2760717262894471 0.008142603371134016
0.3474220198628634 0.33898010919165295 0.28253030425628 0.01370171537126344
0.3460989743844086 0.19843659440942857 0.2868700311654226 0.0008225255893962096
0.353246573288458 0.2309414626176924 0.2851551770532308 0.013903349859895709
0.3460847566542723 0.37796897733895146 0.26051687816913144 0.009397807344583722
0.3474394016503773 0.5209698618352941 0.2586998495772429 0.00028612907932785883
0.3443081133015295 0.31802066161031844 0.26232330370850987 0.007027041432755
0.3456633017680839 0.26335979810405374 0.26270083941606004 0.0025779286573164454
0.34741288138540755 0.42271169046117757 0.2766838181122212 0.00042848507164139755
0.34248591886189966 0.31431840597919036 0.27202561269161957 0.00418888193576775
0.34732269145582556 0.24174025226511883 0.2739867276384972 0.013661043070031877
0.35333274596102654 0.4586143005218034 0.27638162984433395 0.009557146566209972
0.3438975753679869 0.2684609677771014 0.255277464740683 0.003918271731117204
0.34238730247311366 0.30333824665639825 0.26275229671818506 0.005861528298071438
0.3432975429245987 0.5712502217555204 0.253308267442825 0.009905207304689367
0.34187843481510927 0.33390102377942177 0.24937451274611103 0.0006195354496717717
0.3516006867667911 0.2331710188091788 0.25741678565252746 0.004001441998300335
0.34261399658207403 0.20801626930857314 0.2580578672980108 0.0054688288806382275
0.33644485189312495 0.2902190532961786 0.24087786953284554 0.003089032945486862
0.3415418760591641 0.31967119764315394 0.2456041439350736 0.0037976239721349333
0.3491633610100163 0.4832068986361739 0.24364280541366376 0.0006807416417172402
0.3349654801612897 0.20246758715913124 0.2346270765755307 0.003799287805704241
0.34545478002204005 0.36515059277077855 0.2356111968529441 0.0006293765149867336
0.33968817295690185 0.31894853608217066 0.22347961977496983 0.0015842171994021434
0.33671010794462936 0.20526594180412214 0.21846983651969154 0.0049233127081167415
0.3363127068209343 0.20803380104515282 0.22237720721815243 0.0030600800735172047
0.33754069254968017 0.26549931970897783 0.2251400150660217 0.015151517696010811
0.34068930061319347 0.27887291097278805 0.1959239342574122 4.2532861091532055e-05
0.3334426691248666 0.3249176107120294 0.21032226484964014 0.005382033401548609
0.33308511582311723 0.4360911990599008 0.20518901704073908 0.0028698246782663367
0.32751862676147275 0.39009491476371505 0.19820478350307294 0.002299516083910648
0.33356606106937386 0.2433829365930366 0.20834711855640245 0.009687493769568551
0.33736123661340367 0.42526397170778213 0.22549902154163518 0.0018441426239357505
0.33528683305740725 0.28444329655496836 0.22294733429634822 0.007277605521696686
0.3329467221717901 0.19210826403989395 0.23003472346519924 0.001885584613848853
0.32459139927751185 0.40854240760589977 0.18827413666401446 0.0016026876152527433
0.32478185231672846 0.3875688649875234 0.18388707326123233 0.001463958889946039
0.3160029674633549 0.20663296731808123 0.17263129146863426 0.0006963711687428926
0.3215337646678666 0.3624119694471712 0.18462225032235163 0.0026308627935361473
0.31929601320538814 0.1865083471257678 0.18350081628648235 0.0008058533339542334
0.309240424356331 0.5182378253054795 0.15693523686413055 0.0009864871707616586
0.3125783094794215 0.4165367646708835 0.15585818595843162 0.0011513395376077146
0.3022802734163626 0.20343088385269686 0.14357412184371568 3.009864051604034e-07
0.30716002825355637 0.2469836916036528 0.1432805436728718 1.0246213465220114e-13
0.31006365693146387 0.47683506064888126 0.15329361393720597 0.001330930163655872
0.32563369374769463 0.22614125354665332 0.18853085772789363 0.0007604435605529542
0.32575910070999115 0.22369642875149637 0.19477048268374536 0.0007853303337572631
0.3219616518386543 0.20982926293902818 0.1854706095661908 0.0010668577123763819
0.327385962826573 0.5301715414591647 0.19303670467947917 0.004651872680259567
0.03231208560007719 0.6492993614510261 0.30470373952850655 0.0332222326474888
0.029446366891904226 0.5947280954029667 0.30916313161096565 -1.4852689127266485e-14
0.026764325797334856 0.6566220186900283 0.3152102603516057 0.00480525224622941
0.03172316987573503 0.5161585879325306 0.31533301822007664 0.001672383025849333
0.03605480495494445 0.4733612557930771 0.30089266907536544 0.0025233983894951714
0.03336199460676172 0.6237299125288357 0.30432147120340924 0.005959595378532879
0.032492221638930584 0.634700136127844 0.28879537885261686 0.02289123962558316
0.0362679803551203 0.609428085903844 0.2986203630130524 0.004089659908525752
0.03578606878981025 0.6483381233899901 0.2929128150939193 0.02563280853853109
0.03707935165828713 0.5403500686438366 0.2979343593359116 0.000533356876354954
0.039765750462421416 0.5290786803060145 0.27967554407418643 0.003332281597287395
0.032090799031055516 0.44746687752017855 0.2858702074035592 0.011295484837504217
0.035973025529309144 0.5499747723541648 0.2876269611248756 0.0033604907669488753
0.036673286826970526 0.4755119751370377 0.27547478777319234 0.016838769888519428
0.03932157149406354 0.5745964854753027 0.2777332977749518 0.003020071357085966
0.04257113286528232 0.5841330110537398 0.27204724200753805 0.001733529749755908
0.036097292660695494 0.4931119463157465 0.2890078952785394 0.005188610351031803
0.03685116523963983 0.6402742703162311 0.27149543434565065 0.011112709378293974
0.04133258187110032 0.5373757975376028 0.2731410526311222 0.0047277311060607095
0.03851213310307077 0.573502548914054 0.2713906297603492 0.0008139214038279121
0.03807981740055674 0.6323377870054372 0.2770581439089697 0.016069369036858048
0.033872395524857796 0.4704354484215505 0.2684226436208657 0.00909965123529635
0.03914715625049537 0.4322489419510077 0.2726014356115553 0.007649551690400274
0.042079202491200535 0.4416117978909988 0.2642052245103011 0.004389992467010544
0.043248777364022425 0.5637083170060293 0.26410287894136 0.002910749426873368
0.035512424692211345 0.5080872647557867 0.26671198334848173 0.008478839409525344
0.04701774725383196 0.5723091288647101 0.25121809333505263 0.002828251040650552
0.04654913536839754 0.6118810626975092 0.25388226354091975 0.0035657723386610073
0.044091088511509675 0.6090755617966773 0.2674036525929421 0.0035048177237290883
0.04018854862728654 0.5277435990064563 0.2587530834429062 0.004606645309481039
0.04745013646632419 0.5955505689883412 0.2376286767435632 0.0006711887107922243
0.049351242377629084 0.5836521394961504 0.23818032757680443 0.002304672260703002
0.048297535509346574 0.6672189466207022 0.2266442630580722 0.0004465466510582082
0.05463014746855018 0.6114671610457201 0.2267094374152276 0.0017302624659172575
0.04694846498877646 0.45229931239081184 0.22580637216077498 0.002667105910400906
0.04857418722222857 0.4858860792965694 0.2471362441829973 0.005406238527146507
0.049166272028917046 0.5494460787897206 0.23239647546301104 0.001284289704089332
0.05333686456243383 0.6375141280705819 0.21679476475418546 0.001408669473872052
0.05304325452093463 0.6399610780958356 0.2120565711146872 0.004659848835001621
0.053654131206040304 0.5422866340382203 0.21248896900059783 0.006437164203235829
0.06087639410368121 0.5162733066943098 0.21048033439866917 0.0051498607074587695
0.055088716874342004 0.4872039978732914 0.22477566908673338 0.0007729219149852347
0.05442567372146537 0.5677420382986333 0.22361015649717073 0.001371146641292575
0.05641810416749555 0.591812593554055 0.2096839501585886 0.0030626427358994915
0.04602682543146512 0.43950916407457796 0.22946287627732354 0.00035514923075692986
0.056274951089772506 0.4326686802573179 0.20252391529422387 0.005532408272514838
0.05682913606844578 0.4809866091256684 0.20399131087067365 0.0013887719727443766
0.056638173572491325 0.49643946712407655 0.2129701444811142 0.00584466767903626
0.062047254936575764 0.5931569804833217 0.19251056954601836 0.0028217846182095985
0.05524248901367162 0.5609275207916562 0.20474392463707566 0.0010799492108960937
0.06170580883872988 0.6331567111751529 0.19203099953143904 0.0038420764612366798
0.058270624093777326 0.6174036453458623 0.20473698560234643 0.00435509468927707
0.05683842736015786 0.47148751650104825 0.2043201482308463 0.004466467359605219
0.059652545529903275 0.529421942348388 0.19525059112817258 0.0034439588372470412
0.06904068416269607 0.6577436074547863 0.1811718678122559 6.6635636979876e-05
0.06545089724059322 0.567783242302399 0.18122389684055357 0.0035904782287895865
0.07272244830411752 0.6236857102395839 0.16975584669164417 0.0015577928169129064
0.0681002061045407 0.5069450824096149 0.1838867578875276 0.004300080485271742
0.06452970594249098 0.6143488806884877 0.18483891031463193 0.0011696265744685435
0.06393208780793722 0.6388814247734727 0.1820622923019822 0.0018711348427546339
0.06111924219499171 0.43349269923378814 0.17890782911050318 0.0021937679585981858
0.07093919882603915 0.5882438857939205 0.17494212953453603 0.0036024020142362495
0.0668365432443087 0.5337939298542708 0.17453718790908027 0.002328568841093471
0.07890281198692821 0.4797024600821441 0.15563483611715626 5.166515579813512e-05
0.07539690505336448 0.5446884250988607 0.1482706656769802 0.0012078351214593842
0.07786126159684226 0.46865550435982833 0.1498716826861279 -6.783375377562036e-15
0.011548393699459304 0.18558389565297814 0.3586506778937082 0.008234486885093546
0.01483470222715089 0.341152533013353 0.36041341333157234 0.0036431852914212914
0.014776280041376278 0.2636647899009758 0.35814197179069485 0.012129739051121304
0.013885322763066636 0.21053982068188878 0.36754341430461435 0.0029410482062061974
0.011238083207033286 0.2275677141915522 0.35970041623544585 0.003132705707943051
0.012220728866464053 0.3284829655161983 0.36007078958608596 0.0023851162746908886
0.015231124427044133 0.31832967161082926 0.3660355233891282 0.0026970372445926094
0.018816974964446495 0.4188965326253108 0.3432387179023575 0.008120265374700347
0.01000409572625215 0.3993424553625001 0.35001820965877567 0.008351803246809215
0.0072568838401893855 0.4252079964666345 0.36636838679615047 0.008597448276471973
0.012795406399760626 0.2651992785325188 0.372151827451833 0.008148657757381874
0.013761800368614437 0.2970734963552939 0.3651593481003946 0.003992846195718402
0.008992867929345446 0.28665659062600546 0.36676958564179624 0.006264703013538457
0.011402368522898354 0.19731098780608336 0.37568657670900873 0.005369165068231574
0.01511857305449316 0.21267788709002922 0.38204250339183876 0.0035460672108645268
0.017005506871980915 0.2543674825472501 0.37542733292770486 0.007768701204616897
0.010086134268627206 0.3964385593623033 0.37823033847449355 0.0031484156016516225
0.004305265556144461 0.36965530978028543 0.3742952209238232 0.008249731854551367
0.009990361891770575 0.32474566684126827 0.3857106106966704 0.012157729147055088
0.01931232115037585 0.4558967315344254 0.39000504610317527 0.03751325296061713
0.014695913988603392 0.4802040754145791 0.3835912172691124 0.03360150625561991
0.016369125009419803 0.4719040329703265 0.37246889022484647 0.018885412926974657
0.010464634409230341 0.5781671221306558 0.37113528475872776 0.007073666182492281
0.010853781111855093 0.45724868002427294 0.3532593685172057 0.019540236220949424
0.015302422621872105 0.4987506978425955 0.36208493970217076 0.004945150571614635
0.01330960383046966 0.5102360349770924 0.3572032882362231 0.0035695154548822106
0.01063075153889467 0.5601959669736535 0.3535796118906008 0.0028018057102187754
0.011788548481342172 0.4606996887570546 0.37074553153797596 0.014770320191177586
0.004695761833260851 0.43934899486352363 0.3610339261099453 0.02326328624350692
0.006236855477845433 0.5753309325691928 0.3514096083195742 0.0009567208454816912
0.004480783353202783 0.6102340292698222 0.3790657921073443 0.006683427271121337
-3.68644301384901e-05 0.6547346618916693 0.3637768531867003 0.01625829360372717
0.009603149198205905 0.5649906611794747 0.36361623958293554 0.0027273127864880157
0.007533566487524986 0.5400619759100638 0.36893841185038145 0.004802946811477179
0.0080188617411196 0.5125386514116509 0.38257374392149307 0.006369641886612139
0.009955689848900365 0.5821932459991985 0.38399324371564114 0.007994866275382673
0.01059283153906579 0.6317907358835302 0.3769444093717476 0.02447542294138977
0.0019626187165185174 0.6214346853804967 0.40091475638235075 0.004451670844344089
0.00772431560096977 0.5350709393176064 0.39172647139483313 0.003059077078950537
0.009308092925056159 0.6376636116015273 0.40717808788689314 0.009350324468752282
0.010505817457274323 0.5542936100900328 0.39226959797160466 0.006928388394366969
0.0037698442502553525 0.5249239379217016 0.40410208972765027 0.005603235122206363
0.00957803849920495 0.5719586484203101 0.4024994795431813 0.007857490030186655
0.015408854704289803 0.480880720137414 0.3593421902696482 0.00910557272697358
0.012393862521448447 0.5182262803437889 0.3517901143855874 0.00392481922574361
0.01268708116571994 0.24679972016336457 0.3451628987120364 0.007992199735509424
0.011587216835250873 0.20488830116668477 0.3510133306686665 0.0053075366665082495
0.012949373894126015 0.28862695637470487 0.34452992112705216 0.006848124996626003
0.009785432717478178 0.40753341733070697 0.3586194603950329 0.014211320780495279
0.009580873521090851 0.5336643554183006 0.3502969461665275 0.003560074989660117
0.010453218741102619 0.5941967070564848 0.3519412845149214 0.015089935468637058
0.027139883933936598 0.3429068903905158 0.31177595589932316 
0.035305160985175756 0.3741662931629967 0.29164712217477573 1.9362019491850275e-16
0.04417125854930628 0.226772136855128 0.271659507285735 0.001985417967803378
0.044259630733963815 0.2636902904006547 0.27155815609867867 0.0032406063111460265
0.050770378345644566 0.27212755914633047 0.2506356415412621 0.003244515891519828
0.049415691627003724 0.25006474012893976 0.2528782624558552 0.004156310554885127
0.04832175837179423 0.21479749122911782 0.2570195177810886 0.0024358062130252303
0.04449933414936213 0.3113359189389018 0.26138021531003236 0.0016566636982432456
0.04355150317812362 0.20812678906046364 0.2764138808057 0.003215390898042492
0.039833119639515524 0.23915342121299457 0.2845332917195651 0.0019242027672024776
0.04321192068718268 0.21572612386680706 0.2871403432635224 0.0015537750814017487
0.048216880007594096 0.3029125794467073 0.28047444414746603 1.9736142694448325e-14
0.036231443515132904 0.21021533348657842 0.3094060845664663 0.002742421501487301
0.049744626486146935 0.2515700596332704 0.23357921012037322 0.004596385551358358
0.052681143177232624 0.20889045770906334 0.24178571442573635 0.006179227004035407
0.05601443262673885 0.2255977236389486 0.2322253993991272 0.005025890826623578
0.049664486169698124 0.32270887743299637 0.22757600692464092 0.0025274236212460494
0.054898264904347224 0.24671539493541195 0.21485883235475697 0.007947113781695405
0.05282886731780554 0.21225453428553873 0.21060808946119947 0.003884420940132474
0.05523894245310189 0.25486926497890344 0.2082490544443889 0.009439345214886496
0.061265226680140464 0.23602137135092857 0.20186011470062948 0.009317942413743164
0.052066106288617194 0.18952282101110415 0.23873356797411543 0.006280938328947964
0.0542233997815599 0.29367724136730744 0.23981242796186572 0.0025060293813133974
0.05422634985520207 0.22362830221434524 0.23800713221536335 0.005396234754608286
0.07034042581773216 0.24232312854859273 0.1696863085525027 2.836348559392136e-15
0.07514613314397914 0.26387851774498283 0.16851407891678355 1.6738386809626793e-15
0.06918076723199484 0.3223241075520627 0.16429054374696211 0.00048578411043906784
0.07403986485165473 0.3059183883711574 0.15971478141760795 -9.555724833162159e-15
0.0794877465671334 0.21600917378057427 0.16344351280995523 5.383573172112814e-16
0.06993265850818496 0.2877249452152673 0.17384785127940197 0.00012854506799139142
0.03297926995159797 0.26895026295236035 0.31123624017028506 
0.036768409593340205 0.2287444868334218 0.30566475672218824 0.003917405947212699
0.03321115960043161 0.41380657603830134 0.2795509126368594 0.002247965761348522
0.047774329243843235 0.299655299476969 0.2661390406023762 0.009774923020338777
0.035416931916539156 0.39728066148903207 0.26411554754767147 0.003131141823723667
0.0360954013317174 0.27614406743512726 0.2918014370305466 0.004131089261056993
0.04247344041371781 0.254516408661399 0.28926284351537673 0.001195887778959621
0.02621917795108745 0.34055569496301863 0.2848642283898472 
0.044582076734285686 0.3806866058560452 0.23588224716049017 
0.056381901876862685 0.2803058748037022 0.23370086736619183 0.0032624021280317898
0.0506114370444955 0.34307172990421647 0.22227520096508918 0.0033985238754412977
0.04622118964351421 0.3602849195321579 0.2334206729543679 0.0006245516251646272
0.05378569111760745 0.3024912798823514 0.21340576922346766 0.006670122012454963
0.06071648459027646 0.2748382733839028 0.2020124501457665 0.00808429761052218
0.05603500900628825 0.27105241422291504 0.21264026107957282 0.007830860825328445
0.07076332398552829 0.37072643624086293 0.17923230304538382 0.0034427809324694336
0.06491728635410857 0.3038302093414838 0.18255855934306 0.00021789829947156105
0.07344443429112514 0.3494310157680141 0.15683179343371315 0.00016036312319367256
0.07484944413191215 0.4187537944784711 0.16173916794064258 0.004018702549535736
0.07822543270025685 0.3847764090976494 0.15884046437805166 0.002804430306038072
0.061743567788802134 0.4214209704783856 0.19998408841144577 0.0008034427614671065
0.0641161739356821 0.34470279860400527 0.1870944053798695 0.000702679393894868
0.06075907428402684 0.39485845217774534 0.1931546170981591 0.00150621375495729
0.047505608494819676 0.3269573230400051 0.24727447374305986 0.001931610524345679
0.04598992050833707 0.19764553354093392 0.2562533268372093 0.0016482067794675683
0.36554205828732456 0.4932437654972775 0.4146892090967413 0.009808476871934264
0.01984639518970332 0.4602572719556384 0.38946177364894147 0.014061972281936707
0.01700637383440065 0.4751643625891509 0.39086339568532935 0.029365790893556454
0.3721894020226395 0.4706849235792651 0.39561009951151493 0.01078142547347324
0.37937058474173163 0.524803432220554 0.41399452901570927 0.0237425993831333
0.3772411056529561 0.6028247342646417 0.40776438626275957 0.015361490540984377
0.37824830966988127 0.6478166457050077 0.41971374631623803 0.007805214696983263
0.3786539164943164 0.4520104439389635 0.3858550539075329 0.005564479595763872
0.2072235776704143 0.0030000833435402047 0.3966937248349544 0.036229052386453985
0.008188997672579412 0.4433930816587283 0.37840706716369316 0.014238732456618308
0.002240090883159714 0.4932311104254472 0.41131227945084375 0.0007352412375822874
0.005670159173165431 0.5818892620711563 0.40887736247142015 0.0036058114837179407
0.007782548892481942 0.604618198468301 0.41780901738479564 0.007375973404192478
0.008353850185864726 0.6592922393170869 0.4149553655028305 -1.151399887958989e-14
0.08508548817878027 0.6215682490935027 0.136477493664481 0.0057061628950740425
0.07809928345370837 0.4982466104675962 0.14625957651534013 0.0010486433120217079
0.07169606506339932 0.5707001048223367 0.15269876527400342 0.0012367525793836073
0.08023705866902793 0.5923287263933908 0.14999152141487399 0.002162006614354843
0.08020835287790298 0.4461563540763454 0.1480635887186562 0.004836894844074402
0.08304401463724621 0.5124949417424682 0.13909581154647666 0.0015675592108374112
0.2744854252541274 0.1096586335496436 0.14124519527532256 9.853266998357133e-15
0.10713398025468515 0.11156580426830648 0.13943719650138703 
0.08736678600047434 0.39544823324451595 0.10164476717918962 0.0112877607828948
0.09301150795626201 0.3744771614214107 0.09103037440283163 0.005112845524459946
0.08735679484511306 0.48199301019522656 0.09591380455563663 0.00012736615454095521
0.08850171818239298 0.368631838407828 0.1150502982724725 0.002564712334890355
0.08768951072631831 0.4963290299890437 0.09063528690145607 0.00019038298839671504
0.08880202223560903 0.5686672727439334 0.08518532864067117 0.005376553793827624
0.09082069865562817 0.3560104222456484 0.09443186993329473 0.007007468026841787
0.08732136892122186 0.29423649005884056 0.10362868378514409 0.031175999649709542
0.08569864596550968 0.2314216185826512 0.09742057678750735 0.007052915729605054
0.08677492404607477 0.3838358121510585 0.11630135723159885 0.0022811169300300227
0.09045300466122395 0.4686324773934314 0.10134465538221225 0.0003816251190083848
0.08832413205578558 0.42298095576280753 0.09367957696479327 0.0023437355635985107
0.08775295804806021 0.4047472578990727 0.11306587881220598 0.0031122413200824596
0.08380995696688304 0.4256218789356332 0.13406456842450418 0.00042533091712729156
0.08598232424082902 0.40318791379943203 0.12443470168052939 0.0015962330712523207
0.08599899580841194 0.4431776248708625 0.09482703722143042 0.0012649112904175798
0.08005030667756645 0.641063305675415 0.060706590467211254 0.02653040775982311
0.08470428429927157 0.5363890879008995 0.09752446126578879 0.007859084154167586
0.0900000584089892 0.23149429987694428 0.12229087388603371 0.012768748145173996
0.0905650467111218 0.31986217674301615 0.11537995584093957 4.6656970780510156e-15
0.09062898331577236 0.21782164162461928 0.13072888359494 0.008371569025244533
0.07852313207435989 0.27100802501985255 0.1269165802109789 
0.11004923412373108 0.1266797697805826 0.09707798958827837 0.011043410987957032
0.11677285599877883 0.11690488353659136 0.09676255268948455 0.00849006952702016
0.12960009081989016 0.10198821396151148 0.06880160419902964 0.010555145142852947
0.24707395570054375 0.09882012693433892 0.08263568556414734 0.0018432413687682414
0.011856787652202614 0.5021107910301477 0.3458366902331322 0.012606567715774347
0.011851262942607431 0.4355410233392685 0.35002147199495576 0.011871736965303059
0.013680719891398798 0.6122855962033099 0.3596215684448374 0.006696420337148187
0.014673359756543328 0.22360489820611984 0.3906309534114833 0.005038439469196944
0.2469539622503191 0.013429119038905249 0.3830669160577258 0.006780646912950062
0.00765045840263372 0.3941507068841453 0.38821964911335355 0.004960930310936286
0.3758075034179062 0.41991220250707245 0.4108243929170444 0.07205353185877657
0.38615261177972665 0.3791499763474086 0.4137147850143841 0.08211447120796865
0.37868256698001723 0.33352123360969416 0.41163697880314953 0.035889851557809875
0.3789899555773327 0.32164131066377516 0.4014234142407773 0.027970198171058135
0.3897564578343953 0.3560945144434087 0.408136089707798 0.02812556074355774
0.3794597391421022 0.307929876168141 0.406992587077486 0.02043190996653255
0.38054155768520076 0.28766440556504613 0.4157871613749828 0.02469007007982408
0.3882665344753231 0.267018171486456 0.40712060504304914 0.017764857606713175
0.38802943357342445 0.27852135012583307 0.4034533236325323 0.02650474484597041
0.38867497007769886 0.20822928904962973 0.39800209675447695 0.029527719010972814
0.38768979640699 0.22794599077045902 0.40699545352083916 0.034886107683761464
0.380690375269301 0.19932237129248825 0.4111717277969072 0.09587988106414047
0.385892481052963 0.2429454114299841 0.4003181017888251 0.006492374042318181
0.3875798442093296 0.18144082589644994 0.4229557579845642 0.01885672395187747
0.3902822556677706 0.16757201960309237 0.394647125594743 0.02515746197448407
0.3788449556450107 0.1434724467728281 0.3950746837279079 0.05285258172101556
0.38022407071656195 0.14630962788940566 0.4133993967416179 0.062145107394770166
0.37332405482839476 0.11375296281808493 0.41578196270855355 0.04246353402086395
0.3555267246155922 0.0859235215890575 0.3960389915765662 0.03505538495743594
0.3538421457912376 0.08334387511071359 0.41594923533214956 0.04512896668487414
0.34745495465910586 0.06450387362680268 0.4088419238351495 0.02851247819920576
0.32144570154262697 0.03115004053507946 0.4104093241178418 0.003050075066536264
0.27947671623110426 0.007842554321556503 0.41370540655778754 0.021897409586943656
0.23800306078935957 0.008982969089551224 0.41058957886921776 0.029808618723179314
0.2156913201879222 0.005279567438476853 0.396621350115138 0.023866698747332923
0.21624552470238442 0.004457041045126266 0.4062816735706447 0.029704363384209932
0.1919937217007502 -0.002139227408744273 0.4136833427589761 0.0398848556510099
0.19191091081927422 -0.006879393181417513 0.3993286091994074 0.02948793596902137
0.16917751778381054 -0.0063612984654860885 0.4148371696093764 0.009682973847151029
