x y z curv
0.13070316523881265 0.6236393000502671 0.3888019188608884 0.0015681491385627622
0.02023207727507309 0.6067067435376836 0.38390731551018714 0.006863976970415491
0.02895267113861673 0.5892834954903117 0.3834066162907429 0.020950851302968247
0.020372384243586575 0.5640606112210843 0.39596321087301467 0.0023540837954738963
0.020030843614975747 0.6062735589116041 0.4189497728906878 0.01267362109365148
0.01576443630780125 0.5808735502812665 0.42784915753010716 0.003576676937608679
0.02529059051771537 0.5771082214011017 0.403142402140436 0.007303125085744162
0.027299836218602047 0.5416351936084021 0.38402568758820776 0.007166640086132046
0.013165202085722914 0.5296007725578942 0.4474354426516252 0.014297343092101122
0.019581729579290826 0.5282986558506939 0.39243505004708124 0.009406827321363108
0.01912019694645604 0.6107379282241858 0.4683161373569781 0.011457291211570035
0.011860599267904722 0.5898470595563103 0.4768844477598738 0.008421349022995394
0.008089143673534232 0.5602527567813357 0.4872322455619084 0.009473928002879687
0.008549028061584724 0.5951191978023026 0.4574090577900273 0.007119871310984476
0.01084518539477437 0.5693223035972824 0.47213041422294805 0.009266162828397177
0.005796747797576774 0.5790751557902442 0.5106001050211673 0.01599528877058173
0.006216128527401459 0.5637383011623361 0.49262921839808876 0.009036656738150132
-0.0023324123593554975 0.5595108492761774 0.5278131103029425 0.019564964859277074
0.0189764857500056 0.5604676727570541 0.41131400956670905 0.005108742077177509
0.016335484180225717 0.5448364082338424 0.41658285592316874 0.004592189300509951
0.019690250154824493 0.5469840659684148 0.39977114812672737 0.005627800990956255
0.013068641045015792 0.5548057655286041 0.43214991374513895 0.0035191808724145766
0.010548972763457537 0.5576621176737966 0.4571763844648554 0.0031934322424530745
0.016163721515386115 0.5671478171804867 0.44144185483648585 0.0033640165946200486
0.017274593047625807 0.5799353909407557 0.43563557501030936 0.00406059155305068
0.010926624797896096 0.5495213523230009 0.4456692357318015 0.0023625246131812106
0.016039973313664784 0.5369764402026264 0.4281552252842743 0.0032871406838762595
0.0062438557994021395 0.5407015862752037 0.5084550249465043 0.016945708505699517
-0.00017585097108564415 0.5404871467487192 0.49217552046239627 0.0016218508715569314
0.006492227107268879 0.533481245762591 0.5082941106471832 0.012987805674484718
0.010724047411947612 0.6097402958498273 0.492225212092575 0.00783304715350679
0.01282840911481841 0.597904418056304 0.5301324982039239 0.009734147823313803
0.004405867167211399 0.583999560239402 0.5156467881193997 0.011821050730471176
-0.004543056630848135 0.5699791737709707 0.532234283168072 0.03070525859038861
0.00651332016587859 0.5891310177617026 0.5388956355569587 0.016606183302083622
0.005984894572876757 0.5411502236239103 0.5406150751145707 0.004493838187632704
0.358159339412332 0.5962847959586521 0.4279600079987812 -1.7093232014204752e-14
0.3641340133662083 0.5637165718392005 0.4242451391082977 
0.3612159357090021 0.6071668947379819 0.5017623733714217 0.008484956551045144
0.3700574096556144 0.5528399152351575 0.4615255190951211 1.5035907814513583e-14
0.3743100989355668 0.5384883154236102 0.4787729368527767 0.009977570345727573
0.36681278314875504 0.5257997826918417 0.4822487837031355 0.0092972437678314
0.36362040719007543 0.5252831873509538 0.50924316572149 0.00022570493298149246
0.38031269030860876 0.6018097312834986 0.612460199352803 
0.3758795442805912 0.5325084555496551 0.5957451286963341 
0.3750258549281528 0.5335549126916782 0.6574934809793336 0.005951731244628381
0.3705168101385649 0.5374030429755838 0.6956829007095781 0.0022332122956507153
0.3813858441881262 0.5495867034160953 0.6483216527691158 
0.012502835180271099 0.5310080461724629 0.46782433629377973 0.019877482112777543
0.012894570146057787 0.5233818312472626 0.4823419617754141 0.012572524164601598
0.013484769731075711 0.5153797084046181 0.46148623614426326 0.010186957121004347
0.013279761038344095 0.5319984825706545 0.442888413347468 0.00406090287978542
0.013812018573254215 0.5253651458234853 0.4387432207353916 0.013446081529138934
0.01140258584785717 0.5095893276034418 0.436036564109672 0.010433527044073623
0.01484588434273331 0.5145522483218645 0.40868609191194455 0.007045015097485492
0.007848010560519796 0.5182487827523009 0.5365152887991214 0.0036906613656637996
0.006852434411581884 0.5286743869396419 0.52936472023978 0.007273521646214093
0.013169838856595312 0.5079571949511836 0.5400205702000387 0.00910708754926051
0.01629139586519784 0.5089645058341736 0.5230205166286305 0.023301529020871504
0.020634604893361233 0.5033728349145067 0.5108070518847833 0.029803343880062873
0.01865212930766385 0.49694461656629074 0.5805117541974936 0.007783576789713654
0.019914379121835628 0.5062833425451321 0.4830545714787661 0.020418291875606745
0.009637328143341487 0.5263674073607599 0.667597041516391 0.03866372202139045
0.014428140391689744 0.5160728452400796 0.5478889324991125 0.006217715641914292
0.003980531836695372 0.5174308818602199 0.5827863610246377 0.0017162182945473698
0.008718023965580749 0.5188989658833246 0.6113432626654243 0.024088359402320726
0.0007169869517868223 0.5202641669085089 0.6890766383615824 0.006850628966924676
0.014149256039036887 0.5093981907804447 0.6834847303763906 0.01233385545105587
0.011499556122130184 0.5010732381478067 0.6214020620976005 0.02101890746830198
0.030505493268363187 0.4929991209872787 0.6260766302340979 0.028547856008361197
0.02901047032619326 0.5005987202095277 0.6877429178530868 0.009437154875949028
0.007467685303962181 0.5106619979040321 0.6213306442899017 0.018179451165308003
0.015031726403278127 0.5149871270300647 0.6583494478544542 0.021802358577363956
0.02759268017745375 0.5028370308539923 0.4018352539929601 0.0034469444074006145
0.019315655633885386 0.49334993142476224 0.49359846552674697 0.01160776207059375
0.024823804108586728 0.49632000107246355 0.4600048720091077 0.03448914397223653
0.0322361894721783 0.49111288162498684 0.610058511253595 0.026610655715939624
0.024525747577202626 0.5038052891970595 0.6771356320841635 0.024136429538954122
0.02475465422720436 0.4952772303634023 0.6436663674907712 0.01247600987451575
0.040031619796303784 0.49300501529299134 0.6599564710681101 0.012109732362062264
0.03778020129034861 0.49337148671783754 0.6698841369228624 0.01832900504022229
0.0508304644722667 0.4782790403772139 0.6070493009118071 0.02010477886248537
0.04269332418133442 0.48975396231581225 0.6246071440989962 0.009814735740520896
0.042279234826000524 0.46760566437253925 0.573494114996187 0.023180869440070875
0.03965385823132589 0.4856056382301548 0.516658682039797 0.027685825679467518
0.02181755606649532 0.48734828583859124 0.5342417543584488 0.008619551788951612
0.03981202779012582 0.48448832848561596 0.5014273743542705 0.02670044146109654
0.04408262827736049 0.48966636243642153 0.6886086949797594 0.011989604486711238
0.04690228183833553 0.49146240676464 0.6773479458850309 0.010804678149560463
0.052246429373611944 0.4860908200130382 0.6467915602033308 0.0017741625864302031
0.057773061687622335 0.4868752343530484 0.6788681405762172 0.006212774416413532
0.3345013084562416 0.4878829805364407 0.5412269623601035 0.019412696953180406
0.34436430197473855 0.4864149456074869 0.5495602575212125 0.0074149392574687995
0.33377269777905266 0.4941165352837685 0.6298161573671277 0.014645968226800263
0.32327693183970024 0.48385502114379186 0.5730070696248076 0.0018637961328133573
0.3293988559620781 0.4842094849406734 0.6852980474704873 0.007103828180894148
0.322203489088653 0.4870064074632257 0.666852520749279 0.011032627823769897
0.3219143522230281 0.4878316468588496 0.655424961300217 0.01089275268652959
0.35594190374274 0.5029449101662034 0.5539071445395006 0.015467255301021512
0.3615253338434875 0.5141477425383134 0.5396844673272512 0.00983506648338777
0.36119423099423564 0.5128374300026023 0.5635330552889574 0.00016015344421050997
0.3557318600792485 0.5135185221259996 0.45245240454233926 0.002268035476280878
0.34594313080564515 0.49632805721354095 0.46582804761692337 0.0011664607676149363
0.3531985258464297 0.5084530630643594 0.48256133949754926 0.004936789034112836
0.3512949701587012 0.501932440031521 0.5314687606770121 0.010476258013331022
0.34852798433969684 0.4943483663420315 0.6070111925430964 0.009929689175220153
0.3525467057603352 0.5052951254590554 0.5157171152536334 0.011743554629831923
0.37266666579502306 0.5273809380572219 0.6274500755040051 0.000774887608455447
0.36897083662611685 0.5161879131164943 0.6817825043920968 0.01616858191870799
0.3616673915265926 0.506069476173054 0.6987618487588692 0.011439804348370601
0.34798297485013757 0.4935124249397025 0.6433756461318596 0.010281690158758534
0.34683963922669264 0.4929287624417385 0.6726633099262587 0.011589351942438349
0.3421579114475921 0.49644351293666134 0.6914027997815428 0.01068039710324787
0.3598873143895997 0.5068435151928034 0.6371099161370869 0.018128711273138354
0.03546785219694218 0.48093900769162995 0.4348936538080739 6.487453251715749e-14
0.08305293544285874 0.4604798981468032 0.44281475583192914 
0.04812313355054791 0.4849132105857584 0.5103842914805647 0.015399142990038691
0.04795097623904683 0.48293917865865593 0.4615850764500009 0.02191248964329004
0.056023239977456396 0.4756478484346791 0.48196981247307275 0.0018778594375895054
0.07786156879917862 0.48010598930915255 0.6127801333150631 0.006821858532825424
0.07004532003432003 0.4807830437543562 0.5837990860873601 0.020745782375806182
0.0830257585073039 0.4815578436419818 0.5759471035973154 0.006880835364506674
0.07524325792558129 0.46810818202840376 0.5316329126834267 0.0063609274939192394
0.0892424477146481 0.4808448258184335 0.5800484699268781 0.005581173394837272
0.07513309067344398 0.48389193643947126 0.6241266868632335 0.00848351988130781
0.09407131441820119 0.4823850202239306 0.6203279956145397 0.0032264243610051987
0.10242820540916774 0.47659195930027126 0.5963408586134376 0.004287923189950975
0.08681398741599804 0.48142185712124047 0.6020470149369261 0.006434870525626524
0.1028480792235467 0.4674339944656715 0.5462773339207244 0.011733240411258328
0.085663118880781 0.4700529303716427 0.5011969353278812 0.0027118017221910494
0.07648628036646944 0.4759894619149293 0.4730383427494193 0.02466969802970901
0.10676061799901382 0.4691364229456991 0.5650653980729782 0.013019178351690378
0.11139460826799785 0.46797364911502426 0.46708222669130434 0.012418799738160773
0.05866133856089263 0.4844210540662622 0.6304119850798242 0.009053936004518403
0.08359118525677109 0.48181399616773646 0.6362409720500618 0.007396443109964097
0.06917449338827834 0.4827442010257416 0.6643637119086097 0.0036391971568412325
0.06843575105091254 0.48940594988084907 0.686290676425887 0.015824902360972094
0.04690207836018031 0.4762148271213462 0.547338363196581 0.0016267430849461373
0.04940402717103184 0.48112340223016453 0.5310453074901468 0.0039085448587057635
0.06917578754841762 0.48467867642261525 0.6276924907231887 0.009070306420714562
0.06318727642605018 0.4826873439939775 0.5995580567671502 0.021054508394233118
0.10555056550285614 0.4788041396797193 0.6295734307200502 0.008409424836560835
0.09161062382764808 0.4773621480205818 0.6754402524113878 0.008060473069325698
0.09853711093310588 0.47666501456019184 0.6480970305732987 0.010450186584731999
0.10361819265400918 0.4725085614878402 0.47713098861470815 0.003975219897606004
0.10362608004663561 0.47027362075027823 0.519656874810794 0.00436483062225251
0.12345935434951957 0.46851973648539535 0.49964786479906936 0.005700942699407567
0.11464637439914258 0.4673136271673484 0.482710320077122 0.003949109202619953
0.12746035834570807 0.47314211321822436 0.5163184517946957 0.005400499735429873
0.1274434547923404 0.46984545903174596 0.6004485048484705 0.0058495690766088545
0.13529247375163592 0.47101902873424006 0.6046955609068589 0.007951957949626942
0.1334100672162082 0.47383781496732824 0.5538761512446413 0.01061786017189655
0.13713722044277282 0.4672517240264646 0.5977515459558951 0.0071466240347028386
0.12497270681355503 0.47172997968905384 0.592819363538466 0.008328485412929302
0.16117138411006948 0.46378623626400267 0.5696613001495748 0.0038375582016236137
0.15659527930858758 0.4639486219770223 0.49967024401747273 0.008670830721299531
0.17096461319192108 0.46494960795294776 0.4837390015822665 0.006552351937733107
0.16752916819383945 0.46827581064323576 0.668325338173147 0.005695446573813248
0.16641869434874865 0.4730753402696288 0.605113789558068 0.0013167513270261194
0.15105782353730185 0.47280526935002276 0.6203522179387635 0.0046016277094987935
0.15752270103917795 0.470260782661824 0.6057345036548719 0.00660587389091319
0.15335511895045217 0.47207377826803276 0.5308193709723299 0.0015144549356027376
0.15672899818572283 0.47525199636297244 0.6477650158794612 0.0024648570903995064
0.1289583443203177 0.46648417952297516 0.45777884157643656 0.0004758577559446443
0.14047160893418797 0.47275233010959333 0.572069267083469 0.009717646544011516
0.14435177070181718 0.47097386461344004 0.5642952887028632 0.008562935192874047
0.14913786332265686 0.4543028833818769 0.44529630247861396 
0.13792736632274163 0.467851762607646 0.49696957506435585 0.0033624003337107
0.14117225560271884 0.46794436773684067 0.4962182864305845 0.0029366452988784067
0.13507571492235929 0.4745396796739373 0.5429545612105446 0.009430262840368327
0.1800233418149574 0.4707055214724103 0.6753502000959998 0.007180672160440001
0.17340443186296992 0.4731114742431097 0.6949108582106432 0.011849367072740884
0.18183568590824092 0.4641236927976439 0.5276498100728426 0.005787050977130294
0.1712987463225608 0.47163595829336186 0.6224741504898741 0.00549747084745836
0.1630442697738922 0.463948214502737 0.4911128033047713 0.005543173268338099
0.17600554118432682 0.47248759754128156 0.6131164901441533 0.006140091086651035
0.09924045185715615 0.4871017602482743 0.7032110138827559 0.007422947141992505
0.11346996740849101 0.48199698116788037 0.6974460921984956 0.01433870503835825
0.11019902858330567 0.46813903161016995 0.6625930566326838 0.00798925718000468
0.13814054783944002 0.47284402040458945 0.6303902421710299 0.005648029145715022
0.12333759344959479 0.47802872952610775 0.6790371061886484 0.010429865828214091
0.12209142511537784 0.47748613100394804 0.6335107154258934 0.01339192159297386
0.1388745190010468 0.4692825110681085 0.6746918007734496 0.023606734212366927
0.1597674063765742 0.4674032971239907 0.6911789679948243 0.007515574060441828
0.1384130028511142 0.4734732699783031 0.6577996553552782 0.012652709654014863
0.14256476713229174 0.4728192128249525 0.6949689442845048 0.007496314378264863
0.23028421419656134 0.46560211964743337 0.5037826360917284 0.0025545440998376735
0.21699689957672855 0.4756492737845526 0.5499509865809136 0.008291858181415616
0.2129082161100537 0.4737163505597719 0.57276883846474 0.0031843055903983853
0.21533096446007502 0.47356581293037897 0.5317057956844035 0.015317347279331532
0.21495607428500726 0.45127973997051607 0.4686635241203935 
0.21131981258343202 0.4731393808993222 0.5094412228331129 0.025249092793898854
0.20694599152329304 0.4694734914957359 0.5972301715298484 0.007682319868111716
0.2382808904736954 0.47091795833687655 0.5601296959626215 0.0045468488423789435
0.23406369659580203 0.4794211130611178 0.6411681232682266 0.0052236313735257
0.22768602019417575 0.4781587449555196 0.6735142366979536 0.005170916921167666
0.22548809277975293 0.4775686225158264 0.6582283223033714 0.006346697690287885
0.2167260175135972 0.47328005594296035 0.6127305102809707 0.005007777724445119
0.257190047783269 0.4678928071158944 0.49533396456968526 0.00265163976179397
0.24575683440625004 0.4669569804622736 0.5321544254996532 0.004432497587193237
0.2631937178011527 0.47241364615887754 0.47142662057307033 0.0029024486588548524
0.2341761295089228 0.4727187139758517 0.5991943771573323 0.0031901804852752596
0.2566719480097558 0.4741396450533869 0.5533486704092856 0.005265013759495849
0.2644182713839989 0.4690667551950227 0.5212462535289816 0.009619748211261681
0.2566353063982035 0.47651276014375027 0.5704578700433334 0.0027446379978964142
0.24630588511630885 0.47485494358568053 0.6020317886777345 0.004502252729105976
0.25611092166774946 0.4724823144106982 0.5873986129210507 0.004125704310624363
0.247213902528893 0.47377257338340745 0.5922488546013869 0.003661008886860377
0.22879740952623856 0.48081660024687795 0.6862290534116084 0.004536630129434922
0.24556482068132793 0.48055036944634305 0.6728898660528363 0.005072448722930707
0.2548861184963002 0.4835647732828343 0.6610812849516662 0.00693839656907925
0.2496146221605192 0.47345577677346284 0.6322623369660002 0.0011948614538574215
0.20205803430847352 0.47553012615940077 0.5448426497014417 0.00990921071597769
0.1865093151871325 0.47118930203052245 0.5621222980123209 0.0049069317656798275
0.19713453745248696 0.47469352676230525 0.6190109882754742 0.008924481500320026
0.17770286760684215 0.4633874579710507 0.47899508455352846 0.000523247109060723
0.18967264586336738 0.4709678714171102 0.6504209142861538 0.004151887315420666
0.19861284080017078 0.4713941856165339 0.5045824207526637 0.010449455254489912
0.19343152915755737 0.471220667273573 0.4989423253352335 0.008408579750485621
0.20466544190200275 0.47684399152966195 0.6290179297682624 0.00405051149138992
0.204165534091721 0.4762316333057783 0.699080735084104 0.0036113363148429093
0.19323630889145618 0.4679870721316942 0.5982551563203256 0.003489206482894731
0.19823128224200254 0.47501586201025986 0.6681247239755179 0.002169783503061092
0.20442824905661794 0.47230832511960513 0.616103957707585 0.006764317923737648
0.19649706854960441 0.46868456293702276 0.5335722210273073 0.005693649016493567
0.19833663011323713 0.4728808541180802 0.6922246586136975 0.0013302459510855604
0.19444537849983815 0.4740969080311974 0.6869581334642673 0.0015287882606765347
0.2552986461202418 0.4681661647734361 0.4556944755130987 0.005642050251913544
0.2656603627929236 0.48396425978283425 0.6439632901916656 0.010685131534583612
0.2546998398310541 0.4766908610024723 0.6902390905887972 0.0021027256695687812
0.2796482059125447 0.4796547520296733 0.6721499156723285 0.006882325563925241
0.28456843474888344 0.48399267468932117 0.6516474265030527 0.014519335537880417
0.26351684881889936 0.4816559430604801 0.7044454342227106 0.002675590599506694
0.22664948860160686 0.48007274721077314 0.6841564196500085 0.005646031635339558
0.3279779899438692 0.481614635569296 0.45596166452837306 0.0033373291708417474
0.32948641732706324 0.4865870214547101 0.5068607781405811 0.009394179882617393
0.33468154876339445 0.49052379263696716 0.4774343418321133 0.015630633090075674
0.2638757850230614 0.4773686166988219 0.6176169091375093 0.004167311495450166
0.28827051355999744 0.47400869815986213 0.5704277372261596 0.008570263602145686
0.2898612141922371 0.4805046926893166 0.6035947570164006 0.0032200765425202046
0.28787058450243663 0.4693897663678544 0.5535403285094778 0.008164824261520457
0.32492714638695164 0.4817399972100205 0.47512543400206564 0.010633226210358367
0.28454187725466895 0.47026718937787587 0.5427070672030619 0.013441763253999588
0.27257291973227643 0.47136974830679046 0.5102172853765149 0.0034145514101617397
0.26811813823952596 0.4716907595028596 0.5435783159140668 0.013691985728683439
0.28077733090840756 0.47567584071267527 0.45747460457695777 0.0037712894114933213
0.2648259833483029 0.47409867772307274 0.5845911420267913 0.005589495634185075
0.2703563069884804 0.4749943779139372 0.48165547715836254 0.0071988607329279515
0.2629916138721741 0.472277825321286 0.5926921900671878 0.004089903916181639
0.2681269876235617 0.47439085305787476 0.5657315458660871 0.00466343126556591
0.27001856205352964 0.47343847566350544 0.4944188317119776 0.009762194258112745
0.301385820193642 0.47928093140056394 0.5336611892158474 0.004642911979976656
0.29479610145121254 0.4799373266958678 0.5184034683180135 0.008280403997660408
0.3076522919584819 0.47932434618803 0.4915157654045551 0.010043345863840463
0.302507884187766 0.4721657654695765 0.48090801113482357 0.004555682523239907
0.2851999075856455 0.48357709474328375 0.6563665778013869 0.014426181363104284
0.2980020906400367 0.48349005381444893 0.6868638053874161 0.007209755865433809
0.2839541025099052 0.4830827585504767 0.6353201822503314 0.01664733659750448
0.29688707823854055 0.47819238395127317 0.6663946559867941 0.009303395002344018
0.28587721911604 0.4806671327149899 0.7006840718074577 0.0031729305115431447
0.2968808246352863 0.4803709374895241 0.6504327821046432 0.014899686915067491
0.3040126955397943 0.47739333640971243 0.6488385556991894 0.0079566890977517
0.3161810856875351 0.48298455769626475 0.5424601568292106 0.005122703302523734
0.3156343345732229 0.47974446653694613 0.6013791758516713 0.0029714971105347754
0.32435178033336587 0.480773511712959 0.5600395274318708 0.011295970125682035
0.3270788685108559 0.488163780311655 0.5217981760537844 0.016452814218586707
0.29615369719595136 0.47535287931064507 0.5913360542201485 0.006657611692989096
0.30213880878099886 0.4866630295185781 0.6225669835906902 0.013730199283466077
0.03892634173944713 0.12117966502313088 0.401926337717601 0.017171724704619064
0.06500499217229448 0.08080340371840511 0.404859502027157 0.02271011647846682
0.022842326850845984 0.3162471080200642 0.4109961037644586 0.044438149804161116
0.03338119651766548 0.32927426712263 0.4119493800243694 0.038052608821324
0.0948571431964552 0.036806804160157226 0.40353688145841893 0.054796305166574695
0.2736986267730986 0.0376985900687489 0.4094674718500097 0.036505565807390644
0.2961012175552588 0.05783584033596122 0.40367950058789276 0.0227909602818367
0.03323494269849673 0.13804320794559324 0.40374792251961855 0.019850579577611535
0.015824751945662942 0.19668187312902866 0.4026765064603236 0.02020065537333247
0.022598100752865405 0.29179823660234405 0.40581100876784054 0.027022626441242703
0.03470303834099978 0.35364980047136246 0.40848753123239495 0.03355366528216202
0.03360601049194154 0.333862989770221 0.4041909710189535 0.05883037305736073
0.059897797423047405 0.08862070494691253 0.40317400295448685 0.007717381854420867
0.1570989748177317 0.015093061016865863 0.40774029477539353 0.023567285671424975
0.23899447729745688 0.03228427447302322 0.40966601900468375 0.036590691184098065
0.21293127371396114 0.009475466054196063 0.41969533740233533 0.025107792278930487
0.30771446727417534 0.08778676068107405 0.41423079105798216 1.835366996745569e-05
0.2840954988207744 0.03985993528154303 0.40483976738573124 0.027676040185140145
0.35258990803181783 0.28926283703456707 0.405797775496201 
0.023361732960238787 0.2181697953953992 0.4070371434326464 0.03993625160776647
0.026244728640457383 0.24724230910898176 0.4137195606846645 0.0297681857731502
0.03970876739043057 0.34555041467041914 0.4103236786831842 0.030196280658332356
0.052641799458173356 0.11370728578342298 0.40506210005060056 0.014872626516436793
0.04838972226562678 0.42531730147387153 0.40732949641466354 0.01757633775227022
0.3532073169803557 0.20381999259287661 0.4050328820671324 0.017326157733334457
0.3566506321628499 0.20844887274693177 0.4014807220231653 0.01724243608872499
0.026989787418496072 0.24273554122454005 0.4145126525567367 0.026546013301251416
0.04900552577524477 0.3823254132697605 0.4087111995652765 0.03513476353688452
0.14756819852683797 0.02674800820219154 0.4147648097688995 0.0209981395033317
0.29860923485454643 0.08438137013201873 0.41319978902413335 0.005070295748139634
0.03232906653838329 0.16444063102299517 0.40517136908699997 0.0454311666759942
0.05624059985734587 0.12888158822232287 0.40973961796027847 0.033993407906915636
0.022346512788967647 0.18369662107417836 0.40824860799023727 0.013997015345155534
0.048764484495078676 0.1512743882774711 0.41523807343053815 0.002682236929415192
0.09765708873931368 0.0752108868483615 0.4130346212754082 0.0321644283357198
0.12311417930258371 0.07198459885510838 0.4194422922779427 0.0018157424362973146
0.14967401035756014 0.04570686424101753 0.4152975700151363 0.004149630350238421
0.09408844833141158 0.04652990620485264 0.41269198167353804 0.0286774676690155
0.07492159334122192 0.10062314156519944 0.42460063758404454 0.0029940132147806184
0.10025082669138922 0.03949068317790573 0.4113450926947045 0.015479763250021017
0.1119605191345308 0.04144327798689751 0.4101904554912244 0.006911881234021599
0.14009204029147013 0.043893085934088555 0.4143291865254745 0.004812414271822568
0.26591126753362804 0.057461054690444546 0.41840001157117473 0.01013386402730646
0.06646527597774585 0.1723392701358441 0.4132943961482607 0.0036833542060904904
0.17319280946410395 0.10784016077991199 0.4155438379812763 0.00019892349463158452
0.1831238963805615 0.03603313351893142 0.41226868598859623 0.011554137865928089
0.24175893677441757 0.058071331299487855 0.4170343856859744 0.022313806423695702
0.1949920682885296 0.013066686662770948 0.41287089705414154 0.03775217768279351
0.11338527255726899 0.11372409370689736 0.4199179152796317 
0.07661732288962009 0.15044869014046913 0.41902827677779386 0.002998773282179343
0.14644581351255762 0.11529387916365863 0.41943657969897263 5.484813467700254e-14
0.1929719316776123 0.04847652873371698 0.4132663293126815 0.003988871810478394
0.17556731846146037 0.09008635961282463 0.4138846402500273 0.0005288857006274608
0.16662011487558426 0.0579241596707815 0.4168914900919777 0.00039279661379631976
0.03594205788902554 0.19337919760276395 0.40912032563301365 0.04065342378309975
0.30047167963723054 0.10702719958097069 0.422539180664706 3.070574113902212e-05
0.11029419931817493 0.15880485515027823 0.41709593320374183 0.0007240055870532608
0.23967971630437723 0.15175612208399844 0.41521602502028676 4.516001032286494e-15
0.15582619518548693 0.1656051148104509 0.41233264521764335 
0.13956971698920442 0.17906436723841535 0.4120679632338939 0.002431593983980329
0.076679783617316 0.18906449522222035 0.4166353652269386 0.0029611589541801795
0.20052979237150576 0.16182222444912883 0.42397930247040366 1.912876047670639e-14
0.2897412775931078 0.057882375516542836 0.4113860326081552 0.01680451922964411
0.23745744648620495 0.07893732753010965 0.41458961181502296 
0.2077204522620008 0.11141633221871677 0.41480801121326133 -3.5136440056866414e-14
0.20498960803086105 0.1281406753366315 0.4159044885957473 1.1214354849952997e-14
0.2737627317738168 0.12524854499214771 0.415688258313227 -5.0824002277907e-14
0.25074538391410256 0.12981878828950602 0.41800681000548606 
0.23305128664726446 0.1883436529800582 0.4137347631013384 0.0008053109973212928
0.32150817522275743 0.17083044503326852 0.4193160661276162 0.01608384468331077
0.2647737805627129 0.18266668672649308 0.41269257848004937 1.9010289758632338e-06
0.3321146437370257 0.1841020527811092 0.41689784678062075 0.003355267874432857
0.11817338174198151 0.19623858523020607 0.4160490057754179 0.00019227195601969325
0.23934028001429394 0.20893815866469795 0.4130796511845486 9.665672428591609e-05
0.32753639338122803 0.14554335520126763 0.4131281307975413 0.000960705074087314
0.28885138830100127 0.1898729086359943 0.41450213070936126 3.509368089855036e-05
0.3267031992211236 0.1924343383441662 0.42135433976188197 0.011009835511778468
0.34350291407163586 0.13902224235921376 0.4113719526005228 0.00923264484744913
0.2080500905383642 0.18194470915443464 0.41937743026108026 -6.485196057049782e-14
0.17703077049362267 0.1894239438998691 0.4130022296685386 0.003382976929730783
0.10613425080858432 0.19531807262909023 0.42020253537382857 0.001859983374451969
0.30283120402928093 0.14491335186730467 0.41814092634898287 0.01110845913768359
0.055489143992781126 0.20798092322766676 0.4124543202519987 0.0010237530214575858
0.30301762022958556 0.23088346667503606 0.41798971219075803 
0.2211569630378566 0.2428347865498215 0.41522683255647547 5.039392295390853e-05
0.27858614089520767 0.23606063540289984 0.41480968301358295 0.0014124892179683917
0.33061506123512036 0.26566364082819033 0.41375728949521884 -2.420738863278321e-14
0.25921870592421886 0.21654095528243963 0.41295058009591207 0.0003130134622406998
0.28476033248750177 0.24986165899823812 0.41574482886650466 4.2098948697034314e-14
0.08060715967925669 0.2158805270672035 0.4190752593074045 0.000781159989186488
0.30608661925873504 0.2792490195950736 0.41330144043940936 0.0013336154479040186
0.18317643958651939 0.2326773138703125 0.41657933998744734 -3.052225814410507e-14
0.14181393043589718 0.21506052384613888 0.4121934045192266 -4.038120704557919e-14
0.24168961813589912 0.23996848046775104 0.41494947693727574 0.00010103415941952274
0.20368507353278026 0.28964701354799843 0.41554182028559794 
0.2925448753750121 0.34415463614154407 0.41517556297784297 -1.7105932962286626e-14
0.3143198355160688 0.29511490380178973 0.41660181082693226 0.0008710415715113239
0.12484415849892477 0.2744311023336405 0.4126268050151095 -5.231372595258368e-14
0.3007773798354606 0.31602310876020095 0.41394448084886293 0.0008672496747608135
0.1497155388487668 0.2662039705419615 0.41468212742840277 2.877558169460941e-14
0.1805040152395274 0.2702068061907117 0.41231095763695735 9.462671788458595e-05
0.24938805496948682 0.2983729245803084 0.41479638759767334 
0.32795336138851006 0.3130702125234195 0.41861451455121257 -7.890943278205392e-14
0.27584913606467665 0.3241034233433058 0.4145013162801386 0.00010947266315110415
0.3174226387191099 0.37780081089694123 0.4170095860167616 
0.2401443666468215 0.26829229041573543 0.4178631300760273 -1.1584813378707293e-14
0.2596833156870878 0.35380096001353323 0.41798769804486013 -5.920289373763043e-14
0.15702489185397722 0.245904266290597 0.41468654662508925 0.0031085699844310448
0.18974458733921412 0.33582430611547825 0.4157445166340124 
0.06903863643285954 0.24043080330450817 0.4180360703906217 0.002646249460773379
0.15934801206040541 0.309639334245267 0.41971234848032557 
0.18228547112935542 0.3331249704013589 0.4182921103782907 
0.23712429979139843 0.36407270900116767 0.4157854278198263 
0.03497665414932312 0.21442342780437731 0.4117510739657948 0.045033939270952034
0.15276861556007026 0.3781793435911189 0.41868524227435366 
0.09073463518803798 0.2573318742645223 0.4169208400415511 
0.12672519236421603 0.30663097335012096 0.4190939116803953 -6.467790981815667e-14
0.06463997187444537 0.3795455070333685 0.41632827228579183 0.041245827077278197
0.10525270265450719 0.38799162569028733 0.4174401233958816 
0.07835079703330344 0.3992112602418759 0.4226298697840891 0.008085562441719728
0.07245585624592307 0.3568172510422692 0.41044163789356314 0.006689176401335229
0.05047421922647557 0.3461364196608234 0.41101539947591753 0.028348019666667477
0.06678164900139354 0.28946339609508376 0.416678480585312 
0.09160119175345594 0.3516106987267222 0.4118789085648113 0.0039423873709560605
0.06293902882709394 0.32956880435767044 0.41276348800162593 0.007341144598596167
0.10670149245263551 0.3284421168200435 0.41734931437237105 
0.060380851645993536 0.30511609024982306 0.4153280673999836 0.0033590261268491165
0.04219276057670441 0.23401927736676462 0.41299462415607396 0.07020163596603267
0.04852131885178447 0.36870654646602974 0.40967897745004195 0.0374964003350532
0.0560811035923373 0.3973832507656988 0.4153712301251946 0.028727389995079806
0.023612552774300105 0.27966467187822763 0.4210936307478511 0.007973949921090613
0.04225117731971848 0.30872135272943957 0.41662409923274835 0.044838423259558224
0.02807148017638461 0.23046120586390578 0.4124805943907896 0.045135776050806695
0.07710171716280965 0.06818815550238468 0.41030281648139383 0.01976145878274391
0.0631361603113232 0.42661169795949827 0.40980534515603634 0.040532932278327605
0.046440413197050494 0.411333543718758 0.4074882661035645 0.016188228607357382
0.02669020593058499 0.14613690960064615 0.4009555702246535 0.01712514533357148
0.19935978340745228 0.0051076487491546665 0.40174223015541427 0.07349466149316561
0.26406716882745984 0.029059582509594672 0.4028223777718863 0.0350573007609111
0.17711856008976296 0.01459188073414596 0.40411842422250116 0.07289009744112328
0.03556535798615277 0.12784183040092773 0.4037020057719199 0.0174080840666925
0.019714961065064988 0.1757679156689962 0.4014511214194712 0.016301205772089464
0.049081422419980335 0.10044356533734661 0.40409972773578345 0.011923114971917401
0.02133100733432285 0.24251661350702408 0.3982705004555919 0.022275465030485428
0.03956327474023395 0.3916576622467328 0.3908413221648341 0.0219827948236765
0.012678853652143858 0.1884536194914159 0.38663975525243227 0.025929783518390936
0.012214171225247447 0.2645594026137545 0.3945641485486455 0.011866001432094687
0.02344310130880923 0.3304219737338517 0.392944649061317 0.03600935614647497
0.018934088151984205 0.30672712896829163 0.4022811522518144 0.02012505837411164
0.07140604459032251 0.0656330615280497 0.39266129504702996 0.02437790767299526
0.04348762680044064 0.41240255162200684 0.3887931136265131 0.022573885478069426
0.1541733891754972 0.007637130265807517 0.3875405886013735 0.04102364019676863
0.24771962055800018 0.02720715297660213 0.39885426628899145 0.031058031147775566
0.35227069259911853 0.17768159796861324 0.406130954524251 0.021436446719428997
0.016114318483788595 0.21480247824676377 0.39255994497995467 0.027450799981470323
0.01762648078469121 0.31661086070702693 0.39074118619247833 0.020421459446068737
0.3285526375878903 0.11069165852191948 0.39085230604828103 -9.802066848843208e-15
0.10968737159430708 0.4622250580481119 0.13005423742676497 0.00889544804501054
0.11845521027950943 0.46374636779824424 0.10124675283080499 0.007808317804527519
0.11638798522140109 0.471243476626225 0.05606176351641753 0.01871114559778878
0.11630986443768844 0.4709328784772885 0.1737613373746127 0.0005273864877190118
0.12049729367197154 0.46357542971117044 0.07083749184955483 0.00990625510129299
0.1358815694975406 0.47055935943312277 0.15967196519797114 
0.14377250396895755 0.4663802990740351 0.07728669735561873 0.005395066497057599
0.13701881760779555 0.46740298926769824 0.08655990720208893 0.014111099614494338
0.1335857928117614 0.46753866883916007 0.020482647577275997 0.007036930121569622
0.13143979143175094 0.4652888135020463 0.007533985208988789 0.00952313784797554
0.12232981015774437 0.46057525179767533 0.0019513404905261529 0.03685984050845436
0.14270279813685668 0.471908741250391 0.05015907520790846 0.00701441513802497
0.14023405808794584 0.46896292913301035 0.03912254654228231 0.007369816479833989
0.1391013220728419 0.4684928508900537 0.09031472983206552 0.011137832129416258
0.134407235291985 0.4701387790268944 0.11940727678074368 0.007598440995063519
0.1518824710380106 0.4678461056181963 0.06565530941667409 0.004586482969217768
0.10177772328207352 0.454283691511545 0.1534212673906535 0.015599368830144072
0.10261230346062165 0.4563684264522924 0.0949397333703696 0.01761737452040104
0.10062297408150217 0.46010336174118627 0.0014573674030115475 0.02725642932206834
0.10073894051107306 0.46540802999551956 0.02659450841265101 0.026808797998583895
0.10266202539160504 0.45689053267223223 0.07232061394295922 0.03263724550195214
0.10994771236475516 0.4637913328108955 0.012229151044611341 0.03317236445691594
0.11696218969962473 0.4645269744826636 0.01431300509696002 0.03150207003694308
0.09630750145694271 0.4633721344675835 0.052399999017422344 0.007818034524793984
0.09920330316986392 0.4545448708428195 0.12732216306659885 0.02475824687999647
0.09981108575580547 0.4533562961417897 0.10181546299292808 0.020236037503182217
0.09537005259689146 0.4503541489288209 0.1680381803409142 0.0335546795191256
0.10492184029917433 0.4591549615214657 0.21100176741609272 0.006905408002538204
0.09837816350468878 0.4526583915113866 0.2059919984753922 0.012066330042960816
0.08803467963057522 0.44419621777811114 0.0532899946486935 0.022602513190182985
0.09307655402189886 0.4442024346239841 0.00695811371575222 0.0368844449223858
0.08397958094952515 0.449041279269155 0.029184645524885266 0.016016469538244694
0.08884051805650742 0.44421794727448133 0.17785436462201903 0.022806028763362178
0.08615812361546947 0.4372775599887546 0.1163296050138503 0.04092990588743738
0.08300275999891177 0.4423574199493697 0.14027217858546456 0.023394214009832864
0.08614192050558662 0.4340938411470096 0.17904625344893355 0.015638589310164056
0.08719304740124836 0.4354153041331532 0.08313349648010679 0.026520522421997157
0.08483512755003926 0.4292182037308383 0.007270838120929111 0.024750991602764703
0.08979774186505224 0.43371891967092585 0.1905105952140097 0.013646130333531372
0.09508930166648787 0.4390629619964962 0.2112158125380974 0.014193346705605318
0.09036874469483144 0.4366119557170104 0.227620804461082 0.008749238217913296
0.09721607268335532 0.4482612938686251 0.23140831903858425 0.006669825691727956
0.1280759632372849 0.6088919597479151 0.3423087741822415 -2.0906675891311532e-14
0.06200664461767565 0.5452503151218986 0.3461115814990896 
0.14811594327351618 0.4671619757224952 0.009137042665981948 0.01781959174211452
0.1530179793956713 0.46555647173668907 0.09336770913360411 0.005520616366132517
0.15411871979673228 0.47015222265314455 0.11915056923235641 0.001861163885597149
0.17719066752655127 0.46996141120018736 0.07070976081083079 0.0010652432055802664
0.1804580232184801 0.4643757288341925 -0.004998484072152777 0.014999152714916187
0.18964312300454886 0.4715896427925753 0.07244008405252125 0.001240487635713026
0.17544419942586462 0.46536581068513744 0.10601556166952249 0.0033200093055351255
0.16609099854214443 0.4771022843546655 0.003498666417005073 0.0007305861763832648
0.1897573144513789 0.475166210270118 0.1630826925668529 0.00044933790526420963
0.1807969211804371 0.47008907163721314 0.14522608432792086 0.0015279305030553427
0.18407809852243828 0.4699831984730345 0.042119302317347514 0.0014944517323556587
0.16804789021655386 0.5970593730055528 0.314523530242058 
0.14447650413459545 0.6215186167772974 0.3757627164509833 0.0050397939251630355
0.14790043261522642 0.6150170077336163 0.35931565715140557 0.002996115021211064
0.16459220246231832 0.6220415830404354 0.3492641069384768 0.0015133762705698609
0.17652796517694727 0.6232028570774605 0.35984907948906764 0.006196885727722551
0.1998900042932028 0.5888735298320688 0.31953377330270144 
0.20533997767290235 0.4663971670073971 0.12816373005335388 0.006098406502681061
0.19310784939303174 0.4669620545354295 0.09152906510233387 0.003882582017136443
0.18625798244131064 0.46991217684194797 0.11996826489250509 0.002695266965585959
0.20756969701170577 0.46821895368045413 0.09628431642710268 0.0030991922328386916
0.22267014849217628 0.469896632331975 0.04534487125692822 0.01136807909484603
0.22223481225975383 0.4650236675022479 -0.0015047463752268838 0.0029480133671613814
0.21773342407352245 0.46575930918810765 0.0991268604058451 0.0031441332373355318
0.2173677539920894 0.47126875423568404 0.06265028664722228 0.004204753176088525
0.22004972065059086 0.474803283142833 0.15988284827766866 0.0006276581261206613
0.20585043806506767 0.46847079345152487 0.02770253389452366 0.005393495519753071
0.21210814276051507 0.4688094320288549 0.1410494010773838 0.0078548075395501
0.215600420940026 0.47099876939784324 0.03523890811524838 0.007077941559812932
0.21918679042536043 0.46542127385505955 -0.0035453950601519154 0.0029076827225747236
0.19869049254494317 0.4645616788740178 0.016045385624958327 0.00877640032259409
0.2115131105708952 0.4729162830113174 0.05374261307450594 0.004268376240701779
0.23491067755095024 0.46723635319224527 0.08084140148890832 0.0071318282104352515
0.2214919403236577 0.4643680555741296 0.12081091239076192 0.006940142880295589
0.22183452439796197 0.5900033048946125 0.32841159919968915 0.00013564831677720726
0.19754303772301454 0.6291058145739363 0.359016792169866 2.889316147137642e-05
0.2185105539664288 0.6125895593091423 0.35188852818158967 0.0005511069314603235
0.23472392515806298 0.4650211961455574 0.054407298148913825 0.004864807810588959
0.2323956387092631 0.4654447231177681 0.06417227966449819 0.004199069496626045
0.2435554266126493 0.4653425086576185 0.0925840946713773 0.008619666956523291
0.2531436577519891 0.47137626725396825 0.038476884696958535 0.008790460102235687
0.24596523759603273 0.4686459705942539 0.008497832287077412 0.01767900236072851
0.24375873641078824 0.4680695120775405 0.08327127068351428 0.008784549061178254
0.23098949724802179 0.4645056670642973 0.00549707213021367 0.0006254708695370838
0.23856234659526895 0.4683894567386691 0.11546217874797134 0.005845688786277836
0.24279639397412295 0.4637988076216901 0.13975274986539857 0.011325610253535583
0.24288903264454823 0.46287466350016565 0.12744324553707295 0.0069708292382363495
0.25942082718817666 0.4564158222935816 0.12123349635629105 0.04055550631072219
0.25266396820297327 0.4640470432279022 0.1625188571536426 0.0014363141373715882
0.261880237930419 0.46827397902169376 0.034012439735331496 0.03781770402916499
0.26266942621475065 0.47039271409075767 0.009672631396308966 0.030296737986951094
0.2702722094067757 0.4648911584644532 0.07318694873873448 0.02376127333388023
0.2643557164150036 0.4579172966358044 0.09627471643706952 0.008209967863202128
0.272481140661383 0.4552108270659109 0.0027357670289952386 0.04249425071818336
0.2729665759635025 0.4671402558498315 0.02268032427919452 0.030049662010691293
0.2763229265445115 0.46096323452970617 0.04161549723434303 0.022712461620549438
0.2733974353945401 0.4556509438912873 0.09587823525877827 0.02015358390986207
0.27827166601613607 0.45785556378620007 0.023592266956588854 0.05241037581902809
0.2723720637399261 0.46339609338331667 0.14981850999001528 0.0035261509109127203
0.2791407139397392 0.45048421101087344 0.11180173493374251 0.010187057683947297
0.2827374042440605 0.4384348037235953 0.0018487005138370705 0.006061244339781376
0.2831656007012529 0.44081753461147954 0.12851280780084723 0.04583087008297975
0.28287332939864585 0.44229580919253214 0.06200070956538236 0.007188891872776835
0.2870327544166035 0.42924051432186605 0.03102728237981455 0.00026764023703031744
0.29394686102305856 0.4306055153698363 0.08978781423788915 0.0012715314389552812
0.2877039277792723 0.4324327337572978 0.12088382432995848 0.0211107355504078
0.23277331075456717 0.6112990534059938 0.358106982744036 0.0008043353585573295
0.23659970725342974 0.593848718735268 0.34336123741421776 0.000989101597924265
0.248597777349777 0.580738271536229 0.3384114073209671 0.0005752931960390064
0.24523347243577986 0.6018943514914049 0.3569888467995966 0.0009994845554492924
0.266752425636009 0.5938242238538382 0.35998160024693526 1.7187566955992668e-06
0.07737484944180144 0.42860463882768995 0.0553896757342301 0.00746057461186396
0.08186483756621357 0.4391907721048366 0.15638436776899833 0.022635051515601044
0.07701809874172366 0.415452790242396 0.02925581327690468 0.01614668942119232
0.08140186755242153 0.3951175394313276 0.027292706223859774 0.01218173969421606
0.07884064734707134 0.41397813436965414 4.239508813352086e-06 0.011322813185540907
0.08201597743843796 0.3835104942186497 0.01144766019302783 0.006430955489729945
0.08659804143854813 0.3781880611259862 0.028325306372964126 0.003050677660611559
0.07974014719511148 0.34638076518692057 -0.0011528864630097762 4.9897129441389736e-05
0.08078371348591167 0.36449097936839553 0.008660472269707191 0.009840487537456996
0.0790685311650328 0.31108124017576977 0.0022374810010473917 0.0002994270266978657
0.08299350221919205 0.40387474192545436 0.047954627619793425 8.676885756998937e-05
0.08492661343823703 0.4083457886648751 0.08833788734495063 0.010129199433809596
0.0865684829604099 0.40359963463921283 0.07812272420436948 0.008198504220482537
0.08200886161584965 0.42130180575211434 0.13768699810186574 0.02142076448385956
0.08629224631128547 0.41056829883773754 0.10764499099761309 0.009246937771821642
0.08525067055140431 0.41494181400707975 0.16721262481251495 0.012640070870269507
0.08576201805095013 0.42068418333622015 0.10260915384557809 0.02867537148572634
0.08951368459321941 0.418609134661303 0.1977053754627219 0.0072327368797159225
0.07556556211939494 0.39784741948147706 0.166412198201272 0.0014643748470483098
0.09112360066613406 0.4002109280975526 0.11275984219062984 0.0057227217234867254
0.09291976350000676 0.3863322089372753 0.08968246890715942 0.0027112091041220734
0.08425401084201732 0.38064162487002184 0.1506825497385699 0.01083544811244166
0.08449986100733332 0.3761882713469601 0.1778060537899909 0.019144240175991978
0.08273923418945196 0.3819303638377391 0.18097922931601224 0.015192831705887158
0.09275460180164326 0.3714149241716295 0.12079223577326569 0.0016772034564998927
0.08825426337786381 0.330097153289575 0.16993168747648663 0.007851266004843618
0.08824722310202883 0.3556079754922087 0.14976576280310805 0.004863169245382651
0.08365873061591633 0.3478932591269401 0.16033827474302417 0.006171528473541459
0.08932407556171437 0.42033988423657703 0.21009373422559477 0.00892106083321149
0.08433527878392075 0.3954155099114034 0.18900908880129288 0.0071413822666193125
0.08690535900952034 0.388689493804629 0.2039530853265655 0.0016945294505277173
0.08875103681620325 0.4276026731038708 0.22399882330193838 0.009842488432158418
0.08838622019519338 0.41014048868458597 0.21137250733150764 0.004581734421205962
0.08877708936042442 0.42730125411700826 0.24070527280272536 0.00771803627138102
0.08199244174547489 0.3653340085234743 0.20746708648684226 0.007792443961330845
0.039824698698705654 0.5115821052028697 0.35212919986698343 1.6503278052572874e-14
0.034636260409397636 0.4799651153080853 0.360203302761197 0.03120646675196022
0.02475163838759381 0.4213823134651002 0.35469446327111387 0.03892508829703915
0.01827636136461242 0.41399198524978686 0.3693663431828016 0.03298292240939744
0.030740181379186986 0.5027273691491565 0.37973555162304995 0.00996528260004675
0.0320906066446011 0.44766939191647015 0.3810186862299336 0.017014801250753168
0.03885320566430403 0.47005932382970367 0.37150942252797686 0.03384377789277486
0.034523177598850714 0.42894523820798575 0.3799118002592547 0.02328686761741708
0.03862446645527837 0.47401576346249596 0.37092885529356623 0.03420701796412319
0.024505369300449564 0.39957040929549353 0.3772294889420381 0.04054438556868839
0.02010127937710801 0.3889498161625616 0.38014026098030756 0.033435255354806646
0.03321314617049793 0.42313868125538756 0.3781064565298107 0.03263549824882181
0.03261315356623087 0.4442266516902031 0.3538626992752998 0.02301694626415644
0.03828111352826279 0.4905443590313058 0.35221141731383915 0.019897539507071484
0.02381998134964015 0.40485143715070104 0.3599950196096117 0.05737189702553141
0.03396284542586948 0.4576806008653032 0.35739610701536845 0.018437384201713057
0.03688994888436653 0.4411846602379987 0.388008767228678 0.024791593638087833
0.04317740580996091 0.4707074687865368 0.34720179067350765 0.0074935848889856075
0.023747181242121208 0.3877313365788807 0.34006727133735243 0.015558839022340709
0.04511300721812056 0.46166829179751495 0.38544850056667046 0.018268364018066974
0.010687140003161589 0.3594277715512774 0.35176743268519717 0.006732102101843586
0.02130819185365522 0.36892278542444235 0.37245907208911183 0.02544979500175023
0.015119394472856151 0.33803581988680137 0.3704177549799382 0.0074539912062703
0.01669837458210146 0.3285858737290877 0.37333436603563736 0.010931324740229249
0.013683744263596797 0.31365152788487694 0.370652506834111 0.009724656021489267
0.012432137715637306 0.3480231360132209 0.35615298035308246 0.0007153343969689866
0.023344047802955945 0.3687944236144776 0.3926198884678272 0.013755009060478857
0.2949540035555849 0.4040607893811217 0.005125110339647484 
0.07208996710288115 0.31339286288738816 0.04286273551757859 0.006336784640074681
0.08221698288344553 0.31530704627078526 0.12046925471724923 0.014344948593182649
0.07769734076031741 0.33071646108818065 0.09690973231224553 0.0082312001174032
0.08401714427121265 0.3137239779560378 0.14492039904209658 0.009456477123420575
0.07692553683793277 0.29563640526412455 0.04277728791460552 0.011955047178513508
0.07364510320056962 0.30029495892306496 0.07150690361003571 0.005839765757740714
