x y z curv
0.05008546569371296 0.2277193747266777 0.3337310629344985 0.17380687972425138
0.059119826056987734 0.20862862198592302 0.3218869267763358 0.18944645211908454
0.019577442287625806 0.21578674895573 0.33347968663152117 0.16631763399599006
0.027708648837170672 0.20739644732200596 0.33382345249060474 0.18683678818824376
0.038857427373356776 0.3347936522394417 0.34163094316530607 0.17323454563234483
0.034988985254253736 0.28491403468398213 0.34143615917536013 0.16343759069548708
0.026900086449504486 0.2934150389388809 0.33817013134172536 0.13586198785206968
0.02667869965940254 0.2726829370472151 0.33897570276918587 0.17838543228728282
0.03765695954487848 0.30170702311682696 0.3426326577498686 0.16122237201042464
0.028784987798153992 0.25455060646782773 0.3399434803897583 0.16302177781970625
0.029115354655211218 0.24040523819781173 0.33959066944622485 0.15305527787829298
0.04067116554374695 0.25009452768504514 0.33976685934754214 0.1723926077075116
0.05165127120319945 0.2388710085289999 0.3381475079466507 0.14124691105371756
0.06220175338052568 0.21439580185703913 0.33120049640547783 0.20562550452637088
0.01359575911016167 0.1986157964402726 0.3376258796276061 0.12064900680955373
0.017184528867789366 0.2294415912072329 0.33720564705721323 0.13612677153214056
0.029103343903603796 0.22222783974445218 0.33922120803801015 0.16771757689530706
0.040292311004640376 0.2214397214087678 0.338377756774737 0.134509952269824
0.06824787372009486 0.24232852561627383 0.3203577698719319 0.15521297678428264
0.09178454997925528 0.27969268181359874 0.3199222448798439 0.15983884341105734
0.10568456975973585 0.2884775777148581 0.32022115367515414 0.17602998165017944
0.06495086322344137 0.2267837873307019 0.3198457658290863 0.14455766528563035
0.07557451072898932 0.25171871239543264 0.32293143537805097 0.14347461665288927
0.08428282364390942 0.2779117319111573 0.32829055904468407 0.19993109639321244
0.08010638598657582 0.2625096373295112 0.3257177826103772 0.15517376611195757
0.056746095559431886 0.3289719656892416 0.3413669876019208 0.16669899080401007
0.07182571707270985 0.3189560643010195 0.3442351901160242 0.127218863451655
0.07354072577411555 0.29343007006842625 0.3408545181108624 0.15124360397268194
0.09898663316593573 0.29053268600143617 0.3329656027599363 0.17205805231365504
0.07376655944839722 0.2841808614919784 0.3345329539691518 0.18939470580148987
0.05083358581632737 0.3094394996482609 0.34453697346107803 0.14989639253226725
0.05265321971903347 0.2926395728377757 0.3380878704305132 0.1697921090367354
0.04516168775029292 0.27056625878072593 0.3364707516394715 0.18773484487700778
0.04847121339989917 0.2821450102208989 0.3420924321907667 0.1607382644920425
0.05794647748648454 0.26680691184040123 0.3355943845931907 0.17637485521987797
0.04931019736984212 0.2589652923931669 0.33565047558356303 0.17938973545919837
0.06731775757471195 0.30736628335572724 0.3390433727728423 0.15440410115033315
0.06054963487928447 0.28088390437449556 0.33693128679292805 0.16926046521837063
0.07405718998510435 0.3306918219340622 0.3407921498784348 0.14594992218418465
0.06920381257466324 0.2654001667294059 0.3324210404531124 0.21229534976536568
0.08546386976795113 0.2860468205114768 0.3363996986665472 0.14788811060553345
0.06701694502322092 0.23721585363225733 0.3320872415557668 0.20470738000831143
0.0629787560721798 0.2554875338531754 0.3330324854477785 0.18295922722554164
0.22091692919814865 0.24851797353134877 0.31977061194806433 0.12783328903465904
0.2313946565659762 0.22275922903974438 0.3198992045644634 0.2006681120890284
0.18305351784354035 0.2911386044986844 0.32350761520075105 0.19460901811006148
0.1958459510652355 0.286527050881388 0.3204156824204685 0.19334725208597076
0.2015728672598552 0.2780448478162866 0.3235303189180274 0.17950304392209154
0.21348134872077185 0.2644567081211545 0.3218259992914834 0.14982516836173895
0.2261680909143454 0.233649498021467 0.3217376384072336 0.1647251825575339
0.2352306458836217 0.19973582432653136 0.32010096549533856 0.16662745227631506
0.23487382999274214 0.21219417318713937 0.320521177874322 0.166461644779659
0.21441828396446813 0.29988679293291404 0.3355716857070796 0.18903030510384522
0.2221870074799887 0.28364364890340166 0.33466739339429935 0.2250852475082067
0.21250704276947885 0.27774850148614183 0.3351424407065993 0.1901258248539095
0.22032708779417404 0.3079333274165047 0.3426121289545665 0.16397336387813546
0.22593516468366764 0.26966298800960475 0.3381037920920691 0.17003415272799863
0.20982358890786376 0.2903027863451301 0.33755066645398035 0.17850399483151025
0.22577618918914172 0.2609902508763256 0.3315982674774083 0.20367329474366472
0.22679079579436262 0.24176007465042584 0.3326112072092428 0.1493718308493035
0.23257195644256343 0.2279074381032786 0.33335878915610306 0.14136573675776995
0.23530610163218407 0.2064118212878162 0.3321123383672492 0.17246015746858512
0.25018340624098023 0.36083796391973305 0.32789076325214583 0.12127110561504749
0.2682383183095289 0.2996888171820892 0.32590724633119295 0.1497692443805938
0.25402419328393266 0.34775703429222904 0.3287163477229976 0.11145780310421152
0.2582668263666006 0.3176289174221397 0.32694497563010183 0.1207627375105736
0.275684502365228 0.25452316243992923 0.3221640107512841 0.14067862202857287
0.28666517659975344 0.2161137789059724 0.32217307315839333 0.15457433008512958
0.28809393507490855 0.20075145362624064 0.32450387657760477 0.14117796879291597
0.2616762498252783 0.3057861674912111 0.3314767396706956 0.17236890179774636
0.2743635799815509 0.2784188710943842 0.3272062695388503 0.13185949138202
0.25959873637513153 0.3272620219031878 0.33677564084227307 0.11446076318566069
0.27801447862957773 0.2593271359726172 0.33222745258919495 0.15173289362320191
0.26550241345005543 0.2549306478325195 0.33478553193735583 0.17522966088124647
0.28174282157937625 0.24171588489785933 0.3300710788287223 0.13226075314690872
0.2845839274770126 0.22651038401123277 0.32802836649298295 0.14454310190913763
0.24023679315500157 0.19132624648162627 0.33446528949781273 0.12989238600415717
0.25096982014933034 0.20970953919652646 0.3337038740029759 0.1662845676501521
0.24591422442719996 0.22384224678044057 0.333660394174963 0.15185988964288843
0.2753255588522332 0.20906555632448054 0.33365219134239427 0.16129271376778143
0.28478941678752734 0.21531539628648366 0.33480066946558973 0.12438110052196302
0.28721927978917333 0.18399759725495365 0.33450380716670947 0.13574606445841406
0.24034459815395415 0.2611185526260254 0.3354065740128895 0.16300549837908196
0.24621155946553314 0.24318587624835064 0.3350129158107228 0.15371438700355158
0.2581323286129991 0.24308114439658923 0.33474979407658867 0.1632695422687392
0.2707725071142161 0.23164429153728383 0.33905661579189295 0.1749051783866874
0.2850736528221041 0.19884182297997244 0.3359870978924845 0.10918114984489637
0.25126890210691055 0.23318557295953307 0.338749316192626 0.1285571429295442
0.26925730699579525 0.18761362097741074 0.3340798870439933 0.176830952618681
0.26416900881818167 0.20560539629615074 0.33386124554101193 0.17974645166952652
0.27495636578838745 0.17824662138017683 0.3389949411038905 0.1329156176274271
0.23602045907762162 0.3141940173576382 0.3398511555550293 0.16408649758095495
0.2515320465387495 0.3111421265915839 0.3441212870355449 0.13518144299426854
0.2679078118325017 0.29035572467491944 0.33925986476847275 0.14723602961675536
0.23529270593373564 0.2785284743672443 0.33674927286133527 0.15783833801039013
0.2502743743466637 0.2737476753596083 0.3366296242822291 0.16488771176237255
0.24815149851295684 0.2920713105134444 0.33802779289557155 0.1746010537011556
0.2490746842322857 0.33051880439843484 0.34546192981970625 0.12706835609665268
0.22896199521351734 0.2911959735717205 0.34179030900114393 0.16310944985145753
0.2451410653142959 0.30080012263368144 0.34404169954750324 0.14145441471400347
0.2522611159642716 0.26245235861603666 0.3405778863677976 0.16334422766651754
0.2566841503581613 0.2817365293061155 0.3418863268430017 0.1541119509365447
0.2694772156732137 0.27796584492363485 0.33897848664721286 0.13544988605825575
0.2590452506613332 0.22412553765397708 0.33882114787219975 0.13453864020745296
0.2704875614855858 0.21981707357294203 0.33915468003572047 0.11686770375503427
0.2685205203803582 0.26411413802071637 0.3392254630743004 0.15530323118932257
0.0064294144983971496 0.18009388915932117 0.32911079047835223 0.12042165903166849
0.011371386072473443 0.20050104951107178 0.3259898464765358 0.15134983622672787
0.006490751379106058 0.1570971223369828 0.3278402480868923 0.08221952456154516
0.010302231863798092 0.13139378525460205 0.32274352628979897 0.1476536167369746
0.01743773069366064 0.12259009312880899 0.32518025500956155 0.17960831398194443
0.02295000401295983 0.09590569110669454 0.32501449007504135 0.1450021358431217
0.04511999915139641 0.19032556345235885 0.3333322476479334 0.17413827339233406
0.030139717859126083 0.16605456977527314 0.3342433360068632 0.1502881520395011
0.02081968948734591 0.15462015896577183 0.3347107400015052 0.135154932404975
0.027040531284250956 0.14505969304028116 0.3348677834767356 0.16857754236838063
0.034076765585609466 0.155347328507644 0.3341236847920016 0.1491361574206105
0.043271242225035304 0.11648752706061587 0.3349606280879953 0.1572649526794105
0.044550946844631824 0.1409365274015967 0.33397121513552513 0.16191665180247813
0.011181346366474115 0.16288186448416908 0.3377971188637049 0.11085536941061
0.011617087480935573 0.18756411976276727 0.3374622625586673 0.10660464610759392
0.03428562050050168 0.1899415342699467 0.33817566946213995 0.12683690059518174
0.04456362294848781 0.1774690924459143 0.33738909957024915 0.10627531293819553
0.04380965342543358 0.20075108437753014 0.3374553690205867 0.12685464320772577
0.04755042435715303 0.15759501026967715 0.3368856220205639 0.10412728039616623
0.019966542719730085 0.17990313451216647 0.3389979909473868 0.13630194944834842
0.012981655616772555 0.14775697275963606 0.3382356605139261 0.12435615114607934
0.046997156270696464 0.12695662094440627 0.338159515355276 0.13207295215066003
0.018159369515848137 0.11224434007896311 0.3351188403418533 0.140590663163673
0.011330485393828986 0.13607762659818323 0.335261815837927 0.12121013938387747
0.01958681565293453 0.12662726123258755 0.339289925368227 0.13097645098633579
0.034564599277084634 0.08460546761378004 0.33966698413544905 0.14488737113955422
0.0307312980234586 0.12164679483285651 0.33970166658497614 0.15649938718100576
0.02435953866115066 0.10096032136502048 0.33741016423974374 0.14979089803051637
0.044343244593114034 0.09589669558868875 0.34032722418102795 0.16195214644449057
0.03484029539719599 0.10824485838868152 0.3401454318182172 0.14449220183235592
0.045623109027938695 0.08212494362654857 0.3409265935182645 0.15239825597401715
0.0604420717389168 0.19725609998487936 0.3202665731196755 0.16584912362651422
0.06440330982694742 0.1619487944513451 0.31994460703370753 0.16771209583825578
0.07361542282364625 0.12075151369748909 0.3197484968023452 0.16747783789945786
0.06313073954161735 0.17586794223231705 0.3231469419192087 0.12926513274439486
0.06671207533050146 0.15010899074320103 0.3223182639627733 0.14387235598800852
0.0657978526862683 0.13634650864522233 0.32038934063394525 0.13381700704355204
0.08707766143054696 0.10178039855918666 0.32111235993901854 0.1214620329658735
0.09345206729875757 0.09219951168737557 0.32202745667099075 0.12033869438889949
0.05779184692703032 0.2003502878929768 0.332531559874223 0.15503923216160073
0.05685504943584533 0.17975888238522647 0.33316712793076153 0.1361697134353952
0.06040009516354385 0.1659899304004739 0.3304406407388028 0.1302533136803663
0.055620542316818525 0.1456392933977449 0.3358031883869514 0.1318045209000043
0.06750849903080328 0.1289567993575057 0.33189262516091955 0.178730672100743
0.057324475902345115 0.12047495214061993 0.3333958861041244 0.18180300882993874
0.06740245632891809 0.11607970231139778 0.3354229609833006 0.17217474567775493
0.06802847425570344 0.0932737397555775 0.33824264675716953 0.13305872715987901
0.052324503858415 0.10825499767101605 0.3385541437636096 0.16672716988789024
0.06595647186824585 0.10496721604120914 0.33742654218238033 0.1908205085152401
0.07648350464674264 0.10083383066852829 0.33578781179374256 0.16895374719185915
0.21412295358179176 0.10998503900447305 0.3202059690801174 0.1458305761085721
0.2010923730246397 0.08568839855543381 0.31971166196513046 0.13584996182833767
0.22987184095935448 0.15988950976540522 0.3203631334930535 0.10666647582386828
0.23254049418589473 0.1862922347532307 0.3209270323283829 0.1578886337022745
0.21980887814045394 0.12366728055290675 0.32139089640183904 0.15283206028365337
0.20731277901017114 0.09548840359529202 0.31972194910518525 0.16326631637469935
0.2375355803324129 0.17559235304878948 0.3246652786949363 0.15693373807756297
0.2264263206710182 0.14002643464834846 0.32448594506204015 0.13538873483602165
0.2289071328204959 0.12838663676904088 0.32501522374686287 0.21028874229072478
0.2347322854484623 0.1624454848970881 0.33085774310333815 0.14281273668145492
0.2216554284410255 0.11713006507596582 0.3306252668491469 0.15061335376558604
0.2321131401931011 0.1487825077134586 0.33003542934547764 0.1395019923674663
0.2334466287266026 0.11158266724137467 0.3335598734562799 0.14056088597733402
0.09319525330899515 0.08661419009986847 0.3330479272963133 0.09780172048822121
0.20634674511991308 0.0918543195953366 0.33177532687295896 0.1386543124085467
0.28938670812918144 0.16208400918176957 0.32116692091859206 0.1505759395379296
0.28140887603000253 0.12199586098815146 0.3206196543738993 0.15189478401213494
0.2849602247252418 0.1765246184601294 0.32501037499209745 0.13563237426261454
0.28711676713160356 0.1431899254457279 0.32268354560060064 0.1526725609247515
0.2823914667897355 0.1258399819322942 0.33140049389981185 0.112329200860146
0.2759506078291022 0.1027569392618775 0.32262978698550926 0.14501609391479975
0.26973093240851354 0.09163475419589043 0.3280314142584729 0.1474628764728166
0.24038701067788526 0.17269420569655494 0.33508726651212556 0.13745062371088976
0.24476660634168712 0.1552384412840881 0.33262701237500525 0.17721089787825672
0.25645544934382913 0.19197048243593046 0.3339801223236489 0.17386213619905344
0.2575157437192414 0.14602017151771718 0.3341911617404224 0.16481441314337858
0.27628050768746637 0.1563504130064701 0.3347109346217158 0.1698531465080945
0.2866494255813187 0.16335263952027135 0.33473354249009696 0.11727819949206872
0.286175347009031 0.1511463567325496 0.3338247016747995 0.11360947035281506
0.23608551999826136 0.12398237460249595 0.3329094159605939 0.1773253914665524
0.26439287073839657 0.12313677555539271 0.335358753833971 0.15559741026569568
0.260181007922221 0.18218584434313165 0.3381486783812736 0.13368026983939604
0.257557220343378 0.16408560190280208 0.3379668787850827 0.1444754295191815
0.2840653198840066 0.14051105531707053 0.3357265279056506 0.12258464449699903
0.25599736270563783 0.13121589629156197 0.3385887600567722 0.12804979734266925
0.265388278724336 0.13727346762554987 0.3394335851047524 0.173898525491448
0.27438863299673455 0.14577497822078023 0.3394023684840851 0.16123483876691905
0.2747418375184757 0.12890788245631715 0.3394134744933269 0.14759624045145328
0.24032152997756662 0.13744802933518302 0.33651978733140864 0.14075104193980273
0.24245707122484517 0.10485973069113746 0.3348975358842479 0.14944187432531786
0.27401785160278685 0.11603713435682272 0.3393092684612048 0.14539024637858955
0.22520903041357154 0.09861236140669016 0.33748970548892393 0.15630263233208785
0.23758890868888172 0.09354870852083581 0.3390662708654137 0.14207116101441977
0.24635989789026133 0.1260824602672019 0.33785554067350226 0.12829344707188733
0.2522390611471205 0.10257501393029152 0.3400498186325328 0.13200612505998088
0.251421385968958 0.09155026378698623 0.3363112825892237 0.1893169963941964
0.10491416159856962 0.07456199781767583 0.3212950683466231 0.18583250339388127
0.029159541800535517 0.08326747955138208 0.32235578824287076 0.15378726010826965
0.044358775178537195 0.06918155222137072 0.32706413874759366 0.18142728921015536
0.053144345766551165 0.05873932040806582 0.32679441636708995 0.14806807475641057
0.06517469685857709 0.03961440621479356 0.32978537328257646 0.11103158551120076
0.05581549771719638 0.09663922452972883 0.3353408812002022 0.17735216404969656
0.06209014011611571 0.06858694964504848 0.33700559424845594 0.13667455235257053
0.07628709662576466 0.08252320350223377 0.3348036210665281 0.15937708118774035
0.09854343547010745 0.07699119995863524 0.33657124335903316 0.16107085965997325
0.03576192590009551 0.07545397488805264 0.33330292191221633 0.14586166559912636
0.05593261249546676 0.049464695589310555 0.3315583958725424 0.14014016036787297
0.07594795042122911 0.06510640208799187 0.3365365210579512 0.1452291419460508
0.08393069242798767 0.031603977663955805 0.33070724543779495 0.1473220702670381
0.05229330298519579 0.06567767001835335 0.34112646774422284 0.17255361739945993
0.08479749829803795 0.055856169149804014 0.3410912312743788 0.1638260259874273
0.08575458454497062 0.07332506212123617 0.33910218730799185 0.14307033851080456
0.09694695320814095 0.03995261753614415 0.33783280100435376 0.14209398138378418
0.07038742766884143 0.05019011841439773 0.33764241316146926 0.1987659080203447
0.05957234152924285 0.05473739317816815 0.3412026354913154 0.14118494314248775
0.07686736209181443 0.033733742667873455 0.3387601563365174 0.11187888320372376
0.0944243124080131 0.021546968491652954 0.33550024992911104 0.11878669406458614
0.08759875624671946 0.032696525221529424 0.341919046608652 0.13979173590675043
0.11779254624047775 0.07233485951782577 0.3219584046577896 0.15724093666806124
0.09481961989937537 0.019366742779584185 0.32318763839049813 0.13399357628977926
0.14448194110989926 0.05973041668897919 0.32218711241699727 0.16911744343772553
0.12613411633550992 0.008140425307691605 0.3227690192776086 0.12889573412065608
0.13342365370450104 0.0663746663687009 0.3242290583077255 0.15048948091176806
0.1084098476798868 0.013404846036076662 0.3296390791960043 0.12052606897866737
0.1435767615710652 0.011159787494907444 0.3281406380765463 0.14305461517570667
0.141394810976478 0.06356750865617386 0.3328508505767982 0.14631308308248417
0.11386445695605887 0.056173692916841954 0.3360935824882195 0.1703776177773822
0.12970665058373665 0.05660846743126635 0.3344887066750565 0.14432505105618604
0.10511487596610795 0.049173577796911054 0.33688319313546683 0.16892424557905517
0.12038602591093285 0.033473671497131735 0.33796348109075025 0.13122025805238946
0.11794162572798711 0.011949681215988467 0.33485532024305525 0.09855525530076759
0.09664775192088541 0.06519103150826645 0.3391886893645445 0.15719671717931552
0.10782852113821136 0.06601086606626484 0.33855545644561363 0.12068951706597103
0.12181211285976798 0.06411808962182003 0.3379378935322379 0.11049139847604472
0.14584918164125887 0.05520272167536372 0.33986762248896996 0.12594230139348023
0.09486658848328582 0.05183336015449798 0.34113668481198145 0.15235941153699412
0.12046765562208578 0.04764585105894269 0.3407509783538719 0.1412460069200973
0.14249250868190044 0.039233864405600866 0.3374536493358341 0.1379299697503527
0.15489807263712255 0.03481163235553662 0.33762951159532145 0.14866157883252354
0.1323298175432445 0.043354998812702106 0.341442308152709 0.13338235699115175
0.10832766052023549 0.030011453729396446 0.34253447960402694 0.13695462274951706
0.14563975586810599 0.02967530868354449 0.34250696348077037 0.13660277056319306
0.1673989007668313 0.03025782518213362 0.3424913331416076 0.13313506346652523
0.1287244435889798 0.02771927908248006 0.3425809912363567 0.13420136716969064
0.138005869207534 0.020049785083402574 0.3427637235741007 0.1583226733621501
0.12758166306342733 0.014624252258304413 0.34130900223930316 0.14220347520840654
0.1365266410112251 0.008288647848593778 0.3370152849773878 0.12837037324166986
0.10588597218932776 0.018060407047755554 0.33972389287646976 0.12943774872836133
0.19343637883994597 0.07820207005550764 0.31969737569967227 0.1597706199049581
0.15912054866010822 0.06153551038019635 0.32084816690699847 0.1873471256078965
0.1786894926917489 0.07293052853681199 0.3201232845630201 0.1373039396149457
0.169825452007169 0.0679499040315788 0.33079206543144746 0.1683297988475036
0.15472368622555221 0.00618732150260725 0.3267956027409008 0.12622651991240053
0.1880779712193507 0.014612243117031375 0.3305716453275014 0.13550829606114426
0.1595873197984453 0.06444484261409716 0.3329037414833538 0.16379586570212354
0.19636636732575935 0.08033859813825195 0.33382697842950504 0.1059220645049123
0.1705491672101836 0.009746812583486742 0.3345421460936048 0.11215435623098562
0.15856417854184063 0.05514823356255845 0.34007432631432977 0.12109231228550216
0.17925055521165872 0.062457210225054266 0.3388147411185012 0.15525931961761796
0.19459779240141156 0.06186109454398228 0.33944190437194993 0.14272629844494777
0.1843824641456971 0.029818327504859774 0.3424996450027767 0.15627696120471432
0.17600858514064666 0.049629620151535735 0.34051539611738324 0.1656624142770871
0.15326699680106706 0.022137753406294543 0.3381704558959666 0.1627291654764498
0.17566106547969446 0.017701442166798843 0.3420030609145225 0.13555688937706142
0.14734491144358045 0.012417371589238741 0.341747172183896 0.17594143584830962
0.1625358509155511 0.015317505359389305 0.34207137791001474 0.1568004702952702
0.22492525781686232 0.0349226099749778 0.3220573023323299 0.12599806159099852
0.19030316740481973 0.06864695695046762 0.3323849440807217 0.15625322839355324
0.2500372004020528 0.06854004100913869 0.3296857316816442 0.15289961778769784
0.2636441614936509 0.07983448819764204 0.325488648813663 0.1533529928085497
0.23287712680004152 0.042233247921412906 0.32694556805046154 0.09432235229217997
0.23750906851627435 0.05356271903492642 0.32704816762176814 0.1626280989894513
0.20379239413021194 0.02135784441578156 0.329779037321213 0.14120143386988884
0.21544652798579234 0.03472093958915296 0.32863100316100646 0.12961484421905103
0.2195951937189045 0.08883053576169495 0.33419716912982317 0.1278455031138618
0.2635853508027679 0.08611484829619653 0.33718518459269586 0.16353071587227883
0.21549597696738895 0.07040695031901976 0.3357342703104692 0.14313239129206184
0.22951006507692795 0.072366818119931 0.3365308324827453 0.14043961608104757
0.24358117879333102 0.08168508877715247 0.3366276422927369 0.17403621397080343
0.21058648870056543 0.08031242541620509 0.3381048931097951 0.10894212312907733
0.27078488013621493 0.1012436524583618 0.33762943065284595 0.13917130341698006
0.18150168160787894 0.03878018265380212 0.33760377564925703 0.17460131435550777
0.20737855043073597 0.060585236832576855 0.33633377252119917 0.11199710357501094
0.25082565082878017 0.07122657958943863 0.3403909039381336 0.12154893909620561
0.24531241358692651 0.060895347732280905 0.3386132643094583 0.1323735306144099
0.19887539448095906 0.03945203224912912 0.34224691633839693 0.18857688037561096
0.2068862012458986 0.04817351098156296 0.3418428886383893 0.15824461130491688
0.22907894640073498 0.05272910635503035 0.3372412562762067 0.13268273724445712
0.21798637770373097 0.04793496910329112 0.337842524502307 0.146988231545882
0.21328411090813287 0.03079387530574031 0.33910575810811333 0.12378751876471089
0.20107284441096987 0.027711146882279394 0.34190220774477564 0.11430460180322147
0.2279504139909891 0.04153345525441919 0.338163603928159 0.11934498422384375
0.07115041119086538 0.10912386356549418 0.32269288044737554 0.18937517590114253
0.05810448478861828 0.1074600880289182 0.32376370106534696 0.18972948031367198
0.040430351154626315 0.09139748225884538 0.318280428338044 0.1962123307380264
0.06884372945459079 0.09829668396484183 0.31973219515694806 0.23028479820002354
0.20511481337640997 0.37376478638866495 0.33583664146407927 0.1998570516250278
0.20187788266714762 0.37105443751066103 0.316248754272688 0.18370857283272016
0.2269089522314895 0.36829210244817967 0.3356623201735043 0.21210516018118242
0.08881296848575307 0.3490072880047473 0.0019567915654584538 0.08981351565592353
0.08910863755554588 0.3472609203628682 0.02065631010789492 0.07655304364866773
0.09624702335142792 0.3503492008287701 0.03933521030795067 0.008426388148820844
0.10419029074235735 0.3509251351267568 0.055427714924658394 0.010106822119661938
0.10076073703783857 0.3477180472789771 0.06653931772714979 0.011421122695908474
0.08244253257052728 0.3432699258005917 0.010162337865803105 0.07779791709569317
0.08236269167546484 0.3401497980872663 0.03346337647140612 0.011797866660654624
0.06672004803301382 0.3230055194970669 0.009663022891220013 0.05695842448250601
0.07276709985648433 0.3337169058639785 0.008699602334643421 0.09109209406981031
0.0762464171891771 0.33561483388807234 0.02077169205056946 0.058161902274769535
0.07444091630912889 0.3266485954115856 0.04832684531786331 0.007746128032963801
0.07997604301888532 0.33174917639411455 0.058134853902979386 0.007138032256386499
0.0882353595263053 0.3426978044228404 0.04966730216732016 0.006621160799140664
0.0857768613700842 0.3364905671394928 0.0671920691618194 0.008938802321732282
0.06356821892925563 0.31401285318501687 0.01698466202150348 0.05582611539636782
0.06558444252206229 0.3132985687144479 0.033630801818330835 0.027816936171188196
0.07027350081840786 0.3244213193824891 0.03096255162408417 0.011857927767773974
0.07006937487876273 0.3173589744572868 0.051178921533997834 0.0033534893649047877
0.0712646389126248 0.31110190406931454 0.07779651411688976 0.004425039004065833
0.07168554711545824 0.31663830891373285 0.06387062252328639 0.0032351899186180404
0.09636693901193508 0.34148823259014827 0.08443232756715024 0.012249774087066359
0.09471289630342228 0.3363191374044122 0.0987815755416196 0.009014054026191144
0.08586452351732916 0.3322569715608216 0.08346145608755415 0.007211077327653586
0.08188796867429195 0.32410782537505123 0.09429811754899059 0.008164699574942511
0.09648151648191727 0.32467947029898536 0.13810503974628266 0.01139662983691694
0.1033150468353089 0.33614561475136995 0.11852182219473104 0.011049480028302099
0.10694433326162277 0.33179371931210727 0.13697395883768526 0.009622252987713496
0.07631353662255275 0.3147191800547456 0.09580075903212212 0.004810257345452656
0.0799517788872324 0.3270132698676131 0.07606153701927444 0.008041831074503765
0.08508586044850011 0.3128203088159348 0.13715048245667863 0.010096282340543885
0.08617177471359107 0.3252702069968015 0.1081834465668182 0.009109395557133883
0.08947972337356162 0.32186452291015466 0.12746423559335726 0.0089411856329256
0.08994290429337144 0.3136827582571632 0.15037614477662528 0.012705136608772104
0.10448846335829803 0.3157528157214153 0.17527316691097045 0.011038041735822398
0.1054561409391247 0.32359936232525416 0.15722374511175075 0.0076931027919820115
0.12979625951916818 0.3602508326723832 0.010434025310090475 0.07683153512986857
0.13163160792031575 0.35969567409199243 0.02217453047060011 0.06865820579520615
0.13792777941396805 0.3594589687032218 0.030941905544587547 0.035442475536141105
0.1443384338472602 0.3605446651546291 0.01707653978751661 0.07128225218949458
0.14696800315995384 0.36129440536233265 0.006477006635906068 0.06202063526113018
0.11999365102757195 0.35813952139797395 0.027867875801214147 0.027354238644552446
0.12556782032866218 0.35830247276637867 0.03760094600108083 0.0036268205040654216
0.13347182918362774 0.35690669117952556 0.053260907247642354 0.001678953523598712
0.13926037655342866 0.3553526921989079 0.06594662247852487 0.0019188247346900711
0.14638497435835832 0.35824925687769266 0.04681546130956145 0.001026009544064461
0.10086453423270467 0.3535196004612192 0.017929925842064615 0.05154541107736561
0.10620899534219469 0.35416556927159215 0.03933708170569041 0.007316728398329717
0.11315959632884441 0.3575582484099867 0.012354018709095721 0.08185803044252772
0.11315276996729808 0.3546202578066896 0.04972308837510725 0.005921851439701829
0.11531070811686694 0.3532520983552412 0.06273906746238779 0.005441555903161266
0.11240901891185794 0.3506235175945677 0.07452549953048146 0.004909209662546742
0.12476507773750257 0.3534884806563164 0.07191612852811383 0.0022396657120476193
0.09679980158246061 0.31654735824695573 6.841451133700502e-05 0.03157333835271041
0.10936235863379544 0.3221564018209857 6.486629670047826e-05 0.025509836175025585
0.07705714703983872 0.3265326217083977 6.599963417160412e-05 0.08647956576138713
0.0862802797305623 0.33490292236757374 6.361653504427522e-05 0.07909845428095434
0.11223972550121665 0.3369173587992358 6.361653504427522e-05 0.05646723446580554
0.12699618901248216 0.32677380814275014 6.361653504427522e-05 0.026530831967175462
0.14268506589861893 0.3201485699896605 6.361653504427522e-05 2.7946398548912014e-08
0.1413529847252898 0.3343452502934711 6.361653504427522e-05 0.04592567418258182
0.1523735167670233 0.3506520697585792 6.361653504427522e-05 0.08237308793523009
0.18215681734920236 0.3442845770166084 6.361653504427522e-05 0.07430292240890389
0.1617656640118711 0.34073126391213326 6.361653504427522e-05 0.05275550192886483
0.20760064345233714 0.33835149545498777 6.361653504427522e-05 0.08381612716870877
0.1922822409510272 0.3384817878498981 6.361653504427522e-05 0.06948402711847133
0.15645548633536413 0.32844645637671444 6.361653504427522e-05 0.014734122892270177
0.1777236523786877 0.33246276438612776 6.361653504427522e-05 0.050377345323077645
0.17003672399694203 0.32240921672678635 6.361653504427522e-05 0.012272392375835812
0.21939126213160937 0.31920398748737544 6.361653504427522e-05 0.10616214375649365
0.1973537402748589 0.32282589367135506 6.361653504427522e-05 0.047254150933630425
0.19399258909286177 0.307569193727673 6.361653504427522e-05 0.00023152926478428238
0.18505252801847621 0.2958872406204125 6.361653504427522e-05 -3.754205518958701e-35
0.17312113125790382 0.29528112770019793 6.361653504427522e-05 6.526181849859867e-11
0.16683021886283045 0.2860896275594246 6.361653504427522e-05 1.3990194927157406e-10
0.15420211037931886 0.31549495109134623 6.361653504427522e-05 4.4735748446680874e-10
0.18250177659435862 0.31348989009275163 6.361653504427522e-05 -4.8128033009956144e-35
0.21448715761399162 0.3085336084423989 6.361653504427522e-05 0.07693149233441347
0.161780181297942 0.29861280727253864 6.361653504427522e-05 3.3462147717645786e-10
0.15320772216434106 0.2841237632099541 6.361653504427522e-05 5.117438191556884e-10
0.1690397481468709 0.311169734842947 6.361653504427522e-05 1.660041149312814e-10
0.18804042615571726 0.28340443567225815 6.361653504427522e-05 -4.7281199546029783e-35
0.2110301437368577 0.29553854926961975 6.361653504427522e-05 0.06356059678141998
0.22301968683032458 0.2994406491617767 6.361653504427522e-05 0.08047773348611655
0.2012760434526619 0.2845234717177704 6.361653504427522e-05 0.003704835161118817
0.20017198417039161 0.2958833658567018 6.361653504427522e-05 0.010646806560531566
0.23425210091239607 0.29190028144422964 6.361653504427522e-05 0.0870378833938165
0.1123295096708279 0.25931077354326426 6.361653504427522e-05 6.792338446555595e-10
0.09827371532236573 0.2613815792509437 6.361653504427522e-05 1.0502258935123084e-09
0.140962075081669 0.2242686839832185 6.361653504427522e-05 0.0
0.10972940865943946 0.21197077758906277 6.361653504427522e-05 -9.023758829370513e-36
0.10201206438299165 0.22394883238956115 6.361653504427522e-05 -1.6405693098094453e-35
0.12086418752083572 0.23580959563946075 6.361653504427522e-05 0.0
0.07621139135486316 0.26826625922139136 6.361653504427522e-05 0.05920186593563051
0.12362747418998606 0.2052060357477541 6.361653504427522e-05 -3.3798699600635184e-35
0.13211207144719306 0.23326316142736114 6.361653504427522e-05 -2.2298531457005076e-35
0.13454352383639837 0.26700755045753183 6.361653504427522e-05 4.518674574823871e-10
0.14294125659147328 0.23747849396333906 6.361653504427522e-05 -1.036535791455338e-35
0.12386470350675682 0.221654436824686 6.361653504427522e-05 -7.869212651323923e-35
0.086395400195934 0.2597015970164011 6.361653504427522e-05 0.010500345472713373
0.10611080446421609 0.24751037965787503 6.361653504427522e-05 7.37094294177139e-11
0.12410665650016192 0.25206665131450434 6.361653504427522e-05 1.7798862272153537e-10
0.09829731584221027 0.2735358450252325 6.361653504427522e-05 1.0862631974077672e-09
0.10006003397587769 0.23604852847309762 6.361653504427522e-05 -3.357774628615263e-35
0.1161682408998367 0.2712435180997167 6.361653504427522e-05 9.220603882510433e-10
0.06259084094017778 0.2670451746776369 6.361653504427522e-05 0.09780702772048712
0.13747080235081366 0.2474970230217347 6.361653504427522e-05 1.1334761395924544e-10
0.13226828028192567 0.21267945882957207 6.361653504427522e-05 -7.212067677618004e-35
0.14240157623252636 0.25845751281150714 6.361653504427522e-05 3.1481376242606787e-10
0.13335649368596209 0.18883441708357726 6.361653504427522e-05 -8.605280967388211e-36
0.17112601182138418 0.27314600244004666 6.361653504427522e-05 1.1914014957635393e-10
0.22865715602124195 0.2785808730644371 6.361653504427522e-05 0.09335926370757211
0.19440721976416808 0.27380363477734804 6.361653504427522e-05 -3.6518606685703114e-35
0.2066054230349431 0.2676031730308622 6.361653504427522e-05 0.007126375528092087
0.21483911504469422 0.2571119204119982 6.361653504427522e-05 0.04153402691896994
0.22124889148207966 0.2709561930615707 6.361653504427522e-05 0.06155451044089291
0.2299669933994465 0.2586525559170742 6.361653504427522e-05 0.09018995050402609
0.15942836654187517 0.2750167648565818 6.361653504427522e-05 1.5265988216429122e-10
0.1813784078216905 0.19643570084154102 6.361653504427522e-05 -6.073424281960632e-36
0.20614374099595084 0.22625328751025667 6.361653504427522e-05 0.005695232087675245
0.19606529345894347 0.24980873957226735 6.361653504427522e-05 -9.13785562435789e-36
0.1515725328907049 0.18258621241121323 6.361653504427522e-05 -3.3818358909056805e-35
0.15249332080798678 0.21902794612353413 6.361653504427522e-05 -1.6269990874294172e-35
0.15178120116633492 0.24803168017075602 6.361653504427522e-05 -3.6376774515699773e-35
0.15872569017267527 0.20866186646685358 6.361653504427522e-05 -1.513020886959575e-35
0.1492155358963575 0.1946681700182692 6.361653504427522e-05 -4.890021675136552e-35
0.19754618032692894 0.21261704972144174 6.361653504427522e-05 -1.2781855131156838e-34
0.14901440325121834 0.269180575046946 6.361653504427522e-05 3.904297544999188e-10
0.2042784761253823 0.23699791253216346 6.361653504427522e-05 0.0009361827404819429
0.1623829278954133 0.18820358482232807 6.361653504427522e-05 -1.0755769491023656e-35
0.15145040687790817 0.16929677596387974 6.361653504427522e-05 -1.3993409557508286e-35
0.22170502629062483 0.23394910950154574 6.361653504427522e-05 0.050035621733457894
0.229011740345789 0.2415958078196956 6.361653504427522e-05 0.09724377030996567
0.17860368264047977 0.2295874171315042 6.361653504427522e-05 -3.9638117823869267e-35
0.18920029922051196 0.2607287780248055 6.361653504427522e-05 0.0
0.16346464141933578 0.264077506429111 6.361653504427522e-05 1.1550169231895527e-10
0.1605890651802601 0.22865185518869804 6.361653504427522e-05 -1.6666666072440085e-35
0.18656525075196073 0.22103900507593974 6.361653504427522e-05 -1.766997031987695e-35
0.1955522600929366 0.23007320801612954 6.361653504427522e-05 -8.760446721348576e-36
0.16770001135601814 0.25335767931701786 6.361653504427522e-05 -6.467969988762133e-35
0.1759055668139668 0.24183997279712507 6.361653504427522e-05 -2.9017101500476715e-35
0.17883821118949472 0.21064792338784227 6.361653504427522e-05 -5.262040878746077e-35
0.06466474492841728 0.17302721671883237 6.361653504427522e-05 0.09827479555162362
0.11941432869805961 0.1889277825012198 6.361653504427522e-05 -7.01479591479222e-36
0.055763126082330895 0.22152764920498264 6.361653504427522e-05 0.07758735607583696
0.08650474552194976 0.20376414012285715 6.361653504427522e-05 0.01703658622841811
0.09704157711139025 0.17214439602317977 6.361653504427522e-05 -2.344817887375884e-36
0.07764926264919038 0.17553512509277555 6.361653504427522e-05 0.0667870137457604
0.07454332891593878 0.20349193881323058 6.361653504427522e-05 0.048846435673664285
0.08690624541551603 0.18230258485248094 6.361653504427522e-05 0.007662949482082791
0.07860975039097487 0.19117467502484486 6.361653504427522e-05 0.05507589550956406
0.05939981819068965 0.20506933523626827 6.361653504427522e-05 0.07679314809427604
0.10193369227840723 0.19088770150805126 6.361653504427522e-05 -1.1138169925730165e-35
0.07775436437543527 0.24283159239906618 6.361653504427522e-05 0.04838071207448009
0.08730521003144633 0.2338963217623673 6.361653504427521e-05 0.011123736656320073
0.0861277487220361 0.2230369524995216 6.361653504427521e-05 0.02386805211134938
0.0944511243210755 0.21252057174554106 6.361653504427522e-05 -1.6408175622286994e-35
0.13945885518882975 0.16590942455550317 6.361653504427522e-05 -8.745452783211839e-36
0.06662041697242041 0.2564755915593502 6.361653504427522e-05 0.07875304273662985
0.06712338736405415 0.2252556723549003 6.361653504427522e-05 0.07161404709493412
0.060441216380348155 0.24527687870384157 6.361653504427522e-05 0.07516191744342135
0.12528352256561523 0.17878186114060957 6.361653504427522e-05 -7.90389565152616e-36
0.1107254606563878 0.1663464939590386 6.361653504427522e-05 -3.0474868830998047e-36
0.08079371434406535 0.14787331975985835 6.361653504427522e-05 0.0469492163882077
0.12492121633347641 0.15953212239984946 6.361653504427522e-05 -7.828230129849632e-36
0.06154139753803343 0.15173055076614542 6.361653504427521e-05 0.05978551262540506
0.08976858352715222 0.16348510464309252 6.361653504427522e-05 0.005031071779937664
0.12813931093322561 0.13565552628672384 6.361653504427522e-05 0.04009654350606278
0.09760418155318572 0.15027012072023235 6.361653504427522e-05 -1.9570774016591883e-36
0.13295154862962782 0.11083406074081695 6.361653504427522e-05 0.08346897230692683
0.11725429322576694 0.14089874141375308 6.361653504427522e-05 0.029635711111888112
0.11449562892681292 0.10871346857785165 6.361653504427522e-05 0.12877409152729688
0.13195737284976647 0.1476386873272622 6.361653504427522e-05 0.008830696684790439
0.0709497167380488 0.12983145765524792 6.361653504427522e-05 0.07192895317900563
0.1108751109405173 0.15189725280454547 6.361653504427522e-05 -3.100038380459267e-36
0.09418599632685479 0.12709454877095344 6.361653504427522e-05 0.03223137439544249
0.12717353156724387 0.09884884279304204 6.361653504427522e-05 0.11925451983521579
0.10747251681371592 0.11757974802867056 6.361653504427522e-05 0.08598906152887723
0.10489426268234196 0.14128026542853045 6.361653504427522e-05 0.009575235648369332
0.12552213303911133 0.12494632608046799 6.361653504427522e-05 0.06436462517805568
0.13703040801132507 0.12690091368167614 6.361653504427522e-05 0.047764417612192966
0.061692451464940144 0.13816217600666872 6.361653504427522e-05 0.08832745179426635
0.0841688408181589 0.13528281221506874 6.361653504427522e-05 0.03571971941036934
0.109348352433582 0.13009526158050752 6.361653504427522e-05 0.03569548558045418
0.13917105680566202 0.08876713310411105 6.361653504427522e-05 0.12988745219833403
0.08164659786595516 0.12416616803705155 6.361653504427522e-05 0.04118177341484237
0.20802266507785078 0.16805984982023522 6.361653504427522e-05 0.0013926234096932784
0.16194099530160536 0.17334617082448486 6.361653504427522e-05 -5.767918697094166e-35
0.1900079358872483 0.18885076801765502 6.361653504427522e-05 -1.5812334268976726e-35
0.23566846930589141 0.19419890511373783 6.361653504427522e-05 0.08778878466804935
0.23750236877985384 0.2065838097129271 6.361653504427522e-05 0.07885891847277898
0.23314634671840542 0.1705661660298967 6.361653504427522e-05 0.062353846431185654
0.17333680263524906 0.1772338411412304 6.361653504427522e-05 -3.496041748397978e-35
0.18989582327117704 0.17739577420515554 6.361653504427522e-05 -1.4827855364051125e-35
0.23189308735577618 0.2268488303868884 6.361653504427522e-05 0.10467558365939765
0.22816251197939316 0.2127372895379964 6.361653504427524e-05 0.08710951493125747
0.2222699441125019 0.20315759292004157 6.361653504427522e-05 0.06985342959917115
0.2073295633079782 0.2053851314620686 6.361653504427522e-05 0.007725709791625828
0.20587695646592274 0.18466641021590463 6.361653504427522e-05 0.00534712685231433
0.2276113195807074 0.1841038577286855 6.361653504427522e-05 0.05562557055837628
0.19540127269864654 0.19997589650499517 6.361653504427522e-05 -3.833665508548195e-35
0.2182726392615797 0.2213270227737544 6.361653504427522e-05 0.04967225885131813
0.21909122657979901 0.17226506275443235 6.361653504427522e-05 0.05607404099655099
0.22211882609926897 0.13433666775028433 6.361653504427522e-05 0.06622096510205365
0.15205629902677223 0.13393392674305202 6.361653504427522e-05 0.01760728998224865
0.18191969302768166 0.13834865984642403 6.361653504427522e-05 0.03018143183475952
0.16968369697392843 0.13093544547165734 6.361653504427522e-05 0.051814098671198905
0.1506674977810252 0.14487454053749693 6.361653504427522e-05 0.004135253487527703
0.14865212486387502 0.12185312222104475 6.361653504427522e-05 0.0329122559997004
0.17278095654903652 0.15140088214307207 6.361653504427522e-05 -2.9978444110277234e-35
0.20895877021791037 0.1320010247586088 6.361653504427522e-05 0.03409240180282289
0.19645993603923026 0.13667481207427437 6.361653504427522e-05 0.009321707602081366
0.15519857322815295 0.09286996482948909 6.361653504427522e-05 0.13258439917285256
0.15362941165624 0.11109465274930085 6.361653504427522e-05 0.07518970078169486
0.1988281526615599 0.12160388266127195 6.361653504427522e-05 0.03723959870728749
0.17010899999438894 0.10053688971232319 6.361653504427522e-05 0.12302788004885222
0.19432385474822048 0.14791682121716127 6.361653504427522e-05 5.361168213544045e-12
0.16068115073131228 0.12337978263770227 6.361653504427522e-05 0.04587656574261109
0.17749111747277657 0.11014632345492986 6.361653504427522e-05 0.10579204316860563
0.18724244829306916 0.11887757066703952 6.361653504427522e-05 0.04917573244813467
0.1956472972108223 0.11084982174498167 6.361653504427522e-05 0.04688064894683984
0.19865216285567705 0.16038258744695386 6.361653504427522e-05 -8.037579573010976e-36
0.1636737514391667 0.16067545604024042 6.361653504427522e-05 -8.116548480545437e-36
0.2109841336730312 0.15515658851013353 6.361653504427522e-05 0.026908122100299938
0.2071878254972988 0.14492103316831348 6.361653504427522e-05 0.01872548240712665
0.22154716391394888 0.1500213232275108 6.361653504427522e-05 0.07050292550857994
0.22596539709483904 0.16028425293475368 6.361653504427522e-05 0.06955551395816
0.18350695678979995 0.15289878814075467 6.361653504427522e-05 -1.7446800639692393e-35
0.17545056058435843 0.16453985828281992 6.361653504427521e-05 -3.5784041160368745e-35
0.23995616603480052 0.16132365485409386 6.361653504427522e-05 0.08955708838501433
0.2312235255724198 0.1430156471815764 6.361653504427522e-05 0.08948088733374711
0.13157065218244735 0.07741745173684034 6.361653504427522e-05 0.15048887317966378
0.09385106854157545 0.06535213704905186 6.361653504427522e-05 0.08974381526583199
0.12902701888455093 0.3420910653658659 6.439208539056043e-05 0.069633424066073
0.10187851603955482 0.3491132568248789 8.026006035935247e-05 0.0779951022911386
0.11712066873021099 0.35448745622165023 0.00011673681798750363 0.06519280571579593
0.10863577756931846 0.3435794941311272 0.10041008582066918 0.0073548545699925055
0.13581772561018648 0.3545613682020974 8.833264425031986e-05 0.09454702233025807
0.14087629994811807 0.35128476435894485 0.08916430261160704 0.0012893001786837266
0.13621705552583308 0.3537477845073029 0.07670714524157271 0.0018797647574145995
0.1263930270897927 0.3511589415273862 0.08491142909898308 0.0031365809183175656
0.12334067122724458 0.3460661147350248 0.1055023140380944 0.0030554847571971633
0.13628371079265908 0.34821116430584215 0.10243647756138495 0.0023771046222272546
0.11806025916471456 0.341249905227586 0.11994098106328006 0.007311228232384947
0.11822311838458407 0.3354655193995093 0.1385093120021242 0.007648156391931094
0.12892335378862743 0.34395672837670244 0.1175899320560336 0.0035840231909987437
0.12703701471064233 0.34040444302352485 0.12816288619874916 0.004007943338196097
0.130924615004765 0.3368850686232533 0.14220485831424565 0.004415854794088411
0.13872476051958574 0.3419630197619554 0.12693863641704511 0.0025847528067802768
0.14526685275199971 0.3456739358808899 0.1153975800793176 0.0023128334136070577
0.14409764384016083 0.3389902013400862 0.13798740616321528 0.002867469450818436
0.13943215310599932 0.328372438893591 0.16833967705969224 0.0036031901216114484
0.13396504353582284 0.3313608996503249 0.15940284250236753 0.003173576606311638
0.11223898324381726 0.32313896737486414 0.1669752653440389 0.01211204122198731
0.11336619011977307 0.3175438968196319 0.18217816381101282 0.01035882723540624
0.111188096111496 0.32991511278485697 0.14888268894782863 0.00994911217511336
0.121629984750616 0.33023300383184556 0.15641333015426542 0.007781855175309493
0.13102884094991912 0.3252963437710969 0.17495928800645488 0.0056075336274807866
0.14755423245769803 0.3250377453362887 0.17791897236385282 0.004435022183334257
0.14653786615224493 0.3327920580568611 0.1574060023038122 0.0029606207385785917
0.12402378693457017 0.31970042160783807 0.18465616392184 0.0038262464998846074
0.13077542412402673 0.316648904641274 0.19533966900676242 0.011829433145564944
0.13094540643611366 0.3112955224200199 0.2067450225919069 0.13855876320726637
0.14256430847014345 0.3106571603925225 0.2103704582347116 0.16330373070765142
0.1500928101404858 0.3158103825436734 0.19949616508655507 0.03684298083617144
0.15209613528899055 0.3078439929733864 0.21716252355517449 0.20986624609914464
0.14402873952448883 0.32006652316817147 0.18965607861975162 0.0034512487925846885
0.15371565554463917 0.3593945625838746 0.03325492950174539 0.01670312023758338
0.15757013840492864 0.36055924841971515 0.01174499509589235 0.07555112648171741
0.16742989283804713 0.35916078423362935 0.027331561625981465 0.04013413167977016
0.1786228339433711 0.35735269233615574 0.0332387692725304 0.010478530951968103
0.17817816437200548 0.3582547811071036 0.015814626539216982 0.074108597573143
0.15931496686677785 0.3576981985890695 0.04820082327071522 0.0015026772614608454
0.15633903356025475 0.3560991433995666 0.06073087634079906 0.0010771713883190037
0.17155899781020023 0.35749944609706685 0.00027505193403751135 0.07278704679294863
0.17131364820944012 0.35669848303835894 0.04861647516314217 0.003290673974751877
0.18804934707627458 0.35495773312289175 0.02851356320268593 0.03940779309367209
0.1824383915593201 0.3577537895680625 0.0050750711441748635 0.08666847949058333
0.188780330097847 0.3552588823068831 0.01708605752096417 0.060163298238888566
0.15482699416137954 0.34960662038146534 0.09678788761184742 0.0014846368908323804
0.15335916600137364 0.3472066758290481 0.10837432036177748 0.0022526577394187935
0.15576222141728627 0.3518140844587921 0.08630246151742069 0.0016160510496906549
0.15448753721256367 0.3543012269429786 0.07403046701727195 0.000975713208611431
0.16485475625675342 0.354624391099675 0.068555672048216 0.0016347624987162579
0.18664770739396597 0.3544175924634129 0.04231777947067472 0.005292743041251711
0.1872877272240619 0.3499328713769652 0.07056497105590116 0.009460030890847139
0.1809633502058564 0.35396804584601016 0.05598916770457894 0.006340150277239692
0.1972925480736973 0.35300780278028265 0.008798608220622344 0.061782982164392
0.16877054543082048 0.3462362394851759 0.10707144108035396 0.004654461688476917
0.1699578866291228 0.3519624061013419 0.08067975875686176 0.0040647326840138834
0.17512176407529895 0.3479943073756438 0.09487154663369639 0.007182814723616787
0.18365709692480148 0.34287787571991424 0.10697486570085338 0.010764956046513945
0.18127077441044714 0.3492233940953855 0.08308264367057863 0.005344876294869157
0.19612061543713663 0.3496011495262047 0.051127446193995695 0.01040610939175482
