x y z curv
0.13820722768325816 0.44617237211630956 0.18281553987175841 0.10345923268028975
0.1405370452482222 0.4189077730313711 0.18971887501219525 0.027717703503574602
0.13811612388495376 0.40055844108984423 0.18622835524799478 0.04605378393617107
0.13647764082337838 0.40960284085736154 0.1796742681679933 0.05950129259791043
0.13539242023689688 0.3876095449915844 0.17842077556239308 0.11764602180105053
0.13412276287036534 0.37670923823719316 0.17438297057350893 0.1549064371791513
0.1405646200878899 0.38687594454182805 0.1923474933584297 0.09737985724638853
0.143590696783227 0.3742986199690046 0.19883254677915096 0.14196072571873727
0.14539813390915424 0.3946263708919128 0.1993447357348834 0.14953644921032078
0.14910365569207182 0.3834102588709337 0.20493641679604385 0.14996437141037638
0.15232080680924964 0.4132563912362301 0.20538272930082815 0.19565966145526167
0.1552819954707678 0.4026496370767062 0.208710023270073 0.2094325553557306
0.15758826204509369 0.38464861683432966 0.2120140728009236 0.16301325721262588
0.16331543235778753 0.41027831210190335 0.21333319169175594 0.16425796880567262
0.16487242862081808 0.39877047308617386 0.2150649896263841 0.22651154490870262
0.17021092375662034 0.42221895419703626 0.21507709498998762 0.11525130794538312
0.1755579122884237 0.4541561913276867 0.2159178414511858 0.09368409710215816
0.18008574991433285 0.4286218721600537 0.2171545518789037 0.052853721835890474
0.17913911369186925 0.4409007410334381 0.21678665383442186 0.08860616145013712
0.19007994947387405 0.42268621512272087 0.2175831759713031 0.07308506226626454
0.18880626649996782 0.3962511547919404 0.2200378874537132 0.16204330979105086
0.19151319199464623 0.4513075397183024 0.21690559702304302 0.09523420132266393
0.1997542635879927 0.39391048375778326 0.21852772784009153 0.19156256860377674
0.20220084323592863 0.42022469185358857 0.21554105507154978 0.10724095573389512
0.19975783446921141 0.43871573789301943 0.2156705268617089 0.10602595618935902
0.16288842932503095 0.4303209932645393 0.21179392155326018 0.08137973808308943
0.16532712255154175 0.44429880035155334 0.2127140900856988 0.07127413610501161
0.15575877722326864 0.4426933732873758 0.20712710153731542 0.0733127704395576
0.1820886508561445 0.416167900265092 0.2181270816301939 0.0858680914318044
0.1741541395907145 0.3956238919340888 0.21860156658749882 0.17128369657199963
0.17449410669848403 0.40762218717956855 0.21770852644640637 0.18684687219176974
0.20641789272740013 0.44830304516285635 0.2133905207585326 0.10664369886705022
0.2139007326188592 0.441928642346464 0.20964904456122374 0.07418884162732903
0.2108390728584175 0.4301441035574714 0.2114048804035883 0.0957473625363151
0.2090750755018918 0.3995455956894243 0.2146059277539816 0.18979075417601154
0.21544876311725164 0.4142370162013235 0.20978391666795343 0.15297658728620422
0.21876431970984297 0.3784248766251632 0.2103336038461201 0.1847548594301553
0.22086047909105405 0.3923166389344568 0.2070511850727147 0.19854190093062465
0.22320196179650983 0.4074244381790597 0.2038957300421826 0.1952815853438159
0.2280100766579301 0.3845741743129607 0.19987318168891816 0.13064522357166858
0.22716468494073122 0.39657831769162283 0.19995201179902333 0.16639420157759116
0.1347158217426388 0.4148083735973549 0.16882095241144426 0.12073593260186438
0.13546292776798774 0.4218113991669341 0.15988140017640964 0.12161631650436044
0.13589564614463318 0.4539377574009304 0.16103603736004615 0.07349109814715692
0.13622691678445392 0.4317552930143033 0.1553482512918965 0.08665092022921457
0.1381494747441636 0.44681360021940697 0.14981313398022017 0.07694658245077955
0.13790272858375327 0.41919900522822146 0.1490033713943657 0.1520356357113326
0.13528323641650597 0.4306930699179288 0.16949961243427714 0.06420772658360735
0.13634658974060507 0.45849559413836416 0.17408406910963314 0.09134797391032648
0.13562087893347347 0.44101052914112376 0.17131302309942792 0.08284636431785714
0.14038984762519174 0.4358270215912883 0.1438382846464492 0.07578405999270385
0.14264610647581502 0.4557214263721905 0.140285412933121 0.09865690467197955
0.143076363623532 0.44477744434854977 0.13899128463976604 0.07245676234593122
0.14708278363488708 0.43090883997815543 0.13326653356834922 0.09033364755715978
0.23641194685278188 0.4581157007309813 0.17662465621900278 0.1133296583057693
0.237955140463375 0.4386037752609129 0.16562773186114876 0.08962418604493717
0.23810752949568437 0.42183606423745335 0.1639666594874738 0.10154332982574966
0.18749840504755338 0.38263370352990395 0.22349891312583342 0.11601250534794189
0.14043025776075369 0.41586573209552513 0.13954468230737863 0.1896252462501927
0.11944135273663409 0.41444800677292387 0.14903075997845006 0.27007310839616205
0.11769333728050538 0.41735606721150564 0.09354220797747684 0.22114909135893307
0.12635745385966618 0.4167494425902559 0.10522685572915239 0.15176248856064795
0.11812787130995073 0.4158756763189762 0.12179885711184459 0.19524000814343112
0.13403144242473758 0.4161929029976595 0.11594335167320848 0.2070872044141899
0.10895490651003252 0.41473039948393753 0.14354050052487302 0.23792978842454918
0.099806753610345 0.41424872793749445 0.15261845642703117 0.19930005172076468
0.11479951882105321 0.4164930166654607 0.10997625583920054 0.21818107504037204
0.13041843199745823 0.41559827591909254 0.12724593682528668 0.20937721187654276
0.11910437342848104 0.4179289981860509 0.08262620277458177 0.2319688584423579
0.12745910997783272 0.4184550482720168 0.07269144874208316 0.1760169026708339
0.1263045538399136 0.41922546743565126 0.05797465720222202 0.2001480960891504
0.12757587627023148 0.4150402339007828 0.13785995447987764 0.22432770723904227
0.11724188034963262 0.4151145296116555 0.13631324922459193 0.27376916811100166
0.10848778420838882 0.4129156229955894 0.16030274128976593 0.2851968015503354
0.13827622463620884 0.3598341542718194 0.19638614525110376 0.1046307813606831
0.15480125511710624 0.4248794315149602 0.20670216371919845 0.16248966557358016
0.13751783046077454 0.428779498976861 0.18182761673910608 0.06338076597837687
0.26501575405116123 0.41806961828321026 0.10458067903692622 0.22517286921236881
0.23240907529648047 0.42275658140443617 0.1897522930326005 0.026366289520043003
0.23334564692040385 0.4035402910863511 0.18948010743814975 0.04126808103878533
0.23548351775303916 0.3909546643473292 0.18591433535247076 0.07757354442444823
0.23699049052139678 0.4068684206093033 0.1789786265356257 0.08975421948586633
0.2380825762375443 0.37638428195331397 0.17867820348259872 0.12027206046688986
0.2394368234170168 0.35850799198599703 0.17576461342996735 0.16016901234602193
0.2381673083748681 0.41385853215511387 0.17088217332557326 0.1274901553970295
0.22377962029797335 0.4242400565364617 0.20204066777742508 0.12324014732570648
0.22861084504294757 0.4337919537995692 0.19577943905751316 0.05449080442202857
0.2240752744146142 0.44784513473540427 0.20100964895244905 0.0908141693236201
0.2310970408368361 0.44848675721229814 0.19114160306105651 0.09353858303297503
0.23577820275604708 0.4444735593285332 0.1807857740595559 0.06592393800930134
0.22625270011026366 0.3704586877414687 0.20911169108116817 0.17039518798467862
0.13736233650796237 0.3682519694165935 0.18744785731243419 0.13209120732174004
0.18626888184166007 0.4613000519791276 0.12621842888651646 0.08414076906478458
0.24332799273643752 0.466011280786893 0.24007586671265033 0.1663450089525779
0.08188059598166623 0.47146011603732574 0.19148172472770275 0.11022205289505387
0.11369001814462754 0.4701312597682954 0.06513176371080895 0.07121513893422293
0.08799448290234856 0.469803110473146 0.16856801065874447 0.07234657777744105
0.10329458300759763 0.4403990579247168 0.11432737503259155 0.09447243858829622
0.10254200459380675 0.4641435220814656 0.11214373947509194 0.07229961006653557
0.08739322692721141 0.43995534161678573 0.17820108998895556 0.014581129968221317
0.09544822922816432 0.42497694874270453 0.1491759537312453 0.07457307474980537
0.09859266829292823 0.46010606855011993 0.12886811855438848 0.0910651219649962
0.09194286579505752 0.45881794974332873 0.15582107929722244 0.09779129503146909
0.09402422643020475 0.4386593297526142 0.15188968671471703 0.027761097306517123
0.08483151954736982 0.4497084550747634 0.1863387235612248 0.0794065513969049
0.09229520657074194 0.42231339038813714 0.16240551161881175 0.06774314817151654
0.10774891403558166 0.4648224024596513 0.09111134947665546 0.04451587130052857
0.08828063790836817 0.4522577068626862 0.1719466400366104 0.023932337426220047
0.10078099743956101 0.44884057961387513 0.1225593531619231 0.06676490076334937
0.08028805055885734 0.4634751659604907 0.20154540758960168 0.20641863248944353
0.09569350592287885 0.46591527055202653 0.13922325289105553 0.07595205345617088
0.11179386492260826 0.4622800203518373 0.07544502390671734 0.045540003621277
0.0975744270878375 0.4366742988293605 0.1380855779203567 0.10276105623937307
0.09287824288778312 0.46824691274721414 0.15000376697505222 0.07051406460746094
0.10576469416151481 0.45964377677754475 0.10020413381373473 0.08348810186385214
0.08482943156116399 0.46209163031883527 0.18363413517950553 0.07547521389540819
0.095287368020019 0.45554627681841386 0.14312386072530037 0.027652185526401977
0.11631854195834163 0.46300855206670055 0.05713802568013547 0.15698594473779945
0.09092385646106557 0.43440638604423676 0.16525627719858435 0.024828761102163685
0.10292074814507857 0.4528920689633522 0.1130897103706256 0.0750177212977195
0.11251192803055601 0.4508759890081152 0.07506370202727718 0.02450508153508712
0.108275471894771 0.4260334408114656 0.0974986161524612 0.13794065475678716
0.10528541802194309 0.42228530037620005 0.11031204781195016 0.17331276701377418
0.118941126491103 0.45265311534042446 0.048888977831014244 0.2408558020188743
0.10712118011822186 0.43893661408021933 0.0993004997773185 0.059383054231050676
0.11816046548113414 0.4384812496188631 0.05512553868812296 0.17444330340170638
0.11106600222256596 0.43283727487547713 0.0848157844853276 0.10920056691316127
0.10934934294222634 0.44405523890558646 0.08924242339081342 0.04000128628991435
0.10270974015641479 0.4281985324915084 0.11934638312478558 0.08797730305312869
0.1153042037097336 0.44976796560052434 0.06410766216677548 0.04373116982901682
0.11542452786193105 0.4364223152578649 0.06654962817477385 0.13556526686794884
0.13507352861437083 0.3517244065362446 0.18719236880449797 0.1525042611231351
0.11028449529693402 0.3707351115671889 0.2143795221117866 0.06792963817132372
0.1162558733489001 0.36457659385232993 0.20512645381399242 0.1393534375060875
0.14091029140599476 0.3665438132896611 0.20522034624855556 0.13731128998097722
0.1501604017493101 0.37297969209170034 0.2128527174375424 0.13220856712471105
0.12193348005287838 0.3704967289596857 0.21274646584856136 0.05974999055816851
0.13087057375794106 0.3760734052263045 0.21985792233690116 0.10595227003727546
0.14176231403335246 0.3785125555392078 0.22245455629315095 0.14007318715983838
0.11943560335820366 0.38901178283732246 0.2251523891670679 0.11198692796210949
0.11980246927789467 0.4553695248249652 0.22849242115118473 0.14488056740174243
0.12155047804188104 0.44313479413053886 0.22895112542473883 0.1280504107995527
0.12359674436767645 0.4011349186218993 0.22796548428625668 0.16767594740920325
0.13623767113319177 0.39655421790997036 0.2282744845394783 0.15242238030870944
0.14473334657089804 0.3899085216609014 0.22784539473627854 0.15640219095976074
0.12630734639694036 0.41825077083209694 0.2312779867520145 0.2704111874519591
0.12592686976734452 0.4631041277472928 0.23402750676918008 0.16652244188223222
0.12786040593414486 0.43246794128023597 0.23410670178196086 0.19729745617113037
0.1234401404522378 0.473875408196612 0.23200046193516313 0.162933502932794
0.12865905578400133 0.45255544111203544 0.23643219914478947 0.12963887548816713
0.13146443072278347 0.44163519537341056 0.2413016994130005 0.12977800165008513
0.13147819481167577 0.47378671125704597 0.24609362904711685 0.1394026288501132
0.1328280936146649 0.45618032130489994 0.2503337998768627 0.1909668772158481
0.133322292798761 0.4440361446253308 0.25500485743941126 0.19138863405018672
0.13392616757012105 0.42687823174789674 0.254328696583482 0.18459824036614084
0.13324343345546336 0.4464691496183308 0.2691480154332226 0.26339342762643175
0.1364384854669835 0.41001421151583933 0.25474434809743474 0.18896848880968342
0.15458135914281643 0.40945246864780094 0.24717065001278582 0.15285269027608483
0.1614494388143739 0.3954405479881241 0.2401340164965205 0.1408879085509682
0.1612728723759565 0.40041816436546684 0.2515494681991469 0.12390146259648178
0.1337729904187393 0.4175457432385324 0.2457895289779584 0.16621460505983512
0.1529192252378945 0.38138580297544045 0.22600227653055166 0.1805129215836245
0.13287880338349758 0.4090620363096812 0.23231092343922086 0.21059977801726765
0.1463422982751726 0.40031990858688343 0.26574781331004377 0.13801662762024977
0.158911843819823 0.39976207843903494 0.267120882510068 0.14191114203006722
0.16952478099712376 0.39814329550193506 0.2609717344449267 0.10243694588456723
0.1485586678694173 0.40169891179056044 0.27626912082185306 0.18984517309240664
0.13700254705633627 0.40045723033676195 0.2727758842046481 0.1626854841727046
0.12909156245599557 0.4832164229568194 0.24049667143324893 0.1329924160000323
0.14914101656457213 0.4094515023742109 0.23813862018035 0.18078319474879714
0.14990578983208902 0.4091708222154348 0.2582156374653949 0.18370844507612175
0.15143063253440597 0.4013026905616238 0.22997031546798305 0.22046688334036557
0.2133021231143752 0.4612795433171969 0.1251059640246619 0.09067857796933812
0.23485042311860374 0.4835457551487541 0.34125957080285224 0.14422793925587266
0.13710101215066062 0.41744534872880407 0.09207622221271533 0.07939443641007059
0.1491784638066369 0.4160282023337568 0.11925978123608766 0.21475517241104825
0.1480496528857439 0.4168079380937336 0.10436290849811947 0.13728884972946434
0.17431082187981925 0.46132987585343593 0.12515415065954558 0.08158684662916009
0.14215965017329962 0.40336919054550535 0.287124929947548 0.16472035234657875
0.13247389462958375 0.4046273026282936 0.2837682004188652 0.20313874151305827
0.05107444734406842 0.46266429525256947 0.285879879300867 0.18855110319158372
0.10524062442856946 0.41629063449257125 0.12114290699826058 0.18562434982676013
0.11675105939349191 0.42052409867852925 0.06703812577200438 0.23958464413419392
0.2410684670010744 0.35426365697834333 0.19129233021782419 0.1529493825494866
0.12659522754054983 0.4114967029927442 0.2926560448279868 0.2186407241737353
0.1200180890931231 0.45539524275907417 0.2969041753568873 0.18797984111542565
0.12191252112976389 0.4383834764114628 0.29598349361613513 0.19629313786789926
0.11873442500943251 0.47131209969050186 0.297298464502711 0.20795814876491348
0.12014847230510206 0.4224977211440768 0.2980782704257804 0.21933283480061114
0.11270999236101883 0.4623982117071288 0.3009763750587636 0.24968414380336684
0.11172497150502696 0.43340639853309293 0.3021591206706328 0.22339940013861417
0.10776405148316162 0.4102285243322673 0.30381525906140844 0.174751181036846
0.10848487192498901 0.47440604175288315 0.3021771358381017 0.17986254363843632
0.0986393227960185 0.41706181455682895 0.13977417559217398 0.12530381596090417
0.12429736152006626 0.3456048041433202 0.1893824824608088 0.20861256964752264
0.13364217125800612 0.4346225259598042 0.27101185982158627 0.2790560500062826
0.13367565376263826 0.4221219472881803 0.2762451061126888 0.2621504492262424
0.13163478407275492 0.48160298893829606 0.27332955650864893 0.17524130981920616
0.13153187610745215 0.4695241953573161 0.27748705742588137 0.2151806721371055
0.13121856423996792 0.4498850851818248 0.2814520864798668 0.2516928029646965
0.23881244558113507 0.4170183929094169 0.2705310228154124 0.25883800173385335
0.23941435390906635 0.4332004010161592 0.2538871545906599 0.1695718292184932
0.23901265523937484 0.4208205943238074 0.254567123631545 0.2103375235914156
0.007649505532306356 0.48151469068768826 0.34716049326027265 0.12368554904741506
0.055524460638163915 0.4822577979792039 0.18158112451432773 0.1169119716234256
0.11837336675357724 0.45959411317082666 0.2684880721902834 0.2537695863547833
0.13377115123320535 0.4035998121760224 0.299716841412322 0.1567883818270925
0.13318721421624102 0.40359677246949155 0.3166884427249247 0.14951886937793385
0.11981815919104165 0.4023364400374447 0.31134091995443175 0.1284353082884806
0.12195223799249985 0.4024273409402368 0.332510055730406 0.22757722967576724
0.13407199058535763 0.40362132754613406 0.32991347781952984 0.2228315028917429
0.09241105826407225 0.39833492184440183 0.33697308457527153 0.23887365544712533
0.10878950757096637 0.40083516427137383 0.3360144734565746 0.24507268645445723
0.1046589698886528 0.4002763854900548 0.3247561278020611 0.1595240768600292
0.0836048011348214 0.39698995345248583 0.3216203826692813 0.1652933590491658
0.08184438416235475 0.39666381727687827 0.3339030154451585 0.22412993707559054
0.06446952117905021 0.39318784288035036 0.31756214747273254 0.1468832065569135
0.06797524000737033 0.3938218179532002 0.33089136340711 0.19463753992908206
0.04485364175907719 0.3886863963663539 0.3208751172707409 0.15790817387111808
0.05404157313858473 0.39084573090690533 0.31268474419337217 0.13354477636955278
0.029017372786822516 0.3844066075572139 0.32886103995721605 0.1971785605473915
0.04050347198093572 0.38743969657330485 0.33118871235304753 0.1790149624482989
0.02699307582695919 0.3838515734384834 0.31773334437169887 0.18882785017346698
0.10404677712240404 0.4003865914900439 0.3082603972471499 0.13829239732497012
0.09088746583811635 0.401258226544041 0.3056255357756912 0.16908190266086087
0.15559803285600965 0.4054201004803014 0.3317148331257018 0.20644094772585286
0.09940351817611777 0.44011289349045324 0.3042890727361033 0.2705691990250577
0.0946545076980132 0.41234087699219724 0.3050042662489497 0.24014414789032387
0.08088261333976172 0.40715636361345947 0.3059595021376378 0.2341786443482711
0.0829042489948621 0.4564062309337672 0.30533834300486457 0.22741859202754608
0.07317334780271813 0.46642127426202457 0.3059581919971101 0.2137561585145802
0.07029336720354418 0.45170156817272544 0.3062863189074493 0.28599693814089017
0.06780973756383411 0.41930895406684093 0.30673044729460414 0.3025736201679809
0.06765086249431573 0.4409230078362717 0.30656507587450477 0.284765290600158
0.08930445245370887 0.4291322863259094 0.3050998999748852 0.25734650134660764
0.08326159663942248 0.4447300392519436 0.30540809690477155 0.2790359383218696
0.0759349072437713 0.42833834870101495 0.30607059552749144 0.2357234792465157
0.04284283670347888 0.435415360848852 0.30840161724432286 0.2587926475933486
0.05342344659305727 0.4238983130361112 0.3077315593358545 0.2391959503471312
0.0561208320641067 0.43908795899480335 0.3074123996041153 0.2865309230834359
0.04202401137039197 0.45455280836796097 0.3083041498851906 0.2980448824541583
0.061832706702489026 0.4087585345271477 0.30724800076941794 0.2893543365592815
0.060118541391067724 0.4638677806437176 0.3069208244842989 0.21631932801052894
0.03540929581029221 0.39088005061304504 0.3090510879131435 0.20550602825202344
0.03350078789652328 0.4275928964421311 0.30903727736238945 0.24041393778379386
0.03762854555835926 0.4051361933203733 0.30885571549391305 0.2718812559152238
0.036149126425446765 0.4160890045214293 0.30891000602844565 0.22956138576249158
0.05120406639025981 0.4055933797578804 0.3079826759745161 0.2655515259593412
0.23767442272076883 0.4289173409364706 0.17208890657087564 0.07279167720362076
0.2102334577772673 0.46016954586936776 0.2110786916741815 0.0901365309454418
0.23316660409201367 0.4040284531366132 0.2657678832790787 0.13776452102491688
0.12723251352268222 0.4660592121914926 0.2884687638374159 0.26360316432700287
0.12536213908966795 0.4806780681932773 0.2900333888208872 0.1789357035119548
0.12932669956152765 0.43112047886137317 0.2875097257385402 0.2338425160753871
0.06943628263440975 0.4807300721239865 0.30606787269903757 0.14307963564632795
0.0847669484362717 0.4673283317116458 0.30506872990694106 0.19384274504171822
0.09612681504662882 0.47000412964855864 0.3041383157049439 0.18040317900635464
0.10673531994821761 0.45190915207578086 0.30316255802465475 0.2766486104289557
0.24983703630432433 0.4814209336860892 0.2619813532203633 0.17900074642696268
0.25058818355514656 0.46750127707031397 0.26438590428718256 0.22387255700910036
0.2513485964784156 0.47751969030945307 0.2456704784579784 0.2130237527688282
0.3065029687693571 0.4766188074305119 0.16025061473180158 0.1736313164423508
0.3130051829949082 0.4768577791684822 0.17820263422864607 0.12657644276362542
0.18570619533030486 0.48351465860654164 0.34139166319453995 0.07361160842753277
0.10800831460617644 0.48346588356613396 0.34004601106547216 0.15104952480361628
0.15354840062743086 0.4834942324958438 0.3478707698825316 0.08674719641022761
0.21455740889889657 0.4835328348534009 0.3399827178654926 0.13641167126512882
0.20179981950840273 0.48352481372583184 0.3401303529708281 0.11828127883829657
0.3448684439302651 0.38574089907940223 0.31110957465784783 0.1944192245155941
0.16845153486245 0.42378217123718576 0.040670145997570246 0.13257549216303544
0.1457778419447428 0.42352284945894125 0.040740954056739165 0.14363960540165704
0.22449807651100287 0.460293155244922 0.0393879172980256 0.08071011071149291
0.20826566266524804 0.4443936348347528 0.0399427880571957 0.08446170639989199
0.24117652780994986 0.43511457984879887 0.040267538900656694 0.16797832971664642
0.23938444769447348 0.45333160103482273 0.03963134565880356 0.14502589354255604
0.2329925749909611 0.42506990489477353 0.040618129036422965 0.17162819733894835
0.15612372419718523 0.42842507285226056 0.040499286148244516 0.1473817953672964
0.20371225621758235 0.4324373412733235 0.04036021279782282 0.12185336892248681
0.17894578470896022 0.43053781745874853 0.040426005329213144 0.1348215823140888
0.22428109011396946 0.43397050814449317 0.04030712216195946 0.14130854975476856
0.23263491976003697 0.4453483445016281 0.039909980584395134 0.11907765183355488
0.19525709603367644 0.4433241782700001 0.03997985051713576 0.07648796009037323
0.2172832212246633 0.44987134300398274 0.03975169854275719 0.07699168369505881
0.1763758928059262 0.4419438805091382 0.040027639660918435 0.09401710009361539
0.1998432298015032 0.4573327365789489 0.03949075960115405 0.06006327330273597
0.12303344324023303 0.465256504778652 0.039212378244621295 0.19442312771258083
0.18736401878131828 0.47040252104934327 0.039034078955390905 0.05658009849567372
0.14100112027795197 0.44327677571160295 0.03998032171874169 0.14432765574250095
0.15933616156726754 0.467049969744081 0.0391505412314812 0.06193830696861443
0.23767543264177482 0.4713927513105329 0.039000597354234584 0.1229589930715162
0.17063302830957708 0.4719793125807349 0.038978650847169935 0.05583524435385658
0.21043924605417486 0.4649395914707417 0.03922535286374843 0.06404435870971774
0.1562572885640009 0.4515016685345864 0.03969343427079968 0.07353319872735258
0.13582121754304266 0.42959594920157473 0.04045795505543838 0.19691061558780654
0.14895160997875248 0.47042711204728943 0.039032381822245166 0.0785520261002548
0.15336296167658903 0.4413796448080706 0.04004684099563674 0.11783825932650839
0.12783863869109036 0.44822229747158093 0.039807332499514306 0.18326062079493796
0.14260011399748218 0.46097636255382074 0.039362271608784805 0.11977314035033974
0.18722918191798288 0.45216787051781515 0.039670845912922595 0.06828130334938863
0.170071621405023 0.45961265426691517 0.0394104930881299 0.05805849818287419
0.12353369064502104 0.4244646196020922 0.04143500737726093 0.197055018259756
0.12592052986292873 0.355272640888631 0.19378153854456243 0.20378529928951494
0.11296237543269137 0.3574977484828384 0.19767311951535776 0.24363701364079424
0.09129030848954822 0.3603596363016123 0.20386404835503114 0.16507042180447914
0.21032542704053647 0.42325369462448065 0.120418595769479 0.13010075922496578
0.11186501496168211 0.34618412394696435 0.19323802955021857 0.2352917836763338
0.25215351369592076 0.4225067643708107 0.04843772064666084 0.23889280191111936
0.0929797939216853 0.40469044164661416 0.1693995829699997 0.09527779109517019
0.12199246724692099 0.46234081588433296 0.25550513301982486 0.2444119941194254
0.26897021104382624 0.35383405747917457 0.19667862560655672 0.2579855312566347
0.22928649337446388 0.41302096253496207 0.1960399999313052 0.10226816483969445
0.24708027559742785 0.483039237298481 0.2359183654453366 0.11852375415029356
0.27881433023868796 0.3821095815512318 0.171348758878096 0.11676035131048186
0.25405307772152297 0.40277796501735164 0.30256471897208104 0.14128742506403136
0.1934722333884376 0.48243621959731886 0.3491880929722027 0.09121992243072133
0.12367922509785831 0.4825883858788089 0.2538692890513667 0.16534542369739824
0.11831906136578894 0.4827991281748096 0.34857597697288173 0.04838908074634454
0.07128811470165605 0.48344289034284593 0.3472032752195747 0.04618430475929487
0.03523375328608058 0.4834203983655755 0.34325777700122795 0.14638876394482656
0.09518046955623609 0.34981509113004033 0.1979174274785361 0.14796485673317794
0.2540852765884273 0.4725343694924319 0.041020362577750276 0.2310223138280049
0.10032943458547319 0.48278608718976707 0.30291803171340326 0.13486124206505803
0.26536989828872404 0.47316981823761317 0.2926276952105224 0.20100385815252322
0.1344083358752041 0.41461458635521853 0.26690582035068483 0.23601840221676068
0.29443955935070515 0.4627851262541626 0.30549383398536717 0.23878133729692458
0.2941181957195734 0.45032058887898196 0.30564294052806606 0.2965751664812756
0.2772774395344559 0.46884240398898636 0.3041707071438374 0.20437146262616163
0.3101753757822503 0.4484609758551786 0.306828242401413 0.25124599463804115
0.2766849797089335 0.4169437601789239 0.14830550675929044 0.139935617410654
0.09563468411012757 0.47593258524078075 0.11713917102020868 0.07389924148953199
0.28816927498212486 0.476213017658579 0.15840833249470587 0.08497348319920418
0.29067861363978464 0.475731822669128 0.17313869298331494 0.08173818651737723
0.06570224737495368 0.48322905469643196 0.14256751379600258 0.10120723914492598
0.15392670405409886 0.42571763765476633 0.1264054971532463 0.10825624815204943
0.1545153660276955 0.45903225393627844 0.12671485308568772 0.08481200897787992
0.15242551228350704 0.4487530743246907 0.12832040020480664 0.07134492626431502
0.25147142269293526 0.4318751779259714 0.04303471541052564 0.2728554019545314
0.252515613326344 0.4548114848337929 0.042268615606445736 0.2206391990059967
0.20714405970448035 0.37959453305797775 0.22041754617989096 0.18479083511729322
0.11412072760460483 0.47314522262712533 0.22633140318743172 0.15572048863094654
0.11690840292590012 0.4236908260672004 0.2254668878147305 0.09715320378942913
0.11025147146313041 0.46209773440740987 0.2243336558848256 0.13984017091040768
0.10894583745854171 0.44011720301651813 0.22292711867802634 0.11638057299177923
0.19415759661049942 0.39779794693655574 0.25951900977885 0.083533584177549
0.26937103705576615 0.4725724527273424 0.2220086579100743 0.16820359483964992
0.26986677579368856 0.45813291620714314 0.22133001876434477 0.14861551281902557
0.04242486993023477 0.4829482912109952 0.1994600021301646 0.15019309137329803
0.030822287536240507 0.48112009786460785 0.22203397275581616 0.15469405402489075
0.13266048545508835 0.4627592400390841 0.26592057879503456 0.2611464908321762
0.13210968208078977 0.47813547202620543 0.2597132183423495 0.1810226678940961
0.2426576116062868 0.42176002569006626 0.28592593589543974 0.28235015342026293
0.2438764872424955 0.43224030652654644 0.2875969020933933 0.28867907863466497
0.2441156355206638 0.4467274376560152 0.2867833455150398 0.25935767659811576
0.049732762851566456 0.46683237334071537 0.3076485155508363 0.17956898193674375
0.03459861951803124 0.4739257880062331 0.3088061544060682 0.18036594551907834
0.03407284803103176 0.4616063471275571 0.3088898549836889 0.20489457040244433
0.034183206980782976 0.4472917887682286 0.3089256754097481 0.23614516396691368
0.024407761206483282 0.4349433856673373 0.3096611878252744 0.20111041672995655
0.02369997167654013 0.46782724581701585 0.30967715738646096 0.24668929485774807
0.017682260368814668 0.4507156964306305 0.3101404321857007 0.1853576875590515
0.019781540048250376 0.4037566612920066 0.31003724262297616 0.2349827606112464
0.12247994372681871 0.4826567406512532 0.2792088027106142 0.1862433616722421
0.23731474320866033 0.4578267894279169 0.16309105243951977 0.12790678379327877
0.2352713245654351 0.4245990318748476 0.1496724116446252 0.11692952312631967
0.23653583175364806 0.45024893333980265 0.1552728566108138 0.09345947754934096
0.125183218883058 0.4119935943130312 0.1620596029211372 0.2751775509194
0.106991100922399 0.4820942579734421 0.293151968394754 0.1514559139384475
0.05981310150840435 0.48243509226901427 0.1670061586318331 0.10727640001219878
0.16598419797239344 0.3812812491673868 0.22508887931055763 0.17688968775768946
0.2521377914744021 0.4752319944151796 0.2798433099168503 0.1975081243069938
0.20883997651528072 0.44691691245762494 0.12025530594841868 0.08068928666672395
0.2145940891217542 0.4388006922064992 0.12319894216132642 0.07504518027957433
0.2853016717083483 0.47195083504491264 0.21538354110540092 0.22713624609537217
0.2886786890782216 0.45519328430570916 0.2135610108996113 0.24276049434901406
0.2722009683754678 0.37731323357075863 0.21767074283329832 0.09780335002395979
0.2830274172115752 0.393064662297836 0.21403448923698923 0.2139205446019964
0.26796314273082006 0.3980331046169522 0.21993765503671114 0.15732883320989136
0.2616520962715565 0.38456699441914305 0.22186565735297714 0.08795029989777409
0.2809611640891013 0.4130507735026171 0.2154768913514078 0.19371079185945905
0.2746820249058595 0.422021900676483 0.2181812078070712 0.12487056264662333
0.23912590317089133 0.38842212255025077 0.17285159320489724 0.1589574416040379
0.1337678036088112 0.397130007877338 0.1718553706274727 0.12294159472361306
0.08234767788343086 0.4450799918542687 0.19731282816347734 0.20348532111086629
0.18076129299693083 0.48346711220776933 0.037336855231661026 0.05718637635431948
0.06209806765931353 0.4823256798806145 0.1281724928844038 0.11886806229290262
0.07561815120072973 0.3957424510143271 0.3089512268782762 0.15602828548946787
0.10279073436675538 0.3628226763809059 0.2047105519383574 0.121842329019278
0.12936953894609404 0.4812827181561423 0.35020691822778244 0.05458201950635648
0.24384738341263004 0.3412121987622385 0.17885903150054117 0.17902293705803288
0.07811000155563752 0.48344693360696545 0.07925765267316524 0.14795729399546492
0.23650645223563543 0.3665127727548092 0.1855396151775012 0.13694448968427003
0.2344187893172297 0.3776785405657377 0.18983013571777824 0.10205541207627014
0.2027651691725019 0.47388192101288046 0.038913322246417886 0.0647492439963677
0.13284476201557052 0.47765323708017554 0.038783997857038295 0.14279410430378825
0.09793868302465863 0.3696522833611833 0.21503636189337874 0.06965943051083057
0.07925410101441893 0.4820706557792838 0.04638946052275223 0.09865562860476218
0.14960201530443884 0.4351996212503353 0.28523380519484653 0.28343366453216307
0.17016240674072836 0.41168665375229746 0.2637852372636178 0.11563836297837649
0.1699992397411065 0.4416085755017988 0.2647279346664343 0.1720258079861263
0.1750774282936295 0.4510860562899827 0.263219876938823 0.12434099240692317
0.3411412036610127 0.44321984618894933 0.33802134902319203 0.24040937833141335
0.3128934479485996 0.4176972218707421 0.33799906805197805 0.30374993077135987
0.3032185004779704 0.40783481705558566 0.3379906242265579 0.26952405014726655
0.32863507161903793 0.4393451869908337 0.3380204811526074 0.27723935858273924
0.28369950179413517 0.40158232639721064 0.3379847774570219 0.22923369804233268
0.2656837611752589 0.4305522660484786 0.3380385321384394 0.26802275921289354
0.3170355325557051 0.43874670172021296 0.3380253839461822 0.25666952689525346
0.2798921616221185 0.43227878133401354 0.3380340596753174 0.20999123103540357
0.2576375919798993 0.4398831150272339 0.3380569727441153 0.2626106390456433
0.31011371773986623 0.4303424986984253 0.33801589161298323 0.2800610131692896
0.2713652382406595 0.44026726438665575 0.3380506702624162 0.2140802245796771
0.34830849831260036 0.45130971433985767 0.33802906263363913 0.18353435125526088
0.3030108376349089 0.4445079716214356 0.3380413190542906 0.24682501946006555
0.28971495080156007 0.4120215723452966 0.3379978654660522 0.2741537727542253
0.27636493151346403 0.41724139611631017 0.33801262614693306 0.28973307212687355
0.29935134906896466 0.4326093832225174 0.3380247956525986 0.2655603507039596
0.28803999066864694 0.4479870901686276 0.33807766076427453 0.1788602416126247
0.3147023011545781 0.45133243659568156 0.33808780461488447 0.24118213075327438
0.29725199990306095 0.4563317981071834 0.3382669499761318 0.24287496989572552
0.33643750699458663 0.4548816596864012 0.33811731935679107 0.1906976025544243
0.30705524863117883 0.46039628854619774 0.33834393181648476 0.27434181885868236
0.016752122486936378 0.45269952360775 0.32545688946381807 0.20281550572463786
0.017272098070802898 0.4247400567365647 0.3119898685466902 0.20885960819572355
0.01645027202013771 0.4697792635170948 0.3189168739343727 0.21842313577893976
0.01701356055143895 0.43852927060967467 0.32058893251990606 0.21159391888854626
0.3563054180446315 0.4513041887596757 0.3119514592229633 0.19692355196644626
0.35675183201356947 0.4778017320642653 0.3104179704166735 0.16259103806626352
0.3565886545873995 0.46823669392414535 0.3186710839293419 0.19101315725095608
0.35640636289330996 0.45745757688220645 0.32314570920695684 0.18395651123674778
0.35604854892769683 0.43603150160488974 0.31318040785250284 0.21237057297129483
0.3561870027536145 0.44432797149356684 0.3219905630885911 0.21377492792168173
0.2240393819065356 0.40507399580103726 0.2841637570699764 0.1541501719932338
0.2246654069025818 0.4299198536933337 0.28765309925778204 0.2560755281185386
0.22571385200958471 0.4453208805882207 0.2932868642618321 0.2398658263666369
0.35566214525628703 0.41296188352905405 0.3231428991815948 0.22531512038120563
0.35595179248512804 0.4302613049381324 0.3284000218112363 0.18368116796367082
0.3554320052494922 0.399215630955556 0.3177809167634812 0.2531914694966104
0.35567035981451744 0.416207482217353 0.3342634671950551 0.18412087213677647
0.19530090203371114 0.46170732833441963 0.3357731515764659 0.16992812520513748
0.17321402310414064 0.46150637152092233 0.3300017462618887 0.17533848506298746
0.21360993959178598 0.45345159584701056 0.2968757428482906 0.24161124026293132
0.1849354312853081 0.42883975756021775 0.323358939165208 0.23123360892492664
0.19564651806368805 0.4295042246941215 0.3259275765784444 0.22726566524523467
0.21018033480065265 0.4292978827998275 0.30358377427235195 0.25189052673856116
0.19538244512774194 0.4295016305737315 0.2760845592055855 0.2301210718325915
0.16415315672103653 0.4294845514030698 0.28647229150463505 0.23845349658986845
0.19044791756211663 0.4285016635910591 0.2877944531396406 0.15911885634215547
0.19389964688781647 0.428505022101211 0.30084720269352755 0.14983806254367527
0.1802728611804512 0.428497306471302 0.2934218497443748 0.14800187106732043
0.19059630222575738 0.42850268967034105 0.3137549239956085 0.1533226916513673
0.2036008773858577 0.4285089210900892 0.2901632141482654 0.2548214250964478
0.17623627802291003 0.4284928094890006 0.3145437863892546 0.2258250957738324
0.16969767228497434 0.42849512964753056 0.3018099543805808 0.23549462146354094
0.20106148772127375 0.42850898456733855 0.3132319131524526 0.1800714798542349
0.18158016888554365 0.44093257130050706 0.2745787687969341 0.16482414405463777
0.21366287771373516 0.4415649203362293 0.300941133347263 0.2739459864178879
0.2132939786721857 0.4614982581060309 0.3070373238020053 0.1385135814244563
0.21223137704255055 0.4464936490262138 0.31014785783551657 0.20097221336303783
0.15943681560436435 0.45148339219766076 0.2981056731849066 0.18734186600267366
0.19326086004554205 0.45764370717033187 0.2746481552712544 0.17982395423127298
0.18492674711627766 0.44948884776594455 0.3284367338493074 0.21996483075203827
0.18156520274393356 0.4392292285874665 0.3277483457954058 0.24063698923389848
0.18522310628993116 0.46081869837247824 0.3286752382441833 0.1382664435297012
0.2053409632406183 0.44242422403144377 0.3207414887212353 0.22333626609340929
0.20451296041069694 0.44908379708521906 0.2807269097922024 0.21549410853601786
0.16680735882943548 0.4451949940564351 0.31988368152176433 0.21167360506068728
0.16764226381505415 0.45846698799908414 0.32091182158035536 0.2183592188956009
0.19668058235632202 0.44743193664110925 0.326518168876059 0.22815264432034482
0.177221563465699 0.43094872358544906 0.27592847838852474 0.19158620334262058
0.1721360681470987 0.4525641087562594 0.277994062855452 0.20046770948058315
0.19668531382621546 0.4399989091577002 0.27604323274344056 0.2139294135998316
0.20822667469974376 0.4401262481691053 0.2848205985883012 0.24841150135718543
0.16448437602173432 0.447732321325802 0.2851025664640069 0.2302712107638659
0.1621150016520088 0.45821073270663426 0.28889654279100685 0.17543763242015015
0.16250200269649862 0.43501078011657845 0.3135913275232701 0.25953011869433473
0.1612964015729653 0.44994321041224083 0.31178383492420386 0.24793403257132143
0.2092705280593809 0.45561748861495144 0.31651150613937207 0.1305387635645883
0.21129949994336672 0.43485224100844944 0.3123844731583332 0.22665282441900433
0.1809108398872755 0.46146390783455915 0.26592857170291045 0.1087123726532203
0.1511534677294287 0.42667972534345877 0.3209322041987589 0.21223295671446163
0.15171844959309236 0.44340433153236375 0.3208950418886068 0.23304161856827965
0.15862285718447613 0.4614942600025713 0.30127922724684286 0.14606897351225623
0.19932173376228313 0.4147251388895936 0.26251698886379554 0.11602441125185388
0.20030046783755612 0.446830991321517 0.26386965462532497 0.13446428709074792
0.19226569000481203 0.4404042237409711 0.26161862289180726 0.13555968426170506
0.18889185931076194 0.4542471319847448 0.2616458625756509 0.10876536927784983
0.19135478642149156 0.4294175623650399 0.2611179987340701 0.13675364443325225
0.14969553940913047 0.40609479700219725 0.31926812739647775 0.13578418687163027
0.03502228807858477 0.3997256690318204 0.3379092305251037 0.24877468406868503
0.027599859253887638 0.39135592890658716 0.3378101948214468 0.24986099535539966
0.024992444546527708 0.4024793497407128 0.33785331893186665 0.2798397848255799
0.03423078114906224 0.41324067056745994 0.33797848917707635 0.2972755268362505
0.017246134932621598 0.4269215955465774 0.3261337467093113 0.19617366454510038
0.017731827942595743 0.4030761628906939 0.3281052155571533 0.24501482579993247
0.01811724832746138 0.3822506717706034 0.32454200360123814 0.2057623860747601
0.017782628453315824 0.3969960251359793 0.3186488029811817 0.26151182806739287
0.017524856849025813 0.4156166003012677 0.33367545011574895 0.2119838272689502
0.08093867902750926 0.4179150391120613 0.33798202040804387 0.30724117374386056
0.049148387548548826 0.4221598775961112 0.3379810315612883 0.2892271478898292
0.09859879343527257 0.40866003384087896 0.3379813512469787 0.26733910689422297
0.11986351699618497 0.42801362644937446 0.33800622871807356 0.15316944474308197
0.11239607994756308 0.41852636978390084 0.3379913323180318 0.2418273044546421
0.07274351809138292 0.4308127345459711 0.33799638532858434 0.26462813955461334
0.13919811829220202 0.43176364324150074 0.3380168461620527 0.1947701413158777
0.04495394945171224 0.4320238576238375 0.3379899896101547 0.24520139092586898
0.1448536059019077 0.4064843062437721 0.3379845303551348 0.25109065473795944
0.1296719918537659 0.41730176610372527 0.3379946748956698 0.222325149979867
0.030710154929340646 0.428555907065326 0.33798122055393864 0.25438602628312257
0.09081275936627374 0.42874199422377307 0.337998820617894 0.23823798152053793
0.10641045182077137 0.427741135515346 0.3380019792084379 0.22668913547827435
0.05846158263851321 0.4296672442068361 0.3379907241661526 0.2896817571744928
0.06558144044101047 0.4393576833513296 0.338016770287273 0.25738685776157605
0.08924101518185894 0.44310083178725 0.3380324825256342 0.22591992738037794
0.11937112029354924 0.4409776934744526 0.33802981743155874 0.1645259965457025
0.030773879105433707 0.4461759474407741 0.33803421572038617 0.24823076883887546
0.061670304637624566 0.4497111194848369 0.338050281608877 0.2509966760091376
0.05081136435721664 0.44519616089426967 0.3380338655801405 0.23696376649173437
0.09985339633831058 0.44024172980497656 0.3380245957283164 0.18751675462479586
0.07620586862827446 0.4433923180249374 0.33803157196803924 0.2556827464546679
0.11843919329449393 0.453018613488603 0.3383083204799875 0.11520893691315101
0.10599200358228929 0.44935472356674455 0.33815864391649253 0.1672430459590986
0.10220761385156162 0.46347781119713927 0.33856668285190183 0.22158172836029777
0.13430889992335177 0.4448830640669965 0.33811794300337467 0.12582819643079862
0.0456390200342337 0.4553988346983509 0.3381416115704651 0.2094015649955991
0.07928849925444079 0.45913729872699083 0.33836269436806166 0.2511689442220183
0.09074825086283744 0.45640907933277036 0.33831888115682723 0.24019870491176298
0.14599990487013925 0.4153448710669712 0.30504306170008155 0.17048200613998335
0.14735556802952857 0.45103856172608014 0.3080503189590528 0.20198858388505792
0.14673508268872737 0.43532613728831726 0.30644821281306756 0.22224747374486223
0.19586538789971958 0.4719984078736925 0.33909856009627637 0.1646556736438379
0.16825911139355 0.47321698543412505 0.33909458130270903 0.14422358854475392
0.15444283797498048 0.4671399007534186 0.33879160833645927 0.19167944778565818
0.12293038826508884 0.46739687729013024 0.33873602378561485 0.17370698393615724
0.13780312951042115 0.46472158610258674 0.33865788897565396 0.12717431154348127
0.017411878236317426 0.4164808034875229 0.32015108636099593 0.23578459144354336
0.017995145961628094 0.4625541817198009 0.33707815646138795 0.23636505800443428
0.018548999501449826 0.42825275917468164 0.33677957072731324 0.23566573463837867
0.15918986253859216 0.41182361935826955 0.27073188837409906 0.15238627126090004
0.16139226745872787 0.4378855027511541 0.26993213585767967 0.1958545483667908
0.15299690101516114 0.42550177059951555 0.2783786480987735 0.2270987547368566
0.21718988842420697 0.4274489665078712 0.27488231464958607 0.23163758828276643
0.2121506086306888 0.44793322983666456 0.27075241052318266 0.21404038738490247
0.21707352547744957 0.45767293401744136 0.27621737286766435 0.1996226461640297
0.14924405014646963 0.4505658708953991 0.33830631165839103 0.1875845295401438
0.12982109817216925 0.4549131985874712 0.3383940230929886 0.10181301550190262
0.232260826804005 0.47454100000535027 0.32794911534946525 0.16447783053091594
0.22932206048097215 0.4745416361348832 0.3394215358635979 0.16181487846910003
0.23124538707829492 0.47453589092873427 0.3163911391586153 0.12974376318376823
0.16426332459961349 0.46177666609030255 0.33633218991333214 0.23624318637048686
0.22697586754211854 0.4320299093769804 0.30250977061372447 0.2652375091030489
0.016211935233077252 0.4829078569514968 0.32036372059484314 0.14857925528838842
0.1838261027486302 0.4147580567830898 0.2604040767980905 0.104223710455072
0.22117957622357234 0.4450305817053029 0.28135936765879005 0.2462220699049107
0.22271232567765306 0.41821817108408743 0.2823163665346129 0.2042299422573567
0.3515185711440944 0.40543286705933745 0.33782664041144905 0.2400899088098306
0.3442027737561283 0.396976254831188 0.3378608514314454 0.2604471766852265
0.34121803094408654 0.41390151135746656 0.3379643690497308 0.29631546151178345
0.3335658065378644 0.4025354890189178 0.3379890743879027 0.28318791369295454
0.35152444296621976 0.42778899576299223 0.33792484923385696 0.2146077312796417
0.064623118292602 0.4084470093309951 0.3379809592224774 0.2920198053904995
0.05973434402863675 0.4179746933926222 0.3379809592224774 0.3193495000218408
0.0779736026126028 0.4082997471903186 0.3379809592224774 0.2779119473061579
0.05014310014049683 0.4064649288634094 0.3379809592224774 0.27208142219966597
0.05247812858749608 0.3933783736822063 0.3379809592224774 0.2377106433529731
0.16583942863236578 0.45774147373381846 0.2676138908926573 0.15537910510010342
0.1671451718327049 0.42957023583909537 0.26580165327836724 0.1573694052812912
0.20694076906419226 0.42626753294122754 0.2662239716796838 0.18547783374859872
0.06589649897494193 0.47778378139913763 0.338760898745785 0.21639657992116398
0.04976770969451018 0.47442935392195545 0.33854863606231594 0.1852201184073455
0.024443529136797704 0.4815482199748549 0.33805421594889923 0.18437398846412228
0.08160727007555935 0.48327253249573154 0.3389387608987226 0.14361189471776645
0.14664822681719988 0.4131704707411295 0.292455100634413 0.19388787124076065
0.14689367590656058 0.42738383964005544 0.2931895851559284 0.2568837888530839
0.14846884915533937 0.450289298121644 0.2900446293311903 0.21776699241983716
0.2271903510330444 0.4096283443212616 0.2951727844413338 0.1721255967710862
0.22688440303589358 0.4203949868780399 0.2957910460687876 0.19996864048994847
0.3130753633029898 0.4750460982549361 0.338596904579109 0.22474192728032
0.33325694864799016 0.4825212234285065 0.33821708146984897 0.1635506350954821
0.3266425612682274 0.47373067930311946 0.33843497605314854 0.21651566943720932
0.344085807638097 0.481229579065407 0.3380913968971317 0.1824378066365275
0.2907801849086057 0.4798207536173186 0.33882450932395813 0.1725572133295736
0.2713608355172059 0.48033418776511017 0.33907645878062775 0.19139588135665875
0.27689801798850544 0.4643421803982278 0.33856070326836896 0.20388724191480304
0.29190023642700147 0.46629767074594364 0.33854098765131824 0.1966340248037004
0.25309057411758273 0.4581649622082453 0.3385000723916939 0.22862509728503824
0.26335765712397136 0.4660394294798156 0.3386820236560333 0.21993730975264053
0.26407630542967997 0.45190132144456047 0.3382555226383245 0.20267374371775967
0.15973827764435436 0.4613692143042789 0.27860361918377297 0.2077812008784291
0.2069919471578555 0.46152781902661477 0.3278220346420751 0.1599841452074361
0.20946825240828432 0.41236684424029196 0.26744454290253306 0.15382412053239716
0.14624215997165727 0.4048936513467183 0.3092890796813624 0.11091900774581605
0.15128549710798986 0.4613805537386858 0.28990300579708794 0.19067616864566816
0.20606129071519452 0.4615068862917613 0.2802676252349333 0.19208653926739058
0.15550019777614732 0.4164656625274832 0.3280899288483194 0.24976257883202369
0.15134312277360995 0.42629400130210393 0.3377775291217444 0.23792690121920138
0.1553488862673457 0.4368997068009855 0.3352959949680856 0.22094783055429168
0.15752026076597528 0.4473285021200808 0.33142471278575025 0.25044677924907965
0.02097023550481519 0.4385397093291703 0.33799642541258546 0.2521588286980999
0.35575043457940214 0.4409323671928672 0.33545032996840896 0.211724399803339
0.22579079349695985 0.44887056776227996 0.3076150519828259 0.2358770303452067
0.3544055415300538 0.3871748400922159 0.3361116915689791 0.19588725916118324
0.01931223072917018 0.38360711751676546 0.3366029239960131 0.21358992591664896
0.15181083413604746 0.4116882090465298 0.2795963434899511 0.18467609067504429
0.157054130249636 0.45923886752809534 0.3280205445779855 0.24121070521905533
0.20665149494111032 0.4721120893185769 0.33906664571081624 0.17880798786988472
0.26802375427808267 0.4062103326945552 0.33799273533231944 0.23967483794967376
0.32700029639542016 0.4140595849756968 0.33799847484187245 0.29904561373494526
0.34081024226494455 0.4323804387479321 0.3380135830598885 0.25658257734739254
0.017317329620238523 0.4517971449527588 0.33607797383959126 0.21470740980013586
0.25966546697913534 0.47797332929835695 0.3391473405299571 0.21957848452807768
0.24620224501771082 0.48203022605599394 0.33937421711845817 0.1512850364473104
0.1490905940385813 0.4610995985788071 0.310140510877156 0.16085664999831098
