x y z curv
2.155805476479255 0.25940976711858094 0.39167161472073 0.004701916766216182
2.166408206526085 0.2488946765139671 0.3915739035663608 0.004514112518950616
2.1567017155309496 0.24296624476261502 0.3916634191506542 0.0039815256803629965
2.1837899762628727 0.22987467995073282 0.3914137264037033 0.0043009487661280574
2.173078228859836 0.2939222176301148 0.3915004709480109 0.004394486844954607
2.213712183688484 0.24215478281971342 0.39077406727293845 0.0044453319984097
2.200756372771198 0.2650769727627524 0.3911561427193595 0.004519682330788309
2.197196248497865 0.25072602012384304 0.3912588578644152 0.004624142186955005
2.22121726433418 0.27433027237386437 0.3905532922036516 0.005033001765731529
2.2348941681684993 0.2785858316412044 0.3901465146765994 0.00503082102108428
2.1977536617156677 0.2931478041338689 0.39123816221813845 0.004777131762449936
2.174307418216426 0.3180657636944354 0.39148048773594485 0.003911411310820839
2.235709602971104 0.2553165324125142 0.3901320242219158 0.0048061829583852965
2.2104238237318317 0.22813569251206592 0.39087036043627765 0.00419145226406508
2.2701709321927703 0.25995708447619165 0.3884534152091934 0.0557473217437197
2.259173615771977 0.2440475830861069 0.3890091431519783 0.004755360156607727
2.2616523763543803 0.23231824823449465 0.38887992708992264 0.004474574674768952
2.2494138142370295 0.24945165754020593 0.3895057039385814 0.0047345973152241585
2.2422063342404464 0.23186989082400536 0.38986594753737724 0.0047902235241359704
2.2559415759007537 0.2775295968537484 0.38917222891050696 0.004653705419636587
2.2477459791116683 0.29663931034837693 0.3895708230099006 0.004865520865520044
2.2178361605023067 0.3026158075002645 0.39063744768254205 0.004782109242560513
2.225336232103392 0.33203897559985646 0.39035626427357306 0.004429892876687868
2.211368881077223 0.31677755000467356 0.39081129670500564 0.0036960691818887313
2.196215836429246 0.31811039303166444 0.391267639896463 0.004902154377236166
2.2701054646414383 0.3105887685558119 0.38841560704788136 0.10886263523855624
2.281338818156446 0.30016672100648967 0.387856270206988 0.1290044897635527
2.2820648023714916 0.31279441358612603 0.3878031968251327 0.19071556717513982
2.2427685870433067 0.32522524202896913 0.3897705561246347 0.004784686175389079
2.2669622451726488 0.32385467005575513 0.3885369177934965 0.11787442014925684
2.2632893701820698 0.33467085198201924 0.38870032820928996 0.09343235578919475
2.2374767868104106 0.341210219637859 0.39014158935020343 0.004849582047168225
2.199612975889369 0.34079018668763594 0.39128061300139505 0.00406749055368793
2.220792745447943 0.3500519501407803 0.39089955252029535 0.004069128722440751
2.166342367587363 0.3358152919810178 0.39160178528333994 0.0044229921965328305
2.1534649265495776 0.35918350812599226 0.3924070818718091 0.006068143260830555
2.1853016451965823 0.34783847631617726 0.3917076823499803 0.004500267361125517
2.17777032751343 0.3602986225491839 0.39217274293231097 0.005043122684111297
2.196670739963386 0.3541804653110414 0.3917785774320123 0.004521272897127531
2.1288471555880535 0.34189953939707496 0.39162423019625725 0.004375439072706085
2.149466318015446 0.3493139381158322 0.3920909833100845 0.0055686787005665185
2.116928067839508 0.3360260720700828 0.3913111367010158 0.003809351989920404
2.119026973468146 0.353403633866908 0.3918528771762917 0.004643336715922882
2.141410643208476 0.35853658745996886 0.39225649692287745 0.005049725615940831
2.0817068751482366 0.3301717835090093 0.3903699470665523 0.00479810597955321
2.1054837978186622 0.3277353413631639 0.39111454390756817 0.0049172033170098535
2.1085082741995027 0.35944107041482193 0.3919211827855643 0.00428467238739565
2.09689516596977 0.3444573847601362 0.39107568863595976 0.005054767369391434
2.0753236721507697 0.31786105776152934 0.390206183205427 0.0051865811314915035
2.0595561415478008 0.33522487976409354 0.3895343690146687 0.004651144830161207
2.0564706969850373 0.3478063399150518 0.38972635040661324 0.00468291196824164
2.0715945048586866 0.3603471377593528 0.390984909921367 0.004083443337082729
2.040848747656768 0.3453899318293338 0.38889537948322106 0.10847195816902071
2.0284768842509022 0.3447736609263045 0.3882871988989617 0.1720384975594721
2.1198247136041344 0.38102520101519277 0.39387485191507343 0.004337378125376072
2.113329357609887 0.3713767869772857 0.39296109390115275 0.0035745703643398816
2.1338590864474023 0.37024309216856877 0.3930890035548059 0.004835411041490072
2.0549502819105823 0.3799714757640694 0.391936411248075 0.17938386649787003
2.062859159811895 0.39295591265346524 0.39391407982333687 0.17705848249449394
2.018579106575784 0.3525979341506423 0.3879414416597431 0.2373075495757262
2.0066853075452697 0.34374420915472476 0.3867847712227453 0.27626163455769676
2.0095501180254796 0.35826186992442877 0.38754134944078705 0.25643043672150956
2.011345475115924 0.3703094270049434 0.38878984330223265 0.23520258636163469
2.0004925778446587 0.3667069554970939 0.3877250378778864 0.19566122013466428
2.013378073191035 0.3865314000185961 0.39083555371899525 0.20946945988427693
2.0025709033355366 0.38433894468356994 0.3898764983252121 0.20725155608424148
2.0254595626638006 0.40224191587241886 0.3938674414086825 0.2167680220745185
2.0416060961201437 0.4066382574631806 0.39523387072129706 0.2092062977146103
2.01114910353556 0.40505324098858975 0.39378877182257316 0.22689936134273703
1.9902384838619018 0.41280107791682674 0.39426870486272164 0.2155466352311782
2.0800756930982054 0.4096546358810672 0.3969134593006103 0.1925489908502748
2.118403892811619 0.4069616731447282 0.39707149302304023 0.12263156694098579
2.148071978303079 0.3861053025435071 0.39452116795939285 0.004270068479041559
2.1271405901134863 0.3916917414179525 0.3950593499663474 0.025154691161160384
2.147850947155046 0.4002943448098122 0.3963873242192769 0.06924246625347456
2.196531797284589 0.3927852320291021 0.3950755728291234 0.03375776490731581
2.1852373038167086 0.38756593549987456 0.39446262882686606 0.0065064614792369095
2.1602508247652095 0.41085343844090894 0.3978959922374521 0.099607911441545
2.172262507863799 0.41650282293454044 0.3987291785409923 0.10976090413621742
2.170665123521155 0.3838351321570079 0.3942299596220778 0.004334195513628013
2.1944179047466665 0.3681763740341892 0.39266877295906094 0.0058336896808069945
2.2273547351916356 0.3882092472344413 0.3937711085943974 0.10707556873972542
2.1970577629834382 0.37992311016958447 0.39365355245633726 0.004094136127447409
2.2049859334625985 0.3650568798836572 0.39212674201261033 0.005480409262899246
2.2128603609469564 0.3772794044085892 0.3929198053209238 0.004391843342027297
2.2289969384673203 0.40538735560594374 0.39610623645318105 0.17425702775579252
2.2715108566316955 0.38746203442640026 0.3920206357981043 0.2034118465026932
2.281724357519076 0.38015948037865466 0.39062009951274174 0.2638194151006786
2.2549676613534673 0.37551675224163095 0.39122345335784164 0.1683916034236693
2.2446854431386187 0.38005702273941727 0.3922639885804936 0.15305547672878192
2.2373163293156413 0.3624306491565993 0.3910690769751069 0.004402624639657504
2.274111267462397 0.3560821462116421 0.38887525957753505 0.20627502071310275
2.2980812023008577 0.38069351938405016 0.3897757046391036 0.21786657168224483
2.310526933513061 0.3870992405429199 0.38992309899267175 0.1858147986147329
2.2922714290270423 0.3611517353821509 0.3881667603116429 0.2180359565715382
2.310922551992833 0.35957084118455235 0.38673052575424827 0.17939606078250095
2.2678497849503536 0.34548188995606804 0.38877699842214675 0.166583074362952
2.3206889689668264 0.3451556031879321 0.38537672686227664 0.20336519816335982
2.2941013101697907 0.32839806412184075 0.38689635512157916 0.23416825605346664
2.316533128012163 0.32051980855939 0.3853445402877771 0.19749465938763563
2.3076625174616323 0.32618136726085123 0.38596865131345026 0.19545594395252283
2.320446106197339 0.3316759300663437 0.38513036244496207 0.18616645059999753
2.289629756238594 0.28973072908952013 0.38729088955262486 0.2006454528406214
2.3174166014603825 0.2945876626429138 0.3852738257258149 0.16241299887291918
2.303307353705531 0.27524375747271396 0.38628767497306526 0.2087116826121662
2.3221156779092746 0.2563319735838141 0.38489571821887886 0.16851172213539795
2.2837177885921096 0.23870394810613474 0.38770924812146373 0.19484166165829192
2.2946286865862637 0.2503266462847551 0.3869100194146886 0.2088894381292086
2.3091047975806154 0.23745591522791848 0.38583495576047344 0.19029588001655282
2.2922892951883003 0.23072091634981595 0.38706931728460486 0.19521152607842177
2.2725694339596885 0.22823885428238905 0.38832267316238683 0.09702913030799555
2.302446182844095 0.21083110315181153 0.38629356435352524 0.23002123919280867
2.284561190793251 0.1734374978322562 0.38752354596289185 0.20390099725730976
2.304337608222091 0.1941067171102252 0.386120091325105 0.23507586372146388
2.2812193603510322 0.20637907038424902 0.3878492648727728 0.16542889076955195
2.3048546061823325 0.17981891511155196 0.38604735861869494 0.22426160007614837
2.261523294526466 0.19365575624872877 0.38882770471644973 0.04989690027441205
2.2571135984462636 0.21319240504884956 0.38909351781419327 0.004142593757130207
2.273212446939181 0.18635527157726378 0.38821613048084536 0.11197632230805968
2.253329384727533 0.150731534406285 0.3891662715134242 0.003621445634664715
2.265699740907834 0.14996452650137868 0.3885269694670883 0.0765585109403974
2.251779561491646 0.13451542616277826 0.38919968416035977 0.005389360643254023
2.2680165356718094 0.1311257298229493 0.38832379928209293 0.08005353401167319
2.318774333573372 0.17789282291409156 0.38502135452477115 0.215791493838658
2.3128455777928583 0.14632503267436558 0.3853889803998607 0.17985482236008982
2.304298745697452 0.13644030937027937 0.38600464277074475 0.19384875731040543
2.318366857628662 0.12086580097599131 0.3848963597645269 0.18464758926354455
2.2946976559460457 0.4038513068428458 0.39361333379163943 0.21521345413517431
2.3019645366789256 0.4163460834161218 0.3956971956941838 0.1962211185285475
2.247587119079701 0.41809639080641786 0.3979529175864197 0.17321313054574425
2.261629222037735 0.41879593477471283 0.39763327809466054 0.20199818345063134
2.276523820486452 0.4046652693821294 0.39448652877443346 0.21551589445468222
1.9852451300970486 0.3374852736780704 0.3850927520610779 0.20725603415252894
2.023709209535266 0.29869449493508343 0.38776948264811806 0.10624509165899837
2.019989702539355 0.3095426006086182 0.38749293137076113 0.13733307923866642
1.9935803764879765 0.30553078182349613 0.3856059221459275 0.17702110155404957
1.9846185619427341 0.29194587078930967 0.3849363105618682 0.17052145380718098
2.042366379499213 0.321066139164286 0.3886841048183998 0.004380401003519578
2.0643675131669066 0.3127056260222177 0.3898340067298116 0.004499403161105258
2.0363973717212196 0.3080573124960217 0.3884116190683268 0.004147299065080966
2.009639178339233 0.2859065316421059 0.3867533648267994 0.20213289243693747
2.045868299563366 0.01632412790558085 0.3849877216607373 0.18693889351407017
2.032290939551582 0.032094378928384244 0.38546708581711103 0.1867101508906689
1.9952401321933146 0.03682130259208627 0.3844387583994701 0.1672541365527406
2.0173480442172353 0.027940361417638084 0.3849165478074147 0.175691604808574
2.0128986967635925 0.017698641786759325 0.38443508064305937 0.18910465824835423
2.1810458115052826 0.42724432503739235 0.39433918585803 0.23609607636015895
2.194610566289375 0.4294345246817772 0.3949716559172463 0.22390277881616247
2.0944280986348476 0.42750779400160566 0.3942661725156386 0.2213657158074702
1.969171664967487 0.45807599762060747 0.40715147876303354 0.14711800771697098
1.9787434839304148 0.4595701960992872 0.4002355018944055 0.22311302439274167
1.9923077577653534 0.46012687423994036 0.3978539119909712 0.16865140067343676
2.258761801493023 0.44856635241667037 0.3785571277925963 0.22486354976691678
2.278193977529048 0.4426162817939114 0.37697062575477225 0.22669444126666297
2.268442872947237 0.4370410568832076 0.38004437044222406 0.24805693452775754
2.2483518280086154 0.45162557929392144 0.3849540047155797 0.21491122899990386
2.338447559684488 0.46040459882961443 0.3906552714135987 0.15684164199321318
2.3375319363036238 0.4001768816865583 0.39327489688279643 0.13718722968958397
2.3373696216974156 0.3832412693044328 0.3895450931042447 0.13933158188956213
2.3379257457305314 0.4263982005918263 0.3861928322009247 0.17405592763768357
2.336917397875008 0.34080298959850763 0.3820317915075791 0.15253062678295282
2.337600703333791 0.400691048661912 0.38169670289577373 0.10931326699662033
2.3374395586776755 0.3753607784811001 0.37764757497682766 0.12331277997727104
2.3381511754536484 0.4197532325319523 0.37716102968060655 0.13778032898181147
2.3339816577222816 0.1890872196305813 0.38679971815413905 0.13845946741595597
2.336068252301577 0.2911069969458639 0.38240949786931255 0.1251440008647195
2.334050354560448 0.17640494825540282 0.37609993628986027 0.14201458073555737
2.334664308813565 0.22164753317007885 0.38482613285016903 0.10640611461804202
2.335308753527038 0.24095820114240338 0.3754436678284262 0.12336276039795563
2.336220605548519 0.3049923468998685 0.38632415233251644 0.13110800206678289
2.334581280043169 0.20187976148807968 0.37466457924326935 0.1514496305659728
2.3343983156378263 0.18842791865940575 0.3720844144887993 0.13471673874208082
2.3354341297066585 0.2600242979481991 0.38369199884227445 0.1377053093152794
2.3368512874073444 0.3136039961894453 0.3678036897903548 0.12302981872510017
2.335690329907316 0.24844109941544223 0.36587029943525995 0.12252312884219885
2.3366534934353753 0.3190039149159291 0.3797734410909857 0.14756803418895226
2.3352920546391287 0.226829453061846 0.36576079310502463 0.1292397975421303
2.3360205704755153 0.2815549007511351 0.3772854508150735 0.17199306653537177
2.3357895390333154 0.26872768123346746 0.37700523397626223 0.1691386327611258
2.3378406466769874 0.3692266472116973 0.3659131302677564 0.12001905177787338
2.3376405110601723 0.3560845409252754 0.3658563812395556 0.12701187675560863
2.337916591896633 0.3825244269237223 0.36855357527734733 0.1197821724955151
2.33901997676903 0.45480324851460363 0.3699798014307783 0.1719677339937912
2.3336505281110522 0.15885252934302346 0.3763063330037961 0.1571543451391852
2.3330900726888713 0.1244814831294209 0.36641603510671983 0.12295176703505008
2.3326137625607357 0.10366889157604088 0.36593254733892033 0.09723091353209365
2.332575703945829 0.11984027040722461 0.3825329217390333 0.12444052876840196
2.331818970500289 0.08834229440941548 0.38270450858811167 0.14001799448802238
2.3322061164649655 0.10796897173097385 0.38564442534744536 0.11644787844619872
2.330840798958521 0.044429356390615224 0.3801695912829731 0.1445812247280585
2.331528408411917 0.36220080366107443 0.37939533146041704 0.1679481270392101
2.3314637216502474 0.35003650769361194 0.37784498246458376 0.18033364465332535
2.3302643871018 0.256178855908822 0.37228923882214404 0.1712217819569743
2.3310135802342673 0.3301456144315036 0.37889996975151924 0.1797436645682323
2.331461563182274 0.3035832281980163 0.36919005074113975 0.1858232544610236
2.33111723183676 0.27646206754310726 0.3673765808639825 0.18319766904623253
2.3290220497241667 0.16895346137321882 0.36774299632764607 0.197418330310053
2.3247727831843643 0.02617562023239993 0.37630136493947053 0.191808076460622
2.325368354960494 0.014546656987065188 0.36780526036479944 0.14762540113801043
2.3252780282465726 0.05474264611699385 0.3783485455761215 0.1820702310112344
2.325808121652339 0.06908842214101678 0.37673352346688754 0.16571979905781356
2.326476141480783 0.08099971854625732 0.37321319785996887 0.1409119073288193
2.3273629759541388 0.12910424376365698 0.3762508353188603 0.1680390345397002
2.327448227802907 0.11510345074600514 0.3714709825951521 0.1929712993200467
2.310820814224551 0.46019236832627186 0.3974844713925791 0.15799787093863413
2.328585083277426 0.46013584130450913 0.39776572189078185 0.18628485111353243
2.307072588343832 0.43187954981346216 0.37630067580594323 0.2713092670735055
2.3169135305469895 0.4372143580437555 0.3717493759455468 0.28918710964822036
2.309786018582217 0.4483009925601791 0.37075030689290756 0.2602005594622502
1.9713402709721959 0.25594140328015424 0.386256606268917 0.09899096734090233
1.9714655012750104 0.24034629261537274 0.3812035273491224 0.14305624083833934
1.9701020831838139 0.30768130265884425 0.3757940920822328 0.1256599655079161
1.9701064353531046 0.320678607237067 0.3836035191307511 0.1325490854713874
1.9707277978362323 0.27616384606385236 0.3779137400167971 0.10868134682035913
1.9722243271787905 0.20710223050555163 0.3867101124065223 0.15398128156680876
1.9694650524763602 0.3350162873837878 0.37083325816647295 0.12078865849318406
1.9694110772071598 0.3695151716273713 0.3879447833520435 0.12512518965546493
1.9688818863219102 0.4042983147669754 0.3887206503939274 0.13658975003637672
1.969160213088144 0.3733555822277795 0.37731686867014125 0.13555019612280184
1.9694146195601487 0.35734302334139123 0.37997465808080483 0.15500761506942753
1.972525761536037 0.1754492351141569 0.37371340281865556 0.14169571577413032
1.9743415036875793 0.10122534430071348 0.3768034033751329 0.1426171725378038
1.9733950082079055 0.13764314012608433 0.3733776414730576 0.1391529996836147
1.9726961645982573 0.1838175950340341 0.3862477388779134 0.1321263780071191
1.972569501529325 0.16500498715714532 0.3668757864718213 0.17132409878357036
1.9753519345083304 0.06661472586142245 0.38386793967989447 0.1239527089858465
1.9749580396367243 0.0765948167179348 0.37830953719772525 0.10952165869459421
1.9704245792086619 0.2774764393888783 0.36630997340610105 0.1260795054946246
1.9723381399500606 0.1953814547414977 0.38229056243680287 0.1576152001409825
1.971293339834523 0.2357826722446946 0.3698154172429773 0.12555656829162423
1.969726053454413 0.31470157785402475 0.366629749256172 0.14662724775708816
1.9700415553842177 0.29889573309612794 0.36733962697327055 0.15189047885162776
1.9718613776398897 0.20115469460072832 0.3658613887965785 0.14529794054130796
1.971773377787295 0.21746359558393108 0.3757535862723536 0.1273904270882482
1.9744324909332627 0.0866018248862385 0.36754251701186474 0.14011537665472257
1.9753823778832955 0.05038129855999317 0.3711143607329639 0.14139436845414788
1.9760115710617379 0.018414539156139633 0.3664862479775121 0.13990388349234872
1.9736165117918343 0.11983118705460374 0.3663290535369491 0.13814324926783483
1.9757751324417778 0.02980142271165953 0.367676730103633 0.1390087009835067
1.9685442937957265 0.4224866512019777 0.37500078647815416 0.1261483684220435
1.968702294143132 0.3880537283629767 0.368233660042951 0.1041016631915805
1.9680373076085766 0.4323619770827385 0.36903284016676974 0.15404007281376436
1.9676078332030587 0.4465238461251836 0.366138080702384 0.18848288544068884
1.9682011155790264 0.410158995068593 0.36709494260342596 0.09941086738189833
1.968048417226583 0.46083657807379136 0.38367820015568443 0.1373281687893274
1.9683712036897507 0.45555542199514043 0.39509181388593356 0.17998027331534452
1.9687489191102452 0.44089634798893884 0.4029546733195651 0.1449932900560796
1.9687988279913429 0.4214010022804662 0.39385828166233383 0.11411648480725724
1.9922351267921634 0.44593839798598944 0.37040573944932487 0.273112694239616
1.9993694122489902 0.4560407655743907 0.3774238843976797 0.2173054326079286
1.9839569768858492 0.46274372803662955 0.3843961062243414 0.19717956235348946
2.038882073237144 0.4350056924789042 0.3731504093735659 0.2743158984421679
2.0516096300359994 0.43891310319661125 0.37110807368265775 0.2457096597613512
2.054364747653171 0.455167988103153 0.3761036740478215 0.21363082817582815
2.0384107493159456 0.4506901062401689 0.3722635681528656 0.22981583961349838
1.9760924170085779 0.4603755303105342 0.3756576877756905 0.20039113367681738
1.9689887093463816 0.36914933233858216 0.36569625936713945 0.10758129789353964
1.9730704263992087 0.25996564230862795 0.3657354717327285 0.13364725703321392
1.9733777909819847 0.2886590115087299 0.36574390660338935 0.15746295123071324
1.9726582776372008 0.21369965659764883 0.365712739522202 0.16490619799280642
1.975132769748345 0.10921990813024986 0.36571923331825373 0.17682264175011814
2.0031815838722946 0.002849644192324102 0.36569260111602253 0.1747270323027924
2.1545262673660712 0.0011642273381827464 0.3657074914622551 0.14083125492856782
2.093580644722239 0.0023908345372124257 0.36570589855100993 0.14463594850401232
2.1428125205485307 0.0009948617601934638 0.36570486564928273 0.12826457767387575
2.129068981059913 0.0002953626170079899 0.365697471830689 0.0890486518490712
2.199512443245313 0.003106821887675594 0.3657175127325664 0.15873100135293353
2.2439685803962166 0.0031183773795467307 0.3656987800489877 0.12267821946591095
2.2644473042421476 0.0045307909466893925 0.36567505724179267 0.13190193704796024
2.288123631208646 0.002431272677117716 0.36569833824054454 0.1341336968949166
2.329601921659367 0.04347976469455303 0.36571708793726443 0.1229847993141701
2.3313376357891595 0.14692758004810239 0.3657075250748633 0.13476164853947287
2.334311980117302 0.21479071206062172 0.365698760412295 0.1395336871298489
2.3363687244598 0.29127496777701484 0.3656953443384453 0.12201238696322482
2.3374335146753458 0.4260673218803076 0.3657287463240538 0.14762886304166192
2.338331350611496 0.4136043997933631 0.36570781802939334 0.1432855778769182
2.3362965062295924 0.3980979713881412 0.3657374529091596 0.13926427670588565
2.3347894768902897 0.44109418992028826 0.3657375843632973 0.19449589035809925
2.2553140128299787 0.04163093546198403 0.39055229926544544 0.18710870796391993
2.2365127686885957 0.04132506072766959 0.3910156278316685 0.15680577010223995
2.2259788171673156 0.04645712985141992 0.3916100710547329 0.15712233041704726
2.2387056936103225 0.05249346412012004 0.39161932929606336 0.16232241911453607
2.2215862688725614 0.06416799630189592 0.3926614425736917 0.09266767215320136
2.279550548537845 0.03214368244663526 0.38943110126282166 0.15972467989265673
2.267841632777213 0.028207793322023438 0.3895135017238326 0.14993052501503243
2.246088209856229 0.02327119159311579 0.38971003999236464 0.154928984403869
2.2569958611502505 0.06496171986461982 0.39154226487679283 0.17655255854759613
2.270393352075226 0.05651579618922187 0.3906720656850116 0.17811371044626617
2.2674274884338215 0.07504107418907896 0.3914562994931027 0.16062136023876025
2.263851240215761 0.10800108211214061 0.3924230121816624 0.08344585400850374
2.2586680498855314 0.09344275438299027 0.39235007795761134 0.11270088141081067
2.279763194204345 0.06778302360023847 0.3906422560742725 0.18074669109541142
2.2845701888207968 0.07841965838863064 0.390672296693587 0.19166141827258606
2.2853601538109154 0.05706403065696543 0.3900657499227163 0.19152752685403085
2.250669923066401 0.12124508733141806 0.3932067010264639 0.007243811467131243
2.23919104573111 0.12046142757275843 0.3937184045325115 0.006227935907942811
2.2176128486024203 0.08865456107790326 0.39380322871308443 0.003487120378177188
2.2017024755158934 0.09682086455799713 0.3944448866539275 0.004275025025683273
2.195484939436115 0.12438531643210707 0.3951340632131995 0.005170477942565042
2.223257427894953 0.11540734958967205 0.3942628090365503 0.0041973711205038206
2.221133902515231 0.12809278223504805 0.3944045067711934 0.004506715382022939
2.2467115383059877 0.17926744384886042 0.39360968238130495 0.005026150453988073
2.256168136190687 0.16010334053917777 0.3930458679726876 0.004388082023117094
2.244055854822573 0.15717260810866795 0.3937113432911851 0.004514377812286573
2.2567864732637446 0.1721972024901109 0.3930365317945985 0.0057291747231872515
2.2475883017573404 0.19710363570535147 0.39359786304350364 0.004689467756749827
2.212051268679073 0.14154381471433133 0.39475249574125837 0.004657501582250617
2.2336715786088757 0.14476177608461002 0.394035838173716 0.004602758077057411
2.211620985926986 0.1773201912635155 0.39479012739799724 0.003981219668041555
2.206229043324158 0.18680809693485245 0.39497556603947587 0.004222697546933755
2.222208319315655 0.14986415097811756 0.3944202550448529 0.004627195042933851
2.2367687090062955 0.16964375731110498 0.3939746023484142 0.004438880734626104
2.21387545293783 0.2054527544670312 0.39475699351529736 0.004439124772775833
2.2390406759352834 0.20808435018714533 0.39396951829018123 0.004230746515171902
2.2798815267127654 0.1331613065405254 0.391669039902234 0.14983362258900407
2.2744914724888563 0.12228553347757232 0.39191797136904716 0.11885257404726114
2.2850044148127915 0.09826618583694188 0.3910249207807753 0.18963321583902934
2.273984542087665 0.10160894942367125 0.39173427281251255 0.1354822876396211
2.3136584417397783 0.10735912227177292 0.3891202713603371 0.1718533181426094
2.2935090160389757 0.12158411845426174 0.39071261591120565 0.16526175605586985
2.3023826570000803 0.08824606510402759 0.38966395400296994 0.1859043106518184
2.303531876732991 0.10157819721862704 0.38981328804173665 0.15360114112526319
2.3220384913742333 0.08024804011621638 0.38834928821882375 0.13520363879525477
2.2957247343173166 0.0656459115687672 0.38975271807289724 0.16488317334293692
2.3073780588279993 0.060617875040500015 0.3890128367735362 0.1801447220495741
2.3184781525169846 0.05672988417807243 0.38834628704260243 0.1830072528872845
2.3238264313917094 0.04099321189206464 0.38803342958333137 0.1659855551340047
2.2911472360007252 0.03435847326627305 0.3890930365881661 0.16696019586728694
2.2905241701474295 0.045415397145475725 0.3894967968986269 0.17743810440270605
2.302957875750018 0.038989645157580646 0.3888706926295418 0.16443884937213027
2.3279728502000983 0.020504508515248064 0.38765786416729275 0.12234309884827269
2.3203338459565668 0.0290113988874654 0.3879667045951148 0.17287556173356858
2.2931340464759113 0.02067434824129146 0.3885806120368803 0.16623375846645908
2.303442854545707 0.024944903451790172 0.3883805299467217 0.15800256494406825
2.273642345692142 0.004260683570591013 0.38817473514347384 0.1208218643519714
2.2927266790085596 0.00754485424913278 0.3881591622403629 0.15784353999540304
2.241412436713945 0.004184353744463032 0.3883838718094551 0.12457819447674884
2.226569714306275 0.03137917348420803 0.39057990238474644 0.1560276631614286
2.224168986283626 0.006239167500365793 0.38868403918801225 0.1288038946559181
2.1993950611576016 0.0030809527435049365 0.3884835147351539 0.13082796706072417
2.1874783774481155 0.03521284432057372 0.3914113531275098 0.17136850255071312
2.1769240081012864 0.027383006959107913 0.3908546974018382 0.15889229162106544
2.1723313258958576 0.044127312722312184 0.3922188176398394 0.1066403947778573
2.176233421197391 0.015818403139082567 0.38981012592595726 0.1658455893113747
2.207577917603399 0.058732274208431745 0.3927113832463272 0.09880428587896432
2.20241761792001 0.07487673078568405 0.3936747358417356 0.005238596263714382
2.1842019570131828 0.06968594306146386 0.3936998770561323 0.004378648907061226
2.1537424471237046 0.05920968130033371 0.3933206179768703 0.04148448634935377
2.1549629686217417 0.07355514817521736 0.39412605993310224 0.004804522790305801
2.166574420474712 0.05411581441276722 0.39297887064280024 0.07373308541986505
2.174821428702006 0.06228124795816832 0.3933980069908098 0.04598903905139469
2.1418826732465517 0.026355723045890962 0.3908244726415688 0.12822004835122908
2.161736371672902 0.025526400389590673 0.39079181268287844 0.14475330727307345
2.1656775653521874 0.0112290084041707 0.38937591163559404 0.1392775018553364
2.153520141560843 0.01727729604985519 0.3899963040414972 0.15185743350000316
2.144502369956137 0.0430005864174827 0.3921716751763798 0.1538745496060371
2.142889382811121 0.05849173953926516 0.3932380459414008 0.06938772474880862
2.163024000309148 0.0820913687969467 0.39451798030663116 0.004515076325697423
2.136762191601709 0.08576654897551887 0.3946027817374527 0.004431614667987444
2.1491251404399923 0.08501525855144562 0.39464251539478 0.003913421079232801
2.1744793290359903 0.08316024167742302 0.3944918191564088 0.003835348822920107
2.181360210907443 0.10520832191360854 0.39514622569985114 0.004533944011294005
2.13592698556653 0.10626760905853243 0.3952494363270972 0.004277336878680414
2.1683934079472484 0.10989914089571237 0.3953449771714344 0.0048304617389857574
2.1584662671476877 0.11974818817643873 0.39551948386168334 0.00420916752129081
2.1483549512945967 0.10885948884803272 0.39540406823774243 0.004472743416930864
2.112202846681477 0.08723528463822158 0.3943443211330181 0.004275726092394341
2.122256835254665 0.09805819560975283 0.39487129075233923 0.004708435819257519
2.1300420388665424 0.05872564715004795 0.3931838953607015 0.0372398826012992
2.0968319919403187 0.06960704072247549 0.39322923006625005 0.004070715918834122
2.079899226739303 0.042803503601902985 0.39136345906844544 0.11875559602019257
2.089153885249702 0.026051162329780657 0.39035445203860886 0.1819036012265749
2.066190243404647 0.04169497157002062 0.3909302746060524 0.14981726448955562
2.0813848960909582 0.01101592528002053 0.3890511348045792 0.1567798371450596
2.1043741827813096 0.01818989757195537 0.38986817190196615 0.163974853963909
2.102263634164325 0.006526734624721081 0.3887871911477321 0.16891358207530405
2.119234794268444 0.004155128986760228 0.3886276094051232 0.11353748097927113
2.1236500317951963 0.014811439906247269 0.38967739755603115 0.1631290610000854
2.062297855136225 0.03002095057045677 0.39014385153118514 0.16193693368984455
2.047061791433412 0.055329258226291256 0.3910559096186512 0.16274060616999
2.0629557801894984 0.07855796215427994 0.39260735497632326 0.005955113519898937
2.0618799700791652 0.059031550257494673 0.39172191180586957 0.141794562798372
2.0246315412395433 0.01981759240847933 0.38874675756682064 0.17128630076680104
2.020962558037086 0.00803670297226735 0.38823453074909287 0.21177297155779048
2.004122044764567 0.012369648144733228 0.38804141511213086 0.18143782229500846
2.017760464292465 0.046446748135262964 0.3895863328762922 0.1901879194453884
2.005921167138416 0.03228993804624413 0.38871143586374673 0.16678727149421235
1.9876204034237566 0.030196997283415773 0.38804555122813716 0.14814131882826134
2.035266251245859 0.062383733705164965 0.39084333087079626 0.19170552141067476
2.047190742835086 0.06886733735745514 0.391575931374197 0.15931833220107722
2.0711231508587375 0.10628948865354174 0.39368167313289526 0.004330013849022156
2.08344290883562 0.08947009129803563 0.39366164225042877 0.00426500865800345
2.07337771906753 0.08120357814383783 0.39306987504735047 0.004356650554521499
2.0609754346546545 0.09870860167591453 0.39307743628827396 0.006084287874086458
2.035832591895927 0.08545850125346231 0.39155918309570237 0.14290033711840616
2.0373716885648907 0.09984601421155206 0.3919629483151681 0.09558126524807782
2.0313876205923997 0.07402408142846077 0.3910440807000859 0.19739889577356018
2.04843995683461 0.09289782136376701 0.3923613602210174 0.09745152048672004
2.0616572177071304 0.11943827644792776 0.3934672995219888 0.004917312514289576
2.0945822810821313 0.10538688697149662 0.39443569971794157 0.004647343403585243
2.037932878496402 0.12392860053984069 0.3922474743554955 0.04516418295375419
2.092548808014254 0.19594055147959932 0.3947341623636612 0.0040214093236492715
2.1046112206025533 0.20731082130278855 0.3951334484514808 0.0042944038820185845
2.072234791720637 0.17151913679358158 0.3940526229252831 0.004946882335665338
2.0651607729509958 0.14430943543311775 0.3937829665300726 0.004187842621313617
2.1042233815481106 0.1681798559967448 0.39509057727411356 0.004022461296378136
2.102872996636343 0.18534358255550126 0.3950568767361212 0.004231398177450974
2.0780940379117867 0.14354215962580996 0.39420585608224235 0.0035120392632536253
2.0328406992119508 0.14958358027282578 0.39204809441700256 0.07358874724969756
2.0400719737000155 0.13768914146523697 0.39242430169450837 0.005782871910246642
2.0585717169269078 0.1775588123504689 0.3935317340863917 0.0047531421027131445
2.058122090246096 0.1657890303518123 0.39348254336439115 0.005435600409406909
2.05415312875738 0.1892531353164623 0.3933109856818381 0.0049630961313115425
2.04418949303605 0.16238892274019456 0.39270342366187305 0.004414251572511044
2.0614645298342293 0.1980713726539384 0.39373435049910693 0.004399876269927064
2.030029082434492 0.10938921575674972 0.39170340643830937 0.11075014345745467
1.9857617982675677 0.09660993723986926 0.38851253414451614 0.16915376042146324
1.997600626560898 0.09084036971481999 0.3892431306520059 0.1646883844770398
2.0181252456137484 0.10483545992825309 0.3909236179960751 0.156012430538356
1.9777769465684705 0.11810892286924257 0.38804603215318256 0.16012267938912664
1.9862128569433528 0.12636156141222882 0.3887331261736656 0.17449765271021572
1.9979646287883635 0.14744415862235632 0.38966155822411963 0.18086685636521588
1.9928849394112067 0.19481915980942424 0.38938071263132584 0.16103772291927665
2.010557151369468 0.15967543010720808 0.3906722801617205 0.16550373001769247
2.004473517522798 0.1796005323262329 0.3902531056202209 0.18372662641076326
2.010059186170483 0.1464892177023931 0.39059468243709966 0.15025452916769363
1.976680497699236 0.17096231531342337 0.3880469463925741 0.1838692964636275
2.0382573846154757 0.20540978354316253 0.39247719801031433 0.004554357055832914
2.024479864137258 0.2056637594101665 0.3917229452317602 0.13435241810994422
2.025077419391738 0.19158097120265727 0.39172133559949757 0.141278321490377
2.0331163060622477 0.21803230569992632 0.3922147995184606 0.06658161988953439
2.001102520421947 0.20448247053064114 0.3900516344653812 0.18299073994363033
1.9900075179579737 0.21519345689473202 0.38918813226952254 0.1665395762654703
2.085708954684822 0.22829243265981558 0.39455009321804796 0.004798923756235892
2.0688792162801954 0.21412334945217315 0.3940139496521742 0.004227205232470458
2.0213367094029193 0.22464221813617563 0.3915787303066983 0.13858426835963147
2.0616135190793696 0.23578011062794524 0.39378689668292355 0.004212493576540665
2.0052968972336185 0.22234921961033474 0.39041498643568306 0.18743775940892998
2.0104226338920297 0.29734786351849185 0.3908450183699307 0.12142520574991739
2.0004758765277586 0.3143714427513581 0.3900553789323379 0.14567170336767787
1.995259249453293 0.2894618867214449 0.38969077486509307 0.1484728895851234
1.9747757483753332 0.3085522846838041 0.38810073484003194 0.10536486832191566
2.003566875123391 0.3277152404806861 0.39027413085976864 0.1379996889304668
1.9727824466941848 0.29036732450072295 0.3879314299923394 0.12759696731117576
1.9734835098323842 0.2791543428638462 0.3879704632038098 0.1310135149109077
1.9874783118164692 0.27537393086282125 0.3890614720576383 0.14852438884720684
1.981664947434295 0.2602452964016529 0.3885840386278559 0.1559597629010852
2.0106504797922455 0.27301496557669513 0.3908766679435285 0.09738951412504068
2.0133716329789935 0.2603780910799527 0.3910867398389072 0.14410620894416964
1.9999514571069101 0.2583633046986459 0.3900253765072471 0.14502936269198297
1.977942298796702 0.2335612605994093 0.38825779439648267 0.16995550012778168
2.002255100631659 0.24158196849723174 0.390200041632936 0.13864433004153726
1.9801600653330709 0.24876023805420583 0.3884569870645077 0.160396392777365
2.032218866594965 0.2619390149817815 0.39218248013447377 0.004128758722907311
2.0491832546343858 0.24096278106617902 0.3931090763567779 0.004254185637528388
2.039314733649239 0.25086287051822687 0.3925693543251784 0.004127440793525415
2.0640285507833678 0.25666084086701313 0.3938683379587367 0.0036281581694467564
2.062047058981792 0.3247564720280276 0.39373145499175916 0.004790905474938795
2.074130553053264 0.2963469072896703 0.3941542821007107 0.004127816586450701
2.064310726396433 0.30091827686140116 0.39383810845353895 0.0042870692024856456
2.0923554275778034 0.2899498694107344 0.39473798378594877 0.005366888430321361
2.102118113752359 0.2817882233317678 0.39505767827734756 0.005353398485602228
2.0776684406334796 0.30768730365619823 0.39424894439438085 0.004879799983614682
2.025610916957705 0.2869060131346417 0.39181405295438426 0.06309129072957405
2.0537173278596352 0.30836391620987 0.3933143947217357 0.004276744460298915
2.0461911970975972 0.298235464574705 0.3929185403434918 0.0041315369100663945
2.089958856468896 0.254842793417417 0.3946840833775216 0.003979389262601738
2.123818181449317 0.2706177855036899 0.3953971435495162 0.0045982229693569895
2.1106349108592606 0.25148786391845723 0.3952656634905737 0.004339968308386074
2.114271645064507 0.29893272014820554 0.3952823340893695 0.004772315802059301
2.1221871579901816 0.2913429942446054 0.3953693439238259 0.0042997215704525795
2.094833236320391 0.3242545790349478 0.39478586760746964 0.004453036960711262
2.102566483466943 0.31631730207329967 0.395041719415016 0.004961804289975916
2.088216958928131 0.31156612265359557 0.3945826360774983 0.004959247333415409
2.01717236341007 0.3199986358048833 0.39129617004730827 0.11335880782881749
2.029625430003261 0.3156536805438746 0.3919862670755708 0.03678499935693201
2.0334400305970015 0.33222167780623235 0.3921737932789697 0.05535654453115886
2.116525090536045 0.3231826530421781 0.3952849855515827 0.004428432221720233
2.1282176288978065 0.3235357324372238 0.3954115700602808 0.004257671399295179
2.1424660979411896 0.3227853576694539 0.39556615405329887 0.004399227342348759
2.1345601779915344 0.3140424119347127 0.3954829317741538 0.004707806712803315
2.143646377648674 0.30707224978295844 0.395583317015284 0.004432153904874546
2.0672799354309883 0.34849629009159944 0.39421628120239155 0.0037449223316993793
2.0786079503030774 0.3465273900882802 0.3945243110720369 0.005297763393151083
2.015928701338746 0.33864195661818136 0.39139822935372587 0.1916258547985933
1.994221911122786 0.3435530482107856 0.3898532157678385 0.20186483129125032
2.027448947518585 0.36464489170451925 0.3931720940924559 0.18876889516031195
2.0586435316591984 0.35888935657629983 0.3943938032954205 0.0041837658732186535
2.0389959579052777 0.35866046256683554 0.39333664076292335 0.11327309440107115
1.9784356683245847 0.3616077866920832 0.38968117532753005 0.18190320778034896
1.9747109721933644 0.3452767385411568 0.3884460979281861 0.16891144080811968
1.9907730285077183 0.3567575734285561 0.3902347455691903 0.16302241176458543
2.0823765913117174 0.36562263308886783 0.39559883279908736 0.0037034867362357735
2.0968843912742 0.3640783372978891 0.39594708992022704 0.003031148570986523
2.0783581456661904 0.3807061470735143 0.3968291509357866 0.003903716032751755
2.0667790117150258 0.3808537349541218 0.39651794436371646 0.0034026871389852852
2.0719710305704813 0.37098956658137494 0.3957034251880342 0.0032398446979064253
2.0943763459945264 0.37610469277611547 0.39684988798249154 0.004192632968323803
2.052104853229708 0.36846028354320437 0.39469862033706093 0.10128965890165516
2.040041109783066 0.3695550966691873 0.3941987004459792 0.15665776572211945
2.0255486942326697 0.3827312071544742 0.39491696054401504 0.18539676420336898
1.9875918744532095 0.3682836044904373 0.3910036831886956 0.18749378782601747
2.0872479324762994 0.39712068981766085 0.3990907639418616 0.03963323486997991
2.073459917474831 0.39718164169748416 0.398760425583778 0.08875278145669582
2.098186696317482 0.3892130513291112 0.39837351537993315 0.006897667975343933
2.0400315473858615 0.3857439646145375 0.3959754835302163 0.16637422950341502
2.0525667802987955 0.39030199302803037 0.39715773501590723 0.12587733301816315
2.115961705706748 0.39494644153760805 0.3993918954243454 0.026863677748530792
2.137242062180918 0.39073776798619697 0.39906664700498395 0.005094351611389145
2.1088733027692457 0.409470389862093 0.40146403293546346 0.10850966345928381
2.1394999269538895 0.4093143273705711 0.40165067710614216 0.10052093652572537
2.0980288545946353 0.40031593406329746 0.3998348435373192 0.05854858051546768
2.0647351158532796 0.40913631831315567 0.4005760001217379 0.09819096858591354
2.0930739298491243 0.41111324587696907 0.4014348279183503 0.100887080099086
2.051789699349724 0.402072788861841 0.3988937174415008 0.1364968236552283
1.992586901481681 0.3895948796594094 0.394014393756994 0.18124186980702078
1.980748762556788 0.3845701487799968 0.3924826338958224 0.16253839252613214
1.9700153041671131 0.3825462634733697 0.391487895287836 0.12643485589700004
1.9997991597059217 0.4050792685549785 0.3972947471201753 0.17462703213235287
1.9802013135908598 0.40646175814480073 0.39654190548259016 0.14735489202524016
2.0417214352896145 0.42430371323723604 0.4029087927506217 0.12928236871762386
2.029663180872797 0.4141190067468487 0.4002995038676021 0.11766323303212939
2.100652743378361 0.4259289537970263 0.4044360389295285 0.12652738783733328
2.073388254086371 0.4275603242925434 0.4043652451658283 0.16104164962693454
2.0956892903772903 0.43680872526545966 0.4065702670211107 0.13257580058626978
2.0599893249235883 0.4295353218268041 0.40454459917477015 0.16976861949745914
2.1140560299541713 0.4271431912289845 0.4048492190069387 0.1133726287349606
2.0890324482476625 0.445455192793783 0.40855975658702964 0.12467514506550471
2.0694387047168776 0.4486928000070607 0.40918092720368293 0.1549266163489878
2.104012365035034 0.4472303883737749 0.409110376159983 0.09576835238032513
2.1129078603251443 0.45400975864449966 0.4108024542124038 0.07130136817420873
2.1151474924646045 0.44012013234406216 0.40752388444779447 0.07770695359477382
2.0622827416844753 0.4406716047358376 0.4070861195385068 0.16606769203394992
2.0191279107249276 0.4183492361551392 0.4009617471060025 0.13249553945217887
2.0285313017386497 0.4309306600167565 0.40415123111886386 0.16854646829786415
2.0412447222660575 0.43648320881908587 0.4058198676948315 0.1667830521953265
2.0506912825677333 0.44111143018791094 0.40708034969493345 0.15967936532356755
2.039484095308106 0.44951071695400485 0.4090943602045798 0.16954045978436014
1.9909992961573486 0.43117976620669074 0.40307108203447867 0.15062073501067366
2.0117030692307583 0.44589430956603127 0.4076492479588993 0.15192777594559617
2.0026653947524435 0.45202384874318513 0.40919233483020645 0.12088206933213283
1.9995858975534033 0.44038337103021064 0.4057829092171519 0.14053933489208453
1.9899532961412822 0.44773099448441395 0.4077844321378817 0.16219913055775698
1.976821186424886 0.4480687191635266 0.4075770688552568 0.2020560588677823
2.0120184470058327 0.4272507782652537 0.40284438511634024 0.1429667339073954
1.9762043553207753 0.42905446103610867 0.40206666007300695 0.15483099404597161
1.9970318444130215 0.41982005676739953 0.4004659608751343 0.15660014968552927
2.124461371754443 0.4309965758588773 0.4056800050388806 0.10286550134699549
2.1323648907270503 0.4410081177462478 0.4078691159073998 0.09703151208270472
2.14352168936138 0.437876264570906 0.4071210659304657 0.08927141721460276
2.1497428698881924 0.42359974555069224 0.4043637542590858 0.11076561002556246
2.1362932383878968 0.4268658423839424 0.40485456617095034 0.09712310579151356
2.1471792041055795 0.4512600914956266 0.4102343093344293 0.09539879089893
2.1619547425321155 0.4220527284289326 0.4039757121180107 0.10763440681959185
2.1658337481985797 0.4350147807271286 0.4066155288981671 0.10379681165289154
2.184762102642312 0.4003884966382001 0.40017788475995986 0.08438954595788575
2.170296207458165 0.4031939389873289 0.40071293144239206 0.09437068120068305
2.1970570509668876 0.40330810268230244 0.4005300545554642 0.09897676881997791
2.1789882038481565 0.43361640109324484 0.40621617318791126 0.10511927313569495
2.1789999562924462 0.4468526829442442 0.4092062078391499 0.09523449892110318
2.18949215026737 0.4261037141459282 0.40460681037448365 0.11424823020912105
2.2137832576442023 0.4540328130093958 0.4106804673075758 0.10859824065406627
2.1908514767695206 0.4532447689124125 0.41062943210829134 0.06796067009208294
2.2317301977534982 0.428756598516664 0.4046317436030286 0.1949144137886846
2.2327871229328258 0.41798742776735004 0.40234142788839045 0.15469167060303857
2.202932024665553 0.4303605256779263 0.4053692698132046 0.13148419183205393
2.2072066183061887 0.41569366746928404 0.40241499028619465 0.10772539287565763
2.2147805631525297 0.42596846359800494 0.40426895717661276 0.10961795309792419
2.212187458671887 0.44028989613332353 0.4073646798913315 0.11154275291506352
2.2327699737829967 0.44540615484598234 0.4084068214598903 0.1551342920183158
2.214563846373297 0.39842508484470446 0.39939947617566396 0.03534299476667308
2.217403100711472 0.40948774828945134 0.4010610194908378 0.09834162409018006
2.2427973214440224 0.407609209337054 0.4002332458712141 0.10524644421646724
2.2552263153175436 0.40510467548069246 0.3993784491444314 0.12502913201121305
2.267148838863986 0.39974179719202024 0.39800367670042763 0.12298827181416476
2.285636309551622 0.41002507457969056 0.39921385429562206 0.16889614947292556
2.245808282017281 0.42864087592715594 0.4044004736864423 0.1620473073635895
2.2560838194979906 0.4344332917426655 0.4054292190257507 0.16285906240029732
2.2682421548109666 0.4474804566171489 0.4085862812385353 0.1505192584479917
2.257069387676909 0.4461796170472069 0.4083675676110198 0.17739316862194565
2.2676030141099117 0.4336984329898187 0.4051376366313621 0.14848086654204745
2.279979311932065 0.4193392514244978 0.401355326844535 0.14629587313329998
2.283421684541314 0.43469313955716865 0.4049547292534644 0.1742243201765476
2.2810388796446333 0.448901958356428 0.4087187997369097 0.17792633996732032
2.307739284331562 0.4246960484231704 0.4017428632999835 0.15876719743575943
2.2945667559385465 0.42801488470957577 0.4030269175828302 0.16589637699630524
2.326872266404016 0.4053742835988478 0.3963084642601208 0.15298516722138852
2.314974949631546 0.40685376499668946 0.3972090258120564 0.18236530696917488
2.335559897308401 0.44246353294562435 0.40570612461106664 0.14469256968959254
2.306870958729363 0.44520119207339437 0.40720993191431265 0.18244079556620726
2.331642283538242 0.4548589221483842 0.409478834305941 0.1419904923466219
2.2923281682066836 0.44349167964406017 0.40701525588482784 0.181886485993649
2.316989702381396 0.4353881770727218 0.40410346071147496 0.1793692340153566
2.3346806701614127 0.4148920435986003 0.3982316375381662 0.1635253802617891
2.3197274441166655 0.42496610089375486 0.40133853962472915 0.1650505466515586
2.332468841424767 0.42881156646488344 0.4019505586142732 0.1513856872842826
2.300769667592974 0.3899517031421565 0.3949523370032626 0.18419101874593954
2.2559600567100855 0.3851325725685742 0.39638351755040857 0.17219342658095318
2.2858333961703856 0.3959028513364142 0.3966462444658215 0.17230899214969275
2.3164608053046436 0.3755518873634496 0.3919525461275898 0.18434983903311727
2.280409377100476 0.3642300457676652 0.39308037935429035 0.19682105868661862
2.301577977949183 0.36673258491277355 0.3919830297157393 0.18478670959717025
2.3227595934695304 0.36205994795929575 0.3901110070741831 0.15940003908186445
2.206198555063098 0.38464697610863946 0.39788463664407425 0.004339953758156347
2.2374329863058833 0.39576821475124446 0.3984681469172121 0.09401272516612767
2.2497714892181833 0.3656213507352166 0.3947238952715648 0.0983546017060019
2.2599482983746135 0.35910840715611564 0.39377267050674347 0.10381731462260844
2.1805483699366452 0.37812938986586375 0.3976040621272331 0.004713741429624024
2.159671805291701 0.383772379876076 0.39834619671262544 0.004897980594965408
2.164394017848791 0.3937666038713477 0.39946883707121583 0.016485660838657865
2.212674504119628 0.35709587227380224 0.3954486512134903 0.004082706457730206
2.1719793969728576 0.36901512433725003 0.3968944993687589 0.005269650804058739
2.2496712439359077 0.3462291416644489 0.3937330271638716 0.005515785297846987
2.231011955219124 0.3507321304434324 0.39454810059317946 0.0037560837865070924
2.1713274367640243 0.35087946407526005 0.3958803420348297 0.00471997579595304
2.1560526682722543 0.33861032527043355 0.395751849567972 0.004617580892794652
2.186994317454574 0.3354633233908137 0.395370763736219 0.003920212315540602
