x y z curv
0.21250581987041292 0.25076779846563496 0.3517367151398469 0.08353818503877353
0.18011890895249727 0.24171412483496205 0.3517608999309752 0.07845890260762294
0.19616895987112998 0.0919048000738477 0.3518191094797813 0.09639894620762283
0.16229975781587225 0.13985957635454557 0.3518182774502665 0.09848617407962668
0.046023456791152134 0.24675709444682126 0.35184168717788483 0.10025078477296448
0.11367840300309476 0.1610006487908362 0.3518387839297873 0.10094743543216794
0.08448182966394996 0.20915620589659886 0.3518349655387583 0.10099816704675499
0.09607758761740455 0.21927163072589845 0.3518231792865777 0.08310606002501258
0.2859021012313656 0.2278085958036029 0.35170168600021 0.10322205607547681
0.23054290025815272 0.13395602934894016 0.3517786818053538 0.0906048776873749
0.26696907418308446 0.15478648532449166 0.3517466367256268 0.09301620021889935
0.30138804080432297 0.26335255594997553 0.35167592115014373 0.11013919493892263
0.25245707093827335 0.2662897961404657 0.3517049010386616 0.09601056445623492
0.31801951273057927 0.19336391603438616 0.3516974571550807 0.09390088912197968
0.1964438087203838 0.01668445875362679 0.35185315964235564 0.11049526269743118
0.27268929584723417 0.14392719298610543 0.35174803293411344 0.08777375641778497
0.20768103722209597 0.028116255775662017 0.35184099665888735 0.09048894538331537
0.3264408893072437 0.24658283033399353 0.35166802831887856 0.08763627536111768
0.137804535746281 0.2045853920390739 0.3518040078353258 0.08761237557843746
0.3454280865630822 0.26561229209134685 0.3516476072376214 0.09210091426655638
0.08167573632426081 0.1744656863467015 0.3518524860796337 0.10288540951128755
0.23584459290359702 0.20226327903479133 0.3517443216018863 0.09001296381453816
0.025176310123495117 0.2688871626061003 0.3518445356703588 0.09716389131854918
0.15100530378080457 0.12950468159919273 0.351829985967196 0.08720711544950212
0.2875307060345324 0.14973674756020175 0.35173619467015493 0.10586802348577075
0.19874649234846414 0.06744351556473305 0.3518286408407997 0.10767225742699231
0.20787488501633922 0.19184076880905657 0.35176639236117635 0.08870863332707828
0.2058560426996695 0.12378580053018964 0.35179860383820094 0.08378299889719507
0.17873301421220666 0.12216249875397825 0.3518161469428155 0.09510411204903554
0.327178372348712 0.22069097005778882 0.35167935053932703 0.08833155384790858
0.18639112222654175 0.06529987400911148 0.3518372710734557 0.09892454196772804
0.21344172965193725 0.061721063537858195 0.3518221394675219 0.09981458750266534
0.25707781282483394 0.16259605497106444 0.35174921219587874 0.09933390923623146
0.09639897276531281 0.1555123570452416 0.35185198656297434 0.09816493054350325
0.15810254370196042 0.17260975906215362 0.35180597867565094 0.09375783243317475
0.21956560095565197 0.17726182090715475 0.35176578163814204 0.09434200009883711
0.2313593284622823 0.057528279733167216 0.3518129457154333 0.11163890081072148
0.2857838329775595 0.23912842994117617 0.3516966094741577 0.10699519782790323
0.14438613545780574 0.15990173086923207 0.3518202582873743 0.09725822109094115
0.2199457521837109 0.08603177912240537 0.3518070499496443 0.09856431761542976
0.25901997201070176 0.10252407298737246 0.3517753378076328 0.11189828022588616
0.20207904044384242 0.18072002443560378 0.35177504251907554 0.08879789895273717
0.15671807072100277 0.06123982742002139 0.3518575026582499 0.10572445567219076
0.3342618832711565 0.25402181085137293 0.35165979840720657 0.08303740549463683
0.10990206039593342 0.17195903066087131 0.3518361382733739 0.09823234993226904
0.055860560543090625 0.2225764560928947 0.35184659305260024 0.09538566935712026
0.04651633244924195 0.2142102003821803 0.35185618856493295 0.09633829613268642
0.022592626945451656 0.2483811061030236 0.35185546538799106 0.10918712856382501
0.21907537146436343 0.23726621469814826 0.35173878720308677 0.08613458695076309
0.3010652780845912 0.17353236790015622 0.35171698357241876 0.09705145857676466
0.11312403268024222 0.22615277589733926 0.35180948734460016 0.08648848238516017
0.1182909549715244 0.12433190787979012 0.3518526080673465 0.0987524145777119
0.18085280028510617 0.03757933573453501 0.3518533135240515 0.08689162877027647
0.1861884326349792 0.14398257733187916 0.3518016010496413 0.09290928744003887
0.2530189510758418 0.14433067048352113 0.35176003652677784 0.10057749662376177
0.22787231132135374 0.11350999741140615 0.3517896380598158 0.09667552374824212
0.24029682801787713 0.18430981253337586 0.35174973081249233 0.08524143956222302
0.06453585601023831 0.24851979021241813 0.35182941554270214 0.10217975066324793
0.2414344259668936 0.2429230644864287 0.3517223607055927 0.0949752690026534
0.228109913734291 0.01676472346124319 0.3518576239003839 0.1097231320745191
0.2716563059533917 0.04751992685796091 0.351857613759636 0.07939762078177212
0.28293286052125816 0.04948209021384374 0.35185760963217205 0.07942063680466628
0.2546847199976051 0.01613219456553863 0.3518576128584298 0.12598318933573352
0.2839211734153881 0.024342142103430872 0.3518576029384226 0.11466333421556055
0.28430920347691085 0.034955844294942126 0.3518576054346184 0.09418500151623715
0.2963226030081209 0.08320253075539386 0.3518576125838715 0.0963612421326144
0.2465271343297657 0.040246826265268654 0.35185762223186523 0.08069888532930243
0.3351495374038016 0.1169959143476791 0.3518576051360075 0.08494065618485021
0.2542667363989792 0.032109672435187454 0.35185761702652574 0.08949899562928741
0.20921268374424887 0.011298677964598502 0.3518576302723704 0.12910906079992082
0.281799151802924 0.06057301890892223 0.351857612870979 0.08953315698990577
0.31228162446544333 0.09485474694024335 0.351857608962756 0.08519415332990897
0.24196362347776648 0.015725698662348478 0.35185761796667075 0.12282116533324582
0.3154049130892787 0.08302536810214871 0.3518576047243859 0.07961651314684931
0.2938875955419503 0.06618285985085523 0.35185760932350507 0.0847350707395778
0.2666028282511516 0.023589420044397364 0.35185760984285674 0.10954751112579722
0.32983802809143614 0.10714000838261425 0.351857604845794 0.08297836395679463
0.3556062086773538 0.1391804455678533 0.35185760259628296 0.11345161399187904
0.3168235320190606 0.06441576565251944 0.35185760259628296 0.08405533038186419
0.3280826830736484 0.055925228058448136 0.35185760259628296 0.10646688479202589
0.306746805467058 0.05837162096130547 0.35185760259628296 0.08334967598992109
0.3586974876288148 0.12201637626091189 0.35185760259628296 0.11079548240648564
0.33198671745403074 0.06805503296103659 0.35185760259628296 0.09193708325749388
0.34849879087966346 0.08709844172548617 0.351857602596283 0.11156308406240105
0.2956979320540002 0.042234410988773986 0.3518576025962829 0.09176670532263669
0.3377493793307438 0.08429313189641258 0.35185760259628296 0.09371029871569928
0.3464367674303722 0.0738686368732431 0.35185760259628296 0.129921071877775
0.318540919871945 0.0521974485802089 0.35185760259628296 0.09788387817992017
0.3501108266835151 0.09906540003837236 0.35185760259628296 0.12747365050257015
0.32578411180747247 0.08771384145863367 0.35185760259628296 0.0839329270104881
0.3425461564836906 0.10759501395516455 0.35185760259628296 0.11970980828924924
0.0815774667172223 0.144192592554695 0.3518576323986053 0.10581738776282573
0.14564624120513048 0.05871813331610446 0.35185763239860535 0.11538368898518382
0.03058839270145494 0.23054730048381544 0.3518576323986054 0.09352364938664563
0.0811928361927516 0.13283791182483934 0.35185763239860535 0.09315384616349334
0.06360945356011204 0.16624081619319145 0.3518576323986054 0.10524958805662278
0.16587059250576447 0.03278465470338367 0.35185763239860535 0.07509684549067801
0.18566424350900992 0.015526738435016247 0.35185763239860535 0.10682591846940184
0.056309450706809316 0.18579506108065172 0.35185763239860535 0.10651713088352588
0.0929933374333671 0.11310509491134595 0.35185763239860535 0.09952427929856963
0.13298855321418857 0.03529071203966727 0.35185763239860535 0.08593697155526366
0.12582281802993125 0.04868770997856794 0.35185763239860535 0.09987809671816768
0.07381674040811145 0.16403131486276717 0.35185763239860535 0.10307661369667293
0.1405398223268063 0.023749699304950474 0.3518576323986054 0.10436621436440896
0.049811401687541196 0.2037350339076974 0.35185763239860535 0.09334104505750704
0.1609651443332825 0.04272766685328707 0.35185763239860535 0.08856701256086365
0.1412974529674663 0.0697376876913272 0.35185763239860535 0.10851393927469956
0.14435206307123238 0.03986767922633967 0.3518576323986054 0.08136385792707915
0.10182215446335502 0.12909633382461033 0.35185763239860535 0.0926789020121301
0.16010542788026716 0.012210151191937791 0.35185763239860535 0.12026259173823822
0.12447105408172213 0.0763657832382335 0.35185763239860535 0.10792335684976084
0.17434644455660264 0.02223351939534553 0.35185763239860535 0.09154212331351859
0.12706824281414755 0.09943776501231075 0.35185763239860535 0.08456426253477159
0.1118903960716852 0.11512697195834906 0.35185763239860535 0.10097974516330088
0.06450074461507352 0.17872317258395132 0.35185763239860535 0.10205503230965236
0.1085920171026553 0.08934484877410169 0.35185763239860535 0.1047089639187365
0.1201951999551705 0.06554485908633287 0.3518576323986054 0.09773014078852571
0.05721027438887222 0.10136525761690343 0.3518576323986054 0.09820937403912328
0.01752945112689284 0.1541743201805597 0.3518576323986053 0.11826085638781692
0.01095960262297139 0.2400676064184738 0.35185763239860535 0.1187271248717907
0.10754106575322457 0.07111731739852951 0.35185763239860535 0.09851393685847795
0.07971806945408613 0.10614750557671097 0.35185763239860535 0.101660361379694
0.029088916988606092 0.1338241941471532 0.35185763239860535 0.10406000026912825
0.0596015395095126 0.11206858152599802 0.35185763239860535 0.10357205652957314
0.04512271939999138 0.1348909374410836 0.35185763239860535 0.08908469026580913
0.00799456607543196 0.21584299499933346 0.35185763239860535 0.11669665978467397
0.07768702025660587 0.09167903787858284 0.35185763239860535 0.10023711890036288
0.05486671880043887 0.1576568663328538 0.35185763239860535 0.10611454300981532
0.021089792650171284 0.14291669290340528 0.35185763239860535 0.11361809337132649
0.005948398485753704 0.25193573117151946 0.35185763239860535 0.11917622604466262
0.051778972813480144 0.12584692658874155 0.35185763239860535 0.09941226377182483
0.06741255911541082 0.09713962593100667 0.35185763239860535 0.09799647167447445
0.08345109863948363 0.07953471157751739 0.35185763239860535 0.09782825584065419
0.09899406861940101 0.06063314342563768 0.35185763239860535 0.08233029108236552
0.005661527507780083 0.227321233773953 0.35185763239860535 0.12011425098647185
0.09344837040745517 0.07291450551242529 0.35185763239860535 0.09377143849903195
0.026284561696785003 0.21882036648231556 0.35185763239860535 0.11314575311828907
0.030372820656598732 0.16762081967296 0.35185763239860535 0.09145362947021851
0.013443409956853605 0.18864749985760987 0.35185763239860535 0.1195007977246342
0.07752315586632462 0.1216120496602395 0.35185763239860535 0.108016398527573
0.024263680236984917 0.20838098160206442 0.35185763239860535 0.10570971722877
0.031870044288246885 0.14980957272278383 0.35185763239860535 0.0996872632423678
0.11462303709763226 0.046472378875452414 0.35185763239860535 0.08164399416390096
0.05678111252996401 0.1413138647529588 0.35185763239860535 0.10691058880256114
0.04087206836316587 0.18414830147623015 0.35185763239860535 0.08839191051206281
0.03007510418637013 0.19534434389854088 0.35185763239860535 0.08804704818195808
0.06641513275787347 0.12082775172460757 0.35185763239860535 0.10685937337643256
0.050496865047859524 0.17326874636185718 0.35185763239860535 0.09479062097039091
0.01644792297798382 0.1684076538888254 0.35185763239860535 0.11771766059662254
0.04426649127555394 0.14689261041698848 0.35185763239860535 0.10072432268410628
0.02680179013615785 0.18496317412207466 0.35185763239860535 0.09441421169373924
0.11012741860048982 0.03128775733089666 0.35185763239860535 0.0903257866179496
0.04147675205646906 0.11035850261660607 0.35185763239860535 0.08127298325131803
0.06627366289472855 0.07812652769879405 0.3518576323986053 0.08210219080929697
0.11732528803175094 0.01866814875006942 0.35185763239860535 0.11989380502935493
0.14326731240263102 0.006411066068055625 0.35185763239860535 0.12373444872227943
0.10226883216892615 0.022868869484563733 0.35185763239860535 0.09978804354765876
0.06791449969670266 0.06598776153186621 0.3518576323986054 0.07992440597350822
0.1319453249185635 0.015765120928976136 0.35185763239860535 0.1159310376708314
0.082236325023369 0.05420424569270521 0.35185763239860535 0.08070424109384199
0.08783000861357804 0.03283523149221709 0.35185763239860535 0.10085765636486412
0.03177369860033964 0.12200937734970445 0.3518576323986054 0.09209710745513823
0.029820648010312638 0.0739092398719759 0.35185763239860535 0.10722429626307359
0.06643938228585111 0.05118986046129071 0.35185763239860535 0.08516714983045907
0.04930657126387429 0.05133906764379248 0.35185763239860535 0.10928503974538975
0.039409183174652716 0.0990811517749949 0.35185763239860535 0.08287849156062678
0.07359994547210172 0.041501812427064105 0.35185763239860535 0.09537254008010625
0.011200553269400742 0.1356489959891689 0.3518576323986053 0.11336888127762154
0.015532325287854143 0.10124122060523966 0.35185763239860535 0.13265209109471274
0.047606321658579996 0.08635759091002163 0.35185763239860535 0.0835323621447031
0.023784778477867415 0.08783743195310868 0.35185763239860535 0.12141307251651488
0.03982567056889455 0.0791249778917146 0.35185763239860535 0.08069628855181274
0.014718446692140128 0.11250002079933714 0.35185763239860535 0.13442877419570906
0.052729010284483346 0.06350771190338905 0.35185763239860535 0.0859287590901159
0.051587174440609215 0.039140101818607394 0.35185763239860535 0.10123336423737764
0.06429877179974228 0.029898588336569793 0.35185763239860535 0.11167941535170828
0.03453923885753134 0.0612236105446496 0.35185763239860535 0.10090691477087499
0.34699131263537913 0.05872611286138395 0.35185760259628296 0.11904491814288566
0.3183647970142281 0.4105895301788268 0.36221558175343116 0.16159146204849503
0.23251202105231888 0.41185431827636276 0.3635775242033792 0.16325431713384592
0.22999623479344714 0.4196982066933783 0.37120926819751976 0.07243318226333467
0.1455411491854377 0.4131088285518818 0.36493119076890657 0.17043469735691202
0.25110653181832226 0.41262833578050073 0.3643016399636826 0.16190013052752517
0.3532198897271457 0.4107243779301791 0.362293131689039 0.1997457077138989
0.3074832886137096 0.4068653831467137 0.35861072224873236 0.16829817556510016
0.2883848424445293 0.41370732382978004 0.3652936042941052 0.17706138071700722
0.34608070403917446 0.40499768243468076 0.35673511846462796 0.1641020591853497
0.2008360052829087 0.4136914088514335 0.36541272024984717 0.1710841088005015
0.3482106998555482 0.41831873871739395 0.36968605298790963 0.10357948187804757
0.15819823603056515 0.41400200749462135 0.36578031425423624 0.17837507816361114
0.3020431023571013 0.4206885207197918 0.37206154926812973 0.06635260803756503
0.3307175888165732 0.40285772376812595 0.3546777102920689 0.1668716757646319
0.28265211869678947 0.4215628773959101 0.3729416377305732 0.050585185939914415
0.36434051687053726 0.4134027652444046 0.36488066293942595 0.2327586616265107
0.3105685022956691 0.4158634796350102 0.3673562780326694 0.15541474099053448
0.29545978964976766 0.40801890348151176 0.35975096015387903 0.17629322869303704
0.026386132752023075 0.4195966313355369 0.3714222234844658 0.06508294913182137
0.12933782222312917 0.40580057373822004 0.35773824581672664 0.20075377233601924
0.07805706349205409 0.40652704573470905 0.3584950031275521 0.1661038896774653
0.273019574858503 0.4046789742700026 0.35651898525174514 0.18518637783669092
0.1857703499084013 0.40856804238437605 0.36042240494753197 0.17748187272889424
0.10157605556066347 0.4062022630779085 0.35815621294585054 0.18189693955894715
0.0521770244674131 0.41747704709449124 0.36931198872803717 0.11350195149987025
0.040294581583072114 0.4149905586993927 0.36686971865836426 0.1289554007814607
0.0847942652519983 0.4138987210288724 0.36575806624214574 0.16473838087964943
0.06634542184758424 0.4126825473981783 0.36457349206217543 0.17812229690956005
0.017083775232339907 0.40469653717993614 0.3567382579525193 0.19013579061551536
0.03946924385179918 0.40162107863446306 0.3536882303024552 0.17392516259758997
0.15796467806505662 0.40305781459624823 0.3550113306003686 0.17243760804433908
0.01942960276511818 0.4133571955563835 0.36527570739669707 0.15734354491201263
0.2445835093361106 0.4061857690547547 0.3580271045670401 0.1933519394364631
0.050815481988217205 0.40815612416715263 0.3601227500322722 0.1476972741951964
0.3375264135667265 0.045031616804136074 0.35184000695995676 0.12414673835828097
0.31134788789416745 0.03292720615142758 0.35173201423971756 0.10816975092604855
0.2973588394261576 0.025420140479916392 0.35179176875059937 0.1219046520791227
0.08250037804753341 0.29129283606132517 0.3518800539128979 0.10858191983746684
0.35870178975293704 0.3222843886338188 0.35181048400185644 0.11741589433168181
0.2997691114899869 0.28445765083739594 0.3517222565501852 0.11824100715935529
0.3375322768525422 0.30619947714373735 0.35177054615991116 0.0846134692360536
0.19914992902350973 0.3005058617458712 0.35183787391716514 0.09140162059638864
0.1254309935832416 0.31100969430236414 0.35191844072143946 0.08409834881235814
0.27711510320767774 0.30923802676273693 0.35181818305637286 0.10612499688520698
0.3060016330885224 0.3210970802220079 0.3518393637462851 0.10405385065607531
0.33910197654247903 0.33595864581554385 0.3518678363104782 0.09303102990814031
0.2839877793473833 0.2800958360535492 0.3517176757205933 0.11748645485149269
0.24161969301641997 0.3081441037091336 0.3518366630130491 0.09183196780974082
0.271066681350921 0.3420717130984691 0.351930366990134 0.09399419724310314
0.3138218067066447 0.34795951039593526 0.3519231983719675 0.08059854626527449
0.2572080113304218 0.282488961818945 0.351742245612911 0.09838355586397159
0.2524228583820321 0.35677870539317946 0.35199053446778206 0.09726447464857725
0.2396024060996506 0.2930751488862904 0.3517881596845257 0.09611016720014938
0.0778176978519927 0.2721658666670526 0.3518198096281846 0.11320188927972194
0.20880375488707703 0.33146624867421975 0.35193409906300016 0.10032736140283254
0.23304787524505918 0.2747317144733991 0.3517316677252553 0.08951860556724914
0.35935063816235907 0.3495121674629991 0.3518999884368435 0.12337647425816894
0.3228014417661594 0.27496298059590357 0.3516765691850627 0.11218451749253333
0.1828427960488695 0.29117866906482065 0.3518172242737377 0.08662327550042052
0.32552997407449863 0.32054166104451365 0.3518253753604002 0.08626224120479131
0.1818842092936003 0.3135551761890111 0.35189170988668383 0.09529020164172035
0.2229821158961642 0.3236726563079496 0.3518995394602926 0.09359179686456785
0.19687987548252775 0.32607789465759074 0.35192372765931457 0.09048299817977783
0.36348193606221335 0.3843643369198416 0.35201250175134946 0.15777949224667837
0.24104668945614044 0.32125020059114184 0.35188029701434764 0.0873699964922376
0.36242174058381843 0.36671691101144155 0.35195488841851763 0.1352563753085072
0.23270861590332403 0.32987423412663286 0.35191396383181206 0.09592290449007844
0.3099118498983542 0.2748388331051978 0.3516841816618209 0.1055725301482729
0.06644753299475564 0.2849486562597509 0.35186909614588224 0.11241628955722835
0.17165939517225162 0.2995062552582381 0.35185168311706766 0.09157284753191479
0.3402031888249845 0.27599091082820076 0.35166913272602107 0.0924943789402061
0.32415912726716684 0.3689702084829288 0.35198614345587187 0.08656572471112889
0.18703516429008205 0.30183254490194245 0.3518497949024778 0.09530415707595562
0.22955170940265834 0.34368504886492024 0.35196153307618716 0.11260116653505155
0.16844017922337826 0.3169844470172324 0.3519114011109955 0.10302789395411781
0.2882506026163589 0.3416990436948591 0.35191844121427707 0.08822618431469213
0.26592993534762577 0.3573759452511148 0.3519840998595377 0.10398841804951162
0.3241719741065157 0.296819361677253 0.3517478876679439 0.09683209836652372
0.24309455704809427 0.33902881810313884 0.3519377288297165 0.10944741136790861
0.32891810896173695 0.3811541895755648 0.3520234139554022 0.13286560550758822
0.2645569591548024 0.30269489361654467 0.3518043932441818 0.09356289806488848
0.15110130510765019 0.31298327380762814 0.3519089805551776 0.09660322940389963
0.1468020204059414 0.2970453135905115 0.3518590280069656 0.10094869130964203
0.31176056382419576 0.2865067013870416 0.3517215592531261 0.09671983162246015
0.28758142871415526 0.3302229226771679 0.3518809626473927 0.10639022921428831
0.34891849106743195 0.3288240946131852 0.35183816770653265 0.10386317770498943
0.2947587818130512 0.27356733169751757 0.35168941426235767 0.10981086474939164
0.35152996129954606 0.28317623907387596 0.3516858095170285 0.10543937310307055
0.3372808104891565 0.32281192246992396 0.35182555827733714 0.08676185717355007
0.2520977811944748 0.3044172764030139 0.3518178352220911 0.0979242285797806
0.17902464645093977 0.3258380546612797 0.351934048699586 0.09881198625113644
0.10745271892436824 0.28799673058468256 0.3518536396923759 0.0979749372034131
0.3060283066100861 0.34008640294402387 0.3519020513875543 0.08410291198079986
0.3649913109502526 0.3962388781238076 0.3520507729959861 0.18353831711745344
0.03354736905063893 0.27906183081153035 0.35187013429137287 0.07885075679340885
0.36149789910058355 0.27436619434533727 0.3516505140560499 0.1216190310959426
0.1892092963001969 0.33538231478391456 0.35195922572164706 0.10481002701905602
0.27814511704640726 0.3657643303586045 0.35200419629754054 0.08647661026241953
0.0916611053316353 0.27646473653986753 0.3518253887639395 0.10092452756433805
0.2069877866534847 0.27678042422570526 0.35175465240360604 0.07951026839353698
0.3429598303319004 0.29561601660583925 0.3517322206538514 0.0894532580740731
0.33339034983484767 0.28662888414916904 0.351708500432804 0.09061082340624838
0.25792734269420725 0.34234771559777993 0.3519394562349803 0.09216452301354698
0.30905143831123105 0.37127702102141424 0.3520031636877921 0.08368305361050912
0.35006509839613303 0.38430574590343286 0.35202065885607525 0.1521436804429158
0.3516117480838617 0.3114259525752433 0.35177904139747807 0.12205985827729983
0.05594468202832155 0.27841473404871414 0.3518540575441411 0.10064338779470457
0.29163577735956414 0.29398018434813805 0.3517587628566431 0.11050417852148371
0.3524049341894711 0.359939330142848 0.35193874272478964 0.10985237270263294
0.14779760849287402 0.28257950520138764 0.3518106411162989 0.0872811761513899
0.34050480003167516 0.35523771885156874 0.35193062422086785 0.07735102753833295
0.32224078232994163 0.31012921939102506 0.3517930398335756 0.09336842094440803
0.3404223137553263 0.3682251994690059 0.35197356124623774 0.0915717343315953
0.25322707328779637 0.33174993108520234 0.351907386939527 0.10010408509925653
0.2943067674377658 0.35368411276585476 0.3519542475299096 0.08147526480881553
0.3138824437187901 0.36042903783264835 0.3519643359957807 0.08307339885355748
0.2702699783257822 0.28387264967291403 0.3517386849523953 0.1002331886023222
0.20983676025939232 0.2967421295939561 0.35181879434279184 0.09206875310458044
0.3588567211476467 0.2978511645236579 0.35172970713838486 0.13532803516938624
0.32637210975233105 0.332283171301618 0.35186362261290577 0.0811537856248623
0.28180367340725265 0.3205823489531233 0.3518527247597053 0.10290873225409292
0.2895930811890564 0.3700551474334392 0.35201123975502785 0.08703755081711817
0.36642679103253156 0.33523033493172066 0.35184842453395804 0.14192371662910214
0.30001979458460903 0.3054480948413322 0.3517914126293977 0.11296660478993237
0.027448984199273524 0.39930589456911975 0.3521326267371221 0.20040092386958844
0.019033470982761293 0.06790912245064373 0.35170623916350763 0.11625564708469194
0.028617363805661 0.30404252722498426 0.3341364156444164 0.11159125125549386
0.01058765588625836 0.32134154217759425 0.33381545543670654 0.1687609873435838
0.024052926643732084 0.08310108712240595 0.3348361189796498 0.15116095339248434
0.03649205349069523 0.09592263379884251 0.33628758788108826 0.11046348179280947
0.3469804098065178 0.09882030960138039 0.33381545543670654 0.1541407305349451
0.33546086569644296 0.08006876413454043 0.33279141783714294 0.15731905660285528
0.3432490857209666 0.11055817219083251 0.33279141783714294 0.14825020494805377
0.0722771316039352 0.0974188613629565 0.34139342665687566 0.10650521973557625
0.3135647306694779 0.09448752231271096 0.34138131886525713 0.09022424100366863
0.348489117608133 0.43057803097572617 0.36220461804268206 0.18982074423507247
0.3694235305307239 0.36567173889751536 0.33708498764423583 0.12620587628649924
0.3695740541427326 0.32039472199433294 0.33788801833377163 0.14739023652524297
0.3696076043556418 0.3030281236711033 0.3385272367507036 0.14008959770585638
0.3696907578789999 0.3401232521611628 0.3393282322767212 0.14479768714225089
0.3677704240973252 0.21463097586345842 0.33730959719806064 0.12064236975500454
0.36843882251347104 0.23534973874978377 0.3375789928007253 0.1294850514240023
0.36670479023563596 0.20322604967660537 0.33646576773335096 0.12629625960583146
0.3614282484373166 0.11529845131501118 0.33724935871033684 0.11036932253962375
0.3560914170149782 0.07236732257283911 0.33697457991912066 0.10856064585493906
0.34932993649659294 0.05656794737925129 0.3404614346414745 0.11064878870548539
0.3260043941430506 0.029937580871582263 0.3396972868162117 0.1262489440699164
0.31465649611198704 0.02435533408176647 0.3418011749251683 0.11645508712496921
0.29513364977778905 0.01641588209895201 0.33684119642621213 0.1242448013891517
0.18455232669586688 0.00030673847442586586 0.3405550178949447 0.13329255528224565
0.16257997617363365 0.0013644562577137375 0.34108377262162737 0.13648500867187666
0.3403901532132675 0.04442401999848033 0.3413210863084196 0.13161663778692578
0.05685659373870211 0.022791791409231838 0.3407023036172611 0.13014341755759257
0.00808137631780791 0.12600606177465995 0.3400703063039669 0.13524111784975296
0.011639916837551298 0.08415315002601292 0.3370074625897469 0.13222973124015328
0.005740048595908737 0.15630205474178638 0.33717281065683363 0.12431861027590126
0.0008606621440398734 0.2533188957720366 0.3372568628855171 0.13937856571051527
0.0016633024280882937 0.23235975777860823 0.3375676174160378 0.12359113373052756
6.983598201596873e-05 0.3730860671053131 0.3397818273652407 0.1410480717251186
0.0002371280336183961 0.3043804687847935 0.3400375221332628 0.11592890949805129
0.00016664832696914995 0.3346606211256349 0.34005675873897123 0.13338921329998885
0.0001721036822452322 0.3199848960079356 0.33742022179461834 0.15780663413263502
4.640756372343523e-05 0.411739931087885 0.3468711583074723 0.15498533525131394
0.002861437293667489 0.2038093739561589 0.3381833435183659 0.1649707343331566
0.00473083662927619 0.17246804137649813 0.33937980935618806 0.13015138558597444
0.011983097479361798 0.42874282440129474 0.363792007239511 0.21315979404107377
0.030799956529284404 0.43021807701843784 0.3620683577795652 0.19659801856275558
0.001722671122603084 0.38877730268238053 0.34219214071054505 0.1758380995668502
0.07830105307404191 0.015127470977723892 0.3372682122492438 0.1318555886713211
0.10255752683120511 0.008961216147841065 0.33784842526611214 0.10887502755712798
0.15195143351251228 0.0014542411204564022 0.3379518698938772 0.13717879744652076
0.3635076093061339 0.14169098121857027 0.3387160697148923 0.10829242651503097
0.006502822009747853 0.1444223512907569 0.33878513229498286 0.12632239150685312
0.0012601314434276217 0.42392989359364597 0.3627002543601838 0.20607886830587877
0.03122395549125371 0.04120389315585596 0.33879861070794925 0.10687133105430835
0.010522497318247037 0.10015168100780243 0.3411533454178597 0.12756857286081463
0.12861090688682966 0.40380098941321557 0.3435192664283287 0.23781822209495365
0.010378387569877008 0.11451727396889415 0.341787795482457 0.13990488223174571
0.002312446876536149 0.21952692913114427 0.3400297820901113 0.12548834181262833
0.004021154397616523 0.18625794289427153 0.3400416203644169 0.12293355329413737
0.0007276078253628335 0.282066859770179 0.34120041988061195 0.14814665062030383
0.3685681642256015 0.2531874566761323 0.3412658664315201 0.12478412089227153
0.11721147513479388 0.0058777030192365895 0.33952291913456795 0.11936583346414084
0.0035656648423511923 0.24399464309871907 0.34224366371168125 0.1392462089665264
0.09938120556169672 0.4065909999764542 0.3418263322951205 0.25260575721430245
0.18039895661650568 0.4064700736509315 0.3421175565181478 0.17016358135435114
0.2713576025895676 0.407197083879966 0.3413591697322942 0.2529858499486374
0.04379213913875085 0.43037211143281096 0.36176412010244396 0.2090784341031495
0.3266891867608244 0.4299568458264088 0.3616586511931129 0.16172999008183767
0.15832969226581609 0.40788314552241667 0.33989743018903534 0.2126004939817173
0.1912013983721214 0.40790077312412765 0.33992438966465716 0.1783350667555587
0.09177662890360869 0.06270189937748391 0.34239819645881653 0.0879034227628685
0.06851800903665907 0.027593810284832425 0.34239819645881653 0.14235672624965903
0.07971399926906551 0.06155058318003737 0.34239819645881653 0.08604117695566826
0.07997512552140959 0.031197478808804684 0.34239819645881653 0.12425862574831022
0.06874860541855182 0.03967873101263873 0.34239819645881653 0.11557181940644033
0.08455359189775169 0.04150962553088839 0.3423981964588166 0.09577307784678042
0.0900611403579935 0.07991289056138323 0.34239819645881653 0.10022738331963107
0.05768991207449287 0.036269780120748885 0.34239819645881653 0.13649520689474814
0.07122936758487677 0.054831252249921324 0.34239819645881653 0.09020134308558518
0.04573633604228305 0.03838953176306118 0.3423981964588166 0.1296657962550727
0.059953959573040005 0.05931640116069207 0.34239819645881653 0.08367945674774678
0.059558156797243446 0.047930508811089824 0.34239819645881653 0.11145446442924228
0.06384502881431707 0.06968719272540556 0.34239819645881653 0.08110255844375332
0.13443585356469012 0.02504776545358885 0.34239819645881653 0.10614682956437524
0.11170680394904416 0.05505370935435959 0.34239819645881653 0.09797885057791174
0.12822455790887363 0.0356245088619156 0.34239819645881653 0.09198760594025375
0.13773431992431803 0.009981498040731725 0.3423981964588164 0.13372404204010327
0.13685347618921276 0.059914895821883515 0.34239819645881653 0.1117881694433627
0.12378640953818647 0.05739856194566379 0.34239819645881653 0.10514768441488108
0.18056470543372447 0.0167976148527314 0.3423981964588165 0.12354548467896288
0.15145138186607598 0.044468033906870645 0.34239819645881653 0.09854533459168614
0.15229461410803646 0.02147445446945584 0.34239819645881653 0.11637540755695
0.1926199268572485 0.008966872668625971 0.3423981964588166 0.1575256043790802
0.16347274920693813 0.021096856202089734 0.34239819645881653 0.11702249007648356
0.1667406835281194 0.0492416939806536 0.34239819645881653 0.09549604855358071
0.19549601013485898 0.05953963547706427 0.34239819645881653 0.10437835821715018
0.1830449532164675 0.04494313485615163 0.34239819645881653 0.10109688591496603
0.1911950095269165 0.021351087159335196 0.34239819645881653 0.11353067885720433
0.18524006697434608 0.03154286808964722 0.34239819645881653 0.09992359943643267
0.2602599569655926 0.012646347915894888 0.34239819645881653 0.12119068780691249
0.24025772902065384 0.010037990060159123 0.34239819645881653 0.1396337616076506
0.2657296078835966 0.032185093415082 0.34239819645881653 0.11208659545286405
0.25596304432255457 0.042615091570820635 0.34239819645881653 0.08469343151387795
0.2233061765357734 0.03700895433494348 0.34239819645881653 0.09565877021284994
0.2514494082339329 0.02401095478520638 0.34239819645881653 0.13613676638356378
0.207185556464259 0.05446963836783936 0.3423981964588166 0.10814250168794703
0.20109029266253725 0.03160527323948729 0.34239819645881653 0.09371954430426577
0.249798682409465 0.06476711408613596 0.34239819645881653 0.10234756931913304
0.25988993077783973 0.05564344228109952 0.34239819645881653 0.09664950481041601
0.2972740545092528 0.05537726154189884 0.34239819645881653 0.08424922826827257
0.30294967114612886 0.04249296473893793 0.34239819645881653 0.12164243583252976
0.3293878521613198 0.04771522619649157 0.34239819645881653 0.13855517633391215
0.3152789186169306 0.03978417497822891 0.34239819645881653 0.12521778364664324
0.3043483428792373 0.06467154867662989 0.34239819645881653 0.08426482733959713
0.3064771006516178 0.07616724245537282 0.34239819645881653 0.08345821080480458
0.3185488826788555 0.060380302243299655 0.34239819645881653 0.08851865721880121
0.33685654182595703 0.05632043919170716 0.34239819645881653 0.14490641303645818
0.297728098170359 0.09065262256518054 0.34239819645881653 0.10007026260499254
0.28665503157148453 0.09463326297481339 0.34239819645881653 0.10713986142714409
0.3294158028965419 0.07937906016273175 0.34239819645881653 0.11118649367379396
0.3375038677489059 0.1048577596597269 0.34239819645881653 0.12468382356244279
0.34302139672881843 0.12674189039857897 0.3423981964588165 0.12945337848649963
0.33176746920631106 0.12129734839126646 0.34239819645881653 0.09329097654340501
0.3521467559340049 0.10546896764639575 0.3423981964588166 0.1424427275518314
0.3532467896759553 0.08516199631224759 0.34239819645881653 0.13051465318881966
0.3165983421850246 0.12005176240208815 0.34239819645881653 0.09136213676862927
0.3208579339209099 0.1992011826300399 0.3423981964588166 0.08768375960427856
0.33344471381675606 0.19304552552062382 0.34239819645881653 0.08230522616143052
0.3477528245785529 0.19678991641057106 0.34239819645881653 0.11087423160833845
0.33639243565546373 0.177151015824307 0.3423981964588166 0.09847725200739472
0.3554530418001472 0.20517865625647402 0.34239819645881653 0.12803273044015964
0.3454614106582006 0.2284438192331561 0.34239819645881653 0.09922296421160626
0.3440521472419952 0.18507572773393038 0.3423981964588165 0.11740627883667211
0.36265600367535117 0.24319728745551802 0.34239819645881653 0.11772553271616158
0.31930593727258977 0.22371426925783924 0.34239819645881653 0.08551044186055272
0.33816054205993584 0.24946141545417008 0.3423981964588165 0.09049683414927076
0.3132283452478172 0.2074228440843648 0.34239819645881653 0.09124812945282683
0.3256745664719808 0.2331980872715567 0.34239819645881653 0.08565702292176444
0.35322971896986965 0.3191487262101601 0.34239819645881653 0.13355913732234345
0.3539799237983642 0.339987856093536 0.34239819645881653 0.1593766816192721
0.3357713428153697 0.34697102346406994 0.34239819645881653 0.07957338558323838
0.31829081843084606 0.33216858409146566 0.34239819645881653 0.09271793944505868
0.313219863256389 0.32041945161703156 0.34239819645881653 0.10116199570908901
0.3462148758732073 0.3619772078545791 0.34239819645881653 0.11149388255836382
0.3494964684349901 0.29116707631317196 0.34239819645881653 0.12192596938644797
0.3605947825596379 0.2865475326810486 0.34239819645881653 0.14883906598852653
0.3576762228891199 0.3551022675133516 0.34239819645881653 0.1363691983838115
0.33253514240382376 0.3308849036218331 0.34239819645881653 0.08644372212540398
0.33177000009623 0.3126934495912077 0.34239819645881653 0.08500993013089583
0.3158089527108373 0.29961157783445647 0.34239819645881653 0.09899823834242857
0.35242965450719715 0.2670453774772663 0.34239819645881653 0.12974736166285625
0.32415500908986117 0.25747186381832854 0.34239819645881653 0.1002476043462083
0.3271533283150971 0.2863786128411086 0.34239819645881653 0.10043824032816874
0.30840074934311057 0.2472525667329068 0.34239819645881653 0.10321776071497629
0.32064094426035294 0.2455153568870656 0.34239819645881653 0.1003086012671322
0.33748609546139324 0.2675657322811804 0.34239819645881653 0.08858533045843181
0.31034403847805736 0.2600489831287429 0.34239819645881653 0.0978221923906717
0.3465778526596194 0.2772698224756481 0.3423981964588165 0.11367692246248287
0.3050755745467111 0.29536316903317705 0.3423981964588166 0.11358430722968606
0.21466620589189206 0.3657813234839853 0.34239819645881653 0.09800220357623965
0.25258767123406745 0.3641016130932022 0.34239819645881653 0.1013750098639205
0.235657710625045 0.3678604621387834 0.34239819645881653 0.10817534799800951
0.27105065747473006 0.37990835823970315 0.34239819645881653 0.12013094246615018
0.25112524876872405 0.37829335185276336 0.34239819645881653 0.14027464810270537
0.08930997582449895 0.3953837017390868 0.34239819645881653 0.22781229488055257
0.14711229752256594 0.3675931226942776 0.34239819645881653 0.09459760781518922
0.1809673145312417 0.3723479455339514 0.34239819645881653 0.09945557655724377
0.11060345981873734 0.3723129458623969 0.34239819645881653 0.09623385300154579
0.1536091362953798 0.3807316378595952 0.34239819645881653 0.0976451705683945
0.129065709390114 0.382937515733174 0.34239819645881653 0.1444077812987124
0.02275230898191447 0.3955257530164927 0.34239819645881653 0.2708831805608959
0.2949538478488288 0.3971717976625565 0.34239819645881653 0.23752641383703813
0.1705402119315411 0.39796936554287854 0.34239819645881653 0.13965057756893784
0.24326277998899315 0.38624394238522497 0.34239819645881653 0.15619821965047187
0.3551463336681952 0.3989563863213634 0.3423981964588165 0.26214280020127406
0.139164397225236 0.39658507756148004 0.34239819645881653 0.19267254148272533
0.21271616196133472 0.3961326476047773 0.34239819645881653 0.14619677750679078
0.16860929410449696 0.3751130394467851 0.34239819645881653 0.08645713667742336
0.22126618567635073 0.3890765197949768 0.34239819645881653 0.14994190864494122
0.2610857739546688 0.3998790866885639 0.34239819645881653 0.2501816626821631
0.2807145399838661 0.3884203513627025 0.34239819645881653 0.17533504502028466
0.20448133222340464 0.38126529505340323 0.34239819645881653 0.10164889908169811
0.15842287731284105 0.39346584632627046 0.34239819645881653 0.1568603704629008
0.10953578401506747 0.39021562922537345 0.34239819645881653 0.17139092864728606
0.03439653226942916 0.3978139257919457 0.34239819645881653 0.20014882786566204
0.019786401779267965 0.3640779278900266 0.34239819645881653 0.11554673477147612
0.016285449552757413 0.3793550363430952 0.34239819645881653 0.21095405556566746
0.025813327565263163 0.3337369044606263 0.34239819645881653 0.09942449579541675
0.010679105556428882 0.3317383566469308 0.34239819645881653 0.12806397756298002
0.02672972661604682 0.28447254422986584 0.34239819645881653 0.11777759879108705
0.03579502025104126 0.3081687330596925 0.34239819645881653 0.07813931177658362
0.0160188411588219 0.3505878713661291 0.34239819645881653 0.11961295921845702
0.03702441187681095 0.3313259572527304 0.34239819645881653 0.08657462556659407
0.016210212853467392 0.29205321791251926 0.34239819645881653 0.13478651774465636
0.017538403618265766 0.3228059744770946 0.34239819645881653 0.123839377848354
0.006258271829628413 0.26231525818423346 0.34239819645881653 0.1582947842085898
0.05092436130115739 0.18862337109232113 0.34239819645881653 0.10605475006151724
0.02332579184630395 0.17532666110179282 0.34239819645881653 0.11939254714111311
0.01741152175086477 0.18455918516371442 0.34239819645881653 0.11447514391987462
0.029516460218580204 0.20472146707186767 0.34239819645881653 0.10165635948824235
0.041261257153042324 0.20316648452365899 0.34239819645881653 0.09418544720447679
0.016164720777975896 0.2162361533510569 0.34239819645881653 0.15624543769826882
0.034056521606867673 0.21636106012390677 0.34239819645881653 0.10319633116073164
0.02159387628254229 0.15943356075130244 0.3423981964588166 0.13695969534256988
0.012633832380699539 0.19788147151984306 0.34239819645881653 0.12954167214203083
0.04722618652178339 0.17838530278839212 0.3423981964588166 0.09395583667783781
0.035673310240364936 0.2307696868907252 0.34239819645881653 0.0973334168599005
0.06257090727573116 0.19443758506605938 0.34239819645881653 0.11206090779042563
0.03632459534625415 0.24961627008343304 0.34239819645881653 0.08672752175099264
0.02588141861797058 0.24324811633822607 0.34239819645881653 0.10595713152825177
0.03913392456020701 0.2727758145300949 0.34239819645881653 0.09153934802431427
0.024037751304867853 0.25948728494387463 0.34239819645881653 0.10947367120041054
0.0583494150932483 0.24469332372424246 0.3423981964588166 0.09795301239178529
0.04790461869908108 0.2792480435200174 0.34239819645881653 0.09964606430721697
0.058568135921311035 0.26131855512851293 0.34239819645881653 0.09397922750073276
0.06115840160706751 0.29906381378917823 0.34239819645881653 0.10261684289616652
0.043158040534392435 0.29017127372669954 0.34239819645881653 0.09776457236828036
0.04049291889390667 0.13598355270617216 0.34239819645881653 0.09199867944891946
0.03577661150990299 0.11711112912071522 0.34239819645881653 0.09848308207014318
0.05369990882798577 0.11418809311778393 0.34239819645881653 0.10571213524851765
0.02931908253524239 0.10279623584099697 0.34239819645881653 0.12205739143301626
0.05465555696176914 0.13571796865550895 0.3423981964588165 0.10654223230321863
0.03961261097139371 0.16980086575399067 0.34239819645881653 0.09649550161959514
0.06256603665214618 0.14734281885702996 0.34239819645881653 0.11187791217630214
0.04564771122201073 0.15771603783738247 0.34239819645881653 0.11575116416056007
0.03956366675394137 0.1479721606602281 0.34239819645881653 0.10095882190473696
0.03112171079551281 0.0689017295522385 0.34239819645881653 0.12507050968883268
0.05497542454968065 0.08366102009275153 0.3423981964588165 0.09475298932777784
0.05119829275746461 0.0725351494338941 0.34239819645881653 0.08013317190363163
0.03429055045886628 0.052755208293676706 0.34239819645881653 0.1172547254672755
0.009866878250472581 0.4068683650091231 0.34691741822865274 0.2155789657418264
0.32265774143193643 0.4108045971316619 0.3501186497855378 0.2749875861671499
0.2939586137952513 0.03552852894679731 0.34223252561791134 0.11594130140693328
0.27296004766119586 0.06504601547812326 0.3423523312011586 0.0975446039685661
0.27729869558986087 0.049553538511362585 0.3423442241613889 0.07938346033089226
0.05326376323239682 0.3375246905117028 0.3423545905716923 0.08968822583825195
0.0663178590247227 0.3184733981618706 0.3423914633536916 0.10265384352587067
0.30499532551107966 0.3288588143922927 0.34213600248525516 0.09664740969483494
0.299879810332112 0.31409426200820484 0.342376881147732 0.10030258743526888
0.05404693073986547 0.3511688935317865 0.34213868250002 0.08303161180981743
0.04675102765408981 0.3600139087498905 0.342180041509101 0.08596124544608438
0.07256096443008139 0.34416490523399834 0.34206941637749677 0.10106285350306309
0.044484164214799025 0.09152263257241479 0.3423088477130428 0.08702721692112081
0.30669341143646955 0.10486438125098939 0.3422371440223727 0.10351430004076777
0.32924548024161227 0.1453254352276447 0.3422799306059201 0.09361321209600547
0.34468994781456236 0.15964376798368132 0.34239002794687246 0.12690609309456072
0.32260196129074853 0.15585895038893915 0.3423057766398413 0.09153874066687796
0.31335998345533456 0.18290438319318816 0.34239607639010083 0.09266446691558029
0.3175319226887775 0.1442366631472681 0.3422392784741204 0.09093514946611618
0.3082612237516419 0.15277666407584461 0.3422483352448408 0.10033336337444071
0.3145567468390831 0.16915261150617897 0.34233943396897526 0.09563629715326205
0.32826900482744004 0.09819427972082896 0.34224560221238576 0.08654551251686399
0.06603552329154395 0.21311052718848872 0.34099240613526305 0.09601178193197922
0.029455615079245694 0.08908696867135708 0.34237921851057096 0.11796591487874308
0.06510746195473698 0.1074659878947068 0.3420632323984991 0.09440498418168833
0.09455587677590246 0.3486473167106345 0.3420296232139073 0.11244632870711012
0.011991875950282995 0.39568587959985535 0.342364136763898 0.2553342983966949
0.0865979613914409 0.3367953422649627 0.3420131904477064 0.1093272822058739
0.3418929681647706 0.3799848302931171 0.3422795501606997 0.16127308087361303
0.31047238545862027 0.3552324282240828 0.3421326136530107 0.0827267509813805
0.2873817003446009 0.34889205240689103 0.34205692896689294 0.08471973896842498
0.3026871319096069 0.36237971118095014 0.34213370675691634 0.07833992576862985
0.34859440330250696 0.3901876616422429 0.3423248229374672 0.22647365932132754
0.2802448828537522 0.3584388069185894 0.34207392136716114 0.09438320954595061
0.31703279314962685 0.3748873387918831 0.34220646030599083 0.1143456168556381
0.2623085289816055 0.3479427093599876 0.3417949150266168 0.1000988220359427
0.26608305169470836 0.3631641923596264 0.3422943296452241 0.10396587100182964
0.2833470515779891 0.37081782391149143 0.3423589787512966 0.0948182927451717
0.24487954672843187 0.3557421909708428 0.3422874770792732 0.1088744482575217
0.32535469359869423 0.3837265089899606 0.342306702927989 0.17493854177075893
0.0508438568619476 0.38360748215476015 0.3422585676910984 0.16516728604811204
0.11862761447879962 0.35224422410914963 0.3414055852359609 0.10487443282618769
0.29043479609563916 0.3224805591484128 0.34188490634860313 0.09498407971058202
0.03298665915270317 0.3862090129553273 0.3422881343402382 0.19232772551466246
0.08843579382857666 0.3596892357763706 0.3420811420779706 0.09671196627317469
0.13390827550672035 0.07019543121440763 0.33348873565769266 0.12100712497083879
0.1437249801667982 0.06873240436731048 0.3395725920823884 0.10842621946067872
0.130751354131627 0.07078363926704319 0.321125448910861 0.12578247233766232
0.1407818776067168 0.06926102468463399 0.3232526687260596 0.12106335565310289
0.1673455940139189 0.06630486192464842 0.3391148695501755 0.09994841071617311
0.15838676388979298 0.06706653856944972 0.3224628484738522 0.12254894818896443
0.1821292964257843 0.06591343295829866 0.32438785857269925 0.1167203562367502
0.19359708087992777 0.06592257050108896 0.3251651091748996 0.11187290246194269
0.216679426058821 0.06748782864964355 0.3391961300088917 0.10897012287487089
0.2156193765593084 0.06740654855056398 0.3210906969879177 0.10676062263209779
0.22853641993800106 0.06917154762193761 0.3383599922632121 0.1095431923141016
0.23338195439006332 0.06991502346823386 0.32392330706442457 0.10964419868284292
0.24746697390129707 0.07295682597780012 0.32276405308864103 0.12106298839717901
0.10050756712530204 0.0832810878780575 0.32145682802485287 0.11096288703018536
0.08150192387738786 0.1023909744264492 0.3209776241129999 0.11817277845052399
0.07213054381719904 0.12213612288134768 0.3250671806484879 0.11431299139368649
0.06750616749898733 0.1628471575954618 0.33962311227189945 0.10090347994165759
0.06867163378757177 0.1401086710418152 0.32399374010067317 0.1189558166926307
0.06771213658167367 0.16203152055743697 0.32256032928927847 0.10581603562078287
0.06720224607540268 0.17308397252878804 0.32403982264856673 0.10276803344420109
0.06650323144147521 0.20264001175242394 0.3224055504172693 0.10670000728038039
0.06649340064643992 0.21492506430278668 0.32498075666347964 0.09910802086260098
0.06648161224522033 0.22965643932869562 0.32402687379012646 0.10830263256855666
0.0673618832847622 0.2570442464326019 0.3240995561390242 0.10647626463195888
0.0685024626881798 0.2826579556946462 0.3206294709574787 0.10989701823366411
0.06806800766253515 0.2729015067521592 0.32604628843751016 0.10573669145404896
0.06790985993646734 0.26935002242426714 0.339379570126425 0.10534079217087872
0.06737658234466026 0.25737433958133504 0.3369458945143796 0.10591582504750892
0.07296008983824552 0.30598061797581527 0.32085611293153304 0.11716535846820207
0.0823905778120428 0.3241626835391121 0.32143189021186747 0.11287189737369185
0.0962540516614843 0.3391489488247741 0.3224608109984465 0.1111082836633241
0.10169371699207214 0.34282956661152697 0.3331473781821755 0.10883507812577119
0.10938716095886439 0.3473762661402776 0.3246593528622149 0.11801028963146327
0.1272326457170601 0.3536626953418719 0.3221583646790208 0.09694432719756682
