x y z curv
0.14400137661928528 0.500029981136322 0.06157582140605343 0.011522412101656098
0.2336292083700624 0.500029981136322 0.07977931009693251 -3.982112775920357e-19
0.1917116686125451 0.500029981136322 0.12972781909734135 0.0
0.21075384084545035 0.500029981136322 0.10528853184296669 -6.529420527172151e-28
0.24820268954383556 0.500029981136322 0.12802900463163738 -5.601094840670265e-28
0.2523507853632687 0.500029981136322 0.1415881123898752 1.5464684271552556e-17
0.2453921932144047 0.500029981136322 0.10584759336491097 0.0
0.20639640485911087 0.500029981136322 0.1361365682356972 1.5638328659034602e-17
0.1186801466527202 0.500029981136322 0.057318760084700715 0.02201920899139762
0.285569266285496 0.500029981136322 0.18317038706119124 0.06546112169036895
0.14880749344657962 0.500029981136322 0.08838442322704584 1.2143068449157354e-17
0.18673616990567543 0.500029981136322 0.0982303922538596 5.7673485151740264e-18
0.26137216979483496 0.500029981136322 0.1314224203687389 0.003796448040142494
0.1899438598734233 0.500029981136322 0.049220848133851844 0.04562232204948579
0.17060674309449342 0.500029981136322 0.08153608299498832 -1.2905657240754714e-28
0.20550402652050384 0.500029981136322 0.05201504376768043 0.039491438799547196
0.19580133182761672 0.500029981136322 0.10492901155066131 0.0
0.2143231697968036 0.500029981136322 0.062088893542849556 0.015065943236920763
0.206366973226191 0.500029981136322 0.14847208708324963 -8.216495793491722e-19
0.23886283732551183 0.5000299811363219 0.135865625811237 3.782467188206172e-18
0.2949081737044895 0.500029981136322 0.1564335373651274 0.06165728775927883
0.2248223692902488 0.500029981136322 0.15659112261958752 -7.78098432092939e-18
0.2955586851688745 0.500029981136322 0.09415407571472621 0.06900084310671284
0.21711709473969656 0.500029981136322 0.13879598492498743 1.405191932486632e-17
0.19653765619067076 0.500029981136322 0.058710247763065534 0.039424893923883195
0.29501590699653313 0.5000299811363219 0.1449308455722728 0.06922094796948905
0.23001446039441364 0.500029981136322 0.1262571664362068 1.0118459886047626e-17
0.15639025462052586 0.500029981136322 0.06529225253030245 0.004891418496868983
0.07892055039108664 0.500029981136322 0.04430429447755168 0.09947729216952728
0.22470916277661393 0.500029981136322 0.054140634699790184 0.042937560973496346
0.2849189328922941 0.500029981136322 0.06298589401458966 0.05954403870702366
0.14673419961998485 0.500029981136322 0.04695307807442902 0.08949456337396618
0.24018447926233538 0.500029981136322 0.15704804612167578 7.912051291349247e-18
0.32850362679336964 0.40547063218089463 0.35199999809265137 0.18643141339448838
0.3434130934756553 0.40378055322260875 0.35199999809265137 0.19755210532195835
0.31739731186634423 0.4009463219341233 0.35199999809265137 0.16779160805790183
0.22452897869372668 0.3329051915233957 0.35199999809265137 0.20114940015970498
0.11297263120727725 0.33266831775820355 0.35199999809265137 0.24245333261368107
0.19219392321524423 0.3836324406487831 0.35199999809265137 0.2074092276466432
0.2568354343829456 0.2772712929939029 0.35199999809265137 0.24012490265755582
0.3155245553342617 0.3200856325450104 0.35199999809265137 0.225402362986116
0.2204481357656329 0.3675479665396907 0.35199999809265137 0.18864617617980456
0.3284004929436226 0.2108441148301738 0.35199999809265137 0.22254388120416008
0.29492032505469346 0.15068671752042245 0.35199999809265137 0.20395044692796746
0.329536947483185 0.16774164207309658 0.35199999809265137 0.2681676043986022
0.24595371548803058 0.26977678333751026 0.35199999809265137 0.22087369255308323
0.3442530865817613 0.13107008067173082 0.35199999809265137 0.25479471930867775
0.0765294449321326 0.39131389198831534 0.35199999809265137 0.16350485718448948
0.34657690541626984 0.29948431703111844 0.35199999809265137 0.2182215798757523
0.24550734288921452 0.18179630436890767 0.35199999809265137 0.2048911548447857
0.2387214695247456 0.28489534231381247 0.35199999809265137 0.21283694725408367
0.18745569314538488 0.27366494148277404 0.35199999809265137 0.2107744089376109
0.1222431394707179 0.388634059963891 0.35199999809265137 0.2050561217108572
0.27746757142161066 0.29922184807556695 0.35199999809265137 0.2375151378862317
0.2505117146754611 0.2226251653500495 0.3519999980926514 0.21773997683004975
0.23409892403735522 0.3776577956540076 0.35199999809265137 0.1972841006472427
0.32595348695737375 0.13818299923974098 0.3519999980926514 0.22085975503327757
0.3290586605751967 0.12276275742469332 0.35199999809265137 0.23003734897026148
0.06335439513797592 0.3556696540139581 0.35199999809265137 0.20571711351707778
0.31893050924552174 0.1278863649483195 0.3519999980926514 0.22100937213005573
0.2800600591834159 0.25466970900229713 0.35199999809265137 0.23806775290520596
0.31197860240383013 0.21324323158055009 0.35199999809265137 0.2122725799934415
0.16365033140251686 0.32939605963439644 0.35199999809265137 0.24372035927311178
0.35379691248879624 0.25634316883050023 0.35199999809265137 0.1696773304431373
0.21370756193664947 0.2652859480667651 0.35199999809265137 0.18271430264801863
0.15585394442990502 0.351840579092399 0.35199999809265137 0.2403734878125647
0.2578098831379589 0.33743747966288673 0.35199999809265137 0.23056504303456382
0.29755069437514586 0.32172102971064076 0.35199999809265137 0.23980080592978031
0.14846762163015065 0.304726818689041 0.35199999809265137 0.21221451692298074
0.3010546062521928 0.28596282468184275 0.35199999809265137 0.22313767412634938
0.3080050602145166 0.1467352399542729 0.35199999809265137 0.2058564499312339
0.2892506951157775 0.22156287281966672 0.3519999980926514 0.24446508358997862
0.22672331643093074 0.3860842563962604 0.35199999809265137 0.2023801541393954
0.3332721808164668 0.2375950966884065 0.35199999809265137 0.2424818370971852
0.2370671744080553 0.30587852940948246 0.35199999809265137 0.2226869181797137
0.3451616255215188 0.3579424449061488 0.35199999809265137 0.23631410001841305
0.2970350116316858 0.3710298020709416 0.3519999980926514 0.21643853512895445
0.23965253615708598 0.2533275200080618 0.35199999809265137 0.22263587328133594
0.14786322265416596 0.33459557009065233 0.35199999809265137 0.22270521399907037
0.2967899183674999 0.20041697315944074 0.35199999809265137 0.24223610929678432
0.2681673401578626 0.17902837947188371 0.35199999809265137 0.23363312065966857
0.14884358108889967 0.2904136169247859 0.35199999809265137 0.21655200310028033
0.23083030600152354 0.3501962180520196 0.35199999809265137 0.2282587945619123
0.33658215026055727 0.15901891161530562 0.35199999809265137 0.27667054232524046
0.11967530132249879 0.3120336555290984 0.3519999980926514 0.21987304350474388
0.30337146075062443 0.22598733650767688 0.35199999809265137 0.229993834274439
0.26748237678445397 0.25055940370474716 0.35199999809265137 0.24343998066587436
0.2979821868474858 0.13806225903708305 0.35199999809265137 0.241008701108718
0.19817622861888418 0.22965438288254006 0.35199999809265137 0.2235589193444854
0.11638398660862634 0.3682565510095434 0.35199999809265137 0.19072744399009425
0.3456414231661619 0.28189363334077 0.35199999809265137 0.2208567017344076
0.2568425417966005 0.317276576090894 0.35199999809265137 0.2276265298697671
0.33138227391673386 0.3051738593547788 0.35199999809265137 0.25917566426701033
0.3465232045002073 0.3892959492545509 0.35199999809265137 0.19543709713413251
0.058665550159920046 0.3664099346718856 0.35199999809265137 0.20162556237427573
0.20999246634678026 0.32662532201527555 0.35199999809265137 0.22713775847148815
0.19183480917509876 0.2388679322625184 0.35199999809265137 0.20574717086391398
0.3198839765100742 0.288230202528856 0.35199999809265137 0.22861867071821246
0.3368648745520376 0.11320990849286411 0.35199999809265137 0.26377190454868477
0.3471298625617538 0.17744898551789523 0.35199999809265137 0.17528085802082055
0.18190403671649769 0.26228894178910195 0.35199999809265137 0.20974871055120486
0.28000147440799333 0.3743392932325033 0.35199999809265137 0.19518030269586784
0.12347333464931257 0.4000905465576627 0.35199999809265137 0.16910553616745483
0.18894835826398626 0.32918267777748694 0.35199999809265137 0.23497746670319708
0.042339039715130235 0.37623390893182335 0.35199999809265137 0.18930184719413917
0.1366831125322392 0.3420781222016447 0.3519999980926514 0.21635549512006555
0.28003601985195736 0.32811752953560647 0.35199999809265137 0.20807873295308912
0.2883254602809682 0.18092567769308288 0.35199999809265137 0.22264662743866429
0.2577716404191555 0.18420614415510125 0.3519999980926513 0.2059924442540999
0.25209208885227696 0.3597526365501318 0.35199999809265137 0.2142613347152683
0.3521120799308438 0.10608150904572869 0.3519999980926514 0.18494205739257438
0.18277633347218417 0.37271939166099344 0.35199999809265137 0.21689451152915093
0.2231771225630973 0.2381015211791066 0.35199999809265137 0.21393037729137632
0.34291424399723863 0.24444918451047487 0.35199999809265137 0.22114732166846052
0.26001799766285444 0.20828541509736664 0.35199999809265137 0.22459034919016974
0.34174115704970787 0.258430723970785 0.35199999809265137 0.2668190832046477
0.136156448439901 0.3699160246554168 0.3519999980926514 0.21407537477459102
0.18294670897126108 0.3033866647772299 0.3519999980926513 0.23456583904601935
0.2702297738391515 0.27298784616728866 0.35199999809265137 0.22430986452284615
0.24332307498507458 0.38537497147223615 0.35199999809265137 0.16965425865798525
0.13075409134682142 0.3204759998554283 0.35199999809265137 0.21692091082094125
0.21107270530806962 0.284756625324042 0.35199999809265137 0.21369195121197562
0.31454042469098054 0.3078555568260435 0.35199999809265137 0.21279654748296628
0.24381859395760214 0.19380350460356066 0.35199999809265137 0.20952174740493024
0.20066840442226028 0.3114731286674853 0.35199999809265137 0.23227540232509092
0.10334152562803328 0.3400868879803243 0.35199999809265137 0.2318273508072021
0.3558210199540316 0.3171106899664206 0.35199999809265137 0.11146499862627579
0.32132379936280775 0.2633970277470496 0.35199999809265137 0.252943450604026
0.22438669215115797 0.287095321813543 0.35199999809265137 0.2224491187052602
0.18687999132401215 0.3952530883022963 0.35199999809265137 0.1847724737869986
0.32483586816371285 0.38446326524350605 0.35199999809265137 0.2300643171165536
0.24363639177564173 0.36916658027696164 0.35199999809265137 0.21180437752639245
0.2111855371934427 0.23200574828928502 0.35199999809265137 0.23373588801798112
0.2588950382863845 0.23138383118454264 0.35199999809265137 0.2264652307698992
0.20503624325076888 0.3830987707027642 0.35199999809265137 0.16588680026307964
0.2823001192957926 0.2048065180015123 0.3519999980926514 0.2524193603260047
0.055081711024538293 0.3827727852325001 0.35199999809265137 0.2271225365339818
0.3451504567408455 0.32904938063533085 0.35199999809265137 0.2616775763133669
0.2836553171993981 0.3922689712132023 0.35199999809265137 0.21475267135419313
0.04150314838192253 0.38906170581304744 0.3519999980926514 0.2141099366775063
0.30331878853425376 0.39647416327668555 0.35199999809265137 0.17658750462401082
0.265373695661335 0.30828912181690693 0.35199999809265137 0.21292215314629864
0.2914363520790312 0.25008418437383884 0.35199999809265137 0.2640558428209168
0.2890036070663317 0.29170429170175083 0.35199999809265137 0.24787154476780598
0.2732169712263457 0.3986381553080644 0.3519999980926514 0.18692352728410394
0.10909542645194945 0.3172211637988769 0.35199999809265137 0.21064480636792873
0.13085491392949222 0.3555355109854266 0.3519999980926514 0.23040740331685566
0.2846933307936113 0.3637427346305109 0.35199999809265137 0.21038202010113316
0.2501123490924315 0.2498597711477581 0.35199999809265137 0.21814516508937962
0.15304120981775196 0.3629077043403503 0.35199999809265137 0.23654290123404867
0.19521460592595236 0.2649142704443552 0.35199999809265137 0.19190900117099904
0.27793327104961474 0.24049083903000995 0.35199999809265137 0.23305380865922096
0.09778385201963785 0.3704802373458043 0.35199999809265137 0.21378593025006085
0.33496600899552254 0.1984250334500096 0.35199999809265137 0.2777959105363041
0.16846420350954205 0.2603470944281779 0.35199999809265137 0.22799822436429742
0.12498633196418193 0.3450715994135871 0.35199999809265137 0.27116452801512475
0.2651536773990452 0.3277664439189457 0.35199999809265137 0.22009750179098905
0.1900012119059834 0.2548967395095464 0.35199999809265137 0.2275793416237638
0.23022709549081918 0.21941829084192135 0.35199999809265137 0.2089159294936246
0.28477260384107456 0.1932507007410958 0.35199999809265137 0.2451672244704367
0.3165319333824336 0.3312581844006115 0.35199999809265137 0.23065688089440547
0.10122277142612336 0.3960061519761035 0.35199999809265137 0.17898496298072533
0.3061644019558764 0.170333041966439 0.35199999809265137 0.23600303786001633
0.07235412480043046 0.34558275993850446 0.35199999809265137 0.2408763465483046
0.15364424239581304 0.31473120177994524 0.35199999809265137 0.21095130076284882
0.2836202419079782 0.27902932003946557 0.35199999809265137 0.24474925024937785
0.0829470776554607 0.35373017936550716 0.35199999809265137 0.2419473757416038
0.22565071451725516 0.3197760253832992 0.35199999809265137 0.23961598006664295
0.069209103908661 0.3823636737672736 0.35199999809265137 0.18843287450752816
0.20331945890303643 0.2946742453725475 0.3519999980926513 0.21627748062149404
0.28682465460755713 0.13731840605382614 0.35199999809265137 0.20059584738434363
0.3138889207866368 0.11386920143281197 0.35199999809265137 0.22626266718930751
0.3219489627249907 0.1047203512542896 0.35199999809265137 0.21732769795357074
0.11303040770011104 0.3036475951133911 0.35199999809265137 0.21225847019148542
0.35293783560712017 0.0776481564131398 0.35199999809265137 0.1257932138604117
0.26166044483527706 0.15801412838669113 0.35199999809265137 0.20216085713132384
0.30156716243220094 0.12021831243628388 0.35199999809265137 0.22655054749122824
0.1890245061244627 0.22316669505446604 0.35199999809265137 0.19046133544199403
0.24937821471726238 0.16177090190724785 0.35199999809265137 0.22093370604272553
0.12386683182504904 0.2881041057633564 0.35199999809265137 0.23606212907557467
0.2136864362102674 0.19685364951810985 0.35199999809265137 0.19927408011141204
0.3084501332379492 0.08082521680147248 0.35199999809265137 0.21676730794233295
0.34687410531759955 0.06176984039338552 0.35199999809265137 0.15930739927736737
0.21079635731033664 0.1781508767400632 0.35199999809265137 0.2158159012882331
0.13758988402354375 0.26259359053770404 0.35199999809265137 0.2669971002522307
0.22980113563181234 0.1660203074689445 0.35199999809265137 0.18527456709249362
0.33271652065201424 0.06920689050166147 0.35199999809265137 0.2515693893848883
0.0522016663972372 0.3561174638504672 0.35199999809265137 0.23347858639114275
0.2795721356728495 0.09289167625503587 0.35199999809265137 0.2198643548485688
0.26911194386842563 0.10457825700927567 0.35199999809265137 0.23282442564030903
0.3110952769062429 0.044146841339212414 0.3519999980926513 0.18125067962159688
0.31920174122807266 0.08808293031571918 0.3519999980926514 0.22232906368730523
0.222674100850743 0.18309004783777819 0.35199999809265137 0.19573602889186897
0.3070189458015701 0.09240079613956693 0.35199999809265137 0.2346880683597932
0.24197407046864888 0.1361300064641628 0.35199999809265137 0.21790100721460917
0.2801734080279823 0.11769601294693739 0.3519999980926513 0.2332764986116187
0.08488731232848232 0.32444552624804646 0.35199999809265137 0.22751735441094106
0.1677207800713667 0.2244997778126956 0.35199999809265137 0.2426564690665289
0.25461393309290764 0.13618205986502127 0.35199999809265137 0.20844518079232885
0.0889609914611528 0.30998538422957583 0.35199999809265137 0.19971812451931703
0.2966767255020774 0.10035227305194502 0.3519999980926514 0.21703507091139168
0.14836231662610858 0.24500744271085 0.35199999809265137 0.21181418538716937
0.26799609734390356 0.12352118767059214 0.35199999809265137 0.21496268202105778
0.3131428007373452 0.07049699976208673 0.35199999809265137 0.2541071252023263
0.10107840284685217 0.30784641067981894 0.35199999809265137 0.22892840711748857
0.2273428762014316 0.15386599212310814 0.35199999809265137 0.21553420079662575
0.1687399176144094 0.23563938966770115 0.35199999809265137 0.2127894729306706
0.2893408296841789 0.06890075171723622 0.35199999809265137 0.2165524659730596
0.24776960625981448 0.11725299036939904 0.35199999809265137 0.2276336917813712
0.2997110434964773 0.05167696970789835 0.3519999980926513 0.270309002156609
0.22642957039096548 0.10001165466192177 0.35199999809265137 0.22010388839962397
0.07606789012108685 0.31097883982855573 0.35199999809265137 0.1906919125438075
0.1957994132531225 0.16381921802100208 0.35199999809265137 0.24646389000030156
0.26054539644587954 0.07713102850953706 0.35199999809265137 0.2319822612852246
0.2696990098100956 0.04948329220137867 0.35199999809265137 0.2723980665520501
0.24610600886125394 0.07898526798519213 0.35199999809265137 0.21528692001908262
0.06160711816343127 0.3310093277279558 0.35199999809265137 0.24995878535203364
0.2321692056832416 0.08759803418735732 0.35199999809265137 0.22597741742670632
0.23988064278550952 0.09581936854421758 0.35199999809265137 0.24296205698297152
0.1359806289221388 0.24634254058355046 0.35199999809265137 0.24231217919009104
0.1882417240507731 0.17967970762858002 0.35199999809265137 0.23641184012101243
0.15490107526016808 0.224698608296096 0.35199999809265137 0.21295042858952562
0.2793524634188414 0.06135690931124055 0.35199999809265137 0.23571563334775184
0.28788780265817626 0.035223914848194725 0.35199999809265137 0.17980276332084372
0.271040802014498 0.08310174315128221 0.35199999809265137 0.21085759884245622
0.12549609048461144 0.25570120474356395 0.35199999809265137 0.22101283714422637
0.135427229050321 0.2277729483696783 0.35199999809265137 0.22329363683147316
0.2204605411209555 0.11312326405654315 0.35199999809265137 0.24196482660772545
0.19405376919484774 0.14210191461804486 0.35199999809265137 0.19803635595624594
0.21398767152630102 0.14770437813023496 0.35199999809265137 0.22459019870661445
0.2638143045386383 0.09336398904515454 0.35199999809265137 0.20727909056290975
0.20845824237485935 0.16106859889284908 0.35199999809265137 0.22203596223426578
0.17942575159292526 0.17184694245023444 0.35199999809265137 0.25709464467951737
0.2398968161979784 0.010162786412382692 0.3519999980926513 0.12516903795976314
0.09593298411248516 0.27196365011463935 0.35199999809265137 0.21532410038526634
0.25484582571240955 0.02841703521434448 0.35199999809265137 0.20137025786656257
0.14426535969803897 0.20324174101953119 0.35199999809265137 0.23301900258805433
0.23901121038969472 0.030616477355594925 0.35199999809265137 0.22430805583814445
0.19682192829396308 0.10877942521131312 0.3519999980926513 0.26607343810062
0.07849149863096312 0.300707794607251 0.35199999809265137 0.20615501850791312
0.2204679641008661 0.09093431803202796 0.35199999809265137 0.24257049731386793
0.23569405034509833 0.07259511051370598 0.35199999809265137 0.21600743221800633
0.17585723891538022 0.16101099587441478 0.3519999980926514 0.2419760253382897
0.08360654793393384 0.2901028809729788 0.35199999809265137 0.18867742901123907
0.21703080205341946 0.06921559689631353 0.35199999809265137 0.2153148621398547
0.150360057607411 0.16154475534287258 0.35199999809265137 0.20023799590922925
0.12675632239505316 0.2121115689751256 0.35199999809265137 0.22058393051115213
0.1558100051716395 0.18474736816554446 0.35199999809265137 0.18089006889537582
0.14167889616272417 0.21449251526803695 0.35199999809265137 0.2371867093680869
0.13041681988119258 0.2018088228939137 0.35199999809265137 0.23107988041927144
0.16062722687670292 0.14879323985743872 0.35199999809265137 0.21446900131139132
0.16404349067986568 0.16022347892700928 0.35199999809265137 0.23229552151018362
0.2669720316968088 0.02826266271173951 0.3519999980926513 0.17426067707501153
0.2504875154430285 0.03970408014789971 0.35199999809265137 0.27674599730353117
0.18411998443996996 0.049435038742397956 0.35199999809265137 0.21672702042691652
0.16568032888784653 0.08887488648109154 0.3519999980926513 0.22438235817762126
0.11969412839456095 0.17153163251415432 0.35199999809265137 0.21710455086355188
0.2003094376555467 0.05583383691876644 0.35199999809265137 0.22092825392871457
0.12088584241510097 0.186964353099525 0.35199999809265137 0.2000620488250062
0.0906248296213656 0.2583335308105089 0.35199999809265137 0.20844944889464012
0.2086845690457535 0.018780969558274043 0.3519999980926514 0.1980576941288661
0.14330041528549814 0.1403910605038768 0.35199999809265137 0.22222673127433498
0.1494322367602536 0.1220437566278233 0.35199999809265137 0.20713870654529826
0.13949163179832355 0.17911280701852994 0.35199999809265137 0.212914970259772
0.07252734304422562 0.282411244442747 0.35199999809265137 0.23272911949774924
0.15678270354095158 0.1369011783559473 0.35199999809265137 0.20579478199061776
0.13116603915609817 0.1894907068163509 0.35199999809265137 0.22519252115674598
0.228994133167184 0.015233062428761011 0.35199999809265137 0.1733388759896431
0.1770560939068684 0.0718428543670184 0.35199999809265137 0.26707029652346564
0.18730138592271725 0.0627678452966038 0.3519999980926513 0.2424641725244705
0.09476337332950684 0.23094951156732552 0.35199999809265137 0.23788286780532858
0.21002777219323934 0.04032615225686158 0.35199999809265137 0.23790640010000652
0.18365276969150474 0.09885303610260737 0.35199999809265137 0.2511602246381439
0.1320774106420178 0.1450681221022275 0.35199999809265137 0.23209547389454652
0.10557423713156237 0.20080927580215457 0.35199999809265137 0.21590154949440307
0.12939656224096138 0.15623714077742165 0.35199999809265137 0.20750809527423306
0.18180894159734268 0.08263416162871169 0.35199999809265137 0.2477971681355122
0.17190859620431756 0.0408572861403646 0.35199999809265137 0.23188771095301441
0.06563196037024988 0.2606211489678112 0.35199999809265137 0.21045264010601136
0.09918742722549713 0.17034664818014994 0.35199999809265137 0.2350963186558488
0.1621255092017129 0.06940134264471101 0.35199999809265137 0.24554257597326326
0.1334488031589744 0.13206888137836872 0.35199999809265137 0.2365263864897314
0.15446758432598418 0.08238098972388075 0.35199999809265137 0.21445575081703755
0.10996522340953942 0.16541142700704667 0.35199999809265137 0.22906836843369827
0.12165954539842531 0.10141806963942199 0.3519999980926514 0.23017293651962345
0.13254930487628974 0.08682158130359337 0.3519999980926514 0.22384109607842276
0.05729467975704723 0.29847734098737366 0.35199999809265137 0.20267853118057708
0.15303705792027908 0.06123148943112662 0.35199999809265137 0.23331069415465513
0.1754682966056119 0.021696126080570186 0.35199999809265137 0.21185965822475672
0.11698306505094043 0.1487716400246338 0.35199999809265137 0.23522431438219812
0.09180326296895787 0.21316796237617833 0.35199999809265137 0.2334243444736317
0.03071572018312714 0.34399065198193696 0.3519999980926513 0.23525334551873753
0.04449460165206489 0.31373381179413423 0.35199999809265137 0.24360905082417497
0.18773878241015582 0.02258687042520108 0.35199999809265137 0.2331031171933105
0.16507026845199704 0.05395320023448343 0.35199999809265137 0.24470628193749597
0.08363275029254906 0.23621255807171307 0.35199999809265137 0.24841955283958445
0.1426488146797784 0.082144952099522 0.35199999809265137 0.21127859088367482
0.17479584589062142 0.009314493026095043 0.35199999809265137 0.12870468938306506
0.1413491322692499 0.09355741679747188 0.35199999809265137 0.249774077020603
0.13959088662966637 0.11592186963086308 0.35199999809265137 0.22508395940654144
0.08540071190023424 0.22233299627442754 0.35199999809265137 0.24112545085888032
0.04521108192780404 0.294033041615162 0.35199999809265137 0.2164874854017057
0.14515721654928224 0.003047714681452298 0.35199999809265137 0.1464440937627242
0.11210594858245033 0.056621310060460714 0.35199999809265137 0.22047207406149816
0.09674947021853147 0.09971720489551256 0.35199999809265137 0.24591679866953003
0.13054253220397274 0.02420973959409412 0.35199999809265137 0.2146531280703357
0.15306365699241611 0.015208238662698981 0.35199999809265137 0.1489795469791069
0.10525548959530964 0.12251159673889174 0.35199999809265137 0.2319499799719353
0.09923080502554635 0.13289387313292456 0.35199999809265137 0.19200253511016876
0.09417930679980098 0.12095394441328917 0.35199999809265137 0.22529134381794177
0.07909806124739441 0.16564976221186184 0.35199999809265137 0.2459819754834567
0.06041683777802807 0.21842909064277696 0.35199999809265137 0.22571016465800323
0.10868501853467114 0.09039112596314476 0.35199999809265137 0.2444179054527368
0.09830776023852968 0.15859007858488278 0.35199999809265137 0.19826497346810096
0.11876565927303026 0.03305869782019031 0.35199999809265137 0.22488413708817342
0.08750404534814753 0.13818223234933352 0.35199999809265137 0.20945832322141356
0.05719042811333946 0.2696399314164974 0.35199999809265137 0.2056360334765121
0.07555840177603625 0.17913839764985934 0.35199999809265137 0.24215917067106005
0.11910338094873013 0.010322999219870661 0.35199999809265137 0.13208559318431196
0.11218294803042426 0.11283259275170227 0.35199999809265137 0.21456291533198113
0.050321476660366904 0.28266052113893947 0.35199999809265137 0.2218760457173975
0.06767581205273117 0.2083606046978851 0.35199999809265137 0.2071776437066409
0.10195572375222609 0.14497332130090612 0.35199999809265137 0.21278296311386724
0.1412590555031261 0.016909603813448682 0.35199999809265137 0.17755821553631726
0.045955946941189804 0.254430272813451 0.35199999809265137 0.23326173003992484
0.096048939276637 0.03445360862750396 0.3519999980926513 0.23369158738051188
0.08504994247644995 0.04710878564417605 0.35199999809265137 0.2832378984638602
0.08259259803006568 0.1261415933219426 0.35199999809265137 0.2166806745642373
0.05190588887512033 0.2289154613942149 0.35199999809265137 0.22526443334923385
0.09787537421533729 0.04682008002700624 0.3519999980926513 0.23728712201964655
0.056607616391413054 0.20545693449383792 0.35199999809265137 0.2480090800701387
0.01788874673700233 0.34791495973835684 0.35199999809265137 0.27765537622622033
0.06887658274976757 0.13192748362129378 0.35199999809265137 0.20663646376948172
0.11001751648227374 0.026035230489178433 0.35199999809265137 0.2113953215703193
0.08679180070569939 0.09554835179660297 0.35199999809265137 0.23269272362635238
0.0518776601543096 0.24183221364118085 0.35199999809265137 0.2124949207411035
0.08762262985673416 0.1078942055612316 0.35199999809265137 0.23612945976135413
0.09667676529398361 0.058820626861557986 0.35199999809265137 0.2218733447229669
0.08422019125020344 0.05859703610634369 0.3519999980926514 0.22805158208555154
0.02709109726357467 0.25146998231908807 0.35199999809265137 0.25288778522316685
0.04955462894891534 0.1409196822874809 0.35199999809265137 0.22167793020882698
0.047172820898083424 0.11076470526717165 0.3519999980926513 0.2570733720870032
0.037365150385101506 0.21014489329495192 0.35199999809265137 0.23522998159821817
0.04844077093784856 0.07987671728440507 0.35199999809265137 0.22480288778292487
0.07408745718709317 0.03936657419216219 0.3519999980926513 0.22462916339085373
0.018579497390530983 0.3100247464411764 0.35199999809265137 0.20519396668946335
0.054521176927284504 0.1260609582747397 0.35199999809265137 0.21572097973398915
0.04275837555656021 0.1235214452962055 0.35199999809265137 0.21805898980190888
0.03234714425680431 0.1926669774719418 0.35199999809265137 0.2308928055011545
0.04320200784455665 0.18745155209047887 0.35199999809265137 0.24619931798863162
0.029748412980484362 0.2648799299498672 0.35199999809265137 0.22880535027056279
0.05494140570344367 0.10009322618914868 0.35199999809265137 0.22296080227632262
0.046477077592947676 0.1705654552408438 0.35199999809265137 0.23957613663268668
0.06341488365483575 0.06950726928481683 0.3519999980926513 0.2595092973086941
0.03885714735572106 0.08816852545208614 0.35199999809265137 0.2412053754141916
0.019391901601065485 0.2603574616812301 0.35199999809265137 0.2744441751739049
0.027887901931611482 0.12182716574206334 0.35199999809265137 0.2494490965714787
0.028686323091535734 0.05376262229341206 0.3519999980926513 0.1822009482898479
0.025784315275627547 0.06667184428739024 0.35199999809265137 0.21385574145149597
0.01965362440530448 0.07764346810263931 0.35199999809265137 0.19006793290106458
0.02192634998988237 0.0883891888103206 0.35199999809265137 0.2648287633562058
0.0078990589359621 0.08104457834415241 0.35199999809265137 0.18616936652444677
0.013894751118278263 0.19521274978926945 0.35199999809265137 0.27311542870724886
0.027930922032387156 0.09805724889483107 0.35199999809265137 0.24051731433750123
0.011182517534141182 0.21252020649121783 0.35199999809265137 0.2003698425929469
0.01150401080112026 0.17214302318703215 0.35199999809265137 0.21408127608070265
0.017492319068550206 0.1603394129901184 0.3519999980926514 0.24949675115665984
0.026346904295056144 0.1811246122034951 0.35199999809265137 0.2565097848218081
0.032334572672671216 0.10927112463673198 0.3519999980926514 0.24204498608377692
0.01071857905420629 0.29490220747912016 0.35199999809265137 0.20529339151498982
0.01294977496862396 0.12220280657112383 0.3519999980926514 0.20461521582097578
0.002531131408289697 0.1408088766960294 0.35199999809265137 0.1603157861472717
0.004847917232756838 0.27533589804045194 0.35199999809265137 0.14187411107479383
0.00019807622925351634 0.33606511513117526 0.3519999980926513 0.1332439339419499
0.0003699515131778944 0.09314040592689207 0.35199999809265137 0.13435612798258983
0.001684247492973799 0.3202233467268929 0.35199999809265137 0.15970735637560063
0.11111604085175071 0.4055586904287338 0.36257049471395886 0.18207899000531377
0.020407158693988806 0.4055586904287338 0.3621722412947401 0.1916095095052839
0.17417293267290884 0.4055586904287338 0.36010454492660604 0.20043890813322066
0.03046041844569778 0.40555869042873377 0.35677334149253354 0.17950253245317999
0.06705966842774169 0.4055586904287338 0.3618475251706288 0.16210188995424527
0.14258990113455877 0.4055586904287338 0.3574869573758428 0.17733443716959071
0.04137659351864374 0.4055586904287338 0.3605746358486942 0.15972743573652315
0.34306108530362506 0.4055586904287338 0.36909862945755906 0.10884747471044186
0.31391197666008663 0.4055586904287338 0.3626737495360665 0.180632534055857
0.16516127407556602 0.4055586904287338 0.3675366988472235 0.16101558844932562
0.15106244223021187 0.4055586904287338 0.3656079120212176 0.16697284016316183
0.2893044254015074 0.4055586904287338 0.36766937719076104 0.16230451317808542
0.3242228699818419 0.4055586904287338 0.3674048494616204 0.12992641882828682
0.19976032081963488 0.4055586904287338 0.3658497328789898 0.1611764796805072
0.2328519098458997 0.4055586904287338 0.3624041589319975 0.1750762072308915
0.2802705371203694 0.4055586904287338 0.3584786167153325 0.16632112110748787
0.21955089643743314 0.4055586904287338 0.35914029597865804 0.15864051112716823
0.24877307860225667 0.4055586904287338 0.3646461733219072 0.1622456013195462
0.08778975434533887 0.4055586904287338 0.3692086772124872 0.16644745512588122
0.3550987671577798 0.4049686749061713 0.35518054215436856 0.1472938390859869
0.0007428015275170998 0.4019163167934404 0.35565311759332097 0.12618655579447188
0.0 0.0733576201970293 0.35261817146859387 0.10868086370764368
0.0 0.24058253161583054 0.35753220103717276 0.11216790715958394
0.0 0.18896282656366742 0.3544138322189862 0.13148176208891588
0.0 0.2646688819851163 0.3531751592392406 0.09595515029744918
0.0 0.10460542625809291 0.3615668362171593 0.1293080753558613
0.0 0.11257714829864637 0.352910290201201 0.12478661080866302
0.0 0.09461622971219442 0.36718967961243204 0.1352912777445066
0.0 0.16093703985805854 0.3634693613498548 0.1373251081690459
0.0 0.13205226052755653 0.36070373168126996 0.11532354230913652
0.0 0.3615386845089039 0.3526107590339293 0.14024531969230936
0.0 0.20193780377019915 0.35750886218032696 0.1341287405125558
0.0 0.07277280334137333 0.36459489427718444 0.12491814777467455
0.0 0.30088836853193396 0.3532580275404833 0.10200110952541316
0.0 0.2874257554689692 0.3545921956381324 0.1279140214122819
0.0 0.25242809005203515 0.3569126051715517 0.11228976876439861
0.0 0.21252661496701158 0.3601814343943551 0.1640024933438722
0.0 0.3124590087790388 0.36064685210295955 0.13570383699305985
0.0 0.3674284115498493 0.364558232894666 0.14508887694968373
0.0 0.32802057055625866 0.3633262334524141 0.14463910961356363
0.0 0.35007960798802357 0.3629290654482712 0.14461419006371407
0.0 0.2940875248181106 0.3663092194898462 0.16346556473907514
0.0 0.22336702783505857 0.3625982930816587 0.1350558182134886
0.0 0.26293409692172465 0.3650594035393243 0.12287328632071332
0.0 0.37633270886867887 0.3547589692596663 0.11347881202633965
0.0 0.18519683370832227 0.36698949276212844 0.13782331877504855
0.0 0.2782901573803974 0.36275142386124504 0.15161726670054373
0.359102338552475 0.3921406021220917 0.36436970772684174 0.12869142598000177
0.359102338552475 0.24536498619677716 0.35220934766282286 0.11321568489314851
0.359102338552475 0.27450626398238626 0.35496337771983094 0.1514608196871224
0.35910233855247503 0.2328341342153131 0.3535736815307778 0.14373980913272505
0.359102338552475 0.34233572515514743 0.359442550167264 0.1388917349722977
0.359102338552475 0.15159142325567163 0.354081404731043 0.12370278077721374
0.359102338552475 0.378824771572502 0.36558634387385275 0.17505328085258448
0.359102338552475 0.19026157019449474 0.35245852936172495 0.1355404681914892
0.359102338552475 0.3565291741271507 0.364891048998245 0.1619941945998488
0.359102338552475 0.30527025521817597 0.3541608150685221 0.10512645310117767
0.359102338552475 0.28914370835923486 0.35911678977427264 0.15565629948411058
0.359102338552475 0.331370087863916 0.3606324813108204 0.10702899487282383
0.35910233855247503 0.3830246177400124 0.35457594921831664 0.14012011455380138
0.359102338552475 0.08852587451445453 0.35202879180066754 0.13045077546899925
0.359102338552475 0.3702705489107851 0.35565198162149986 0.14848918100213362
0.359102338552475 0.20779798538985067 0.35916789864941745 0.10074960656927595
0.359102338552475 0.182542608557498 0.36142870428974366 0.15169352308741343
0.359102338552475 0.16202060565650364 0.35923006860116935 0.11825394061177491
0.359102338552475 0.12848249990906804 0.3578553928972462 0.12541555851615607
0.359102338552475 0.11536517498252971 0.3561035469682454 0.11693862414559514
0.359102338552475 0.2617165041602379 0.36512562702522583 0.1511702421316149
0.359102338552475 0.10063248926681118 0.36051529029275403 0.13796382959640113
0.3591023385524749 0.14435122721383264 0.36381986909317143 0.1548878202575349
0.359102338552475 0.3193667053411021 0.36772473998387567 0.15371668675968345
0.359102338552475 0.15482271353816102 0.36966760930962406 0.1402105016850137
0.359102338552475 0.24259533130600375 0.3630943821615339 0.1622024396650152
0.359102338552475 0.10916767889620248 0.3686028424322451 0.13272690877159798
0.359102338552475 0.17239714284486818 0.36645963860348507 0.12598324771790406
0.359102338552475 0.2227375293981344 0.36669691031800483 0.12826472714155765
0.359102338552475 0.08604263424524353 0.3661163165545095 0.12515932252151615
0.359102338552475 0.27586468392160446 0.36583255358150435 0.13386419430749377
0.35709007451047814 0.06311985131980778 0.3561790105862317 0.08650984445501946
0.3404065433500367 0.04906129096022427 0.36091620222637955 0.12058133414411051
0.3293702121524442 0.04206618731006857 0.3575733342301232 0.11211728337034864
0.331526556165694 0.04343293225528779 0.36854907652855284 0.1159315457158314
0.029870230763219055 0.041978653299196214 0.3549075546402822 0.11227254466523992
0.03906399410992885 0.03615141538889626 0.36315002375313515 0.1375255424278098
0.016505407450632517 0.050449613681207366 0.35518209486908336 0.11354924892419141
0.02745700829831735 0.04350821425298075 0.3665124712079243 0.14593943350753041
0.01614102515480432 0.05068056832382954 0.3682439291145877 0.12034632357267135
0.007874204456763935 0.0559202867234241 0.3611726962345352 0.11579177768911889
0.30309579580679935 0.0281867725881804 0.35713041943339285 0.10669543699144876
0.3143612269033079 0.03326754610537003 0.35826578672537035 0.12441608723294491
0.28480368408605544 0.019936926132412373 0.36565774731455913 0.13292665097621686
0.3095911968189642 0.031116235399094205 0.36789313357543485 0.11376883840845937
0.06318908174680277 0.024947414623909103 0.35751695953571344 0.11263051430081114
0.05103920940811281 0.03042707183134832 0.36030069236367834 0.15380289114518755
0.060021367651147975 0.026376070571189056 0.3687777942583832 0.13789805380572934
0.2793964280946241 0.017700878855231826 0.35410426142452206 0.12140832662338216
0.25306476584934107 0.010058908761335274 0.35414537797188117 0.10257511320712949
0.26767194965342267 0.014298202914017878 0.360415765671026 0.1319283854585909
0.24201116936190284 0.006850936055315357 0.36711512249589284 0.13301339159990536
0.11510229262469504 0.007428156089651152 0.36298783000844426 0.11493766413143551
0.10205531367919297 0.01121464787997045 0.3590291008581853 0.1475012800664502
0.07898252232885568 0.01791082907200964 0.3557077440052252 0.12880494075573942
0.08940973510443265 0.014884645329738317 0.36061621456489296 0.16436892997739794
0.22815123500998333 0.0047353149552430435 0.35814765781211033 0.12035167454505383
0.21940315912602143 0.0034915449105127087 0.36537036617047697 0.13160877583242303
0.20317774549476264 0.0011846738104440843 0.35805983136235947 0.11835590939812612
0.12971658660759627 0.004910838456797727 0.3569727606236039 0.10327364349453945
0.12679729287031768 0.005325893148228976 0.36929922783291996 0.13483598146112988
0.19028889639686913 0.0007586777210235596 0.3612419381890204 0.14031468275507716
0.16395756972163184 0.0007586777210235596 0.3687309835997382 0.12436994213260248
0.15905945925202142 0.0007586777210235596 0.35725056967683855 0.10843809173129079
0.13213452362302736 0.4055132940484441 0.37069267353274615 0.14804836613772776
0.007803035935512095 0.40551388768469177 0.3706836156897301 0.13783838077478575
4.2981626842705896e-05 0.17328529428212378 0.3706557334656059 0.12523124608477657
4.066784891891432e-05 0.38431707873605303 0.3706204344158698 0.1336154189967698
0.359047789851851 0.13589617743089533 0.37083220101182424 0.14236757609650913
0.3590216454124574 0.07323664433252106 0.37123106118634097 0.11229699536850488
0.3477110472554023 0.053716519200717155 0.3703280315809805 0.1158779073642096
0.09816760887030337 0.012445651677929347 0.37150493531475814 0.14324681042325102
0.2216582616682993 0.40530058683942655 0.3721464526830757 0.16076915994433072
0.18844193245225765 0.4054265200012741 0.3716764784180038 0.16484479572907101
0.026077148917518098 0.40495518839518374 0.3734354569263462 0.1551322217276636
0.1768929237450914 0.4047575000990492 0.3741732166262226 0.16044671062611718
0.00011927753279291942 0.20358779838093674 0.37162830851332596 0.16054084180744552
0.0003270259043649731 0.2153394217897224 0.3724036260011164 0.13350444476292275
0.0007489015771832949 0.11624521928929107 0.3739780671595923 0.18513503065689926
0.000626775436032337 0.2707832921537917 0.37352229206862914 0.14992541938766424
0.0004615657745549737 0.3407140152365706 0.372905729162619 0.15199135172744113
0.3587644897445346 0.36682758002716964 0.37244401710669844 0.11918306167101332
0.3585826667283581 0.33900643127784336 0.3731225810976348 0.1284455631442948
0.35877020418118816 0.292804463093569 0.37242269081356383 0.14038429170082117
0.3582839000574721 0.21269822439636688 0.3742375791260377 0.14171940529100965
0.07094970387008384 0.022040526345710368 0.37320126710552115 0.14217104679314638
0.14712844051244875 0.0029311485939508284 0.37301531808344945 0.12900033397966207
0.23059353690471424 0.005822646815712446 0.37391770559259796 0.16496067068214065
0.1836329319457135 0.0010712545240617907 0.37234971631331937 0.11590407510211785
0.14200659445709865 0.40401618870947265 0.37568174163893997 0.14682853012088626
0.07291567718270137 0.403975309140008 0.37575254827498894 0.16925505682195896
0.038799096223387015 0.4045410421204351 0.3747726541672337 0.13847260096144898
0.24539008114698 0.40335339082338023 0.376829759813034 0.13726061301612263
0.27212148848012657 0.40382264779814014 0.3760169697504091 0.15069572985983232
0.3084234585158472 0.40308346080970503 0.37729729987001787 0.12341475174252621
0.3534960959882064 0.4036161408975567 0.37613039195234677 0.0849953145995471
0.0014442342915035257 0.1350579085192254 0.37551152596335075 0.1458958642810065
0.0010387999887078762 0.2372538649002886 0.374809288479246 0.15711070396717614
0.0009398291361337794 0.3108264158584515 0.37463786479350436 0.16020639525994573
0.0012192926612373982 0.15814516826967712 0.3751219130385951 0.11494450752382386
0.00210740992478916 0.10044269823282422 0.3766601874974805 0.15514836458815562
0.001455171492624357 0.2866183180018387 0.3755304698774332 0.15046822112247152
0.0017511530454389055 0.3220199634704976 0.37604312837612636 0.1340229803041529
0.0021130742254424468 0.36596701308535406 0.37666999841928106 0.1251973930244656
0.0024280703736822206 0.24912452429503573 0.3772155913824746 0.14503470519255965
0.002000045985860529 0.39471112215682874 0.3764742264630122 0.10800813097310172
0.35773710980123 0.31088124601185785 0.3753746983318743 0.16420468149719852
0.3574985682307006 0.2429588242343431 0.37578787506237965 0.12845217569274067
0.3570305193148967 0.18402684436315098 0.37659858038438776 0.17211142494279064
0.35762779262515715 0.1655664739869452 0.37556404609753885 0.16086157741878526
0.3573818959234695 0.09372982180973469 0.3759899626160721 0.15801305108171995
0.0020487826542610133 0.06849606940471992 0.37586301697221225 0.10540322251180553
0.2911290888721943 0.024051651403875787 0.3750025244476958 0.13122937197870987
0.26404211620055007 0.0144366357762892 0.3749926487458579 0.14646824937354022
0.21085759397296783 0.0036077599464359204 0.3752927971689448 0.1462481049999533
0.09427942347055251 0.40234104452592717 0.3780430390597392 0.13541062780748853
0.15453499023214406 0.4028524115949338 0.37753166855072756 0.17324190526264785
0.12314646736242696 0.40169357580068565 0.37869051214055194 0.12880913805521754
0.1085657017593661 0.40233258881392675 0.37805149482862177 0.10588836599648299
0.01615420155427789 0.40253486557833906 0.3778492167034784 0.14140458039938286
0.21235462214433398 0.4021368162871598 0.3782472686723654 0.14203532233665728
0.26160661427266807 0.40150421434633077 0.3788798748687556 0.1413538721958072
0.0030285491054652947 0.19056317862550295 0.3778539297807509 0.18777818444791378
0.0025127501244373573 0.07997584853899373 0.37733812386003857 0.10617173686251545
0.003838715558189029 0.3513324647778949 0.37866410713365023 0.1535532310055514
0.004580811071357866 0.2271825485025745 0.3794062126311518 0.13997369703263515
0.3565922696184126 0.3287529101901484 0.3773354716204056 0.13787881848967462
0.3558195575109253 0.2839370324900295 0.3781081733319168 0.12430513854939698
0.35541447049051733 0.2710428874010256 0.3785132549023326 0.12932718359431725
0.35496305459308125 0.2567324124121685 0.3789646647264732 0.11559152450611396
0.35458510673433885 0.06404664066530258 0.3774958866594647 0.09606226986632273
0.32160910216013827 0.04018463556539472 0.37739107443477904 0.0898661322410074
0.2992416518595568 0.031172820494730306 0.3791319550257908 0.15181699869031973
0.052666590421159426 0.033859697245996724 0.37862355911342727 0.13943437552695692
0.27754761423418645 0.021655119007792226 0.37913824120767325 0.16357714123599634
0.24226553062245101 0.010803741477102311 0.3785506634821285 0.15434842519281175
0.10853626444992256 0.013237822516171442 0.3785747596079961 0.1325885402305971
0.1195875962826795 0.011005682151687927 0.3794337869181097 0.14611542586097437
0.19857148547770156 0.0033727742595275794 0.3774394847316345 0.15208357605950962
0.08361420674049672 0.4008409392629782 0.3795334810478846 0.1201030487230479
0.23183309077647407 0.3992177679109135 0.3804706055216671 0.16126080580804028
0.32364361826677124 0.3994089313496606 0.3803602388807777 0.11763280071134485
0.005772757976584835 0.17857296386440064 0.380142576973326 0.1359790236569874
0.004959873570480104 0.14884179256435326 0.37967326741732343 0.1483236054088893
0.00611064722391724 0.26394903800847314 0.38033765348291665 0.1680263111517568
0.35355718789934787 0.37473735511177325 0.3800111545336631 0.124989976115868
0.3532499115370566 0.362217386882545 0.38018855749906016 0.14843197698233127
0.35258314731565515 0.30024040057942175 0.38057352649254944 0.13924045811524077
0.3519130313711487 0.3938635928359948 0.38096041704237704 0.10405289736151516
0.35355660460398913 0.12850522261395034 0.38001150082227414 0.14334112507447141
0.3528744708482802 0.08438630967011133 0.38040533163168244 0.15677501892972143
0.3530887797574841 0.11497933240947647 0.38028160010473655 0.1430458710560935
0.3535337133311979 0.2040552679248102 0.3800247098532527 0.15080177200821313
0.33618546303148783 0.053364875036575096 0.38021298197076986 0.09633322871575802
0.02219992221317884 0.05347888278901689 0.380046974618808 0.14963653892260936
0.011067385541949413 0.0620068082709376 0.38076470820590547 0.10433254129532986
0.2534532207099845 0.015500799577791139 0.37976454092238043 0.15146513706910136
0.09013252193786207 0.022081191714795154 0.3809162567681287 0.17241665216704183
0.13917185109600258 0.009065074588202165 0.37995265438797265 0.17572733950987413
0.06465290010054858 0.3977934556933945 0.381182331153445 0.1275592914320118
0.050250925977868004 0.3970244368071751 0.3813883859814756 0.1472333005916452
0.1689373379672367 0.3964372060794582 0.381545731566587 0.15667972732047805
0.2918729818774034 0.39707968571439295 0.38137358230853635 0.17353703284863778
0.1484150605843301 0.39540078066174805 0.38182343665945245 0.1793137405207463
0.3494023913344963 0.3510884024727281 0.3817007227662301 0.1659395736992465
0.3505430275430198 0.31974525773058843 0.38139509941972005 0.18111474525839005
0.3493621142524314 0.1734024685080216 0.38171151465282493 0.1735250015760581
0.34949738813386083 0.14478248738792643 0.38167526921713835 0.17748444630961438
0.34914741242498376 0.33970978739483115 0.3817690421015559 0.16213938810068493
0.3499597843966129 0.1566227338609709 0.3815513742432808 0.16989900893255633
0.3503705382792237 0.1906151386077411 0.3814413163867464 0.14479965345641013
0.007854897717708866 0.20526297940967064 0.3812063525057918 0.19258451262495505
0.008619780807426581 0.3043865255939856 0.3814113001767685 0.16929487204574817
0.03250084302818658 0.050389172558802306 0.38138244471519667 0.15389234575684252
0.04480019685166431 0.04197424436855844 0.3812348180039177 0.13445144799563988
0.18665094197264664 0.008168811927938939 0.3810871797207749 0.12206058167271137
0.3481382647744222 0.2301155385336346 0.3819320946063438 0.14351384876669143
0.34727569908380035 0.09509185808105936 0.3819886350356801 0.16803410368197458
0.2817381421915887 0.23780459294507023 0.38199999928474426 0.21458727379957618
0.14065117532651325 0.30525459116234244 0.38199999928474426 0.22207506321963236
0.17208921213074005 0.27945438661897065 0.38199999928474426 0.22521701066778027
0.33915969100896887 0.37612178081836256 0.3819999992847443 0.1971546132164421
0.3433772506267595 0.25949992546877654 0.3819999992847443 0.2072042483308593
0.23111798814887857 0.22461359437735445 0.38199999928474426 0.24185527280076285
0.17967455245070735 0.24480109584982215 0.38199999928474426 0.2263276942681104
0.254108335374523 0.3337122860892898 0.38199999928474426 0.22749010560975752
0.10358820110127653 0.39178431591620827 0.38199999928474426 0.17444585109978986
0.2848610893640784 0.18418346662195326 0.3819999992847442 0.22874847327003278
0.22969260658443932 0.20896492394863742 0.38199999928474426 0.23998335980555344
0.287350922217566 0.1697416134251589 0.3819999992847443 0.22406460054646088
0.24523918631850383 0.18238550696199754 0.3819999992847442 0.2183070801818101
