x y z curv
0.0034477044314115833 0.2510991332962363 0.42570754649053816 0.15421099220778356
0.0044455367908987735 0.21840846082793502 0.4282996894213621 0.12395413123718621
0.35188484674498693 0.4026850661648389 0.31511486758386803 0.18313025762634075
0.35233283827057704 0.4140939185135627 0.31860346779649584 0.11805363960544978
0.35265767508648743 0.3835861341548442 0.3279776806757315 0.18169619763578815
0.3518203646351595 0.38782290094964655 0.3169460390763585 0.21207704032715066
0.35360428433885926 0.43883487379365527 0.3315937847754785 0.09003589781513796
0.35304678078989177 0.424543656243774 0.3261831051457305 0.07483785489327599
0.35322286793559543 0.4037942522380248 0.3319900504936404 0.1268045976036969
0.35355036882457386 0.41539850400099065 0.3346479753404188 0.11549914808649712
0.3526955061371952 0.4396533422436749 0.3188622968396568 0.13590806956911294
0.35357697498605095 0.39376103825048847 0.33855946433289313 0.16451152764261026
0.3539695877360731 0.45117222088749076 0.33449676429569114 0.13128666302126893
0.32569434496709054 0.4696999358604518 0.3036819740618849 0.1801697285104084
0.345427306643744 0.45809605437574386 0.3116759832678411 0.27091997576970045
0.3549032109519022 0.43721824016051086 0.34993083818749476 0.049919418122651965
0.3547595457438829 0.42329761046781533 0.3505313325629523 0.0539141058015149
0.35539536244180936 0.40964088914115304 0.36625904758534056 0.1393145466370278
0.3553109913329062 0.39615191799937327 0.3677147826613061 0.17665328991366513
0.35557653686972895 0.4433053777992978 0.3618271543872158 0.09645938928543378
0.3556561209898079 0.422217163388808 0.36890464956009744 0.08029888195503894
0.3561631123688733 0.41702441521314604 0.3812003345969554 0.2003983613971463
0.35599034535865726 0.43416295768943475 0.3731081044568111 0.12946449360451262
0.35613486569622976 0.4490451081724989 0.37245859280062343 0.13979720040156984
0.34899599665500675 0.3846068562836553 0.3849714561913636 0.27012158226090066
0.346192760523278 0.3863127015225117 0.36329953497668954 0.21496915302679434
0.33864965785730655 0.3883575262106558 0.3470652250311378 0.16081951625046956
0.3090989048345528 0.39639592039270233 0.3347087013871473 0.04304533860452413
0.3281377245850135 0.39337400437975795 0.35287816213422835 0.08463771020752953
0.31422302137484676 0.3974759299274104 0.3569212440856319 0.019385035184765694
0.30128254579005653 0.40017381558368464 0.361627880189014 0.05190411157369305
0.28479597476585816 0.40422455914922595 0.35488231262514425 0.0342081142908626
0.29125613596782096 0.4002054397246259 0.36761449524078077 0.13295235524062401
0.2800290602014703 0.4010887972016579 0.36883349096044354 0.10438618376733569
0.3103432409135263 0.39608802418070693 0.36905697246638364 0.13225802155477417
0.329821934021326 0.3904365435918783 0.37237790722077696 0.16296711462115426
0.2665754039272219 0.4023009916056331 0.36907154286004423 0.14340250297396168
0.24564793948621536 0.4055317332057512 0.3616904875144726 0.07848526994510321
0.2730173371394693 0.40618009437606467 0.3508616269800856 0.005449603449969348
0.271463545492706 0.4048197070517101 0.3385534781290308 0.008247801721552189
0.24679109926258364 0.4062670663002176 0.3398916963279589 0.06382903491926127
0.30253203021510566 0.40083456167374104 0.34668974053951784 0.00686036830010111
0.2362389867037215 0.407026041335999 0.3464029527589808 0.07688130076448377
0.23088259969780564 0.40661596680174805 0.35754728353040965 0.05393076823822019
0.2825724028772796 0.4015204932810422 0.33219615932230917 0.009442011694296372
0.3219069459744683 0.3917992145883872 0.3336540831094234 0.09099813108158354
0.26108583617144704 0.4007528589498831 0.3238909796357698 0.0032986243391635653
0.22076138616321261 0.4022872681158473 0.32326047011422376 0.0751883035926553
0.20823698596451468 0.4325543774934414 0.3173464615924895 0.0938408612313871
0.21004926495930976 0.45230340967965854 0.31953256251495815 0.12974723338681365
0.21338612089555026 0.4123423758389405 0.32049854957697443 0.06251673557876555
0.1569680337242741 0.4695276457149001 0.33125060898734215 0.11521014995415309
0.1507723465774215 0.46952761155210676 0.3505962590118552 0.139959750528562
0.17415171058617965 0.4695277524993695 0.3792758611687516 0.19098431550919945
0.19086262043302787 0.4695278496401835 0.38036129839400173 0.17477377967367622
0.2057300394680348 0.4695279301486852 0.37108074045792483 0.16877326084642955
0.21809655894279384 0.46952799861866784 0.3720671136754244 0.203691133261732
0.2223756388264238 0.4695280247334164 0.35861458936509294 0.1553860063449966
0.21028008219787314 0.4691085674911625 0.3366694527668039 0.17197397859351327
0.2092142173272307 0.4521849434955967 0.33532669320466285 0.1802683230892308
0.2123206781508991 0.4420392993956761 0.3426413394111377 0.22612218212308996
0.21379468512390293 0.46126782019814394 0.3478599614749267 0.15608685530183378
0.21128765184327603 0.44699604778633706 0.36043734208247646 0.2087180920710531
0.2108224752744706 0.4606597179101348 0.36235872498393085 0.14810371553426066
0.2001794278927152 0.4569007275515541 0.3266682415313749 0.17567590073654885
0.19746584073304901 0.44004235485664606 0.3255176364202114 0.20270224869642925
0.18733707505276376 0.44492886594279873 0.3230705761710157 0.20086165716436624
0.17927417311221774 0.46673812891488736 0.32370318301241074 0.18466934460836115
0.177205875084851 0.45134257985807963 0.32475805297905536 0.191501415277783
0.1669344909708344 0.45097590540096866 0.33130527254107184 0.2028574923293367
0.16016276214162992 0.4659196367416677 0.34301781825795874 0.17789193402502235
0.1598116254576865 0.4487574521512946 0.3472902335461755 0.2014454008540066
0.1602137791121927 0.4578048709660757 0.3560353822819035 0.22999271464814075
0.16348629937843406 0.46808212878729605 0.3645014000529041 0.16376122063876683
0.16675584260937787 0.4565159076654147 0.368374454524153 0.16473075558579128
0.1684628501300586 0.44457800876295706 0.36979033609440604 0.16350643225241276
0.17718074791230404 0.45180938855043334 0.37549487103167895 0.15996929578024358
0.18478268014075105 0.4405861830849211 0.37690383061004096 0.22619268345431523
0.19530956562903576 0.4574196363443366 0.37555054671642246 0.2035618054214832
0.20503053316585687 0.4521001932340183 0.3697810310035248 0.1582214593718455
0.1959761683687307 0.4395278771424661 0.3746996854516025 0.23735030762436543
0.1842862918502777 0.43952781230882904 0.36345764687108273 0.10754905311531597
0.1758325260793887 0.4395277588198238 0.3555363544711492 0.12936771004686815
0.1674378500604092 0.43952770335236285 0.3459202524952295 0.21941664696389268
0.18627828933125617 0.439527812040801 0.34445351257428763 0.10266335746693069
0.19866520824477293 0.4395278866089586 0.3580829561943165 0.16955495853814048
0.202453351949244 0.43952790721069 0.3370648703990703 0.2147681252157365
0.16511494366228457 0.4395276957272497 0.33458031820951106 0.1743884034863023
0.18149966782705815 0.4395277949671164 0.3326883702286441 0.23234731477859608
0.21855752157254604 0.4497491346797373 0.3285773793423333 0.14492559029803798
0.21807040948327905 0.42114881109468427 0.3260145499895406 0.06639100554559109
0.21929341015194814 0.43265645507693923 0.32869641996813503 0.1090935752380938
0.22299549369535068 0.4607342662234618 0.33849662918590834 0.1376567385544241
0.1480314298294495 0.42398249044885905 0.34158255006214167 0.08662312617483996
0.14662412803434888 0.4118042684672974 0.34719773377520585 0.06113022292389481
0.1475613696957131 0.44474652210043697 0.3496818908767292 0.2039121810069169
0.15133773312643276 0.4552442550369633 0.33472020529018953 0.14407577041802247
0.15008155415774183 0.4355111453968845 0.3360620412167355 0.11259817902285271
0.15127895501247002 0.4160828943015285 0.33143277970072255 0.0805565666164668
0.15493370176655727 0.4416909650547981 0.32736292188160676 0.1098786684043536
0.15886220300654744 0.4209459427845836 0.3218494438957738 0.0752346214117615
0.17104465334151717 0.4689790262430166 0.3160768406584543 0.12101038556692778
0.14583412347711186 0.4262288765911252 0.35849902688074803 0.0848388805392677
0.14588594594136964 0.43829849204111593 0.36000521486358694 0.14489253017355655
0.1423118191430743 0.4569490811647048 0.36540327278561163 0.15923800298721777
0.13803664410447547 0.4369141483413925 0.3681984366567708 0.11932017911737099
0.19909068162577792 0.4691336416673446 0.31521401206883926 0.10275463101189422
0.19130994278828295 0.43022914943551743 0.31100117023727925 0.09927409722320198
0.19219159027286092 0.4507541900022033 0.3118326061734277 0.13831137549774417
0.18441544678680216 0.4405002719339165 0.3111369629618667 0.14975086108737393
0.19808733425839345 0.4075013544764267 0.31168984683062667 0.06730689954759311
0.19850455830156793 0.4409828128668291 0.3130484662174271 0.11535211465482278
0.20291041485467232 0.4193639904613145 0.3139074029430732 0.06161975629548885
0.18384560259318863 0.46577683215745375 0.31210751968617906 0.12392254203759184
0.1775790002735037 0.45636761793780345 0.31275305330134323 0.18418682862943467
0.17666944183610955 0.43091770029836435 0.3121447209854879 0.12414128178309952
0.17106981290881962 0.4441753810193744 0.3144202622511339 0.14278518540576318
0.16874348850893786 0.41857098268761295 0.3145486810542369 0.06298211730066604
0.1609454016195231 0.40849146194331054 0.31910349638657615 0.07561924838284441
0.16631514050927312 0.43246226136465715 0.31632553460941143 0.10819715902010242
0.1877240654992943 0.3977491076653017 0.3087747097584777 0.046949117596414125
0.21476937462643264 0.4696819557480678 0.3845736105890175 0.19492367626731902
0.23609388171495055 0.469597279932828 0.38425621676769006 0.1618126152064761
0.19215173148077563 0.391553239686217 0.2994093530371591 0.018499349922860876
0.1794399414446824 0.3888946847024093 0.2948770671293594 0.0110340325693399
0.2155113620270523 0.39023335159267514 0.29767199397367666 0.015382632686546391
0.2307085827896358 0.39255886508108284 0.30314114592831787 0.011117954759693814
0.2479674497284401 0.39465773778941704 0.30885622695546705 0.0015102484954723715
0.23217716486356665 0.38514328679524035 0.291254173661446 0.000945450087237859
0.23990006396779012 0.37224879689318874 0.27373466436439053 0.00016630436649240862
0.22339512709589177 0.36887464653410185 0.26760972717978637 0.006985190904369021
0.25161663185013006 0.373422015070328 0.2769607902525168 0.00025541902586219954
0.24875292101438204 0.3667139773084114 0.26720835743614596 0.0014083164224240423
0.24702066587877375 0.38250886559471586 0.2890523555824817 0.0006286030832277711
0.26983183400460864 0.38101111767071577 0.29083739551632865 0.005924231746657444
0.22738605642060541 0.3768848398377013 0.27891825912175283 8.16658260815362e-05
0.21207950690250915 0.37479504184443746 0.27484984992257383 0.00012541800788776165
0.27136646979380974 0.37176032766297257 0.278074412414124 0.01887971821723305
0.18746212937557327 0.3790821325242711 0.27986583219648586 9.855209775566472e-05
0.1980027541885696 0.37165414221860515 0.26959247755713184 0.039288239949357824
0.2582404979835746 0.38547726469943794 0.2951678820322299 0.0007729763493493499
0.20163513501256247 0.3599141860512899 0.25354750760429684 0.11620070936478984
0.253828476095865 0.35914217463505227 0.2574818305844603 0.014392017640211021
0.19001073522624023 0.3595994741267314 0.2528079936924525 0.14106012609198545
0.262675722042788 0.3631127030622989 0.264202523398503 0.00634826430980722
0.16157526189573593 0.3902185777684858 0.29752346225431775 0.01806780461645359
0.23688687074174716 0.40087710701616375 0.3210901657606808 0.049011635265815666
0.16926954452355342 0.3815730006554784 0.2840402892603574 0.00021130076969052826
0.15790581296578274 0.3836143003531285 0.28752669099499145 0.00025738023836896566
0.15416573980825163 0.3770279392655749 0.27842600813070634 0.0001952910184721915
0.1414646950581443 0.3785612754181801 0.2815968289233727 0.0002669634481405258
0.13341124600969254 0.3712673125835448 0.27238709228723473 7.93718760578503e-05
0.12831500319379263 0.3623664835233566 0.26071974336820425 0.0069646286889202425
0.14515248902514344 0.36953076386651107 0.26890777749977507 6.766477628229517e-05
0.14057926204433618 0.3608318163320285 0.2574754444995873 0.05853837869033309
0.15067324175986066 0.35546273519694344 0.24902946659019193 0.09118427929604318
0.11624748963051543 0.3627137693848269 0.2627113685097583 0.006710217500328007
0.1067117344059606 0.3570010506962857 0.2564424298242983 0.02849049081692587
0.11660633623669299 0.3742264168714493 0.27909584674386123 0.00015949470822811563
0.10111417311671207 0.3632947823932375 0.26641413437193145 0.07765625894682061
0.10199174216702657 0.3798459308341581 0.28944951891820925 0.01227450647652239
0.09917008581593466 0.3698468709724153 0.27592055398679755 0.054017754360259615
0.13134645021061292 0.38155348561527686 0.28698515425912074 0.000230834685462571
0.13131708041398304 0.4725236890183338 0.38837475328728654 0.09694234540331914
0.1623716877256623 0.47185092410132556 0.3879120264272278 0.1739516591763033
0.1782251931745317 0.36622082016581425 0.2620975036016165 0.11382099220039253
0.17734988697842685 0.35761232935083365 0.2502378061348782 0.1729213747591353
0.13518349210645944 0.39052068832398595 0.300089474768941 0.0020866815042337723
0.1157333143461954 0.3896207988393209 0.30138536591767706 0.0014142924943578964
0.13837598828344888 0.39688669650134106 0.31170106494121635 0.026109010980794472
0.1015287662094124 0.3911525141346086 0.3071612983103319 0.008170583355897447
0.08857575761840274 0.38858162289913617 0.30599213375635714 0.08433925294310922
0.12268730416704465 0.3966297539997074 0.3130776806788621 0.005097093131398286
0.15041887946401222 0.40345418822641704 0.32673044969705883 0.08280238956698721
0.12803948794719583 0.4020352133732561 0.3251641913988273 0.025569526514854043
0.07200292958904292 0.3806968508212434 0.2990920161014852 0.15566627929641982
0.07982414489679762 0.36952045005680856 0.2805933898204179 0.13091185713692657
0.08664740585227579 0.376159205326112 0.28815486554020653 0.10573807496150162
0.2330243834468394 0.3583525495792262 0.25419299323754485 0.04042278072627838
0.21976603666863498 0.3533414101226486 0.24591604524859523 0.105091578721632
0.28456646007643854 0.3831203146157004 0.29727468204186663 0.06002848636382928
0.29686476681431906 0.3966315171381202 0.32738403891371837 0.042859692393445184
0.2900147901640705 0.3731746354469244 0.28497070962207227 0.0716959311893709
0.20181440697510325 0.469716763674767 0.3847042320673752 0.16308451652917516
0.10552590420692558 0.4057849936282333 0.34145353774790593 0.01158878043015721
0.12446417641559276 0.4057094149902466 0.33687585395996933 0.05518609872229144
0.11132330633482809 0.40692100541967924 0.3510104848356658 0.02409333606994245
0.11493994805495947 0.40264252873711437 0.3689849431602976 0.1222134993511261
0.07017127328894787 0.4008723256951824 0.3492875441144162 0.008868362474903425
0.0706470988570179 0.39796355937567696 0.36801790455798367 0.1407997640912539
0.049762357242721086 0.3945851637481323 0.36086939034826715 0.07106529495215201
0.03818118660739616 0.39035009736774295 0.35056211667842896 0.11141939474282828
0.05862989457430499 0.3976276435887293 0.3483088726496697 0.006761678583512364
0.0872036546119481 0.4039567988708889 0.35552552357297446 0.020973673598692028
0.10266875558979864 0.4015899335328366 0.3703049122189409 0.14882882566895256
0.08265609657479878 0.39991001314383057 0.3685530953434484 0.11177382051174549
0.03909643038428296 0.38808826985870126 0.33743716405377916 0.12432022576775772
0.06195729823927769 0.39808600468299904 0.36014298990274285 0.02951728027922427
0.06522613764403394 0.39781416611314474 0.33837954710295237 0.0057320609294262935
0.06821934451400873 0.39445653656129553 0.3272240368988981 0.06208213747071695
0.09163758652314011 0.4047261292627166 0.34410646024285374 0.008752183873698851
0.12899461558316902 0.4069375796991194 0.353756505740434 0.07885475092815769
0.0267523498143248 0.3852317477193512 0.3793968865073043 0.2640544685643497
0.038834568594833266 0.3888337188759544 0.377746423691992 0.20773707234011796
0.02829849390561414 0.38488050133630625 0.3431637398832566 0.15914771824914734
0.21919666326504528 0.3825462348748748 0.28633577426497847 0.00023834334431390783
0.24382503909026337 0.38932259920432544 0.2989101134523448 0.0014708968482768376
0.2748875599795869 0.39190959664205555 0.30924340557834507 0.01039713934147578
0.27904708830261143 0.3976856112034358 0.32200336163110405 0.002798026338418083
0.29294239790307636 0.3914296175016161 0.31444643725333554 0.08796837962304205
0.25532799530665395 0.40196807123091527 0.37092588396327064 0.14079637512815998
0.26733747459056467 0.4001278825873338 0.3820714761096723 0.22871223713233818
0.2851211474198444 0.39842104998132744 0.3799051263068993 0.2233337278896949
0.30396369548161867 0.3957647546910871 0.38428117111183946 0.2159291925526352
0.2552906909267235 0.4006926407902009 0.3829941239510239 0.23148076331526035
0.24494991818125328 0.40147856581974906 0.37671374091588544 0.24531551984635222
0.2778884102170871 0.4016426973080546 0.3881019603164528 0.2204027421180611
0.34688006721474784 0.3964517814450352 0.38849050902844995 0.24335445631649313
0.34693791101329224 0.43469528090695503 0.38848997289887716 0.19200238298534741
0.3549246846125296 0.40580169901457047 0.3870725082004406 0.3016023712162161
0.3559076698995146 0.44960430446665095 0.38583716404099994 0.198561157530066
0.35636282670863634 0.4278509656611529 0.38412801066857793 0.1559871030255719
0.2419708141678484 0.417751191349915 0.3794849614267605 0.2662434680278223
0.27616094796591273 0.4214378749280134 0.3884899914265123 0.16049490955731202
0.29068855909845115 0.4194530385037398 0.38848999142651236 0.15677498870507162
0.2496748576337925 0.42511026555896103 0.3884899914265123 0.1688227051527364
0.25964023693355986 0.43504128486304083 0.3884899914265123 0.1051849235779047
0.2604611904243651 0.4523846086146908 0.3884899914265123 0.09565936816238076
0.24832361098802397 0.4377436253727319 0.3884899914265123 0.12504534433955403
0.25971264348560363 0.4197306784282617 0.3884899914265123 0.15837327794586792
0.28384649260789574 0.43026929546485265 0.3884899914265123 0.11393993058224615
0.2694250236101503 0.46035885971496454 0.3884899914265123 0.0582341237921586
0.2979356455247445 0.45612903254926007 0.3884899914265123 0.07293527843486021
0.2614975513863462 0.469102846585518 0.38848999142651236 0.07286483864910616
0.2755275463047062 0.4417093088461716 0.38848999142651236 0.0985266566581375
0.32243559288312634 0.46130100023913967 0.3884899914265123 0.13296576270620253
0.2844524868081631 0.4600474025256223 0.3884899914265123 0.06386614023417825
0.3096026420389436 0.44973865005052743 0.3884899914265123 0.09810191863472606
0.29746709411097305 0.44139614633657853 0.3884899914265123 0.09165904880600755
0.3203697723365815 0.43861985161045114 0.3884899914265123 0.09541927727383313
0.32867537306738337 0.44668145956728467 0.3884899914265123 0.13703435895119498
0.3103060817575915 0.42468960587253823 0.3884899914265123 0.14278968069495696
0.3449012626644518 0.44856794300825975 0.3884899914265123 0.16268473463663416
0.31728260481328135 0.41326755214266225 0.3884899914265123 0.16828143616967337
0.3442698034195766 0.4212154874996879 0.3884899914265123 0.21453575339128866
0.3331797243853991 0.432974297673141 0.3884899914265123 0.13495573113436968
0.3387648587812033 0.409907084524071 0.3884899914265123 0.180945285142146
0.32553481898053993 0.40070105281769874 0.3884899914265123 0.24668711223243495
0.1652887497582692 0.459262716048077 0.3181543661818781 0.13420292805346606
0.21586142099186123 0.46647892483470055 0.32582948898935515 0.10071150734016272
0.1763963923292738 0.37565055543328674 0.27515950190354266 0.04290005669022602
0.08564715984377276 0.3981446737678771 0.38264929766665073 0.274514670533976
0.11669094376426281 0.400635081656433 0.38220721541976693 0.2531527122961325
0.07395501830170166 0.39664211555470275 0.38206857418667195 0.21827798964372871
0.09691780962418507 0.3994328380400501 0.3839955448894687 0.21947776785245118
0.09545452156995125 0.4026998446171731 0.33348116641167624 0.00963575808127776
0.09348427724772601 0.3973643019426347 0.32152511832396136 0.008379132193932083
0.0784678011816447 0.39078743447322584 0.31395192287444784 0.08695679919843051
0.2251470473806055 0.4308549309822667 0.34335743620070547 0.09243387888337148
0.2264477808154986 0.4191814191327301 0.3498685950575713 0.07080333312845569
0.22530768504645488 0.44879515768832107 0.34870450747919507 0.11468290374638372
0.2265041409239825 0.45534938232795247 0.3591669998403758 0.19287604660367655
0.23479964955235452 0.45002315927620085 0.36854266503967975 0.1627403062092913
0.2311279052882791 0.4245189711483283 0.3641616354474662 0.11274894583844983
0.25974576474477495 0.39127535119599843 0.30463623653905103 0.0011860037299056849
0.16862780038071565 0.39831329277812466 0.31167282969795085 0.05859386745341411
0.3422801094773569 0.44438420930195155 0.30750585468421365 0.23118209667418174
0.34348814576257025 0.4200514015671425 0.30786218113948494 0.16616523199541322
0.3351565638774596 0.4555210236043937 0.30558218277761534 0.2649730755137126
0.32761984299906843 0.4463907428621635 0.30357498496042024 0.11053907166840178
0.3330247343635695 0.42452946432867156 0.3050525323554798 0.13871822340876758
0.31685135524884167 0.4610869621608238 0.30066988667763683 0.06459220326486324
0.3444611060909708 0.4329018202386192 0.3081056475600914 0.19159342366037854
0.3364520620703751 0.38768614081072916 0.3060202916529843 0.26638143325895824
0.3328800796401356 0.40263807387452677 0.3050431343852345 0.1889736134173397
0.31629034827013813 0.4101142576610643 0.3005879066229925 0.13776577383789457
0.3120636125401579 0.3924502530722878 0.2994790381303926 0.19437447919534107
0.3229200080754321 0.3920843105443126 0.3023884918439639 0.1466995419066634
0.31946423175656685 0.4322988652451325 0.30140860335239406 0.03417320130630639
0.34318723019190855 0.40762969915490066 0.3077982138521363 0.2213990911758564
0.2578323557053029 0.40476041874308644 0.33454589389259604 0.017621981667946165
0.12961172957102038 0.41371706180930373 0.3855052311188709 0.2797750708835484
0.1303303256722357 0.4486308174593476 0.3863768283114253 0.14923992080159787
0.12721260765802467 0.4295474393312203 0.3882583534278323 0.17348018975851262
0.10669883216350057 0.40413188632892133 0.38836744997916056 0.20173104121202393
0.12550380049731538 0.35521439090328377 0.2513656628020446 0.045849445841081415
0.21171159993287636 0.39723938533098274 0.3103268942148374 0.05109698082569312
0.06404264037944227 0.3886745471602577 0.3169691272330569 0.10219464956085278
0.05081858732612005 0.384317417442839 0.31705013104557944 0.09999272912296626
0.03959028450110218 0.3824582989043682 0.3224906586368421 0.15092157070566062
0.03713235722511542 0.37687613830238503 0.30956126090548725 0.15231636277351485
0.029517237778425763 0.38149309023019096 0.3313411038109039 0.16649655870626695
0.05191517428750463 0.38480683688828116 0.3019325217314064 0.12906355471201608
0.03993110767051541 0.4073791966665068 0.30511334356575726 0.18196197686954163
0.03323200400108199 0.38832624581936726 0.30693396710316956 0.23588259350577803
0.05323194392733062 0.4490399073914558 0.3014934124487456 0.06771319183036272
0.051757136122697264 0.43461283525724453 0.3019079699753249 0.04036884134688399
0.05951536575867822 0.4123758772448518 0.2998590359221519 0.15365436874636304
0.06428589776963177 0.4257941491769437 0.2985627454210102 0.04290848875457236
0.0560586838452397 0.39229703071352395 0.330536950191602 0.07277697255585534
0.3379709958351524 0.38787874411527723 0.38139860080662547 0.24798453377865645
0.06421653886515652 0.40037865962152464 0.3884875844732056 0.2049043999483689
0.08255983974679054 0.41497304370153615 0.3884899914265123 0.15504566442463294
0.12203288769782164 0.4635708830605981 0.3884899914265123 0.09561723839483549
0.09349282742664003 0.4354694253624792 0.3884899914265123 0.07680202081433453
0.11913021682795913 0.4209096350253693 0.3884899914265123 0.16871187942347607
0.11538735427254569 0.43853465907835876 0.3884899914265123 0.10090136222270324
0.1045616205675346 0.42833840107936727 0.3884899914265123 0.09932895231879009
0.10462803894385286 0.4161503187039691 0.3884899914265123 0.178788937694575
0.10995008220695057 0.46137877898505975 0.3884899914265123 0.0747252519407495
0.05291279110211311 0.46732270630602013 0.3884899914265123 0.14940851294396743
0.08506712502070186 0.4275503403102727 0.3884899914265123 0.11772223998989327
0.09986869489624733 0.46943412102642973 0.3884899914265123 0.040931894879972015
0.07640663518844767 0.4448455748209096 0.3884899914265123 0.07870779781964866
0.07412137240014481 0.4611481547478399 0.3884899914265123 0.06103606539011503
0.08733076217127211 0.46289231618522264 0.3884899914265123 0.04126914555566638
0.09453206920326115 0.4476626854196805 0.3884899914265123 0.05688960716819191
0.06436282632186718 0.4523279281073979 0.3884899914265123 0.07996059578219203
0.04258584277822351 0.4626338014920617 0.3884899914265123 0.15592370674665434
0.06533411454191825 0.42852276114179183 0.3884899914265123 0.11170013084069261
0.042366850514745036 0.4495865283902557 0.3884899914265123 0.15268162228010335
0.05785224583696881 0.43807822080350156 0.3884899914265123 0.07920767983766275
0.04620788918869337 0.4114480195826159 0.3884899914265123 0.18839657595770332
0.03268732737867492 0.40518081751880003 0.3884899914265123 0.23982957063365143
0.02675460882751054 0.44848342271563935 0.3884899914265123 0.19675619133624794
0.033041145465118375 0.4345730885732358 0.3884899914265123 0.15501610004945968
0.04449717830935356 0.43486123868966003 0.3884899914265123 0.12896046244368947
0.03766625048803123 0.42262775309024336 0.3884899914265123 0.1514722642056867
0.018678001049573907 0.4007305552538049 0.3874070441351293 0.265483367838164
0.017037096402605638 0.4310103579226443 0.3851923041197576 0.18310109298058116
0.01826881527561971 0.3894630130435242 0.3594032048418644 0.1617374728281436
0.017885685501424498 0.41768437042624423 0.3601781292316648 0.1084068411701732
0.01738038535973757 0.4095662661845684 0.3734139572930917 0.16293644770352433
0.01751752317718063 0.39308539567846823 0.37443990982320846 0.222029551524813
0.017325265396978977 0.4498859144427422 0.36437025378076926 0.14626143126230487
0.01683433868873539 0.41675057949129835 0.38342095914548485 0.18770508276325312
0.01754166188476918 0.42907063184815714 0.3649750397148079 0.1071090462623399
0.016844195224414653 0.44552388187791875 0.37589488019318396 0.1582645591421555
0.018301307747746867 0.426352257895413 0.35046694047363247 0.039005312174326
0.018697324086547843 0.4105140608298879 0.34750715365499807 0.09973843801466613
0.019456072326621915 0.39856147682278736 0.33865672470816677 0.16942701207820907
0.019502155444715032 0.41119452607447526 0.3359446849894984 0.08355048362900193
0.019040886968513585 0.4294562097149366 0.3393742529863518 0.04631407696821587
0.02017785655545451 0.4353608611455993 0.32265329504416934 0.10494014645371862
0.01799746082436539 0.4505299445926667 0.35041788616977126 0.10382884484507988
0.020138197172877896 0.4495237947438065 0.3207956001134176 0.16719567045993589
0.021460498870569056 0.38786235475643777 0.31468243065946017 0.25047398814250954
0.02029101989263755 0.40064415774276996 0.32678829106699436 0.15306055907716717
0.020798040443832683 0.420409878827401 0.317069637658861 0.09873503086878978
0.02328814551367628 0.40383020433710703 0.30993346686087264 0.1618817162564158
0.023575756150634387 0.43416136572632497 0.30966047403380303 0.16066994316521616
0.04973753090426962 0.4675182209932797 0.302476532080095 0.12921929124419562
0.027645226094719297 0.4510686388511673 0.30865538952790905 0.2074315710764352
0.06071485732352925 0.4775867902475041 0.29964869593607707 0.050916437306663245
0.036089321397296356 0.46010319531221266 0.30665317818693366 0.18794485803630165
0.061001502629504205 0.49078738652975895 0.2976808169665429 0.02627416241991655
0.052755636104144875 0.48167651087331803 0.30879341886795386 0.054103024478240766
0.04082133680005816 0.47183689408690044 0.3123395858600946 0.20171844756889745
0.03171227278663961 0.4646125913713406 0.31602595041353243 0.24424386376884719
0.06062048414599831 0.5032034773128478 0.2928734910596771 0.009505788525070155
0.0849484504038791 0.39958568133433503 0.3297729695606695 0.012110092728231889
0.3082488455916552 0.4241529938381128 0.29153029068449304 0.0386528603295726
0.31123785430801354 0.4732390278398833 0.2987704623992541 0.046285034472073466
0.30951160293715874 0.4471702931901846 0.2924751819297735 0.04248899564922734
0.310953072260718 0.4788589243358604 0.28902104842251347 0.032422460422093353
0.31190899887310364 0.5083598728861601 0.28073664411919047 1.2295873157055123e-05
0.30930246764606517 0.47295482353572293 0.27009057935084635 0.009830642425089804
0.3109452079220747 0.5203126225891446 0.2583180976446534 1.5694965740248333e-05
0.3061542647949027 0.3869951883030731 0.28911060228264646 0.1770082071990602
0.30870851102255525 0.4597585093709099 0.27144934931889503 0.017242629989855894
0.3119162364647097 0.518926175908953 0.27304103638415284 1.1244967914782506e-05
0.30753901554553414 0.4127357740734202 0.2896513411612268 0.09510876948285032
0.31123120516034797 0.4911926497838984 0.2838430484476066 0.014627453880822712
0.30817760826603846 0.44071077692615024 0.2780159447533106 0.01570771585032644
0.3121529906073376 0.5481492900991849 0.2548152140292781 0.05662981151321965
0.30976487868484115 0.46243717572891074 0.2843763243795904 0.03370762096645757
0.3107778516914239 0.4979168869810545 0.2724845530957346 1.0482625796177001e-05
0.3118467302229043 0.534948247481956 0.26023643966520216 0.015296942973503412
0.30603083208631754 0.4371592516644681 0.25069346015460725 1.7368128750390863e-05
0.3058078198801925 0.4170483225122119 0.2622947562630616 1.3570858374943492e-05
0.3092099432295954 0.4998058576863535 0.24912778814031333 1.8678762187239205e-05
0.3064454578685467 0.4511349411167221 0.24624461396948605 1.9384486032036682e-05
0.3058914491998235 0.3966409883786093 0.27837998163542543 0.0826942456749028
0.3042221480352691 0.40573599114370035 0.24850000534420646 1.4207690113908026e-05
0.3078547493401653 0.4769727664152005 0.24696410879736774 2.095130621468989e-05
0.3082749167087616 0.4672951807905975 0.2598871929007586 1.8168171058263087e-05
0.30728760992467263 0.4414653229646971 0.26503418413605506 0.004582135904691669
0.309586225369668 0.512223215297145 0.2452847761848476 2.1266886424613062e-05
0.3048829842429292 0.3957240848429821 0.26501667027135833 0.01266235885723477
0.30516153605044943 0.4223312502382995 0.24943833829454123 1.729777655768278e-05
0.30682157940119725 0.41503504137080893 0.2778742403909714 0.038065160385560334
0.30391590790988365 0.39437146915024657 0.25254790457102516 1.7302325069420547e-05
0.3107358387277489 0.5301120603118888 0.24820274663899644 0.014572178834563956
0.3089182986642096 0.4830078735012994 0.2573516399410175 1.7160701080058413e-05
0.3072135676203007 0.43001665557884244 0.27237485875161377 0.006192941216327451
0.30916007891750924 0.5646710247027588 0.2121360312224127 0.06992426143739862
0.3064568025152432 0.4612078990605496 0.24056932149672716 1.634702906346952e-05
0.3072174201562071 0.51179540766252 0.2208482421024515 1.735842468399601e-05
0.303974907396534 0.422535452557852 0.2359382065601428 1.89744131042188e-05
0.3062813998394961 0.48919980054940027 0.22347358192601646 1.211743374666455e-05
0.3083702091619309 0.5113121691653446 0.23306625750103366 9.2494786765103e-06
0.3090786274067991 0.5484868151874951 0.22012406840625004 0.062480356603647966
0.30619475349440534 0.5005175465201126 0.21639830690815076 1.6151565742611214e-05
0.3050659158310514 0.4407139943276672 0.2373307285046487 1.8665006493201306e-05
0.3070449629272759 0.48317093141785106 0.2346819496510805 1.5131416926968686e-05
0.310819105690151 0.5426262341676645 0.24137108465916637 0.04052103533673668
0.30858974341335044 0.5236648089247036 0.2286012358112257 1.0263449737724077e-05
0.3117086843575712 0.5558009272056618 0.24340570006687065 0.07275989974736687
0.3092601822367099 0.5362684206712035 0.22867507015456573 0.015751846508761776
0.3079736750902139 0.556846013609328 0.20410373695426431 0.06303060237377413
0.30705551724223157 0.5213341047573735 0.2139634976081608 1.504500423506556e-05
0.30664462905150686 0.537461714262926 0.20082598070854482 0.022775719718289737
0.3028603067397206 0.40736633102233877 0.23255864428340503 1.7539301312710892e-05
0.3049271110929331 0.48831447646803056 0.209778507465373 1.7698222164051084e-05
0.29916788717299414 0.38182861897850984 0.20768804719306344 1.652106546001698e-05
0.3047982888417415 0.4583782822401392 0.22490389880813377 9.524437166756187e-06
0.30053082009920234 0.38135483935903913 0.22231949486214841 1.823583615287512e-05
0.305959135956436 0.5097675112214144 0.20884741273203905 1.9823635138488864e-05
0.3030142485723368 0.44039536608253654 0.21599510877825687 1.9849115237539853e-05
0.3029120476006663 0.39345736472272874 0.24076284410350712 1.6095302202848575e-05
0.30505223790610686 0.4710961145702847 0.22057872073841298 1.208207935923182e-05
0.30177230526626 0.42852785641207813 0.20943480485426724 2.042562713972236e-05
0.3001537161743407 0.4044654245953726 0.20561805370393552 1.8670512591339057e-05
0.29874896915614807 0.3688809443620948 0.2104003733334685 1.572864873400241e-05
0.296360516682729 0.3277114330023891 0.20788591046876817 0.05044716371877286
0.3015809490842051 0.3815638181708314 0.23327683686955863 1.1287529705568786e-05
0.30476896308418844 0.4991170831120833 0.2021628110424314 1.7746133045061976e-05
0.302504337663858 0.4494388880431843 0.20563907354376426 1.8523787501413484e-05
0.30369230645677386 0.46310866877447726 0.21063789884782544 1.885810590031293e-05
0.3011015095538758 0.39765854058567573 0.2193595066268102 2.1282683343100703e-05
0.3011553924679608 0.41607716577109044 0.20978584928153649 2.0140671361204297e-05
0.3025344028244044 0.4167964279035836 0.22392989417399128 1.652520019444413e-05
0.30004240198291715 0.36716347584722686 0.22498383039860728 0.012276043332512494
0.29968763305136303 0.353612168729849 0.22872102028688016 0.061273122921801
0.2981569002836377 0.34109821839965127 0.219468622181054 0.0574798821481018
0.30101529807729177 0.36449263573518564 0.2367311248803422 0.05781862201421539
0.29936497007827845 0.3387430390611883 0.23372278816388334 0.08220925130519355
0.3001138161510167 0.33163831631019447 0.24605449653690145 0.10711302568549577
0.30282369661616265 0.3641709697528921 0.25811121920898505 0.09621157835012746
0.3035280597490879 0.3768499953779478 0.25965994312077834 0.08589306844372259
0.304050509784409 0.36808854522625123 0.2726703779094631 0.09673538287887438
0.30274677362834873 0.3809027657040298 0.24611267989550042 0.04209988655515043
0.30159934006090755 0.3547169413748137 0.24888781831300533 0.10588349076462353
0.3149096716297924 0.5669613081170058 0.2754135214595652 0.08142254139667778
0.2984458958915225 0.396526498008302 0.1948389499966469 1.5603985997271256e-05
0.30592347251897223 0.5536172572924263 0.1875000746009293 0.07628986710985013
0.3026401892326199 0.5253286971505734 0.17292930667115147 7.69123325547207e-06
0.3048922988523016 0.5610969515191713 0.17576758043000165 0.0735780278026259
0.30075953270045624 0.47436988288202775 0.17978210233609507 6.577001311518877e-06
0.30382883739947975 0.5414438127862103 0.17563567896451182 0.034047469153656515
0.30112792062451094 0.438470659644567 0.19850418513376836 2.0760542681725876e-05
0.2967415983359716 0.3437194615361336 0.20394715030318503 0.04452391430125861
0.30322300218206033 0.4880128963092097 0.19403038989390434 1.353778341918483e-05
0.30197661047800334 0.5323376319829758 0.16441906440437942 0.016105201720429747
0.3016485375969623 0.49013150898817853 0.18018426988275935 7.130898026536413e-06
0.3022529831377976 0.45925901976266226 0.1986451210240644 1.2489048470251638e-05
0.3040728306786502 0.5245518282671725 0.18502490315860634 1.6169660865707682e-05
0.2972884522457644 0.35711989996571597 0.20257429873714108 0.007917076619052435
0.30257298557182344 0.47386765685643295 0.19488242779333576 1.4063616358490526e-05
0.3056413515346907 0.5266452104552654 0.19698029094618427 2.2985631079553545e-05
0.2995357969237368 0.43048983196712837 0.1889297746523667 9.276007702778157e-06
0.3000970675698663 0.4524525994594397 0.18393080605437218 7.0599649488868965e-06
0.3030685134704093 0.5018745319833782 0.18670082615542302 1.648608994708975e-05
0.3029827567496751 0.5137818930804666 0.18078988768148957 1.2244086544586359e-05
0.30010975989590205 0.41970999018369415 0.19835372064289972 1.9141903135794647e-05
0.29989445166571993 0.462354171297335 0.1779381107418651 7.202546660714994e-06
0.298825504841587 0.4376318162179935 0.17990834400208627 7.582493095196625e-06
0.29300042311563246 0.3363907006407204 0.1752848274550153 0.059245545143730365
0.2955568473918536 0.40673826579394706 0.16576860634109783 2.2092104590439717e-05
0.29722537598558085 0.38525224574772565 0.1895833640217301 1.2591377666317507e-05
0.29795085592765025 0.41388786883581474 0.1830195968546507 5.924742993150108e-06
0.30027143028532666 0.49255784912248346 0.16778258770370014 1.5053258235288453e-05
0.30035178806070556 0.506930604426713 0.1620657231355468 1.7927421241303208e-05
0.2944042094052062 0.34374257071693143 0.18399285856473077 0.07392904369828054
0.29953214236729425 0.478059045371141 0.1679307669886843 1.2011264674232281e-05
0.295865666730134 0.42670734977377994 0.15950889088506887 2.492212070143965e-05
0.29722754689854647 0.42067751073682474 0.17382052749786536 1.4897756496505616e-05
0.2942146879376379 0.3761205840667056 0.16795117484135832 2.1999619180659365e-05
0.29356602148634187 0.36164748025510957 0.1688614789611233 0.002395310824159993
0.30065761294335397 0.520953384405827 0.1584294258819576 2.0068237177069293e-05
0.2953413957716965 0.3658968594600345 0.1821236119091117 0.0028096904983526522
0.29873125034001063 0.4876908616220041 0.15680328288083367 1.973618100805749e-05
0.29802772670173916 0.4557368395447314 0.1650327677810064 1.633132085106242e-05
0.2971020151513919 0.39688810076761744 0.18334673614647704 6.221449328840831e-06
0.295603386364317 0.38886328497010714 0.17412888540065186 1.4218786871262052e-05
0.29705699701305444 0.441003774350627 0.16330964591220676 2.070229820991035e-05
0.29592476473246 0.3581770686987946 0.19054247412064282 0.007429711998268374
0.2938560206618944 0.35192384046318226 0.17566872466988595 0.06336208547846768
0.300511161420015 0.5414864081157067 0.14899937470643812 0.04121327873147151
0.29382639347324085 0.39576437574814455 0.15657210518331807 2.3647643545619727e-05
0.2955968905332641 0.44972645113514953 0.14896433123075858 2.288323347110796e-05
0.29245985982761374 0.3795400575728115 0.1531749617998951 2.182944575345875e-05
0.29716870433144693 0.5037055080340591 0.13999649632650185 1.209008833098721e-05
0.2915050926540834 0.3473521596248686 0.15840333769609719 0.06359823657841375
0.29475079004436067 0.4152039402162129 0.1557842875328331 2.249658096188306e-05
0.2926000198413472 0.46862115879124705 0.12165479257874018 0.019333084056896023
0.29839594426301785 0.4976512347679444 0.15056630666989948 2.1076266024879828e-05
0.29354761926237816 0.460302883225116 0.13114443342317744 0.010608703078324835
0.29391627560447764 0.5010003612943994 0.11881993552436529 0.09905996924141112
0.3009534875454653 0.552868834296194 0.1478639221844738 0.09033426395156352
0.29670457657855565 0.5290802215315403 0.12758326974075876 0.07375223077336375
0.2991593232449043 0.5244858421166989 0.14598535693993975 2.2442417923896617e-05
0.2975441283499072 0.47562986405502106 0.15278992317481313 1.998544765381901e-05
0.29574650551450593 0.5102366467645427 0.1279243492440591 0.1460477178784239
0.2938721029101638 0.48723578306058773 0.12353692376578271 0.13485303783172137
0.29527966510582826 0.48344623292074695 0.13450986507098972 0.00017644385962156125
0.29604397177425334 0.46710223352812585 0.14567635368781903 1.8077858052151436e-05
0.29182478996035677 0.35859320855772114 0.15648380643707052 0.032313271641446685
0.29239736826542373 0.4073315532883124 0.14261751216818613 0.00025497532721589544
0.2953984127847316 0.4962156599674357 0.13066383727565622 0.0004839882737579907
0.29348684883852716 0.44420881721246863 0.13659755515432648 0.0014816967097004202
0.2929603081931038 0.4265753907318163 0.13943800561148267 0.0006396433138287622
0.29809387585320507 0.545979300939873 0.130918592986768 0.11042381136514282
0.2949213230624091 0.5271056762218476 0.11618243984777799 0.2239768016890943
0.29575954833722384 0.539097716464129 0.1175590187466328 0.16991563169268525
0.29600137651177266 0.5507215192621442 0.1150229884081434 0.1592873320951493
0.29415607886598766 0.5456286364621192 0.10446876608490677 0.20879841349487968
0.2923644434322392 0.5238185651350635 0.10059299358708174 0.21708669152433857
0.2917299224051485 0.44226678266959757 0.1252996732308807 0.01676433541327575
0.2879319354664006 0.34100497515466366 0.1357627942586345 0.05893072891170308
0.2862315226216227 0.3584024341692946 0.11752147322302875 0.03684039827492481
0.2901083029022835 0.4452740047650976 0.11286785863862718 0.049362659395937904
0.289696842717694 0.42937351083265785 0.11580310008329793 0.021067529791434933
0.2886695961715369 0.3545578788535233 0.13596515234831566 0.06094279553647014
0.2892160975631072 0.3676097484115821 0.13501467672837053 0.01665349538677201
0.2888159849521248 0.3970775791052728 0.12144955728431459 0.012583872878334554
0.29066646790545686 0.40426196751823174 0.1317563238363464 0.008087325653570688
0.28942360483669294 0.41691946128977 0.11844483219337476 0.016232330816000753
0.2875273896108915 0.37439770904516106 0.12073235322006157 0.010829092727610531
0.29197117509613396 0.48657696267105444 0.11079272004248981 0.18055815927852736
0.29030751877860206 0.3804408444077509 0.13795310446467396 0.004272713247671044
0.29219634126639127 0.5014144298572217 0.10694402432863424 0.18653311712234308
0.2891288590833271 0.3850606834784127 0.12802763132306258 0.012824712378702243
0.3002898537598253 0.5669130294963354 0.13206143157950354 0.10499024196151877
0.3175756677981113 0.5672341624291415 0.3253540568636914 0.0924793347759302
0.31299391144637295 0.517897228421823 0.28897814333558935 2.2942146408108403e-05
0.31381268032601345 0.5424928304243524 0.28233499023527847 0.03312668264617897
0.3140990242270009 0.5544808160793718 0.2775123555401745 0.06864200794703604
0.3132935244423789 0.5297644578371894 0.28443117604140133 0.009521564227806877
0.31300496002258715 0.5473141151165979 0.2674214041737022 0.05910641027621656
0.3131450650978406 0.5038881057023736 0.3077884219434051 0.017565882736085597
0.3135920396551599 0.5016714018530222 0.32070093017773277 0.02571843293937946
0.3148759945431187 0.5283157433439769 0.31808883754503664 1.7656129077153474e-05
0.31329171229803476 0.5130103938749542 0.3001786715556449 1.9268135021873964e-05
0.31449847575982437 0.5316868480614345 0.3053801216384403 0.01317231408191314
0.3145710611975211 0.5174661054547897 0.32414753999619417 6.280373017859163e-06
0.31479607501315576 0.5452891022143834 0.29584268560275784 0.03206447428487598
0.3140778101897985 0.5010051205407846 0.3326380848644645 0.024904943248580592
0.31252895105542877 0.5017676486192885 0.2953977860562113 0.02019599159653416
0.3127363175522319 0.49036776764430695 0.31125632305458845 0.040717219799585716
0.2907410233776159 0.5669045130881493 0.06594044175435713 0.09014093385379562
0.30678684084076874 0.5670232847720611 0.0670123722186539 0.13758423652976517
0.3109232617260093 0.5668777441175639 0.0475715787878234 0.12086669063923268
0.29826293582432467 0.5668750150882887 0.04735095218474661 0.13875057507778588
0.2974735269955703 0.5667379558188336 0.02909846422561428 0.10249121312039099
0.2849760357445198 0.5666397729715772 0.016150563420946673 0.0858325646971482
0.312758668551236 0.5672685928112513 0.09961920410692322 0.17374082162880852
0.317365767184848 0.5670941272062651 0.07632027033933529 0.1367439469522271
0.3053871640664423 0.56719355456242 0.08971426463263302 0.14758696747260186
0.3017454355089222 0.5672971316397104 0.10355766542257541 0.11210635812198899
0.3066662859379274 0.5674142832740475 0.11911066348326682 0.11242664093730965
0.30440324227124665 0.5676430828349247 0.14963217042479376 0.11302691208878175
0.3249488069761126 0.5673425547829054 0.10932566796195559 0.1273029945894277
0.31889993652785653 0.5674223488512975 0.12003502893345373 0.1353088542753826
0.3109100595830634 0.5675630740569593 0.13888867862372084 0.09128984441817649
0.3168969143358381 0.5676796442096308 0.15434879319230846 0.12628470516517548
0.32274433585795 0.5675348251181116 0.13497644173308015 0.10613611638686361
0.3149088375825118 0.5683481967736267 0.24346312039331788 0.06760574466059369
0.31466825656414 0.5678927384717318 0.1827728557314832 0.10513238364485084
0.3208627961427054 0.5682186591160676 0.22612412234861462 0.0899211999878185
0.32076363307442424 0.5688161157541911 0.30574231872699514 0.07665142086900242
0.3290487969422362 0.5693874368790816 0.38176324270196055 0.11337935311215767
0.2896315628968682 0.5665545810709075 0.004749213668331831 0.06915536908028787
0.30124089651280583 0.343714268199212 0.2553918426307837 0.10916438758001529
0.29373986018066756 0.32665223239936414 0.25788033104235664 0.08451418962373447
0.27219453096974255 0.32184722274414357 0.24920182647624736 0.13956054634674545
0.2753893852661113 0.33573589359879474 0.25054488326917734 0.14011696895237896
0.29804085713019063 0.3528735374202516 0.2615178228624162 0.14589002004991797
0.28159855376095566 0.34564017064972846 0.25326475268951565 0.11969217610152295
0.2586436572465246 0.3281619442077919 0.24470222568932695 0.09897966578299865
0.28620626296814344 0.35582143786773446 0.26030270744492034 0.1598831750571648
0.2587685027387083 0.3504137216817056 0.24820198672934923 0.026859315276053897
0.2462038075075135 0.3523726481778823 0.24744568781063447 0.045585905568622354
0.23503814752075775 0.3489489541596329 0.2409703312542899 0.08992779694995776
0.2523767254119174 0.34135638914659294 0.2426016689818956 0.04669403568690886
0.3046549905435624 0.5672163928763829 0.1620674637498759 0.08888863151530164
0.2860105428588744 0.5632019327116755 0.053144895747714825 0.07584688696762264
0.2807595457161449 0.5616687877667368 0.027259619864545767 0.08934860744070187
0.2911942246609654 0.5661693264722342 0.07768126019002243 0.09878851281051215
0.3149907871936872 0.5681325598887952 0.25766268405472625 0.08338766801976238
0.31713203333085477 0.5683814914295366 0.28645078746663555 0.07924529671937455
0.32885258337964896 0.5676064086961177 0.1444333080646348 0.12771282995201902
0.3359277524925458 0.5677634772488269 0.1652633206813325 0.08440148613854578
0.3488689528714761 0.5681019309377247 0.21016773620560772 0.06820119193583578
0.3498174865853103 0.5657988977265779 0.19693808787101272 0.08763530572980402
0.32540949408730974 0.5662749415657883 0.08738410322220339 0.08872208976978205
0.29638974379036437 0.42988812535694476 0.0012888368528311987 0.08793231130258893
0.29480329756151924 0.5221376970257109 0.00040108970208135267 0.1355450808538668
0.2939132051539593 0.48694854139936444 0.00022857884412884395 0.15110296700358558
0.2919979020709442 0.34942873278944936 8.87666703913788e-05 0.0666801447557412
0.29709129117170163 0.5486411259610573 0.0010839822858107447 0.07979466460092474
0.2902021951040172 0.40968812164787033 8.876659308857185e-14 0.0652459589967905
0.29218204829499284 0.4613876735373813 8.876659308857184e-14 0.17095088148116985
0.2871858752886278 0.37919974669393147 8.876659308857185e-14 0.06828589085318279
0.28577346233311035 0.2843268079483974 8.876659308857184e-14 0.16511725203378172
0.28379676729698566 0.260423194779063 8.876659308857184e-14 0.13777229894581816
0.28866231164613726 0.23694118749359294 8.876659308857185e-14 0.17438689078632044
0.2866925337538202 0.20030179349961824 8.876659308857184e-14 0.14210971105892375
