x y z curv
0.22520826011896136 0.37900105176116683 0.17187584036966871 0.007603607934944176
0.22520826011896133 0.3721600929316912 0.29097164846935386 0.019912542164513717
0.22520826011896133 0.4058203647358053 0.2745066031566759 0.07521347403707096
0.22520826011896133 0.3892126462554813 0.2506316989873748 0.037477092910153054
0.2252082601189613 0.35242047357320316 0.26989002847793786 0.023817269500564234
0.22520826011896133 0.39589578240913 0.2881182107168806 0.06250484723881657
0.22520826011896133 0.37833279912973594 0.22685784382126295 0.006165055689437655
0.22520826011896133 0.38866865116757304 0.19407020369748584 0.03921978286475842
0.22520826011896133 0.36490015150159827 0.27111736873401376 0.020269954299651533
0.22520826011896133 0.3863769803924442 0.1432410045869299 0.008397801683405585
0.22520826011896133 0.34622296211079184 0.24630062968249192 0.053242647685531455
0.2252082601189614 0.3588039137350584 0.2331958252378917 0.03158681180701954
0.22520826011896133 0.3587648609503351 0.2823578271756303 0.02899887065653007
0.22520826011896133 0.4095189104590574 0.21562432689661126 0.07646099787758896
0.22520826011896136 0.40503233875964717 0.24524026885454148 0.07395988810335524
0.22520826011896133 0.3791547634379697 0.24589489190674493 0.004883854422735423
0.22520826011896133 0.34085140881054937 0.2791656371605754 0.0956893986720663
0.22520826011896133 0.3766458499550242 0.2596386819907757 0.0005549284735894915
0.2252082601189613 0.3970270395379165 0.1535191859718918 0.051623840211343565
0.2252082601189613 0.3661492597054463 0.2192835095288216 0.003778795323054061
0.22520826011896133 0.3963885572500171 0.23494493949796857 0.08378229520462578
0.22520826011896133 0.3998002106066781 0.22208587728114199 0.08460284151487886
0.22520826011896133 0.39503457133276254 0.30587883182602615 0.10202090979511631
0.22520826011896136 0.3670292196666148 0.17927458746110958 6.963690002101001e-09
0.22520826011896133 0.4063991475188208 0.11106763747540295 0.05903462920721329
0.22520826011896133 0.40607535954968027 0.09888312673313684 0.07196656068014874
0.22520826011896133 0.4038846559409899 0.20415247807521214 0.0753392988700304
0.22520826011896133 0.380255176119385 0.27169729977706103 0.0005794621406290377
0.22520826011896133 0.3666973215198393 0.19191648626841112 6.661208560403433e-09
0.22520826011896133 0.4033045619645853 0.03838450987558572 0.0346499261370537
0.22520826011896133 0.3902406585042973 0.10664249873656906 0.03718283362055657
0.22520826011896133 0.40263377729722366 0.050925261350225265 0.05631311751973912
0.22520826011896133 0.38887344370733334 0.26285910426935 0.03702678228741216
0.22520826011896133 0.37051336931744333 0.23749152346011115 1.5894807125776057e-09
0.22520826011896133 0.39023947960278116 0.20947906741301062 0.048393520147261865
0.22520826011896136 0.38588993457656967 0.18288649771151425 0.03529453861688204
0.22520826011896133 0.3529694592782239 0.22336977244057657 0.035733805063855234
0.2252082601189613 0.4065707395754206 0.01928703595458177 0.07930567133183504
0.22520826011896133 0.40368289787186085 0.19184371379279702 0.06206697204868447
0.22520826011896133 0.400222205396172 0.13740638009875075 0.06224503604879661
0.22520826011896133 0.39986667948727583 0.1802260396530478 0.07026142891024546
0.2252082601189613 0.408641890182014 0.14518922872498727 0.07333024264284364
0.22520826011896133 0.3891528737752676 0.12011472101398143 0.033438894710291635
0.22520826011896133 0.3992666268096621 0.16760682774306862 0.08082624848325642
0.22520826011896133 0.3620112027020928 0.24767371160916873 0.02469967377691519
0.22520826011896136 0.35181800001756447 0.25611287217491824 0.028467548737387098
0.22520826011896133 0.3771257926508598 0.21286376971673432 4.059540335844778e-09
0.22520826011896133 0.38285133760210993 0.15873635709151826 0.02265261715183982
0.22520826011896133 0.39517215265130756 0.0630068646888498 0.05445683776769949
0.22520826011896133 0.3613134454026794 0.20464787704103032 8.325614670658998e-09
0.22520826011896133 0.3687339202162029 0.1602979159733899 4.619260508827825e-09
0.22520826011896133 0.39197013430620514 0.09290415777198524 0.03503553311656186
0.22520826011896133 0.40191049608535356 0.25872106182706 0.06216422730085378
0.22520946889475307 0.3612749075694423 0.12729756669815898 3.281965896387429e-09
0.2252149505217025 0.35718643928937366 0.15449890101391717 3.4575558790964446e-09
0.22521188423067356 0.3648715003466027 0.14523220084760147 3.5961151044598335e-09
0.22521435051671393 0.34005347461635915 0.22211523624978902 0.0781175166848333
0.2252114664666371 0.35868980477395895 0.17089970614346628 8.915773944877436e-09
0.2252152235233462 0.3492109637447477 0.18248686019826593 0.00023802711964660721
0.22520941984500437 0.37510913327913453 0.12265514452953909 3.225483951286103e-09
0.22520986215624492 0.3373268374971501 0.2606166355186122 0.06786935028018222
0.22521225051734886 0.3800095869425637 0.08652351758122288 0.005974104988817489
0.22520829144486137 0.3900000679490815 0.07430600307259005 0.03854560187679837
0.22520926367423716 0.35148775411001837 0.21164073213934925 0.02204670168976098
0.2252181545675405 0.33901316005864063 0.20196863387126746 0.0284214354736037
0.22521893701354795 0.3616523504657611 0.3071342420290063 0.08930609146996513
0.2252127403778937 0.3811111760681455 0.3069905004879809 0.07288883797014242
0.22521126290281157 0.3513785424120136 0.2937027446709587 0.10564520493672475
0.22522486544313902 0.33375007780000143 0.30369132798207715 0.14232521339764012
0.024042877900077135 0.32736830038600984 0.21749523546101376 0.08032293447134513
0.012667118230773227 0.3143168237768182 0.2240803293909435 0.07036652880019006
0.028402171861773712 0.31614067154174963 0.21442936868216433 0.06953438428797731
0.020771331586075067 0.29944894304180375 0.21911122973064126 0.02641914646285214
0.016285552808502426 0.28695886948570204 0.22181940403528538 0.02482784732351266
0.03338600069245877 0.3043141468119145 0.21140941282110082 0.0536418484674711
0.0419139526991234 0.3228369260450804 0.20616616982642696 0.06424327307315086
0.03760443876266024 0.29152805414415156 0.20884031607323372 0.028500188210949556
0.04142308969634417 0.2693576578373213 0.2065554974272912 0.02464899865147123
0.04489003727086585 0.28438977010142025 0.20194547490856984 0.023811513078598606
0.043968482878538113 0.33268031078842386 0.30406529329504295 0.11946560113643712
0.04489639471056563 0.41091003900715123 0.20657365616361573 0.057732383582166515
0.04461012727363994 0.3334613363256754 0.21167710378866994 0.06790702488643902
0.023305663130340472 0.3305922929590508 0.24611142850089407 0.047698420050723236
0.008040357000373043 0.32977114037636895 0.2346365239787525 0.05992144787108375
0.035517732744791745 0.33122008496790595 0.2416588147345321 0.06393509710169332
0.0334301827062128 0.33113609323666615 0.2533387504541933 0.049903230930183694
0.02160626200218625 0.3304698067892813 0.23028815084632526 0.07352159963658722
0.037893026835455645 0.33139218241722607 0.26419463889283323 0.05193902519038
0.03386779047698918 0.33110867970925634 0.22981461260613342 0.08824717207703843
0.0021831752887208314 0.32558139630657534 0.24853773744382163 0.06971949576849065
0.002017324689297937 0.31295670084555943 0.24491643702031055 0.07627065006977127
0.001312645465243877 0.2889092365232513 0.25219062704000517 0.017651075549572792
0.0019557503383638543 0.29806246702160344 0.2401596453039017 0.03516324008770245
0.00159417506809487 0.3027586238066793 0.2510243842983829 0.031002995970458806
0.00145542492237903 0.31731527171267 0.26444440856953105 0.07583786401597936
0.000892721636452118 0.2925078044954349 0.26919794574930966 0.00010611779714690605
0.0009048430617439017 0.3034357127141744 0.2761103260392854 0.03461927393829682
0.0005851360501162958 0.29481428184105746 0.2834922374354555 0.03417748787841774
0.0005768765153004903 0.3037794960462611 0.29579397424151277 0.09743786535579632
0.00025418628340072167 0.2881568843731533 0.3017201149153159 0.09720959805665584
0.0009327160233258036 0.27759894604531776 0.2628566185044857 0.0004041196757368989
0.00048172645522343813 0.25287766019397123 0.27771510985563486 0.013043622207243442
0.0005544386053903977 0.2679940997400434 0.2762849398957392 0.020348189799057413
0.0004608541256371431 0.28309608257701807 0.2813325687310914 0.014962874881513776
0.0010419183306556777 0.2553827865642073 0.2573170368620978 0.0050627584564956205
0.0011950369349281364 0.26968060729838145 0.2534632293164142 0.010944912259422289
0.0017256254223547048 0.2688114325256531 0.23909834311096764 0.031164751307584976
0.0017454800703630977 0.2814702189773164 0.2399666801194938 0.030719015303275
0.0014982856923959824 0.2330545750266374 0.24399441142434464 0.06981617826927389
0.001730700824517705 0.2191001114558497 0.2376522385142047 0.1548039792824881
0.0007665034223480694 0.20987248629046437 0.26892032804327415 0.10178588718041102
0.001369020120363396 0.2109585794665977 0.24963021802765564 0.13164542056702952
0.0009786567903523112 0.2269471419666308 0.26054158822075346 0.05776693555438706
0.0006447636753020237 0.22169639337217417 0.2717689055680439 0.0688171731003061
0.0007121281292386903 0.23728690867820731 0.26858130746325254 4.310997433068814e-05
0.0017119454154851089 0.20375280878215465 0.24014531011064744 0.10787932587514229
0.00175810381801756 0.19272843286901387 0.24195469817254434 0.15006203454896436
0.0011782540688154931 0.2026835418073042 0.2575614913973385 0.10922007765547793
0.0018733481907854388 0.17056964541460287 0.24541448190780993 0.1937090230609517
0.0011965228329216507 0.18083382944251808 0.2644247504946925 0.11336759363246372
0.0007321203910904047 0.19317291873454967 0.27550196581412784 0.07664627958694104
0.0015496223092985473 0.1791596379669127 0.25314040554413697 0.1441408576617765
0.0003126528043945573 0.2751846614395771 0.28944185390265786 0.033283204692124625
0.00016454040788911918 0.2459909945722297 0.2932338714899614 0.056344311253832505
0.00018034720220677408 0.25929558838741534 0.29535683821812103 0.0602496515645552
0.00013404342664256828 0.27305094330611096 0.3015251849676245 0.08916347519877428
0.00033950175993448716 0.2414384639599868 0.28299582091960673 0.02902862935751803
0.0003710960946127398 0.22780722529799421 0.28352206761750787 0.03721778080110475
0.00010904742014214138 0.22833210256089131 0.29840324843923693 0.07502280818449422
0.0004361245763789223 0.21492446824532896 0.28165161624185925 0.037209041466337654
0.0006250020559172587 0.18379008521450652 0.2851405233233815 0.05829317696690871
0.00045484281797349146 0.19638038015616627 0.2872389272489356 0.04638326333889193
0.00020142862307279325 0.195377067466074 0.30030194763957907 0.08984453288362858
0.0003728371584828979 0.17979230802021975 0.2987708806023911 0.07664081018611331
0.0006800254349627664 0.17193133623419599 0.2877423290947932 0.07372368060574722
0.0027373883851928055 0.15146572636413486 0.23548595581014226 0.18831946398786759
0.002370685112244246 0.14740099899911369 0.2520631530510302 0.16253524222807988
0.0018959099854998374 0.16148547838750704 0.25359744416451824 0.1575955964626464
0.0011258603037363004 0.16977625881348526 0.2710763821405313 0.07653763883277438
0.0032191473436747526 0.13561584136151825 0.2355341379136398 0.1725064149467865
0.0020505938458737698 0.13666807455411434 0.2757707968550679 0.08518365968788207
0.001595335487446451 0.15117383850590627 0.275322700025302 0.06640450265188158
0.0027567255527579195 0.13136281089740665 0.2567047232917169 0.20446508003899508
0.0011171179884571119 0.1564719212336711 0.2878200944538592 0.0606694723610365
0.00046592144425061346 0.1678257329297369 0.30093924794004995 0.07106382756034231
0.0014079245538111645 0.14122188955191278 0.29624746099603627 0.11534042929795281
0.0009681179926818132 0.1522766772916721 0.3003396949875626 0.08353631598850854
0.004666663723423861 0.115582482988105 0.2951371972289135 0.08259989611401373
0.002041442379819832 0.13052971194347673 0.28733891728889965 0.054615934638546644
0.01001047766021363 0.09408756639367828 0.24809689195457138 0.11654236744078778
0.009258795469983802 0.09347218508627396 0.2800134620469464 0.01319643280095264
0.008551076066457157 0.09915132666584137 0.26643778239160315 0.08921582733543981
0.004956311766332349 0.11750009371020215 0.27065671331102664 0.06574537392677081
0.00396679960305403 0.12665980832780063 0.24518275058002512 0.1877379995903338
0.00966167269493139 0.09765074714927782 0.2363091154316782 0.13589853555304648
0.006066465465501135 0.11441018869807806 0.2519906648128779 0.1509407420585598
0.006540077001235914 0.1136651316713579 0.24043819454421236 0.1522411349420573
0.01492312479717954 0.0824442393788414 0.24955824865971007 0.1542407351294287
0.011857014359197393 0.08855749967878682 0.26287063979127284 0.1299478924890037
0.018239701715707587 0.07431319708749712 0.2584376799315016 0.10340187557098798
0.016806656696057666 0.07523243823030973 0.29541073354594716 0.09628020185303146
0.01318053978957487 0.08405284680446129 0.28571540652986316 0.08812245198282873
0.01686843177099619 0.0762647055295454 0.2767755513535371 0.05644508619192881
0.02117332071391778 0.06827373162077086 0.24884943074511656 0.10493706557430284
0.02294948577144109 0.06460664792165108 0.27470705763715103 0.05498393753212634
0.026737990393298702 0.058825197466909014 0.28433228452770115 0.06362576656211477
0.0271052557728773 0.05966901889278271 0.25367671343621556 0.10881740939808028
0.023199468270910604 0.06340057066087243 0.2938908976781702 0.08509203986956582
0.03400097049600094 0.05068745288163428 0.23901252567418915 0.10374570012897465
0.034215231167306896 0.049187765481778375 0.264229505801497 0.06578243097948416
0.0483886924102848 0.03564745909321963 0.2440979059048316 0.12871369574190447
0.03820087395988459 0.04379850457939209 0.27495669708115067 0.033804701804946505
0.04753933747098546 0.03575148092307161 0.26150599353864146 0.09742319210940063
0.03454019941508011 0.04763315518195438 0.28894328653926044 0.07308552194664199
0.04298502905403215 0.03863317756207184 0.30194611271075145 0.11409589655095341
0.04382149166246348 0.038242996816373505 0.28637971662315376 0.11074640603677136
0.051332997945055144 0.031132040959223055 0.295327453680078 0.11629694562834765
0.052913743739677346 0.0299805754227307 0.2827053845958917 0.0812875819073594
0.06421493862669295 0.022565850923139442 0.26389787696645833 0.11035239444311941
0.0711021722584373 0.018904836334307486 0.25205995897133127 0.1389771300132292
0.07478928301329035 0.01717940944714554 0.2390947704599949 0.1381438723142029
0.06043998511190844 0.025203313339932303 0.25255817570150063 0.10416115119033939
0.07593889597619527 0.015645971631432408 0.26242301172452326 0.07851321578324273
0.065334971300297 0.02137317631743447 0.27912634018131643 0.10070839284871627
0.07534839353528701 0.015115312926651822 0.2987129850693656 0.10744551027492785
0.07075484959694112 0.017979565931320447 0.2884909498888551 0.10802693596358999
0.0832552484984988 0.011522522137422388 0.27341217688130903 0.05939282667969658
0.09318722415504473 0.008403219618344742 0.2652958594348206 0.08294449365852097
0.09639542412119706 0.006871977741005269 0.2831206577586105 0.1111123142644071
0.11205085761540126 0.0035733232536123358 0.25182377578580206 0.10751351225509878
0.12867610396122547 0.002336996846450443 0.23748980830031932 0.13434554622166195
0.12544608593441509 0.002181912559758318 0.2501153781352987 0.10633801162427292
0.11743228613673995 0.003434877434369135 0.23985445803288455 0.1282195233903018
0.08225622365859757 0.012535941193315707 0.25154960596489434 0.1415489119230825
0.10435395234995222 0.005597217058957542 0.23865145218107436 0.1268512756090445
0.1104396699577441 0.0033441248450879596 0.2633220898928793 0.07327187438996154
0.11393256928055173 0.002605227994847481 0.2787629666116971 0.03075454176251918
0.12653538451975488 0.0013847749856639455 0.27310604271230077 0.07289548613655951
0.12136614227436278 0.0016221097409572325 0.2894793506627894 0.13715202131410095
0.1327257076260093 0.0003653517874126804 0.2931946375247977 0.10972331360620786
0.1057145166142863 0.0036425468922982075 0.29162061290166613 0.07940776115994658
0.08621615272238048 0.010152854415717154 0.2919665164700222 0.14018354329383811
0.09455262909597836 0.007293848663418349 0.2986751865928309 0.11292796899763898
0.1381168547089754 0.001728710234061532 0.2443432656459241 0.13676348850596268
0.1472445602131589 0.0022045274666853965 0.2575382144428127 0.09520035877448893
0.1599318944385747 0.0040977056636331555 0.24328274237093772 0.1201566650539369
0.13681453298477558 0.0008019833448709105 0.2676063536053227 0.0854389977707505
0.1360740959980747 0.0004157721925979956 0.28042818316077267 0.056588196315595585
0.16008439552153003 0.0033449992314707813 0.265714602661996 0.06670073434540828
0.18352178358758792 0.010769126303459012 0.261630511367742 0.09790482720137943
0.17281830142370846 0.00746464619525045 0.2536948023345615 0.09562718305990946
0.18343063244301416 0.011226180891656482 0.24788540903516812 0.12924713490449605
0.1733226091905367 0.008069928127009598 0.24148541306483398 0.12379738889218839
0.17651938039665022 0.008152303024914341 0.2712101886164271 0.06526590894299919
0.15186383767456124 0.0019947593808678867 0.28719134542627706 0.15381390640153716
0.1536899062958986 0.0020276348752704685 0.30303964347229667 0.09240276520464244
0.1680277219589558 0.004828830274917619 0.296854867678516 0.16523505303784283
0.17732182524989612 0.007994964152731926 0.29168433656083126 0.11523608536399178
0.18837090264888917 0.011754298794177087 0.28591450810026675 0.05908964847546758
0.1873902796293528 0.01125363500465922 0.2998307019313252 0.1462533910789928
0.19734521423009088 0.017054879967390288 0.279354251277012 0.05753590056609833
0.20414076171596296 0.021529697490942665 0.2657876100635879 0.09277263638377761
0.1934084346429874 0.015373769587986322 0.2594453246746476 0.11787635821080708
0.20350575834910611 0.02217201970577104 0.2368641758424852 0.1331084313202849
0.1951429124841662 0.016903737212319976 0.2459057081105471 0.12862757099299138
0.2057149346862746 0.023089564447881555 0.24796247192387383 0.13022381420743145
0.21589299759442737 0.029363668062827003 0.27037162053724123 0.0781402265492217
0.21618219928298676 0.030144398989298514 0.2574547218907052 0.11225871166129563
0.23089398168555136 0.043037020211631874 0.27338125304897815 0.06997962458454658
0.22745619740072698 0.04126322245464876 0.23742577314365337 0.13559063318088896
0.2252737333207934 0.0384902079970903 0.25760721121688657 0.08900859214079189
0.2340732881550967 0.047392290408175025 0.25159760479809384 0.11048469358237507
0.23915691019055174 0.053925514044242215 0.26434830804285814 0.09628011482789814
0.24033935751714236 0.056389877978700924 0.24732864952896813 0.11278987242355479
0.24380049991059446 0.06179391368154561 0.2357873875948234 0.15174519516415802
0.24506059084676007 0.06201133426999547 0.27008364923396294 0.05975316152865281
0.24649543037202445 0.06341804089787455 0.2840800989618874 0.09997029759772383
0.24888779934689512 0.0661632040109989 0.2984036253133946 0.09706492510688934
0.2474325754498223 0.0660496163700329 0.2545975645642489 0.1232280161936812
0.23990466583429035 0.054353469944063204 0.2784879880646519 0.12574027331780196
0.2544717727297415 0.07942141258807338 0.2751545587520091 0.06290802329493125
0.2528259579973601 0.07475759966299775 0.2900752592788837 0.1364015499820127
0.25308878624108694 0.0771096005080049 0.26210451187461525 0.06689847127306679
0.25818009865389363 0.08650685943203137 0.2960318771618653 0.06998139701992509
0.25836213498217053 0.08908388246121354 0.2627229810364526 0.1019469243671568
0.2573347281362998 0.08783088156734839 0.24619624096606207 0.14279016213452325
0.26301736674890047 0.10789972492478068 0.26344688654328974 0.11649051160297133
0.26501337364057653 0.11533331417374221 0.2850089473204505 0.03921942962255577
0.26698476707871427 0.12672223227267698 0.2780769683243765 0.046886225507549784
0.2607755915038908 0.09344427644889715 0.2818236975693076 0.023741643322989264
0.26059545095295555 0.09645064401926452 0.25422854828897845 0.11423644391518879
0.26548474116060905 0.12313835827688188 0.24938747749442197 0.1329591476851508
0.26219492219395885 0.10597781765301742 0.2468522604359989 0.14189078050068774
0.2657155966026051 0.12181916011467592 0.26592644008318245 0.06625113889758766
0.2650052708232461 0.1228601357294226 0.2346058180037635 0.16861664731396456
0.26091444845925965 0.10084053032733041 0.23586762044588966 0.15278591961332302
0.26751571182888434 0.13892882993513808 0.25807240287897026 0.09356975664937255
0.26860914057456375 0.1569356195905657 0.2763421601570557 0.054104801616096904
0.26687533178515765 0.1326890230612181 0.24242304212630347 0.1595721564890484
0.2681247190026892 0.15758247593158028 0.2586675550190069 0.0959565950898308
0.2675716763178333 0.15319388464291717 0.24452821106701117 0.1507991263837893
0.2682182656442053 0.16838322845475348 0.25076289739585056 0.13271504300435502
0.2692647485182694 0.20133277363971258 0.2727113110518255 0.05357322256200646
0.2688196988151154 0.1773196128180013 0.26662046267910633 0.07056022140233427
0.26885389654447783 0.18893416050776873 0.26346492048893494 0.1174715227797072
0.26800684398241004 0.18457308512949128 0.23718514714876243 0.14736916786006163
0.2684088941812802 0.1852854060482399 0.24985350091978165 0.13507870625271154
0.2686653533390907 0.19803193761916996 0.25426357382171655 0.11554304136694032
0.2680825684966283 0.1964902904236574 0.23605241946703837 0.1839812914827469
0.26843216041487966 0.21002518340237278 0.24370123534439336 0.16007377868741227
0.2690386256279058 0.21061297844520713 0.2629476905365633 0.12454716054945875
0.26906941415338614 0.23993972522775991 0.2611548673622509 7.015892243889923e-05
0.2691752746641371 0.22441199488916963 0.26599218842153216 0.10573480007592406
0.26942436105810874 0.2121277152658144 0.275131026754857 0.0558136584489435
0.26942986627649335 0.2418453420140313 0.2740795470252789 1.862149924138244e-05
0.269263767945105 0.2550886931881572 0.26835035042454475 7.15355631602369e-05
0.2695050545881604 0.27663423966016515 0.27975309821853883 0.036426531039800834
0.2694875820020636 0.26447313653293253 0.27786325399549955 0.01365298753778754
0.26909773125978487 0.2701015101371479 0.2635714021944793 9.625622292744484e-05
0.2690181540392937 0.29124147622828295 0.2652875351088321 0.003260892962983803
0.26944269305520374 0.28917194257309126 0.28033389281414667 0.009043700765608662
0.2690490045806201 0.3107921742723828 0.27935463278846645 0.04394150125277552
0.26843138761115415 0.3150057984437057 0.2584817971035689 0.044465976318029184
0.2687996440567166 0.32383588272648295 0.2783424410821869 0.06926033758293886
0.26864753017999016 0.3023701963689277 0.2583975071666595 0.036102648840261695
0.2679905580856796 0.315600269616078 0.2469667449763903 0.05688308527787626
0.2681998137432358 0.2877123168716843 0.24003973100239084 0.028068864514037728
0.26803193544446313 0.2997434087599582 0.24087984500650633 0.038487601503436115
0.26871647786735897 0.2895771430169749 0.25358717802224745 0.008609993685728208
0.2693067673365871 0.306560426885642 0.2908342851490461 0.08997699396978148
0.2690946791253837 0.32088423011061173 0.29353168994424284 0.061695910543536334
0.2696259644770885 0.2977767537677014 0.30337675022638716 0.09720151490346837
0.268616530539278 0.25269858864032235 0.2475004535410074 0.02889011362622396
0.2684481511501156 0.27412018433150037 0.24437609865184184 0.025480522823224334
0.26974206446217075 0.28000047679290374 0.29480808920958373 0.08350156791020197
0.2697644402191934 0.2606080569782355 0.2922334185458306 0.05891467619254882
0.2698118654709513 0.2472961955884057 0.2920506245377732 0.05393226867385522
0.26815531034426254 0.2243988371731246 0.23438010119612476 0.12882713760919245
0.26830947932031535 0.2442348623598957 0.23818939954953236 0.03235965635608376
0.26863816502996773 0.23792441772426778 0.24814004653837102 0.07241738449214957
0.2691722333284941 0.17418252455328675 0.2802914615144794 0.029197785929818344
0.2695572649481538 0.19905676729195948 0.28695044968110833 0.05102856185228515
0.2692555021118231 0.18577019251652555 0.2784331813277856 0.028611638044813786
0.26948274998156135 0.18425947738581477 0.2906807458851179 0.051662754111420905
0.26968946673225824 0.2144063273475114 0.28867460092198705 0.07912036645309035
0.2698904277724094 0.22146042682781175 0.2989400526445138 0.08789942776947705
0.2697586504474284 0.2301949027487515 0.29143250698957635 0.057839972095938226
0.2695602565401298 0.225551580480801 0.27992020048721883 0.0051466306030792846
0.269384937078188 0.16861351097193036 0.2935779929792281 0.09559166794736004
0.2683141511307122 0.1410253907369521 0.28465008001507475 0.051649555855091366
0.2687980398242238 0.15261661981400979 0.28992621988314693 0.04733905517881081
0.2684959829479166 0.13727204237909824 0.2979143832507953 0.08578330749615759
0.2632293198472314 0.103675402981148 0.30123562045341984 0.07847991861248053
0.2669449506074754 0.12371752225104742 0.29873939116609965 0.08243752173929227
0.23379614539964277 0.045417833352051726 0.2859526513968726 0.0824604205774449
0.24062535399460394 0.054703347432819405 0.29420326418316656 0.1441766527619061
0.21722221972367123 0.02981803822960171 0.29517208269656 0.08202997114943099
0.22679903236271443 0.038639792614471126 0.2939316058082527 0.10396030333153967
0.20744254764137401 0.022823366929611073 0.2886987757291375 0.08629827360464706
0.20904249064091046 0.023537750811654504 0.3015663367661907 0.123411451426526
0.002402012116586008 0.3276172531980994 0.27134549601682895 0.07350311447746369
0.005913515944919016 0.3037232416287521 0.2282895245412353 0.040459436873468556
0.0031753389889350846 0.2904848840662094 0.23033979213977895 0.03406796267007625
0.004775452581286553 0.274625828078502 0.22908518441276632 0.03340379521823887
0.003855801041575444 0.31905388026115766 0.22978103733883717 0.07232473257951878
0.016624160919458435 0.33030297293240707 0.2838776842031201 0.06686622065764952
0.033671000741735756 0.33123001767186755 0.293709998975224 0.1340929627508866
0.009312130218014886 0.329872558466787 0.2572479556073845 0.05241055397359074
0.021793509647872848 0.3305949747416751 0.2943012090102998 0.08102448495070107
0.02645446814088409 0.33081360975987883 0.27316288454081306 0.047422352274716265
0.015419112063760279 0.33007509213157393 0.30532219185130066 0.08671882095101568
0.0016165975657500672 0.3269219349974384 0.2850541878941233 0.08043085909092469
0.002759266119802071 0.3285034280769868 0.2986001829529407 0.1113293751896274
0.0011558682771711391 0.3186531805484402 0.3062262273278721 0.12729186590880304
0.04488239179053866 0.41087367913134454 0.3008059926464837 0.07651630022614325
0.03332152575042647 0.32853741752268817 0.3089274233953241 0.10769147844142886
0.045222957785294504 0.4119418698212068 0.11096708604853031 0.05912247931382277
0.037002771210013344 0.26988053321964106 0.3093574032633678 0.037063294941342466
0.01674453911951552 0.27639400680344284 0.3098053669280025 0.0931287992564821
0.04762436818144789 0.2739018759596618 0.30921979844405045 0.03337358654518276
0.06671963068445566 0.27413569045350183 0.3090523999485305 0.06041627865310163
0.04514800009254129 0.41175766303847827 0.22155664767445793 0.06577317318158238
0.04580035669222024 0.41293956139506216 0.13926321974433445 0.061161866893478106
0.04581183860015257 0.4129519195450886 0.26433676897496755 0.06316247711851498
0.04683065993270502 0.4139660071318274 0.2409334627438503 0.08394915019250654
0.04826263198395783 0.4147468233018782 0.1727922037964828 0.0754312628120448
0.04891952215577966 0.41499612858722157 0.09010079275067405 0.08492091108773649
0.16084791292188835 0.41499857797316353 0.3068628814846112 0.07039140832843027
0.060282759611346465 0.41499816957898844 0.13355584437818657 0.06282766945727075
0.08802501949026569 0.4149982539501153 0.23099072997977133 2.858068181659363e-14
0.06220450487405825 0.4149981573675648 0.17197874064969232 0.05141117693328965
0.06681613240795223 0.4149982469424189 0.05564720810965394 0.05356420706478049
0.0643849871334269 0.4149981329486777 0.23410485048252033 0.05422419678230911
0.138882827748209 0.4149985334381611 0.19065907341017352 8.322482249418173e-14
0.12245134979612973 0.41499842815204047 0.22998013859154898 9.920578797751938e-14
0.15451592366308053 0.41499856854442285 0.2673831431412744 2.71695125059948e-14
0.12187978932974611 0.4149984574317669 0.17356144561635914 2.019691596198859e-14
0.1853570309948479 0.41499870552687196 0.29994371897175987 0.06566592628840577
0.12501970619416847 0.4149984085237443 0.2871342110606651 0.020912881925356817
0.07387819314707579 0.4149981635675507 0.26438065015158535 0.023589193893651658
0.08859136152099134 0.4149982183076082 0.2985247509404657 0.06668508974919056
0.11257777577216874 0.4149984351109627 0.13042078793661033 1.2983996599066683e-13
0.08704571955552398 0.41499822877886217 0.26648184337392217 8.018303442974687e-14
0.05596972835100982 0.4149981658510862 0.1019376244494296 0.07251169923590518
0.09681749874499135 0.41499830542924515 0.21847440348394948 1.3424160036020455e-13
0.0911236768017053 0.41499832277239135 0.13767772269093545 9.020369219925251e-16
0.1336989733651916 0.41499851448612746 0.17804257394762696 9.139822302590157e-15
0.16494444291648186 0.4149986145987168 0.2788571292232283 0.0003236881587200993
0.14357243665487737 0.41499849225957974 0.30438318755270494 0.07030681082467719
0.07080425551791729 0.4149981564114776 0.2497384137293681 0.03426463543146182
0.1334125206197801 0.41499849950562806 0.20178687940994555 8.906038212266886e-14
0.09897374122143099 0.4149982941325592 0.25736729165191713 6.786508932256722e-14
0.06222873207416014 0.4149981420310021 0.19909625133063577 0.04344588001279707
0.18783935326533358 0.41499872641022006 0.2852717156357901 0.029748798755304257
0.058557102030704036 0.4149980693488658 0.29411104359301105 0.08150877513503675
0.13897752144402417 0.4149984956723285 0.25774509884227115 1.5140915658433576e-15
0.0992581101074744 0.4149983521222099 0.15815853375118683 8.22744757000078e-14
0.0854362463256578 0.4149982473131454 0.2197301700774449 3.167826499811121e-14
0.1616913190998968 0.41499859183330057 0.2900113001970471 0.0389123324900746
0.08759422670896788 0.41499827469139106 0.19079544108673546 1.4941022581342002e-13
0.1974228370268998 0.4149987699426184 0.2936934929520853 0.048055549304524735
0.09359384870368814 0.41499831174887525 0.17886877319059338 1.175289792675661e-13
0.08573536572319071 0.41499830753130984 0.1167426851089024 -1.58448619753619e-14
0.11170474469734415 0.41499834498452226 0.2807954963000786 0.00187748973270484
0.0867889567417353 0.4149983334843378 0.08053745189750683 1.7247639909921316e-10
0.10714048247581844 0.41499834416242154 0.2418573064581543 2.8394721614923353e-14
0.12555293711468996 0.4149984206221621 0.2706288722350981 -3.3821397697804275e-15
0.16581074662360173 0.41499862753016636 0.26383721366290797 2.349679866210184e-14
0.07152318893072336 0.41499813756184545 0.2891646072327119 0.06200562604376649
0.04900485162262771 0.41499816040890647 0.04986552560064676 0.06726015065513254
0.07960159089759994 0.41499824210148406 0.17725283640595135 0.006353126078913729
0.1775794456215343 0.41499869367741954 0.25192108010301995 8.735199497704609e-14
0.1538353625826544 0.41499857814736085 0.2445168459966817 6.365061912273973e-15
0.1217354638006301 0.4149984684338692 0.15298486379300766 1.014444382944119e-13
0.08925504947274052 0.41499829661507714 0.16703063596307693 4.538012259014426e-14
0.11354423835919633 0.41499840619324974 0.18969816532287692 6.158297644832235e-14
0.13453444657415778 0.41499848655752913 0.2344259902064073 2.854221989368535e-14
0.05518517238495291 0.4149982037654743 0.02848775149709876 0.07742864384894858
0.08039236830100854 0.4149982708535873 0.13381237858288342 0.008158788748716289
0.16812970872466262 0.41499865388145857 0.23812816636238618 6.857723241389345e-14
0.06535754248565682 0.4149981126363599 0.2783406743596685 0.045163230408596475
0.07525801307280683 0.4149982659814378 0.09693507689824725 0.033058563314761646
0.11041579791247697 0.4149984050674686 0.16399549029830296 2.8778823453180694e-14
0.05006810004842278 0.41499812471064723 0.12189350726578647 0.08078732295052568
0.06099681596553927 0.4149982093008081 0.07019371654245157 0.07475003652108397
0.08375339799138261 0.41499832494774 0.06865645177022724 1.741023682790656e-14
0.09885998897547615 0.4149982832973555 0.27536787254992695 4.545660786644965e-06
0.07611870120629086 0.4149982069873038 0.2080362738009396 0.016217229804457
0.08942164832006652 0.4149983393814979 0.093484324181324 1.0511334171142324e-13
0.12447938124173023 0.41499846074654145 0.1907454655733321 6.878664300548291e-14
0.0699640416817551 0.4149981680058705 0.22196627805905597 0.040677826083574696
0.11473449493802396 0.4149983524463887 0.2945103858691811 0.05179937045834975
0.1488612670092194 0.41499852771200135 0.28898367960846494 0.033881024588367725
0.10180059320957119 0.41499834010824826 0.20172675073672058 -5.032931839033831e-14
0.14574564361294406 0.4149985465508517 0.22837273672345182 8.709571049659131e-14
0.05395483088457977 0.4149980563613936 0.27617690114112936 0.04945929640334169
0.05818870198333424 0.41499809067082 0.2534491293971242 0.03731841223448381
0.12326443405338512 0.41499842478102766 0.2430869253478184 3.490803734561288e-14
0.17737736830638692 0.41499867573354776 0.2816101640010465 0.018279210757336847
0.06984494189843003 0.4149981882550245 0.18539182902249507 0.05112268997450406
0.061849754708088255 0.4149982018340862 0.09083773065781647 0.037722334854596216
0.13401872780654941 0.4149984954638344 0.2142400858567278 2.8577478836810455e-14
0.14188065283219167 0.41499851695794776 0.24609036127574657 -3.490417803114413e-14
0.0502037461108109 0.4149981061966441 0.15557056639822656 0.07944905648953964
0.1796342022282821 0.4149986949713766 0.2678297970304991 7.041295826153879e-14
0.05623815320785758 0.41499821564584505 0.016963166656600744 0.08228958447053522
0.10387815890487313 0.4149983358943008 0.22749914563749637 9.985066233452271e-14
0.10897287428403916 0.41499833969307115 0.2659086569921133 -3.2188181245407855e-14
0.08649228819373365 0.41499829135185307 0.1518209880868827 7.842103690403443e-14
0.1045296823005584 0.414998405637369 0.11092095517887719 1.1931600075494484e-13
0.10926697635008328 0.41499839200669064 0.17674281915233017 1.0714518413450908e-13
0.10492746053488325 0.4149983908776802 0.14033135114885467 -1.454059464988118e-14
0.10942220749401914 0.41499840740664606 0.15110178475668168 1.2328368778307272e-14
0.07633833111635559 0.4149981932203384 0.23412915982038898 0.01848707201206036
0.09529998240631639 0.4149983632022808 0.10370424001288493 1.1572987857307628e-13
0.11787411322908378 0.41499845504076793 0.1423172395442795 4.8345064380886635e-14
0.12916753470174608 0.41499842037069845 0.30304855163186534 0.06098212322523314
0.14291034662657884 0.4149985054150248 0.27544854970942856 -5.703241807509513e-14
0.06085585741833327 0.4149982236561485 0.04376472200430788 0.07887171479985666
0.11349263670388587 0.41499839822104234 0.20322637046123215 8.915059715624061e-14
0.1489735808080216 0.4149985723050559 0.21175285071253822 9.163078425300787e-14
0.05448669751909703 0.41499811003359216 0.18673138162502298 0.07207015356038828
0.06740529248581478 0.4149982127842495 0.12077929840262533 0.03970756567223034
0.20508072181333856 0.4149987993478921 0.30986097156113535 0.11153249122647697
0.05007162956544037 0.4149981530306498 0.0722462038128091 0.07089622757463082
0.10348608724254513 0.41499829866065086 0.28934518113815566 0.044102401419290935
0.06914910021080162 0.4149982292516201 0.10732005405515743 0.04125234142434186
0.06511110245000573 0.4149981843709761 0.15032460257954727 0.07422253532063999
0.055801435389717 0.41499809719891806 0.22087734316198215 0.047248217103119564
0.11393367411814354 0.414998394081461 0.21438984786555948 8.600551208532227e-14
0.07530193487539022 0.4149982776213109 0.07690516261749636 0.02991050239317933
0.074942658089763 0.41499814373864397 0.30858161116549016 0.06961131423274539
0.07825841432232139 0.41499817753904944 0.2786241381441353 0.016389390672952482
0.08379758459160747 0.41499822553389076 0.24343767571282893 4.90536113569482e-05
0.164666377231037 0.4149986447930201 0.22343066529587607 1.1141197816328506e-13
0.17187433910577013 0.41499868059859546 0.15631327489133742 -9.239141039437864e-15
0.11683946276407348 0.41499846031097054 0.02187305972318809 1.1148749450297519e-13
0.13451727984748568 0.41499853106981655 0.12000746777223768 -5.273590305125642e-14
0.19791644845119444 0.41499878483712194 0.06711458405587417 0.037879110691252015
0.17815934686276713 0.41499870575554176 0.10654973516934751 7.093537049927111e-14
0.15173509844913569 0.41499859998743055 0.12090476440232706 5.958496153760249e-14
0.1518530100389669 0.41499860045939424 0.1840527944148413 8.688730262715043e-14
0.19030593662649703 0.4149987543745918 0.10226021506587142 0.006005786172297565
0.19860764615642812 0.414998787603773 0.17824070354336133 0.04094860668755335
0.15195059390922805 0.41499860084999235 0.09631189413434871 2.5184830478368545e-14
0.1606066020820947 0.41499863549732163 0.19245265647507181 4.690946070533971e-14
0.18835141485070545 0.4149987465512444 0.02490384965114313 0.003677832631550333
0.17654675477633083 0.41499869930083333 0.06456893450009685 7.26338560422389e-15
0.09095046502098766 0.4149983566853026 0.019520965339523473 -3.34790467351122e-14
0.14638983615678147 0.4149985785919953 0.16426452885727666 2.027493426279182e-14
0.12941409672732082 0.41499851064334947 0.054270867589425356 -2.7403765383653773e-14
0.11037917447314496 0.41499843445243034 0.10082771805924022 5.4548938911217814e-14
0.16072205285712676 0.4149986359594355 0.04747961980648293 5.903021104390349e-14
0.19041945410416744 0.4149987548289673 0.23117534747508092 0.01916498333717287
0.19516417867362393 0.4149987738206354 0.14420510483472593 0.020512510734971616
0.1427180903441542 0.41499856389513 0.043308792043569515 8.479538689205889e-14
0.1530398683900207 0.41499860521002196 0.10933008247070825 5.5570647981990344e-14
0.13689043977857637 0.41499854056884333 0.1540433917971652 4.559664529813636e-14
0.16538174569271882 0.4149986546107478 0.21195000159561028 6.399816069530052e-14
0.16504864009465464 0.41499865327742885 0.10107777224342859 5.979101565387184e-14
0.1766024970897228 0.41499869952395263 0.18417664862125763 1.5452667690813316e-14
0.2168635889220495 0.4149988606766777 0.09865999170591472 0.08489006480215525
0.16413015437924433 0.41499864960101407 0.1704965383213635 5.4442820613036605e-14
0.15833630640269775 0.4149986264100287 0.15780318407117652 -5.748549837606266e-14
0.1522324862901051 0.4149986019783206 0.023553951713045074 2.0630278303472673e-14
0.122453013155492 0.41499848278028034 0.07369093245903979 7.022215343070725e-14
0.12960694170890186 0.41499851141524846 0.020186348029474978 -4.41447334304937e-15
0.1875033624189516 0.4149987431567523 0.1538440702782893 0.0022372004037045554
0.20123490565461177 0.41499879811988194 0.11000699277025791 0.05118440781912186
0.1412899381228021 0.4149985581786774 0.05754118296335002 7.28449550578515e-14
0.16975510624828957 0.4149986721159603 0.039132492985766605 3.3233276269455187e-14
0.11401103180702814 0.41499844898963445 0.08650311231760544 -2.633927217575241e-15
0.16744529502663147 0.4149986628704989 0.13990016411162537 -3.0430958127401567e-14
0.06098724303176718 0.4149982367517724 0.003491076592413632 0.07674084396212869
0.17816275043765428 0.41499870576916525 0.16843407499056504 6.992181929924401e-14
0.10901555744783425 0.4149984289942923 0.03715025625334932 -6.319551210447614e-14
0.09836349584249117 0.4149983863573772 0.0010874914952881147 1.5786656652723716e-13
0.18178695762906913 0.41499872027574813 0.23974380903677625 3.8601232192339094e-14
0.21402519202842696 0.4149988493154509 0.15825323126807678 0.06610321739355403
0.20582713147337134 0.4149988165011447 0.09385702545721865 0.06486716936037343
0.1657716016671354 0.4149986561712209 0.11564883532588707 -9.358487004383714e-15
0.12127315532507982 0.41499847805767354 0.0957447484345825 -3.8691261302583167e-14
0.19683678545771469 0.41499878051556416 0.1930978862200576 0.03019964992530932
0.20374903342628442 0.4149988081831595 0.12374799845206241 0.03883180179670381
0.1297625372929284 0.41499851203804955 0.000993876205243622 3.6630627015505476e-14
0.1654512754030683 0.4149986548890538 0.0757079148139877 2.934135156177571e-14
0.17820266739681898 0.4149987059289405 0.077959672451427 5.411585719304975e-14
0.13966742830279325 0.41499855168427136 0.026337646687400643 5.5042483980753207e-14
0.19061095381154416 0.4149987555954815 0.0018695958425942083 0.013184067274741728
0.21606532531967707 0.4149988574814748 0.29188213841261745 0.08559470019733802
0.21372698775984947 0.4149988481218312 0.050804039483159404 0.07655080265807712
0.14969883180943283 0.4149985918368837 0.13289689738398872 -2.4224837189589617e-14
0.19437140721367768 0.4149987706474159 0.24639574248992205 0.01754079596104165
0.17200515061738889 0.41499868112219357 0.001601650006633012 1.1329745524860485e-14
0.09551456593688995 0.41499837495398995 0.05476111620231574 -4.3736755014988605e-14
0.18589118699157497 0.41499873670371157 0.11719006370574794 4.302882905507787e-08
0.19243135598796396 0.4149987628819896 0.08633211042724784 0.003405285472723163
0.21444290606752203 0.4149988509874313 0.24799427570952592 0.07778335166416245
0.19524316789931337 0.41499877413680486 0.205999932560675 0.028237291638187726
0.1175379261732721 0.414998463106704 0.009129135533250341 -2.57541028835528e-14
0.15142759788718038 0.4149985987566007 0.07574631273658901 -2.7888343622429086e-14
0.1914916552169559 0.4149987591206574 0.16954288147286153 0.017104819152522478
0.18059956273806455 0.4149987155229728 0.00898696757335201 -2.2904219829182584e-14
0.20975790297149294 0.4149988322348098 0.21001943934478576 0.042051046280472314
0.2023171967181458 0.4149988024519591 0.16233496810398174 0.04876305211939032
0.21413097454141927 0.4149988497388656 0.1436333203517733 0.059925507742338006
0.21219393220610083 0.414998841985483 0.2276326008173325 0.06420578225444458
0.2041818537791628 0.4149988099156058 0.23910571124802957 0.03779640832848655
0.11470903559758952 0.4149984517835281 0.058681092916563087 9.308391809883929e-14
0.18873905983623201 0.41499874810286763 0.13007810832919064 0.0015142195968055256
0.16444772535018556 0.4149986508721526 0.06254626546835541 1.8501438303938584e-14
0.17561643534275323 0.41499869557705177 0.12316805944133886 3.523736252638374e-14
0.10135352740459645 0.41499839832555074 0.06559275821179711 8.183356681096422e-16
0.21262838027134587 0.41499884372444446 0.02707658556789876 0.06999332675671263
0.2129727499162214 0.4149988451028499 0.06468981798601334 0.0675521920338035
0.10008738796598388 0.41499839325758536 0.0852163055754214 1.3704104045627958e-13
0.21059138474247688 0.4149988355709801 0.03958099349821639 0.08557025510404309
0.1363035525308345 0.4149985382197149 0.0982305929695647 1.8916835916541875e-14
0.19320707515147062 0.414998765986954 0.013377240548225061 0.010020376499116345
0.13607297053819312 0.4149985372967663 0.08226189826552238 2.8050451387659573e-14
0.08162252714194686 0.4149983193484461 0.005787856906161466 0.004046174914282462
0.1980661512260475 0.41499878543633595 0.21917601732695324 0.036114428489461406
0.21265628663286146 0.41499884383614505 0.17531086960254796 0.0768750855968973
0.2161402111566982 0.4149988577812197 0.1099040567703859 0.05752685707283228
0.13128006719844504 0.4149985181122534 0.14329472581118696 1.797828938008235e-14
0.1462102650574984 0.4149985778732276 0.013623474760951406 -9.21664073802371e-14
0.1476801642123853 0.4149985837567802 0.1516526815351254 -8.145648280884052e-14
0.1030369853431966 0.4149984050639133 0.013858761754624992 1.5406655025496416e-13
0.06949904714296372 0.41499827082189733 0.02118666809182338 0.056187638472368684
0.18133358194148894 0.4149987184610252 0.09417314389684317 4.4889568215816e-14
0.2008959175695022 0.4149987967630172 0.05090367796111573 0.05521436191889038
0.09645992391121663 0.41499837873796624 0.03641974069724893 -1.6437957898934986e-14
0.1213871464437915 0.4149984785139448 0.03529333427049577 7.701331279886077e-16
0.08015706297463976 0.4149983134826454 0.0525538571767078 0.007852521664347096
0.2034981212457506 0.4149988071788354 0.07889451081974605 0.04213034439423929
0.20041485761259092 0.4149987948374827 0.2637786500819025 0.041933085305937846
0.16642194847663805 0.4149986587743585 0.01594911777560571 -2.92318389666489e-14
0.21500514074771268 0.41499885323788316 0.08505858810643428 0.07454001393385178
0.1843189278376961 0.41499873041044344 0.0480157596300879 9.35525769754407e-16
0.1754084591647371 0.41499869474458734 0.2294254387902306 3.464625077208673e-14
0.22012561403449557 0.4149988737335574 0.010180707035415628 0.07982262460432997
0.18397407404529822 0.4149987290301001 0.035445107279605904 4.0822456010838184e-05
0.18102468758316828 0.41499871722461634 0.21152942261815533 8.819494876892421e-14
0.21980676674010052 0.4149988724573101 0.30292985172542486 0.10090195731260752
0.1141093499245856 0.4149984493831715 0.11762724073619966 1.171935556164737e-13
0.20485282991615283 0.41499881260131616 0.2758854992386135 0.041149238020460686
0.15684184504577525 0.41499862042816116 0.009464152261039012 6.155913507427929e-15
0.056588360306766464 0.26223210877993686 0.30887872097937086 0.06736149427669319
0.11659909244910073 0.27076352665401016 0.30811245560943096 0.08215069549429656
0.10252267084368218 0.27190161094650317 0.3087001019620668 0.07252361306528896
0.04498885778182596 0.3885165770326236 0.31343239289681635 0.08095265239060224
0.04532572695473314 0.37701808324533725 0.31389887260086075 0.07529054108464756
0.10539022402289583 0.41471467053604716 0.3138323476322212 0.06359453539825759
0.18067165488954584 0.32570602355374934 0.3113257685541572 0.017277478082119317
0.04773513015110153 0.32618695661278163 0.3130607108487142 0.06613009950229284
0.03447689187990853 0.3091823598244038 0.30970537241192947 0.0600238144229177
0.021107536926909098 0.31440002728530836 0.30986675186525187 0.09707527441317926
0.09038635864915455 0.28042814221646767 0.3090293936400707 0.06816563960507377
0.10680363920221121 0.2849294872830661 0.3090530123781451 0.04815892897380965
0.06987449916062305 0.29762983426459544 0.3093797607767248 0.017725307491811216
0.08948230278877702 0.2952336492086981 0.3093218347880676 0.027452259282798763
0.06039170994464988 0.32137299849375 0.30997148718859824 0.05134454212495655
0.06343247747525936 0.30788128041568846 0.3096422928350624 0.020032744285431815
0.09607278004791035 0.3245455781702605 0.3100317529137224 0.013131922411812512
0.1286327828606764 0.29233053549970084 0.30923379712868815 0.030886469506668648
0.07718499816187627 0.3090237719278662 0.3096635699103003 0.01780210634902781
0.12024289209859602 0.3244863883235643 0.3100189296538417 0.015392643621641892
0.1092976457735418 0.32423477999705974 0.31001797294571987 0.013871267930408217
0.10769561792586177 0.3057119251266228 0.30956874130521217 0.01985789702694624
0.14488295734391157 0.2875486484986315 0.30910997337911245 0.04893612896261595
0.12141832253966929 0.3098635686580961 0.309663135471187 0.019182331006026326
0.03309674720776393 0.29037963856604315 0.30961077456644837 0.03548607962706619
0.15313649056556064 0.4142163141384311 0.3148907254724244 0.08027203903523014
0.18392307794459511 0.41303495267175977 0.3160011898219282 0.08288304526040886
0.1697504779941687 0.4125444117776448 0.3162039720344277 0.0895284953273371
0.046562860079843185 0.3383157986564506 0.31449239404495904 0.08416805015735561
0.08261985126621686 0.4112275737273313 0.31659683219901125 0.07625335092005513
0.16909846511494805 0.36991293947053927 0.3158444611466029 1.2627293035965216e-11
0.11992406572144165 0.40875263574183524 0.3165514177154296 0.0753772894516491
0.19434273716053954 0.38048840945456586 0.3160365411965324 0.02207769017104784
