x y z curv
0.038626462962074476 0.290612830416925 0.4093643902856307 0.25261916097046333
0.05441273751634636 0.2914587079126082 0.4094151958324964 0.2615467462811993
0.35558728294416553 0.2967077041961188 0.4093637349547522 0.28906612621253713
0.34550638192131605 0.3052215023992647 0.4093644376070264 0.29196809812634994
0.32200181121866067 0.28838733857981885 0.40942181157068713 0.25213883392030956
0.31286743405016515 0.4461063319215473 0.42840968999957363 0.20344028016068103
0.06338174286924232 0.435088495043348 0.42130009704895394 0.2589555962421472
0.06028117102456021 0.44836656713042256 0.42694352231639093 0.22209392033187952
0.1782839308691115 0.4493096750626693 0.43250448679544184 0.20797854834625204
0.12433203111563373 0.4499592922229341 0.43306546187077866 0.20758503775588102
0.2880536571915592 0.4498464300695831 0.4329590926607968 0.1988769475349662
0.30954063430142126 0.43526436832800663 0.4197817601519077 0.26096599838036516
0.31992950548078325 0.43681001271289777 0.42474622101067483 0.2661514548157684
0.31338966011427993 0.44358849172206394 0.4130968563259616 0.2592823012478
0.009876713359456318 0.34863722858252155 0.405567580829141 0.21113784927395038
0.011137099579477016 0.33175702227072423 0.40697640762527953 0.21255648202375116
0.3278145511653244 0.08302716630811416 0.40792870324365776 0.18651060807106604
0.3042875211160266 0.09899838837602765 0.4079996628160574 0.25252806290390983
0.05548427387381473 0.09197770550423963 0.4083463979556332 0.29749160497940186
0.06865151645854334 0.09605556468065288 0.40847124714777083 0.2514258315076119
0.33163408443319986 0.4459220039770601 0.42840675373138165 0.21855598948389032
0.3413530051761198 0.4390294930636256 0.4274737302536565 0.23674328986563598
0.3452520773657969 0.45773097042576516 0.4194786831245162 0.1724800191283144
0.33522392694499425 0.45447042124250375 0.41166529664032625 0.20801056760727107
0.3567931750357727 0.4547961467802475 0.4182954528638248 0.21738368649949547
0.33045262567323797 0.4578989044038302 0.4219163833108372 0.1650983710787162
0.350648921382193 0.45629818000485123 0.4296492908264371 0.17945863133479167
0.20462990463349395 0.4532928324369012 0.4416678444333145 0.07040494832360086
0.1730243177269402 0.45331675207008504 0.4414426116073002 0.067421434047449
0.25268126995241724 0.45413466936438485 0.4390530418205821 0.14030414194662214
0.11300631322202612 0.4539617489238447 0.4393433670581221 0.16681346921258774
0.2157169023855585 0.4540718034363818 0.4391813733409087 0.1558359542043032
0.15559011911932594 0.45397707756014927 0.43936743802577394 0.1262866023535939
0.059352479690421844 0.4539271704266677 0.43956550854415927 0.1318184179758083
0.07042663573293104 0.4535450481441684 0.44095476191021776 0.12120496930283595
0.02871835503433481 0.4544130979991556 0.43770806474954893 0.1733165251273276
0.04951350529130324 0.4554398201478828 0.4327242476363171 0.1478072206778076
0.36496771550684176 0.4552392957498419 0.43239029929107653 0.1554319886874657
0.0024309338649598964 0.4518849816073637 0.42539079313708367 0.18619808379183028
0.0002810452926868545 0.45204938271054956 0.40959588906661015 0.15582316250419723
0.0005351212380514689 0.4115700471290718 0.40943770459000667 0.13310607892551385
0.0006754471618126376 0.3812733730815556 0.4056510591993816 0.15345381770853997
0.0012230403522288566 0.40723669538590623 0.42207564164805417 0.14026927200459752
0.0006813163477243957 0.3933059458138599 0.4083706071527583 0.12435333780740575
0.001091627653801241 0.3586825961014175 0.4089756973584425 0.11917599922957446
0.0008794478375720641 0.4230227642432435 0.41871101128540134 0.12282231978412828
0.002420948478502824 0.35464079672507914 0.432563542637127 0.1342749057246191
0.0025294413693093044 0.32957721354573294 0.42886126226808513 0.1560235259438115
0.0018524814375897834 0.3526726634174965 0.4216781369344409 0.1680256331808902
0.002048932104467603 0.40622303546655636 0.437452008651516 0.1449260543053982
0.0029725886425202596 0.3189744842189335 0.4345894387740814 0.15045892641726166
0.0022697808322893216 0.39399962559748386 0.43873009982708555 0.11384908660775564
0.0018343873988194504 0.37584311343639104 0.4266102105363515 0.13928338156439982
0.004498771061266411 0.22834586932096834 0.4380510320236701 0.12561957141943766
0.004310271369196557 0.2485778930047329 0.44026501175363336 0.12300676551186394
0.003163527400108491 0.27014343090792203 0.4243441571999852 0.14485981719459637
0.0029879919331147263 0.2842072898350008 0.4250229882185309 0.16374055266843857
0.00369851823663971 0.275686448699155 0.43628916852976185 0.1407353231247668
0.0023608574267117055 0.3189558449945693 0.4229616801286019 0.1305871768090232
0.002406446471619307 0.2959447876145528 0.41718098411472376 0.15727300476067513
0.003461042157006744 0.3072440027179015 0.4408353439651637 0.14128698520647287
0.003913278147677569 0.2585301344318238 0.43547318118173844 0.14032070169254013
0.0036909669141502468 0.18584702803530204 0.4094459369384931 0.12280865787409012
0.003103329716083015 0.24007180267605246 0.41415779293452193 0.15656844316970162
0.003160247934851688 0.2129323386668483 0.40710889221182217 0.15520780618897412
0.00121020646847653 0.339285119299449 0.40660372400170436 0.0882177899905594
0.0032871443353656117 0.256739598567727 0.4228132025988993 0.1394663338286668
0.004658043198412965 0.19592028552163343 0.4316044226199356 0.14229540593588366
0.003956865508685551 0.19425965395418893 0.417238114875764 0.1530263746295604
0.0021266421842139915 0.27842335098871446 0.4063949325331425 0.1530294260642268
0.0033467147625517234 0.1999959559566892 0.4068998859152483 0.12007053813665367
0.004451262555557365 0.181737399835217 0.42324331114540215 0.14314549609499824
0.0034475364141932736 0.22516115026987665 0.4164735114647957 0.13647663967707646
0.00468458134334037 0.16627707503840647 0.4104443822019498 0.143687542962375
0.005036200618798873 0.16963146882095864 0.4228998792233233 0.1493263137251189
0.006690166582212478 0.15894809151325057 0.43132582464251307 0.15075427835377955
0.006884363205591345 0.15284375717549376 0.4180995222672425 0.12318742966626736
0.00906800762847549 0.14674541440328392 0.4400791963989398 0.10507248742224305
0.011655630528969067 0.13562612972238516 0.4353011091588018 0.14170706215110904
0.007454345460441821 0.14647563199599362 0.4080048875774922 0.12055985895591831
0.00825402693290651 0.147671181989839 0.4290669126713018 0.16706501120331396
0.01166869591320807 0.13037891894586043 0.4109903295475881 0.13585068608024703
0.015357857858296617 0.12084497134585206 0.41795226354168236 0.13125623329676084
0.017671065472963286 0.11656845180217781 0.42957639826868577 0.14690950809672454
0.01892889681622244 0.11060538011427568 0.4084129116723608 0.13117029369667346
0.02236869716315211 0.10425424023008932 0.4189000866108237 0.15454572049946694
0.02137368331836811 0.10865893257372461 0.4388916589521187 0.13021183246738402
0.0275719114654109 0.09329769926226347 0.40805720618073654 0.15000064745109135
0.03155413837432274 0.08828044746230762 0.42675741137949175 0.1514223384161315
0.032946947536590686 0.08470984380383971 0.4144617482036518 0.162523928738032
0.04120608462011437 0.07501347497810724 0.4374780401355456 0.16549860442880152
0.038432170210987444 0.07783290618103304 0.4249797265640376 0.1776782107369777
0.04493380732435064 0.0682281779165913 0.4137498921341413 0.14582501154066382
0.05679032250331774 0.056272192475943505 0.4322924856102247 0.14829539365899938
0.05800999462052593 0.053607941357007576 0.4111862492780379 0.12229649774609634
0.07365322270077329 0.04107049917861637 0.4311408608731943 0.11155336101123935
0.06509270822755864 0.04745406019152113 0.4204713495007674 0.14922884443025433
0.07055653059175132 0.041914211416781755 0.405497017577805 0.10280001655271201
0.08617806888702459 0.03145331861875572 0.4236637906611267 0.1378976707126024
0.09376443950052266 0.02615861763887077 0.41593400036527384 0.14719511307768
0.09335548403603008 0.028169164005140752 0.44184624805344114 0.1344064962823302
0.10350595982288188 0.021169041130601154 0.42418356752308606 0.14778884144736987
0.11337590342147881 0.01643560205202625 0.4199018959094306 0.14579683907610563
0.10704517623985953 0.018537372777852477 0.4084200733267357 0.11492982821374718
0.13186926582502026 0.00867111200091035 0.4059239982410039 0.13285521702450503
0.12732880435584978 0.010727440204451088 0.4172961183681478 0.12949395250689955
0.1272745972828055 0.0119646115581454 0.44058352772936055 0.1178719347977961
0.15080364042436187 0.004003169008907861 0.41199968176491575 0.12078657218450718
0.15806893284134288 0.0036617906948436148 0.42745272878045537 0.13320125166680938
0.15005332132000046 0.005643575412387758 0.43762882981125195 0.14998141819094918
0.1680739753879862 0.0023497512629462192 0.43247659815042666 0.1441329123705553
0.1704744729126928 0.0009695984608159705 0.410078300765616 0.12797070465091895
0.17586471055575892 0.0013215695491980242 0.42256044761041406 0.16131228093647182
0.18994001759896784 0.0019499164838678654 0.43979821865123364 0.1157588805019325
0.18905351703750672 0.0008592528185378993 0.42084940840139284 0.12576848994732967
0.19201585233311755 0.0002448846057547504 0.405774499006881 0.1062606063050553
0.2033270279976405 0.002619465667435829 0.43923907861704914 0.1047632759409412
0.20529447217014585 0.001839609134513988 0.4221990844430493 0.10799697964542283
0.20937519268443333 0.0016510375521282044 0.4076578232266943 0.0859083228313362
0.22309279955775746 0.003852241342649518 0.40848458674753313 0.07602827294065002
0.2263193916943479 0.005210409521477853 0.4210574627103634 0.1285365745687055
0.2358733649767969 0.00855598399406013 0.4383344431646724 0.14166800058092077
0.24423554555141644 0.009445162568760908 0.4067987503084542 0.1092496935046754
0.2570120506593216 0.016067999847582903 0.44158903617564194 0.12601671600287123
0.25035031991091206 0.013043100867017616 0.4331152864807396 0.13546838474151643
0.2657093713234798 0.018781730318401663 0.4227015449358428 0.14248492408180605
0.2659251493670994 0.018188937823367377 0.409558585235178 0.12426072195241525
0.27696683317990206 0.02452278895423851 0.4173757359497696 0.15093689374323443
0.27804417018321914 0.02619837380402615 0.434567170431182 0.11816621334963456
0.2824659217069442 0.026884581939888467 0.40605104646381834 0.14311018251987728
0.28844427450415344 0.03151999042572527 0.4170686606255539 0.11941846784452881
0.288281372437511 0.0325315874868539 0.43638060457553207 0.13457312493883952
0.2975437153534008 0.03720912444656334 0.4060483902438319 0.11852274177869493
0.3040404247697041 0.04384316564761811 0.42706443914628117 0.15296478255481546
0.31087939131050135 0.0489144056278508 0.4145157129737904 0.11194303330888646
0.3177728740162748 0.05518293808447303 0.40667323149296786 0.11677886371165727
0.32428523672077364 0.06483597430178957 0.4417109969218649 0.13334139567979938
0.321491389540223 0.05975038127899524 0.41679940094575396 0.12179951553668263
0.31895361846841996 0.05806453661856792 0.42798152943174234 0.13335982995770626
0.33308655019083866 0.0751081404747661 0.43222224200411385 0.15447905364750347
0.3403625559527619 0.08450092107282015 0.42178011636242874 0.13830761356518206
0.3404241019397445 0.08656131051241228 0.4396164799627665 0.12300478331784825
0.34623801644335 0.0955121034463908 0.4318666648164165 0.15064838135448186
0.3673588638715014 0.4573115416795034 0.4198376147761213 0.19673389421406512
0.372295335445646 0.4454931810221677 0.43061572785236935 0.1640937089978898
0.3732939589390745 0.43119881767161305 0.40929544717306215 0.12144495355474381
0.3725802593786449 0.35707485433571945 0.4089901857148387 0.13067437892593797
0.37227959558942025 0.39651505453182084 0.42236211792170086 0.14116245000405098
0.37280206334440025 0.40949235840441284 0.41469818831404565 0.13175223653274684
0.37252146398726593 0.38445283564993515 0.41536206368569495 0.1496082156976062
0.3723363204238646 0.43186541398364753 0.4280143713200228 0.1720865194627464
0.3732539608768416 0.4189732493458358 0.40773633546005617 0.12426353906353137
0.37134718697859714 0.38507473394945424 0.43730687411943686 0.16131151114978629
0.3722187484757482 0.3665829915275146 0.417579670938299 0.17757585196593464
0.3717705757834839 0.3748212231938599 0.42746870049181934 0.16705061079163386
0.3719644890406834 0.3529886273631555 0.4195227669060923 0.12885933072763367
0.37113459412880967 0.37396636949978007 0.43898338502833206 0.15160637335954835
0.3709499838611059 0.36099584536085827 0.4397718950456439 0.14663597593208716
0.37116401240422725 0.351219766935446 0.4338765993321229 0.11740911718091464
0.37046805064273725 0.285687200393095 0.431487234170046 0.13583257706440213
0.37024995533935157 0.25975827336121454 0.4288284969283257 0.1592463017294758
0.36982494817860023 0.2732244967703866 0.440535154446229 0.12633453922942808
0.3694195998366342 0.23566575012454016 0.43839948292700653 0.16172573605625323
0.3717773613766788 0.33419067845667566 0.4191702741942405 0.14288675690521874
0.3708669163430355 0.3204886034497453 0.4330196155944037 0.1439393930725135
0.36963918710603194 0.18724805097986416 0.4208469343430632 0.1269217685986579
0.3707734443611663 0.24923461654543622 0.4156926525680001 0.1370118808818256
0.3699948330226577 0.23515056168877022 0.42716417491018654 0.15847102594123005
0.3717632340556146 0.2883784033902952 0.4070290872519401 0.15491656527896203
0.36932799881474715 0.20398344861961729 0.4316644932486695 0.13593935905893073
0.3718793779676658 0.30194493409873374 0.40851325964929075 0.11760899189807215
0.3701417609864439 0.20333611349702352 0.41539239503777053 0.1214839930403917
0.3708760439656774 0.22365116724289485 0.40653395693042355 0.13942863301230443
0.37111133695948667 0.27745385256765354 0.41687542768080177 0.14226769156027957
0.3712117824999457 0.2663648984475357 0.411798795070239 0.11586498698955787
0.3689792604326733 0.18316488201118403 0.43275867835313653 0.13692417147053654
0.3705513737609638 0.19691614987187314 0.40550335293078577 0.1176907151632538
0.3711967317028281 0.24340242828399075 0.4056970105161848 0.14087595588343874
0.36970878453209227 0.17462290219416501 0.4110086921816523 0.11196602435213121
0.3661596308991422 0.1564451929238338 0.4417679415249739 0.10956454270368883
0.3682427985227413 0.16361586518407456 0.4236470872627418 0.1439701320864676
0.36760699480579284 0.15622425414913624 0.41537690631601837 0.09807551221558816
0.36443586734805145 0.13870801517117415 0.4092639393093239 0.09153902253265706
0.3635162515720733 0.1398817223624154 0.43321611484295297 0.12734977479554127
0.3628147592037044 0.13475118110575715 0.42100346838467556 0.13284874178590883
0.3606706640770084 0.125445044053124 0.40742743213224086 0.10214317419497598
0.35688144719354054 0.11848413697575239 0.4308991369925448 0.14549512777762277
0.35175413794396804 0.10540720242945273 0.4237988343051106 0.12955314340191643
0.3558707780969504 0.1130652909730684 0.41219056635119383 0.11509497430721173
0.04232070286855897 0.443678851637289 0.42886556988928887 0.2219142031686275
0.0505925241387192 0.4346596058378438 0.4186118376661808 0.2790738983757369
0.03731398224351179 0.4414093291612431 0.4068389254466326 0.27267973530710793
0.0027362240413609682 0.3172645134774911 0.40545812437111417 0.14818831971862834
0.09511968573533452 0.45408838419099395 0.4384416524464865 0.15272230886538302
0.2710689269131846 0.4543157305045012 0.4384139577424058 0.12882395185137882
0.04559538103101726 0.42771622716960234 0.43109797069126554 0.2526495988244706
0.22164130204762417 0.4275461953173836 0.43401222879941354 0.2300956640915238
0.3231358023361769 0.4274688303213591 0.43548893073029793 0.20780945791826405
0.05738131833742602 0.4276902539113965 0.43139879620261906 0.2421633827681267
0.11985716912513625 0.42773917431504344 0.4312542839102085 0.2752658478812137
0.13356486676185034 0.4276994476116333 0.431766291819867 0.22321559994968926
0.10880841576609156 0.4277262028425262 0.43131923794019283 0.24176171145565642
0.15666578304294526 0.4277116051152989 0.4317893397288521 0.22042500709769403
0.3351241108281186 0.427830228222562 0.4315740830810658 0.23994934337866614
0.25899241138942913 0.4272279535124793 0.4365411751301371 0.20749040128777213
0.03183261073671177 0.4321071310734668 0.41146998361728365 0.29044993012837017
0.027072866662700812 0.4438419629589898 0.4276157192295099 0.21262741147449282
0.3066997675718252 0.4504669064824798 0.43860189692439316 0.18118649234502343
0.1756768480258918 0.4316592139278518 0.4341200271538971 0.21603037463892427
0.36992108262300827 0.33839720533150175 0.4054700039417303 0.13716388580663919
0.371508290082766 0.3189249827879915 0.4054524134329226 0.14507259071575868
0.05044690453958012 0.4562639752745115 0.4169264678364272 0.2256332953869995
0.3224474145685333 0.06878302374312446 0.42944788938395506 0.1990773941445896
0.2483693591306828 0.015724587373989234 0.4163384723240273 0.15602491085449122
0.2551490467102068 0.01660167027488672 0.40614737180442245 0.12152732701481754
0.23421718073948095 0.011985564467802346 0.42547376182908536 0.18998911996022153
0.018714205863337236 0.4555805362399381 0.4174784487461358 0.18819923332269728
0.028014334882569554 0.45226721896160393 0.41090310997232354 0.2242741564392419
0.3327488748248748 0.43118758981712335 0.41315912860164355 0.31387570291939093
0.34542272913070426 0.4467900894750388 0.4152311329284528 0.22941256861624923
0.3636868882104009 0.17056401344725877 0.4322363955323938 0.15602857233570713
0.36466963234964717 0.21607788603923145 0.4327997559360939 0.1570948068702154
0.038410930993233505 0.4555461262534746 0.4137003392458369 0.22321350186467803
0.12713348820655168 0.01636139807069688 0.4284970379043209 0.16081160859605473
0.14844414152159266 0.009738727979933878 0.4251904054860346 0.1539330298231859
0.008448690129700447 0.23910027396292885 0.42909470828892016 0.18052665277056454
0.007232091865870056 0.36598848225242453 0.4337498155417401 0.17501242206309406
0.006220764841096361 0.4176460435767764 0.43006100248504736 0.19494921450265312
0.006607717959732878 0.38672897841292864 0.4300796185234822 0.17549463319248793
0.007477058437291517 0.3423418103706735 0.43325276706944743 0.14827221436503535
0.006309997808364873 0.30687175426725033 0.41712078609450065 0.17335223964511476
0.009389132611006393 0.20766027340776178 0.4337036184465 0.17596959474287682
0.018163262206360713 0.1284267476684649 0.4283907607137729 0.19564493492102092
0.05326541370484584 0.0670265054198654 0.4315415953002092 0.17954442160658343
0.09652530444334444 0.03065073247888687 0.4288146795928584 0.1464242424141518
0.36519629859696545 0.24488671813651525 0.4322024990799764 0.1686958673485885
0.365785384922352 0.22444991791738242 0.4218146821900859 0.15618821300577468
0.36652315019185444 0.23483937788209072 0.4152985730243522 0.16422068579798904
0.36710225290517745 0.40184855724628277 0.43106102597400425 0.19900197808474074
0.366855955746881 0.3616437012008672 0.4288259957136974 0.17148580926401316
0.3669434923240168 0.31601374329915977 0.42236363848927877 0.16711425978354214
0.3658084166682518 0.2962602328506778 0.43211078963146005 0.19789409310691264
0.18068520295624324 0.0007332426654603852 0.40548595785846886 0.10770981304851773
0.31228018687369435 0.42637977361436785 0.43809102319194504 0.17490115245767263
0.08073992709346962 0.03455672495845011 0.40545157335160714 0.11900809389809933
0.17912527621640864 0.011970592711332027 0.43842282462689625 0.12787500447330907
0.0045808337288447175 0.43304778881637074 0.41427334978013103 0.14899815333626432
0.006146840627225428 0.4298823017248715 0.43082837029571264 0.1947989090723379
0.005321637833002643 0.44074014723473753 0.4231781363186813 0.16746258533834602
0.005311333656515215 0.38851964218620916 0.41696731978742263 0.16016922582761298
0.0029390453457907506 0.25645814046563603 0.40545113343670425 0.14057564737698003
0.0019821244718342956 0.29258904312485096 0.4054439562624514 0.1409795403951705
0.37014225107681864 0.1851279184160635 0.4054459551022273 0.09981758110961714
0.011259146685616611 0.21926459974983056 0.4378104621270631 0.1663029042629789
0.11485821497978796 0.021431763830879413 0.4308742764454003 0.1870047166132721
0.3658167703964569 0.330101978766155 0.43555670820961756 0.16458509299201513
0.2874415824080177 0.42375612220781633 0.43933875788804483 0.17464864977496466
0.3696073595161437 0.4497848178881194 0.408937903502122 0.1828972023418571
0.3452914220150543 0.4286679814758577 0.4225976307132553 0.30842947403543786
0.027541663574141083 0.42929601840887865 0.4253984430823454 0.2852035567283931
0.18362176283138734 0.4256503207930165 0.43940253935050666 0.1467466596313397
0.3684615607670432 0.44022558627774744 0.4209618551746322 0.19473774288403142
0.0950437905385165 0.42483634693164424 0.4392910143030438 0.11696937554697841
0.33761844201670393 0.4134904071477458 0.44193468019420834 0.13521297058198126
0.370044955961914 0.34212437324836076 0.44193468019420834 0.12933514581832772
0.34388442861801566 0.40252374959830484 0.44193468019420834 0.12604104913526537
0.3531177066361454 0.44097563689504515 0.44193468019420834 0.1801937479723935
0.3589682898004485 0.3996559532751848 0.44193468019420834 0.1641989532316981
0.3586589389886156 0.41135684318787036 0.44193468019420834 0.15536614571350443
0.3257063930963495 0.4520566419250637 0.44193468019420834 0.1314495556597951
0.3476164974436083 0.3907583778381992 0.44193468019420834 0.12293046257981971
0.362985719397177 0.43541582910184795 0.44193468019420834 0.17327497521935295
0.36046929626635044 0.42415088142050456 0.44193468019420834 0.16861615886490167
0.3431857630442398 0.448598383661893 0.44193468019420834 0.15307659123976575
0.3389615306756118 0.43248851113171277 0.44193468019420834 0.12193785706609016
0.3708557365169645 0.420314647702389 0.44193468019420834 0.16884164797909473
0.3579593985965365 0.3652240251883731 0.44193468019420834 0.13939545409074192
0.35954393646817867 0.382686444403487 0.44193468019420834 0.14913093389668414
0.37068169345299995 0.4031276825745125 0.4419346801942083 0.13665002733284326
0.3470677626264955 0.4217787652091289 0.44193468019420834 0.1278558413717469
0.2023817115066651 0.43208806347824624 0.44193468019420834 0.12119556514731467
0.2222366095090318 0.3991521655092183 0.44193468019420834 0.12886941436222643
0.2362535472421984 0.4473061845714185 0.4419346801942083 0.0836218679972169
0.26618872284792733 0.4076047928052688 0.4419346801942083 0.14963127990604716
0.3032020469095521 0.3628293487634222 0.44193468019420834 0.12053287126477066
0.30930094565871036 0.39466539723482913 0.44193468019420834 0.11201970703600087
0.3205730824305688 0.4113307593234601 0.44193468019420834 0.13187124322093816
0.34970860853392155 0.3579065048890062 0.44193468019420834 0.13364846198620317
0.3052991823075202 0.43804777175633464 0.4419346801942083 0.16578790846768438
0.251713148607013 0.3855026949361855 0.44193468019420834 0.14305143401680026
0.24328468519114593 0.4330473608891102 0.44193468019420834 0.1183152201907923
0.16591252912083207 0.4375614266474823 0.44193468019420834 0.12933026168338885
0.2950217710952588 0.45236348735108917 0.44193468019420834 0.13678836794402305
0.13116055659888115 0.45095527925382256 0.4419346801942084 0.0546978618883759
0.32771489877642573 0.3885366814251242 0.44193468019420834 0.1219569560528194
0.18567669510397614 0.44998795032838756 0.4419346801942084 0.06529813387751443
0.29097302090498317 0.40209289095282974 0.44193468019420834 0.14266306098486453
0.24476578665819937 0.41211220591699943 0.44193468019420834 0.11832913686784166
0.2166480261975926 0.4370381761821631 0.44193468019420834 0.12333382745158765
0.3081198257658874 0.4088747546345167 0.44193468019420834 0.13195841771540984
0.3028626890384209 0.421544793241186 0.44193468019420834 0.14373563775009218
0.22593886601251797 0.41056783135515074 0.44193468019420834 0.11721307781430472
0.3256725598016254 0.43706162827175044 0.4419346801942084 0.16930275358521327
0.3216052176380185 0.3684190759090823 0.44193468019420834 0.12399774807994828
0.230530977684505 0.43468248162737494 0.44193468019420834 0.13056712735864306
0.29194337503550766 0.43398006485259616 0.44193468019420834 0.15812678046391063
0.3574962073968902 0.335868852858386 0.44193468019420834 0.1470473677311384
0.26411532604489124 0.3927852934665182 0.44193468019420834 0.12113163010630101
0.28158181122414394 0.37659568501496493 0.44193468019420834 0.12795272924607223
0.2559959345069752 0.41706965584044153 0.44193468019420834 0.12286041244757902
0.1760654555838893 0.4417200962956783 0.44193468019420834 0.12033790921138354
0.27644839585888115 0.3881549460629855 0.44193468019420834 0.10917975130373161
0.21312944575190623 0.42578703006967383 0.44193468019420834 0.12804314879922318
0.2707968816777717 0.43366999699561765 0.4419346801942084 0.14118186603734453
0.3238348300751078 0.35629344156431336 0.4419346801942084 0.12570206943448836
0.3402492692877435 0.33639197186003666 0.44193468019420834 0.11213676816895986
0.28252041349280144 0.4525950364801559 0.4419346801942084 0.09576139949021413
0.3272858011419254 0.3418360457817758 0.44193468019420834 0.12579129292683497
0.21235448921224065 0.41251203440342565 0.44193468019420834 0.1264691594433809
0.31449376652752 0.3853057858588626 0.44193468019420834 0.12628320846383087
0.33997516903400815 0.38147560423063887 0.44193468019420834 0.1265090950905635
0.3413946067396021 0.3669540151554609 0.44193468019420834 0.12617663193291
0.23478078233589675 0.4172363451762037 0.44193468019420834 0.12420222178951218
0.2422678381577218 0.3938449924904273 0.44193468019420834 0.12682304649205833
0.1532461748282217 0.43863457204731726 0.4419346801942083 0.12906307799974406
0.27792956368126254 0.414397704550028 0.44193468019420834 0.14074207985474943
0.3132107082045589 0.34915721522425464 0.44193468019420834 0.12425261558854388
0.3164403302546214 0.4442915922802661 0.44193468019420834 0.16051053151720765
0.3450233323322002 0.34650542707157783 0.44193468019420834 0.12425771312762633
0.27789950168651745 0.4026357732782214 0.44193468019420834 0.1384516698395606
0.14325282548516557 0.4490095684059897 0.4419346801942083 0.0641542145522404
0.32286403545544295 0.398467660891507 0.44193468019420834 0.12635540155976493
0.2993815414844232 0.3837254158940896 0.44193468019420834 0.11736988841581569
0.07518428240697207 0.3812744451394072 0.44193468019420834 0.14959222979874603
0.20063221125285008 0.3807716962826676 0.44193468019420834 0.14566227375564872
0.11216840567342326 0.3114459666196017 0.4419346801942083 -2.307833489925153e-27
0.2592882785572805 0.3392392840814814 0.44193468019420834 0.1030991533533686
0.17964243336525815 0.31514218531944005 0.4419346801942083 -3.0540099891633054e-27
0.3011149863120878 0.34570441019667053 0.4419346801942083 0.16276235927262978
0.053364802577318085 0.31562275493624525 0.44193468019420834 0.17788486513013121
0.16911869058784648 0.4027173822451214 0.44193468019420834 0.11685436949368219
0.20577776139180096 0.33429152070710827 0.4419346801942084 -8.423304049301271e-27
0.04170236731212744 0.3375973780028872 0.44193468019420834 0.1323748804875069
0.1489260910152434 0.40170012925652093 0.44193468019420834 0.12157514421412798
0.18362414404986788 0.33670792653926057 0.4419346801942083 3.313014262403743e-14
0.242303153935535 0.3132160178147271 0.44193468019420834 -1.8109539272410465e-27
0.19824842276225363 0.3516002384326483 0.44193468019420834 0.08737715531103411
0.0854266411309929 0.3496831185837963 0.44193468019420834 0.14237173088690655
0.18737358638012316 0.3594243601916167 0.44193468019420834 0.15238881906519616
0.16361220326541098 0.31974821107487883 0.4419346801942083 -7.48963443579333e-28
0.24660182404768805 0.3689394265087796 0.4419346801942084 0.173706599789063
0.19147655967013788 0.39058800116501635 0.44193468019420834 0.13155006864002391
0.20734165557097484 0.3892915833722399 0.44193468019420834 0.1423190710899921
0.11089179584407263 0.325087524960415 0.4419346801942084 0.0
0.028097313646460603 0.32817623951295194 0.44193468019420834 0.131396630462826
0.09583384903584295 0.3539709477680819 0.44193468019420834 0.17170506839529753
0.10340154872457245 0.4134542874956819 0.44193468019420834 0.13080949116733004
0.18080625489240745 0.4102604250040322 0.44193468019420834 0.13273546966486868
0.13486934283394345 0.324304863810986 0.4419346801942084 -2.155886697315965e-27
0.06316265177052949 0.3347424451711031 0.44193468019420834 0.13443966070475266
0.1043854105756403 0.43136557566993095 0.44193468019420834 0.10923058355956096
0.06508127611710661 0.31553979724136555 0.44193468019420834 0.16056166173687753
0.2246062970919219 0.3164399573108882 0.4419346801942084 -3.416150618575919e-27
0.11798234573495923 0.36491998290480787 0.44193468019420834 0.1742986846844511
0.1387402782848716 0.40567948933206177 0.44193468019420834 0.15048692778556208
0.3423044056077125 0.3236361826512002 0.4419346801942083 0.12555786835781202
0.08334395725028121 0.3686075053984986 0.44193468019420834 0.1393077191233562
0.08804631882476516 0.3238581483429205 0.44193468019420834 0.08413868197774527
0.175601618638604 0.35968221485356994 0.44193468019420834 0.13132016146256897
0.21091326576381073 0.4007940059706169 0.4419346801942083 0.1254722386615546
0.11278182523826587 0.3541885096735204 0.44193468019420834 0.1353767082785274
0.14844717613121194 0.4182390996905917 0.44193468019420834 0.14575269864576088
0.21071161234166416 0.3466907240756557 0.44193468019420834 0.08381322081304621
0.07438884237311677 0.334811109923056 0.44193468019420834 0.1747841444046294
0.14344811256335527 0.4317116328291632 0.4419346801942084 0.1359890974897458
0.23321279961426813 0.35889950494790335 0.44193468019420834 0.1254767789472108
0.0651995018377872 0.35437169788655154 0.4419346801942083 0.15388359177077143
0.3008660290143036 0.32002353507545434 0.44193468019420834 0.17207730484284162
0.13757264873986894 0.42192310342904493 0.44193468019420834 0.14734704133831905
0.16332462283882968 0.3663009438015646 0.44193468019420834 0.1774033678122448
0.12143879171286688 0.41176464233972554 0.4419346801942084 0.14546363462108755
0.01794807768374028 0.32177378611118035 0.44193468019420834 0.14029337431615516
0.042741224378422246 0.3507313954672806 0.44193468019420834 0.1189615394148015
0.2355127783961293 0.3372751660101329 0.44193468019420834 0.060200450845369305
0.11151910674490546 0.4222620784249489 0.44193468019420834 0.11457173145254691
0.24796698030303163 0.3505492329049397 0.44193468019420834 0.1037697231843259
0.2227928261592103 0.3629422750457031 0.44193468019420834 0.17228239319864988
0.12088153932651619 0.31887333287023345 0.44193468019420834 -2.3163601558255987e-26
0.13644543996740746 0.3783770420708811 0.44193468019420834 0.16028867602147626
0.18046469207460397 0.38307090600965576 0.44193468019420834 0.15899008241640428
0.27398213933818427 0.319508672742382 0.44193468019420834 0.03423523992595249
0.17334139249638963 0.42070845169863347 0.4419346801942084 0.1421781939134678
0.10861749184634015 0.37315186785847765 0.44193468019420834 0.16085517216106102
0.3526827488755623 0.32016852786304145 0.44193468019420834 0.15135573797144003
0.20506284179694798 0.318412093666873 0.44193468019420834 -4.944950121870895e-28
0.12755921606717355 0.3993160604752335 0.44193468019420834 0.13310847099460138
0.25686616081668334 0.37484856328189914 0.44193468019420834 0.151791576106746
0.14736689574232748 0.38177613486446843 0.44193468019420834 0.14387426700840328
0.15953707951047774 0.37921555613128966 0.44193468019420834 0.16421460178361297
0.12344151597868513 0.3426456743698348 0.44193468019420834 0.056053476608686474
0.21800555106919875 0.3266447762496415 0.44193468019420834 -5.8132577250193e-28
0.2724733238834832 0.33035719373606687 0.4419346801942083 0.0770940857649512
0.13104997471303728 0.38880995529879525 0.44193468019420834 0.12864849186366334
0.08905439751371554 0.31199903217370867 0.44193468019420834 0.053802081606873
0.2638140509594391 0.3510297629520577 0.44193468019420834 0.1517495253457014
0.10112814203842549 0.3423750800661506 0.44193468019420834 0.13009364500740128
0.19666791032823427 0.4105322192482037 0.44193468019420834 0.13761418493854222
0.14756769324059338 0.31967786290228556 0.44193468019420834 3.4106328631433574e-14
0.17061958331211685 0.38993612668001626 0.44193468019420834 0.12260239346480306
0.03848404504168437 0.32415887126075554 0.4419346801942083 0.1370329844782335
0.05380981109023079 0.34664575428523375 0.44193468019420834 0.13248502340982377
0.16354287670270953 0.3305165363184544 0.44193468019420834 -9.923135492110408e-27
0.12451318997626842 0.4403451430690256 0.44193468019420834 0.10751892944410016
0.17181836059163114 0.3764027043666621 0.44193468019420834 0.1728056408775061
0.17378409523693192 0.34256091636100705 0.44193468019420834 0.02352397288213262
0.12051630203492136 0.38388969627311453 0.44193468019420834 0.14327386864891994
0.3130762015645304 0.32465496934119803 0.44193468019420834 0.15321503675372258
0.14792437781430212 0.35551682695161 0.44193468019420834 0.10895026020090379
0.2725561238251002 0.35856404767736194 0.44193468019420834 0.19690333678437097
0.26001335513343865 0.3188188784385663 0.44193468019420834 -3.493085376301768e-14
0.12563954470382627 0.33064153759561593 0.4419346801942083 -4.091860056813282e-27
0.16429498242968865 0.41337704273427245 0.44193468019420834 0.14690872225022622
0.1594223054363547 0.3474765348055111 0.44193468019420834 0.07697577570185003
0.21838566558929115 0.3747639398554069 0.44193468019420834 0.1697196881453188
0.28069791379244097 0.34274188734661226 0.44193468019420834 0.15815712407126084
0.32343131108002793 0.31503342004066287 0.44193468019420834 0.1528806967635232
0.1481008590803017 0.33272243788214517 0.44193468019420834 -5.439296675304871e-28
0.08413825799085471 0.39330412025972383 0.44193468019420834 0.13541442840827123
0.2844476562782672 0.32936619997834815 0.44193468019420834 0.12575372116213052
0.13543696519762197 0.3598634109163603 0.44193468019420834 0.13705225121747952
0.08705816316849802 0.3373481040299755 0.44193468019420834 0.1389343295526687
0.09575448197375558 0.4008444305990111 0.44193468019420834 0.11820973604881224
0.18947585536214706 0.32564738846858043 0.44193468019420834 -1.1122342068392177e-26
0.23913214246629408 0.3264552345367699 0.4419346801942083 -7.19712655140807e-27
0.10049673020385749 0.3851885008148734 0.44193468019420834 0.1285470633348361
0.19055572336175364 0.371362899904655 0.44193468019420834 0.16939892479699142
0.11640365053218604 0.39597913974910637 0.44193468019420834 0.13016705353417016
0.20705235213847534 0.3672885573667914 0.44193468019420834 0.18381571791313572
0.3045364929227015 0.3327875916761669 0.4419346801942083 0.1565711517860124
0.2575807418531438 0.3614736905397957 0.44193468019420834 0.17434021373456432
0.17465625136661744 0.3246464919096066 0.44193468019420834 6.662648695120221e-14
0.2850682892582847 0.358967282859584 0.44193468019420834 0.16028696554013291
0.22546449388353 0.3460506427730221 0.44193468019420834 0.10575572748023256
0.0700545365283713 0.36736704769490025 0.44193468019420834 0.12277283110252889
0.09471293752961263 0.37085102778927415 0.44193468019420834 0.18196739436223916
0.14855240811075243 0.36764794463446065 0.44193468019420834 0.14345941341394303
0.2361353259980853 0.37625233808270636 0.44193468019420834 0.15210063057936896
0.33794773471452616 0.20440424129115864 0.44193468019420834 0.11215459000699574
0.2415477572560645 0.24484607761250093 0.44193468019420834 -1.7746035311531707e-27
0.2634905746114792 0.27214552139679776 0.44193468019420834 -2.6702158247109526e-27
0.2525054784432123 0.2394170632014586 0.44193468019420834 -3.363835444726468e-27
0.2078904089273791 0.2947459426458804 0.44193468019420834 -5.703725651249901e-28
0.297401023725012 0.22741748457901373 0.4419346801942084 0.15925237127277794
0.09800999740185312 0.3037552057057152 0.44193468019420834 0.026323299744917896
0.12877693283250816 0.28582565528568293 0.4419346801942084 -2.0607517967031504e-27
0.30642727344327847 0.2113818701029584 0.4419346801942083 0.1344598114482308
0.28928860654743593 0.217522614017376 0.4419346801942083 0.11770455528784174
0.13824076615779773 0.26728094901307975 0.44193468019420834 -3.471455959337645e-14
0.31115547888461403 0.2764366464859551 0.44193468019420834 0.16913244084516255
0.10300802199029284 0.2896181714238339 0.44193468019420834 -2.4386980266138837e-27
0.2954254684801595 0.28282200742202795 0.44193468019420834 0.1587298759962726
0.3383927476164426 0.27589088122526234 0.44193468019420834 0.14847018914846066
0.08706526904426305 0.2821711027512793 0.44193468019420834 0.0783674386080562
0.3047216405253839 0.24924282921973423 0.44193468019420834 0.17947044524963846
0.3374958058419448 0.24596427670914792 0.44193468019420834 0.13283270002003733
0.35382569411398873 0.29076589049464224 0.44193468019420834 0.1707484869421334
0.32083893801323654 0.3030544127254562 0.4419346801942083 0.17298346579837118
0.2509185413967725 0.22807838571091665 0.44193468019420834 -1.2788041227560172e-27
0.2748175388757491 0.28588255076805047 0.4419346801942083 0.03389023780703896
0.360454191987689 0.29987248956362017 0.44193468019420834 0.19019701365280342
0.21759385502019002 0.24540756197797506 0.44193468019420834 -2.1555936360577276e-27
0.09092317182539851 0.2951517893703992 0.44193468019420834 0.06580359145087317
0.2912167012617294 0.2053151150513943 0.44193468019420834 0.12261292100418368
0.1973547472488415 0.3096417034089054 0.44193468019420834 3.3157375699284866e-14
0.3586619360278521 0.28063413237626356 0.4419346801942084 0.1819891048263947
0.1384413349787427 0.3086824826867489 0.44193468019420834 0.0
0.3234217724401329 0.22321355828694828 0.44193468019420834 0.1422252188523618
0.22746878625889635 0.2934969078296593 0.44193468019420834 0.0
0.279804593269323 0.27163618851402294 0.44193468019420834 0.032004954001063235
0.3586207151244993 0.2457554733713205 0.44193468019420834 0.1491115167819188
0.20871790797213305 0.2776477779303532 0.44193468019420834 -6.710747354589051e-28
0.3502740357318049 0.237260021511209 0.4419346801942084 0.13002576433921406
0.24001626433366924 0.2319685884055015 0.4419346801942083 -3.938931511522753e-14
0.06875392767554257 0.303252378301388 0.44193468019420834 0.1851886387373542
0.04185967329266988 0.30403639244670444 0.44193468019420834 0.1877106060189255
0.2587605292432796 0.28227744860094256 0.44193468019420834 -1.068774534758517e-26
0.24944422767639926 0.2757223981915364 0.44193468019420834 -4.574263435800205e-27
0.32428673885683834 0.21084348579181525 0.44193468019420834 0.12192103821079318
0.3457789020434609 0.26037390314444653 0.44193468019420834 0.14398055816846134
0.28878800669787924 0.3099100030925373 0.44193468019420834 0.11761140641723103
0.23703374808914857 0.26631200865387694 0.44193468019420834 -1.664171298236259e-27
0.25135643519021844 0.2575408184911249 0.44193468019420834 -1.2126028987579805e-27
0.1698982556517234 0.25697034011477926 0.44193468019420834 -7.140506889055956e-27
0.26245753185003173 0.23243526510019374 0.44193468019420834 6.286465907179216e-14
0.3165384864920142 0.23418650016733067 0.44193468019420834 0.16308007807648997
0.2646560375811025 0.2967988054497535 0.44193468019420834 -3.465464840790881e-14
0.3688462606143292 0.30931778580301406 0.44193468019420834 0.1432097405516164
0.3561301103678516 0.20999515165871674 0.44193468019420834 0.12550495063519257
0.1739085260008992 0.2880495080489348 0.44193468019420834 -2.877158498816158e-27
0.25995438926871267 0.21870816503873713 0.44193468019420834 -5.92613462200155e-28
0.2888668741673285 0.2500006705629627 0.44193468019420834 0.09875792057202427
0.06504823381359681 0.2876015789933717 0.44193468019420834 0.16499285883810022
0.1597541966527386 0.30531551710251775 0.44193468019420834 6.832697580938537e-14
0.35777253940158577 0.2569942648972104 0.44193468019420834 0.1370815229715596
0.34739607490247104 0.22433088548341823 0.44193468019420834 0.11170084104345486
0.17378303036864248 0.30088727562688333 0.44193468019420834 7.137332518524998e-14
0.1420783838535273 0.29303750404076373 0.44193468019420834 -7.10503646959413e-14
0.09909757188336514 0.2761214941297292 0.44193468019420834 0.031272268799756954
0.1791902835241284 0.2660301762435162 0.44193468019420834 -3.2269200703007748e-27
0.22925462350882966 0.2516917485910993 0.44193468019420834 -2.4848797955856482e-27
0.14855647438258673 0.27819775161239635 0.44193468019420834 -2.8407799581875565e-27
0.22085968613435483 0.2842955525570737 0.44193468019420834 -2.747626837392686e-27
0.28183973629735287 0.22615360122369216 0.44193468019420834 0.08249524272161408
0.19050720090381215 0.27033135587366636 0.44193468019420834 -2.3856789176426803e-27
0.2985737303733811 0.2397600154833811 0.44193468019420823 0.13764723555984476
0.27888564002358596 0.29881904276687377 0.44193468019420834 0.03014986970209169
0.12181418843190966 0.30414202940352925 0.44193468019420834 3.2884352487540015e-14
0.2871863665294018 0.26173437708834585 0.44193468019420834 0.055644428663273966
0.360769949005635 0.1961998429313966 0.44193468019420834 0.12987210900255985
0.16398396878026797 0.2831376962786865 0.44193468019420834 -2.5993748720432132e-27
0.14885014673008562 0.3031031489312201 0.44193468019420834 6.8817067376972e-14
0.3687322113039686 0.25185801826828824 0.44193468019420834 0.13217996324328674
0.11495281068501577 0.28793401109511574 0.44193468019420834 6.282643497797611e-14
0.2402211575137739 0.29129372459069963 0.44193468019420834 -2.1324064178935956e-27
0.2709284006926422 0.2210508651657218 0.44193468019420834 6.729767036386662e-14
0.3101239788515843 0.2247817143542448 0.4419346801942083 0.14622168728299503
0.22300142804653297 0.27166309078465783 0.44193468019420834 -1.3201533635866596e-27
0.32845403619931773 0.2562807739165926 0.44193468019420834 0.1345753082974229
0.31678787882259235 0.19956821388205367 0.4419346801942083 0.16214527458248496
0.3363421175417379 0.2310885026989558 0.44193468019420834 0.11313002782830034
0.34997488385849207 0.2738682705385847 0.4419346801942083 0.14315812235243852
0.11585499947575865 0.27394155475383813 0.44193468019420834 3.359440405530771e-14
0.3421728048720177 0.29475246108046743 0.44193468019420834 0.1809709489110841
0.34814525167079835 0.30489090243867745 0.44193468019420834 0.1642253192413875
0.32378654812941177 0.2452122708534442 0.44193468019420834 0.13165283702297892
0.3248806191704262 0.27886364616161124 0.44193468019420834 0.17103770415244868
0.1618047978858392 0.2703888485622132 0.44193468019420834 -2.5986320208383003e-27
0.05339866532728875 0.29867177670360073 0.44193468019420834 0.17146211859603822
0.24770454978894263 0.29997952782660076 0.44193468019420834 -3.201277893799221e-14
0.2177624248536298 0.3016940469287695 0.44193468019420834 -3.799753490947051e-27
0.19831758331778743 0.24946782425857036 0.44193468019420834 -5.380943627360246e-28
0.18626631926224874 0.2566800494466206 0.44193468019420834 -6.489553593918207e-28
0.31087714988441895 0.25942141995360873 0.44193468019420834 0.18573261814315398
0.1864381798289166 0.30533244963341283 0.44193468019420834 6.373304686466825e-14
0.029987270245184133 0.3025730431553595 0.4419346801942083 0.15307613420589122
0.1942671931089191 0.2911621878316326 0.44193468019420834 3.267028418168342e-14
0.3500130550013124 0.18868804547938423 0.4419346801942084 0.12734533624282193
0.33592273125979083 0.3045819282439534 0.44193468019420834 0.1660520871763448
0.18328681159017265 0.2804814629345517 0.44193468019420834 -3.698150619048015e-14
0.15577931449379137 0.2928010631432474 0.44193468019420834 3.500013350461904e-14
0.07719665475023954 0.29048937443936845 0.44193468019420834 0.14554713460158392
0.30380042166109167 0.30002582832826896 0.44193468019420834 0.18026771840742647
0.33022050918337953 0.2908128613590691 0.4419346801942083 0.17605111767937465
0.26541793383296686 0.2545927975671351 0.4419346801942083 -1.0316123415132102e-27
0.2198684095561855 0.2585591052292795 0.44193468019420834 -4.576661699550284e-28
0.3270942409619167 0.19256382510735756 0.44193468019420834 0.12227059797540989
0.2976696188138251 0.2710143208166435 0.44193468019420834 0.1338165415186713
0.315399368794718 0.2920703977360767 0.44193468019420834 0.21036876540881255
0.28718170985248276 0.237639252302198 0.44193468019420834 0.11625496115769603
0.36990871589899366 0.44748179387910514 0.44193468019420834 0.19521152330336222
0.3593741149412326 0.4516138054623708 0.4419346801942083 0.15555149045263916
0.013326509088906355 0.40089379008653203 0.44193468019420834 0.15372701231735494
0.020510741996416396 0.4433991078085106 0.44193468019420834 0.19411557023055734
0.03404951433162831 0.3588901001592523 0.44193468019420834 0.12194554303144038
0.03044655763592681 0.4357572457448957 0.44193468019420834 0.14125147544518724
0.02472096781490055 0.4032530652697099 0.44193468019420834 0.12952370474877004
0.0697512991000751 0.4305884436592895 0.44193468019420834 0.1297707719073222
0.0158365594549183 0.3484690311708743 0.44193468019420834 0.1350366381668201
0.01592842257495331 0.43254819273313544 0.4419346801942083 0.18208102739185714
0.01366037571516405 0.41210587124483405 0.44193468019420834 0.15796361966114203
0.03250115338088674 0.3838744132051102 0.44193468019420834 0.1161842545168524
0.030981992137884717 0.3720649721718241 0.44193468019420834 0.11136600537034892
0.04108099547921285 0.4430132336390706 0.44193468019420834 0.1580991443296763
0.0341418110409276 0.4233938200077353 0.44193468019420834 0.12583389941562934
0.05534115531079799 0.41206645258801355 0.44193468019420834 0.12007390804852659
0.028784296043205503 0.348398920999445 0.44193468019420834 0.13045308975872766
0.04755134333104143 0.4218008791525709 0.44193468019420834 0.12038155666980904
0.046096107812997465 0.3722693338071229 0.44193468019420834 0.1244370578310246
0.03734341038850563 0.4026762794977128 0.44193468019420834 0.11453763889610266
0.005680121663115091 0.37527589743016154 0.44193468019420834 0.12282636396489895
0.057562672722785 0.3949154154243448 0.44193468019420834 0.11971436810978933
0.016450265028394227 0.3700954002288063 0.44193468019420834 0.14993793497025915
0.08311445871835266 0.4210249530620604 0.4419346801942083 0.10787563744108353
0.005813621758091848 0.43667608198205365 0.4419346801942084 0.1324045655016186
0.05851616410547491 0.38212265351657676 0.44193468019420834 0.11907035139472794
0.021746217979549804 0.3925789052489708 0.44193468019420834 0.12873050501038333
0.023765489515365477 0.4180575309882665 0.44193468019420834 0.14906251748247593
0.07239680038743136 0.3953342081918284 0.44193468019420834 0.13696564592776095
0.08068937663215935 0.4048404797442924 0.44193468019420834 0.12303368432071611
0.07136695802171993 0.41211900422948655 0.44193468019420834 0.13495824343317794
0.09038885550366908 0.44454637227250693 0.44193468019420834 0.11948805204203793
0.010964622142332008 0.3363703259754776 0.44193468019420834 0.15626347675040259
0.07903669988236689 0.4409839670983373 0.44193468019420834 0.10194938131336852
0.06471990834500373 0.26228833850321354 0.4419346801942084 0.13735464214437662
0.05884832573604607 0.20840859014313348 0.44193468019420834 0.16306323021921487
0.2855628437494232 0.19263826564402053 0.44193468019420834 0.10813752135651025
0.2752195018616448 0.18304518289908184 0.44193468019420834 0.02876801180022445
0.08392280723323076 0.2681673683119259 0.4419346801942084 0.10270943800662852
0.15171828182974614 0.22546477789346284 0.44193468019420834 3.306751387011373e-14
0.1423250298100516 0.2545727452055948 0.4419346801942083 -2.488479412960219e-27
0.2179494986906812 0.19373341434332444 0.44193468019420834 0.0
0.0483787851005344 0.19557897399058893 0.44193468019420834 0.13908732476373065
0.12818675330265655 0.25218528080522995 0.4419346801942083 3.289921517862205e-14
0.10296921300788679 0.2651434074137241 0.4419346801942084 1.0228183371973537e-13
0.0873909822565563 0.24826335656708637 0.44193468019420834 0.0946483439612681
0.055465003377876056 0.22835202295259127 0.44193468019420834 0.15303228333334973
0.17325425102709532 0.24516303211373905 0.44193468019420834 -2.5711772870339223e-27
