x y z curv
0.10223431242578376 0.4598916175696995 0.43961543799377983 0.10791609958101618
0.08594872040751025 0.5691831668607685 0.4396154379937797 3.399850830842198e-14
0.08849045974357735 0.5497974790602072 0.4396154379937797 6.93802474877173e-14
0.09371332732681507 0.5181099792458879 0.4396154379937798 -9.656818919458124e-27
0.09143345669407571 0.5381112355753698 0.4396154379937798 3.616750918097333e-14
0.09909696468641138 0.4968189772966992 0.4396154379937797 3.0913539673984315e-14
0.09860566684878053 0.5290595608627866 0.43961543799377983 3.4525028770790347e-14
0.09634898664360508 0.5590778343449272 0.4396154379937798 3.683369904053551e-14
0.09435468517954308 0.57690911389053 0.4396154379937798 3.2887948056685566e-14
0.08148327833403064 0.584395706960803 0.4396154379937798 3.423723473392013e-07
0.02920460537686049 0.5784336641067482 0.4396154379937798 0.03857343499824824
0.04813628852014485 0.5964775668670879 0.4396154379937798 2.64489617132861e-06
0.04251040728938778 0.6418165683993886 0.4396154379937798 3.439099724034968e-05
0.04118188313826788 0.614047464935015 0.4396154379937798 0.002036386438399949
0.031292813019545056 0.6023601836370305 0.4396154379937798 0.020141128030350362
0.0711895039775503 0.578230475011409 0.43961543799377983 -3.8380491033353375e-26
0.048925901310106046 0.583308579164972 0.4396154379937798 3.6574761547569165e-14
0.06270665201920445 0.5942238284448338 0.4396154379937798 8.019413017207575e-07
0.07985917375623884 0.5383807824232202 0.4396154379937798 -5.0939338350261803e-26
0.0883204803042138 0.46954735955662286 0.4396154379937798 0.09120405744872638
0.08099242020328012 0.4884170585337593 0.4396154379937798 3.3093114885041675e-14
0.08348231517255397 0.5113212560821899 0.4396154379937798 3.2701479957786463e-14
0.0773257103075262 0.4679665533230197 0.4396154379937797 0.10308986750271082
0.08046371030646993 0.5255840520205105 0.4396154379937798 -1.6218495504838616e-28
0.07391509046302415 0.5495633377471429 0.4396154379937798 3.3483666974092056e-14
0.06495920074748002 0.5136949231102967 0.4396154379937798 2.893504230549092e-14
0.05918512326665035 0.544600034611043 0.4396154379937798 3.424333084972904e-14
0.05960780856103803 0.5303785447331781 0.4396154379937798 3.2782263076109044e-14
0.05752780243432994 0.5726873612358616 0.4396154379937797 0.0
0.055951228986198295 0.5616815789825464 0.4396154379937797 3.4991783109899815e-14
0.0713099553845935 0.5644155672779841 0.4396154379937798 3.1155743968295055e-14
0.04938526716697242 0.5348136957312614 0.4396154379937798 -2.3396315495302383e-27
0.06413419625659629 0.46383180417752545 0.4396154379937798 0.09587715538925254
0.06798985636521811 0.47718966057144674 0.4396154379937798 2.9531774430290464e-14
0.049670589367765625 0.5094499675006685 0.4396154379937798 3.0710080161497296e-14
0.06564459780484887 0.49322104340816686 0.4396154379937798 -2.849920041721186e-27
0.05570454741293834 0.4853095945150483 0.4396154379937798 3.3258023557421874e-14
0.0351790113932274 0.5317731223005422 0.4396154379937798 0.016654569761944064
0.04471836203768548 0.5469979779142871 0.43961543799377983 3.340054204746537e-14
0.04305799496402117 0.5733395353544112 0.4396154379937798 3.7571485501374567e-14
0.03234426260397593 0.5607782483190358 0.4396154379937798 0.032599043883495916
0.041176229555529874 0.4944025158239347 0.4396154379937798 3.892436539089637e-14
0.04391653717714231 0.5616776466109415 0.4396154379937797 -2.312614578707369e-26
0.044349472274563734 0.4828245266114054 0.4396154379937798 -9.938292820747623e-27
0.03210741139405503 0.4786257961222834 0.4396154379937798 0.0214916426402658
0.0320747446685171 0.5050556544175395 0.4396154379937798 0.03711567970645099
0.025976230686070835 0.4899216603014614 0.4396154379937798 0.06967189862990188
0.024368630690136048 0.5505629966351419 0.4396154379937797 0.03786956948470408
0.0385448745017976 0.46478539712535905 0.4396154379937798 0.046513710570514066
0.023406640372722415 0.5389204615321012 0.43961543799377983 0.038943428544122256
0.024141220040335573 0.4532494571592395 0.4396154379937797 0.10695646667298876
0.04473361376960692 0.3715553703582398 0.4396154379937798 0.18149963954302406
0.04398933576240442 0.44666818020590915 0.4396154379937798 0.10545031500569998
0.038252052287310066 0.4352024212749712 0.4396154379937798 0.1333199846752756
0.03787198712485507 0.40227546608658593 0.4396154379937798 0.12263391873739336
0.03867714365869982 0.3908334373703879 0.4396154379937798 0.1164527484761291
0.03978369252102628 0.4165120886369267 0.4396154379937798 0.09295769103309633
0.05408143938324316 0.45433416313069874 0.4396154379937798 0.09559917645762925
0.06501724638564621 0.44993923314976225 0.4396154379937798 0.13544085179266616
0.0503442183549683 0.39009463125215593 0.4396154379937798 0.08392453380456098
0.048384361292290956 0.426622360687002 0.4396154379937798 0.1307890960912476
0.06404043776431949 0.4313809126116585 0.4396154379937798 0.1372107856502242
0.05439783886829291 0.4403279965315153 0.4396154379937798 0.13267071863113478
0.05957399580215076 0.41689409787546206 0.4396154379937798 0.1027448681014477
0.05054165757499807 0.407551660014868 0.4396154379937798 0.07885489199125867
0.033065230131494996 0.3792478404655326 0.4396154379937798 0.18917581805048342
0.022308425086839088 0.43422004602373915 0.4396154379937798 0.15877584706940773
0.02510623834248485 0.4079618911794715 0.4396154379937798 0.2124385756326654
0.027134969584578415 0.41892551336597705 0.4396154379937798 0.1530426468798467
0.03388185964215871 0.35459138652544003 0.4396154379937798 0.1896310882667666
0.043858648927227364 0.34734293861347176 0.4396154379937798 0.1614357976030617
0.008975947379425215 0.43598483723496984 0.4396154379937798 0.13308102549740264
0.020787751073111378 0.50046277331029 0.4396154379937798 0.06883746649111654
0.012271286546274685 0.4465248826912946 0.4396154379937798 0.1040756855847381
0.015819332950698477 0.4659403257184353 0.4396154379937798 0.08194864235617352
0.021405528744447958 0.5161830700699652 0.4396154379937798 0.050148272282346903
0.019874885843659172 0.47646756905272336 0.4396154379937798 0.07069828973746735
0.020919621929774923 0.568403239823373 0.4396154379937798 0.06496905466453459
0.010051236205314656 0.3953460174583801 0.4396154379937798 0.18882718012275
0.01746822795891455 0.3819712617036318 0.4396154379937798 0.21207701707554047
0.006059541582940194 0.3802710444745796 0.43961543799377983 0.20326244091614604
0.011019480705249197 0.3166989507473596 0.4396154379937798 0.16996623523339596
0.009385118727976191 0.33207690182263705 0.4396154379937798 0.17248084163573726
0.008375672422083983 0.36231170657089856 0.4396154379937798 0.2095177677500069
0.0460698772133924 0.33575719500738704 0.4396154379937798 0.1682065022757315
0.03640699344430322 0.3267458711770118 0.4396154379937799 0.1612679938349402
0.02980159476004715 0.30666913521303435 0.4396154379937798 0.16364120514118027
0.024956955158434928 0.2564931620397058 0.4396154379937798 0.21959702793629865
0.011535892933924992 0.2800695924786625 0.4396154379937798 0.14930758229038782
0.020741062941611217 0.26738934613436316 0.4396154379937798 0.21790623976745327
0.004278909518617658 0.4620902490362557 0.4396154379937798 0.07663664893732189
0.012793083645591863 0.5285315346691242 0.4396154379937798 0.05951518302897228
0.004397284935353256 0.7461955658719657 0.4396154379937797 0.07989057977964667
0.0042306252092084405 0.6959712940488985 0.4396154379937798 0.07412543232778174
0.0012947613766556407 0.41114048862847075 0.4396154379937798 0.13959370499334545
0.009814386235812456 0.6018114656001284 0.4396154379937798 0.09877241901249834
0.005350584820850783 0.6822104654754592 0.4396154379937798 0.06493676809097834
0.0033681985862367312 0.6484857622536171 0.4396154379937798 0.08438490489832319
0.00960723923449052 0.4929064359111316 0.4396154379937798 0.08773657928173709
0.014389600880595712 0.5864774029521048 0.4396154379937798 0.059507775181648084
0.007876903591879618 0.6236938826923006 0.4396154379937798 0.08121927736153106
0.010757452699676021 0.5435158153998612 0.4396154379937798 0.08857077429555466
0.0034113248369059893 0.48048515334634756 0.4396154379937797 0.07351641678916757
0.023520367688086193 0.6489767805007965 0.4396154379937798 0.06472839353865448
0.014096376647383115 0.7769272280207217 0.4396154379937798 0.0816832045487198
0.03146401481877024 0.6839782614343093 0.4396154379937798 0.028222341305349563
0.03842528023987277 0.6948883111060606 0.4396154379937798 0.010869320881608652
0.01858039292057976 0.7306344582870068 0.4396154379937798 0.051189486584825826
0.024007578087227775 0.7133579081536042 0.4396154379937798 0.05183615959895101
0.02609142226307004 0.6999810700753641 0.4396154379937798 0.036938822099096234
0.019312349590074607 0.6359862460238118 0.4396154379937797 0.06749424136710275
0.016323486939292264 0.7634374369353845 0.4396154379937798 0.07782695273575002
0.022834650088083948 0.6161915126047349 0.4396154379937798 0.042272420442344194
0.042775811205767296 0.6656901032093457 0.4396154379937798 6.703913101569958e-05
0.015235694777765816 0.661564145219212 0.4396154379937798 0.09171850096175371
0.03688236057380132 0.7111298485148067 0.4396154379937797 0.010562941702443904
0.019536554705285897 0.6821521382026893 0.4396154379937798 0.06858973021053752
0.03703879554319256 0.6518232087113076 0.4396154379937797 0.017622009009690846
0.015928214248638342 0.7498668094002288 0.4396154379937798 0.05774841775382807
0.042098358075570816 0.7572266858356684 0.4396154379937798 0.003528601108563944
0.03202014535198172 0.7361297679382708 0.4396154379937798 0.02716863806999783
0.01752222061038195 0.788591898896265 0.4396154379937798 0.11563094453437882
0.045998496941969565 0.7288760661971831 0.4396154379937798 0.00022928241997226275
0.028957282123401457 0.7616333850908165 0.4396154379937798 0.03917803237446756
0.03627619962006591 0.7464129089142215 0.4396154379937798 0.02331585423900029
0.05100356078098791 0.7176795848426214 0.4396154379937798 0.0001367212577452189
0.10156918041815839 0.7562714106709914 0.4396154379937798 0.0002734361196033109
0.06424951197054979 0.7616174910909197 0.4396154379937798 0.0004839445047943
0.028644116822345154 0.7830962181740225 0.4396154379937798 0.06769127101024958
0.04790396158030965 0.7767238198520854 0.4396154379937798 0.056554518523435175
0.07802749763743105 0.7641451739728853 0.4396154379937798 0.0036012312354421917
0.13786550142832377 0.7926924760135341 0.4396154379937798 0.05363269230788857
0.1770910520179474 0.8004816573134927 0.4396154379937798 0.08145053506138482
0.14187048616529824 0.7801748498321229 0.4396154379937798 0.05286977302091983
0.10438108375814648 0.7964038074504882 0.4396154379937798 0.06737772871478323
0.16660660874038435 0.7945215569256563 0.4396154379937797 0.08836791204222873
0.1164166390211021 0.7760478433690596 0.43961543799377983 0.05827556845967145
0.12698861148134774 0.7723181104113892 0.4396154379937798 0.04047103109755447
0.057163728854919986 0.80041733951361 0.4396154379937798 0.08215175581593899
0.11960987222580564 0.7960363143376327 0.4396154379937798 0.06835365442209759
0.06943430869780266 0.7817657658330327 0.4396154379937798 0.06938160419344866
0.09425511978567365 0.7704185804965319 0.4396154379937798 0.02696171240792664
0.1199621069731561 0.7627803205670005 0.4396154379937797 0.00024071943050251943
0.15376510785154085 0.7842009568014559 0.4396154379937798 0.056512931287033594
0.11203483854951284 0.787074616018099 0.4396154379937798 0.06803355715136183
0.049443349920330455 0.7895850887975068 0.4396154379937798 0.07311365767593932
0.09463270702377867 0.7899030413648687 0.4396154379937798 0.08690017334180644
0.027622032979841046 0.7985196907120036 0.4396154379937798 0.1028956394299762
0.08060102272252184 0.7748412398645097 0.4396154379937798 0.04395571888524982
0.1015075006251376 0.7801874432546261 0.4396154379937798 0.0646216697092924
0.1687893913685066 0.7552856656070799 0.4396154379937797 0.00026386053710490643
0.1642296847756176 0.7790732761557784 0.43961543799377983 0.053912132068408766
0.14283017253609026 0.7624027136727181 0.4396154379937798 0.000281103848579947
0.1769459771780538 0.7846078345583924 0.4396154379937798 0.08333827387984527
0.17137003285392322 0.7688979377819996 0.4396154379937798 0.014868109764671832
0.04565466886081959 0.3064679189547125 0.4396154379937798 0.23473621788246718
0.03855420775622448 0.2696811713175144 0.4396154379937798 0.21523700069196208
0.03541245963777966 0.2844939118489272 0.4396154379937798 0.20096526509343687
0.045105428085559465 0.2915495215540411 0.4396154379937798 0.27504729222061064
0.004743654663060089 0.26117727536216423 0.4396154379937797 0.13464909810440237
0.004853852923656308 0.2269901361343921 0.4396154379937798 0.15171911876145963
0.013432945450245266 0.23630188778147537 0.4396154379937798 0.19151452713632275
0.016682189363993544 0.22226849500446877 0.4396154379937797 0.2269746515415654
0.013533685864521501 0.18494139235246587 0.4396154379937798 0.2011030178305244
0.018259362933163905 0.17409013103351337 0.4396154379937798 0.23919267924458473
0.03905223416355528 0.1998531373415019 0.4396154379937798 0.25068413632641956
0.03612567653645207 0.1889999139476403 0.43961543799377983 0.236415504380153
0.02841663378894341 0.14434581632563004 0.4396154379937798 0.24739254863469395
0.03913116818112918 0.16836239785823204 0.4396154379937798 0.25713462621085154
0.05331116377314951 0.2791325045813484 0.4396154379937798 0.21561365534843033
0.07078097962774862 0.42120113774455975 0.4396154379937798 0.11173037540449875
0.056654717807133215 0.3488589958881728 0.4396154379937797 0.18870201528536004
0.060390120777799323 0.37688372280272464 0.4396154379937797 0.11105847477204293
0.06386550076534467 0.3660389334466748 0.4396154379937798 0.18268289000105406
0.06596246129337618 0.4069534535517771 0.4396154379937798 0.08609534844760716
0.07322923230804243 0.440746371183471 0.4396154379937798 0.15803432150446903
0.06740456714359577 0.38996150698880727 0.4396154379937798 0.0744088568923597
0.061530049807488406 0.31576642594947835 0.4396154379937798 0.25219861053098913
0.0702682783718459 0.332694097859913 0.4396154379937798 0.2571248207641183
0.08691908536192161 0.42637023854783007 0.4396154379937798 0.14857585781095303
0.08813222916132268 0.404522664507308 0.4396154379937798 0.08941714882924919
0.08302382367619004 0.4567747478993246 0.43961543799377983 0.1411623477293548
0.09576890697209833 0.44626281908002347 0.4396154379937798 0.15556540359504106
0.09525647207650553 0.41627603373924704 0.4396154379937798 0.12102764618189364
0.09371632571154316 0.39385391857500507 0.4396154379937798 0.11655713448837084
0.08579106239722774 0.44006675697066133 0.4396154379937798 0.14322498054199617
0.08069373040252444 0.3695546160504153 0.43961543799377983 0.18455276702463858
0.08053337620939702 0.39148044439346896 0.4396154379937798 0.08474292121051515
0.08921635512813184 0.35018676748084027 0.4396154379937798 0.2643368036601364
0.07745389214266887 0.3431531817933332 0.4396154379937798 0.29230974395611503
0.07840731999570844 0.3550145920807207 0.4396154379937798 0.24664853369450107
0.11463284959978445 0.44709951936811654 0.4396154379937798 0.1544794780025453
0.11849162556628731 0.4240046488854099 0.4396154379937798 0.12699865686449424
0.1192820566178181 0.4027242465921783 0.43961543799377983 0.14161055296789987
0.0991172062348542 0.37536699606115204 0.4396154379937798 0.16254483623126614
0.09279782520499745 0.36549116082221367 0.4396154379937798 0.2445141949800717
0.10971338545469853 0.410191518341525 0.43961543799377983 0.11423605174390396
0.10968428562861622 0.39330863625931967 0.4396154379937798 0.1616669195957686
0.11210673759985393 0.3799919999449889 0.4396154379937798 0.16517534309491944
0.10220376467453432 0.4304915597561261 0.4396154379937798 0.1557023492678918
0.12676466913306927 0.4447819053746427 0.4396154379937798 0.20748757736079196
0.12908880088756197 0.38977108942623195 0.4396154379937798 0.19606350538033634
0.13622123448585713 0.45419724064572464 0.4396154379937798 0.17063359516893623
0.14500250232444406 0.4459173491412748 0.4396154379937798 0.17975686208782896
0.14376455201047608 0.4244158140790621 0.4396154379937798 0.15789347897254002
0.13817145388421287 0.4068527912536464 0.4396154379937798 0.15328240682466443
0.13167936747535916 0.4230287484751658 0.4396154379937798 0.14826235495584167
0.1317615714514814 0.3770768073468351 0.4396154379937798 0.2528360307934144
0.1488993698476596 0.3953850168570611 0.4396154379937798 0.19370802892367553
0.1483489579118854 0.41173552992109974 0.4396154379937798 0.14930149209650503
0.15119642454086457 0.43407075345960455 0.4396154379937798 0.17101907015705173
0.1485815099352159 0.3818046238305453 0.4396154379937798 0.22064246350085295
0.1749012297416952 0.4378643133059018 0.4396154379937797 0.17350208474668732
0.17266703480859172 0.46056456791752454 0.4396154379937797 0.11668938151198308
0.16521567600212497 0.4078776194090246 0.4396154379937798 0.19096616859269694
0.15905988652658898 0.4448200564431928 0.4396154379937798 0.1948588259871223
0.1681174193361639 0.4252516684994797 0.4396154379937798 0.1483839755789417
0.15704158383429478 0.42365298224816483 0.43961543799377983 0.15961156867281825
0.17859615470950496 0.4025944039529687 0.4396154379937798 0.19125158219258848
0.17966060834953607 0.3841087137406829 0.4396154379937798 0.21910924583309593
0.19382636126168856 0.4531988478711308 0.4396154379937798 0.16264500201002732
0.18397157126959773 0.44606250598049046 0.4396154379937798 0.14447922747405448
0.1957476893635714 0.4215217802402195 0.4396154379937798 0.1574783153287579
0.2013896753327966 0.43471458323165 0.4396154379937798 0.16454884309246745
0.18996731469508532 0.41144249457131987 0.4396154379937798 0.18759076561932497
0.18730720039117552 0.39205814856361626 0.4396154379937797 0.2757838878073093
0.18131296281712644 0.4241307552698388 0.4396154379937798 0.14660828461129635
0.22849726760334302 0.44553064012713683 0.4396154379937798 0.18943865248158784
0.2151471871411166 0.43475334765707263 0.4396154379937798 0.16378836326204083
0.2239802491902842 0.4179885308977347 0.4396154379937798 0.15112471461912505
0.21165214504927415 0.4457069631283802 0.4396154379937797 0.17192371226318734
0.20924493999237206 0.38392623045876106 0.43961543799377983 0.2502182390686966
0.21051423624416762 0.41626638761021073 0.4396154379937798 0.16064371688473938
0.20760106322343766 0.3969216280206441 0.4396154379937798 0.2160157453537544
0.24536940047481692 0.4213360050462807 0.4396154379937798 0.14608907916633174
0.24862101215985344 0.44154726273978206 0.4396154379937798 0.17088944030607578
0.24040021384869403 0.38450964094209295 0.4396154379937798 0.20629949899764813
0.23216675878313384 0.4303518005256113 0.43961543799377983 0.16875819464737932
0.23338259390114727 0.4118633034145249 0.4396154379937798 0.1334089853528709
0.23647501392117448 0.3731037356346442 0.4396154379937798 0.24424521637476046
0.22732009370950995 0.3925072310523603 0.4396154379937798 0.18573829090839625
0.25476240912256504 0.42874935249672924 0.4396154379937798 0.13699008437955199
0.25304898244031515 0.39449197241913786 0.4396154379937798 0.15240980121339437
0.2502295890272408 0.4065912138692086 0.43961543799377983 0.12168558595005982
0.2681463191461731 0.45618349945448694 0.4396154379937798 0.13508354647345647
0.2715411557270393 0.4251457892121679 0.4396154379937798 0.13483631042698713
0.26975982020827943 0.4075568007130023 0.4396154379937798 0.12379936113395283
0.2669019913103178 0.39569345363707004 0.4396154379937798 0.10847555130363055
0.2763934644457267 0.4440897816970709 0.4396154379937799 0.14950119213177113
0.2608159607357008 0.4448904877937011 0.43961543799377983 0.14102302274759992
0.2667623931582617 0.36167122970539134 0.4396154379937798 0.261569649206097
0.2571698856374301 0.37894774761956673 0.4396154379937798 0.1852975669462057
0.3043326867664363 0.3608324667374332 0.4396154379937798 0.1715965928894734
0.29481325256478624 0.37110798988757027 0.4396154379937798 0.13277347076802262
0.28960464903269645 0.3925708061000186 0.4396154379937798 0.07939057935573098
0.3005640622890549 0.3306467549774854 0.43961543799377983 0.24350068062715108
0.2806995819819237 0.3784673206649892 0.4396154379937798 0.11094957793576123
0.2776715243992275 0.3899629081487247 0.4396154379937798 0.09024704201347793
0.28599649254472803 0.45312050476515076 0.4396154379937798 0.11065690926402509
0.28474234424509315 0.333096654281509 0.43961543799377983 0.23069783949025252
0.2846709534375037 0.4245241614089891 0.4396154379937798 0.12037767812047272
0.2882853624304987 0.3610554776790228 0.4396154379937798 0.1923843309118215
0.2870781445955134 0.409052677499124 0.4396154379937798 0.10238053210084269
0.28941782145026607 0.34437541999765936 0.4396154379937797 0.2673964654565185
0.30674917098288274 0.3175116008582637 0.4396154379937798 0.27100403225278846
0.3114877531342611 0.25597428797439936 0.4396154379937798 0.1989230059659449
0.3322088979970344 0.20786789329245883 0.4396154379937798 0.2112182316964676
0.3249159274190642 0.18477779711031866 0.4396154379937798 0.22659401718807623
0.3313975073325115 0.1234028395327895 0.4396154379937798 0.27533058588760717
0.3224270099393115 0.16659760517650993 0.4396154379937798 0.24072194888037676
0.32305220178197636 0.14266558111200908 0.4396154379937798 0.24341996371252833
0.3379957238263291 0.18553935666213558 0.43961543799377983 0.23158920942333613
0.3381555735803655 0.19796361839908902 0.43961543799377983 0.24097120824907303
0.3289766844035124 0.10118560265356746 0.4396154379937798 0.24564641203230703
0.31718268368137215 0.10115231450955423 0.4396154379937797 0.2673288513338253
0.30775947386578373 0.13938218580246176 0.4396154379937798 0.23178909512280285
0.3062232968257007 0.10602553811192661 0.4396154379937798 0.21967265049417556
0.2758005925063304 0.06523486705317273 0.4396154379937798 0.21358919809191937
0.2714758242325521 0.03585769571254717 0.4396154379937798 0.20292214100882863
0.2630593721925394 0.06179834524452452 0.4396154379937798 0.21254324115039686
0.23745341181262086 0.03162555737452319 0.4396154379937798 0.2423378145974479
0.2236116164810177 0.030810564080651564 0.4396154379937798 0.25535542011952644
0.1799310386155953 0.017711979378007132 0.4396154379937798 0.28085692016877806
0.16676413080743466 0.016412871597344135 0.4396154379937797 0.2590654890262141
0.10593506136081096 0.025929496754622784 0.4396154379937798 0.2439215928239986
0.09339351805225707 0.04433855066110912 0.4396154379937798 0.25939939033345377
0.10687901148346675 0.04296175935206244 0.4396154379937798 0.23296064148612441
0.06718951819741424 0.06746262903516889 0.4396154379937798 0.2347133548461769
0.07409974769768993 0.046744462689516236 0.4396154379937797 0.20833701813829303
0.048083634802097146 0.08016155453414175 0.43961543799377983 0.23201455175523064
0.051721178275752504 0.06745535639745119 0.4396154379937798 0.21595092817510345
0.050997558246830305 0.09980507332478206 0.4396154379937798 0.2526633735388095
0.06194078857714675 0.1062319494859819 0.4396154379937798 0.25120620124575965
0.06286812314939916 0.0837769077299773 0.4396154379937798 0.254965447724742
0.04486233467706878 0.11695118079598374 0.4396154379937798 0.2225816728398516
0.03896246085874257 0.08991929959197194 0.4396154379937798 0.211372272004461
0.036679708509318454 0.12445745891946902 0.4396154379937798 0.25677420276709373
0.040355920259267014 0.14545026967737507 0.4396154379937798 0.20210698988482464
0.33342487440666 0.26250175851790297 0.4396154379937797 0.19412855380459582
0.31930347311074186 0.34094614594238465 0.4396154379937798 0.16501580897995607
0.3273226518928823 0.3301219344695815 0.4396154379937798 0.1742396985882763
0.3265081490982241 0.29764639423978567 0.4396154379937798 0.18854453081513764
0.3311134859909823 0.28696429202877477 0.4396154379937798 0.20217087098791123
0.35074096933423 0.2817120140510468 0.4396154379937798 0.17201914724145154
0.3432829119971424 0.3135723629217192 0.4396154379937798 0.20164713324052175
0.3510342861312967 0.2964485690176395 0.4396154379937798 0.1858876235505964
0.3420810617586039 0.3301937064473031 0.4396154379937798 0.21322906930807914
0.34856729191311997 0.23948624645139144 0.4396154379937798 0.18923080431709766
0.3496587225309198 0.20332768028255688 0.4396154379937798 0.1922513597242571
0.34749926261745656 0.13528130966768448 0.4396154379937798 0.1389777410457079
0.3449108753462364 0.1543845089646671 0.4396154379937798 0.18921204966358157
0.19074194858290855 0.16379552542969913 0.0035109372835168493 0.01924719172255145
0.18169820011092508 0.15143364557385786 0.015198691057288865 0.008256523643564785
0.21085416420161163 0.1691188864955632 0.001900042456067146 0.020056043776915493
0.2083952351097011 0.14956153515282555 0.02096218302679013 0.005426810043913003
0.21170935686585796 0.16005514565117035 0.011304324605622827 0.013572560986947991
0.2091471722458203 0.13949115940317147 0.031372962504810635 0.002401947303819207
0.22159848345875877 0.15778890004756962 0.016449576060443834 0.006450863443495377
0.22144486072024472 0.14930881238934082 0.024989684588235514 0.0015965552857789894
0.21214771307245447 0.13280063774974182 0.04011081894052203 0.0018327298371956795
0.2093293017511152 0.11513586483689521 0.060044007808315106 0.0015186532065820906
0.209265117172342 0.12484473623206489 0.048544706533252525 0.0024361046759873075
0.22597385497160477 0.13331172856043194 0.0448833320814153 0.0021593142903500754
0.22622008758776166 0.12181777624420008 0.05843746341644281 0.0008992170226429088
0.23557874671132126 0.1467755844064032 0.03487708853232223 0.002101288189943221
0.24373013949163513 0.14226606199125386 0.04524928525163568 0.0020091237786302634
0.24550559374167152 0.13001797181050012 0.06077858682050047 0.0023977391678759574
0.25257901484506007 0.14217959218269022 0.05303844907754083 0.0018625087195070374
0.2582824899037596 0.16310384385853344 0.03412784895527445 0.002101983697141722
0.24807165591312752 0.15564418766861476 0.03375501276838049 0.0020485953758259453
0.25881775712664 0.15457318107545753 0.04432431864216034 0.002934898616136192
0.2655549959969246 0.15087106968754668 0.055816783880112686 0.0019502146808228365
0.2680719543333612 0.16010002353451855 0.04856828651175653 0.0019752519356025077
0.2709312817597522 0.17782266146802408 0.03252755820309344 0.0013488160230818158
0.2776506186096328 0.1661218760998251 0.053705333753534985 0.001901638868463312
0.27600476575089694 0.174848049974339 0.04213951323829345 0.002722653987047221
0.2778491411183787 0.15699683479840776 0.06350372534999332 0.0014393531328058462
0.28778057195533463 0.17553366391060685 0.059191994741957375 0.0027133519532058234
0.2876445194489967 0.184426805282971 0.049979730984447426 0.0029967373141002334
0.28791293529599565 0.1967235879842915 0.03859254505234178 0.002434088944978513
0.2981489048222045 0.19508300655363 0.05961483041281567 0.00163985488807556
0.2982246788898999 0.20973631086474745 0.04743234019691235 0.0011310439869584212
0.302970156695951 0.22392431643335242 0.04777706745011161 0.0008349758996542421
0.30621257260362633 0.21855800834402764 0.05900528200302938 0.0014955804809207698
0.29652679322631026 0.21983317234370733 0.03576383992603664 0.0016834514873024088
0.3095555485299841 0.23372046851823758 0.058182869820816545 0.0004925344495337754
0.30887475009149923 0.24377598428835062 0.05089170072512657 0.0006149043722400792
0.3037734773293848 0.2409880595714948 0.03898969490335151 0.0011270678402909972
0.3075252627857963 0.25561357539844776 0.041569764678976 0.004665498861624009
0.3139711152305176 0.24369262582704823 0.06478637428439879 0.00033737655353577485
0.31380336426259753 0.26322885320187045 0.05609072207863543 0.011358021762060525
0.2104112046021895 0.10490931124910291 0.07407562649350921 0.0010466096394500903
0.22491074844915956 0.09905038199567093 0.08841626642729308 0.002684518868787994
0.2226583797196542 0.11038788630321848 0.07125059893031276 0.0018209945452368316
0.212241774707145 0.09726883050187214 0.08577978963941739 0.0014822389585699366
0.23617004367928277 0.10529903811253316 0.08750041708728644 0.001806259241461152
0.23282078141778126 0.0968295993100135 0.09706385205243237 0.0018709874059161617
0.24785787623715794 0.12249664315658453 0.07269198926074581 0.0012985032251219748
0.2556745103577365 0.11002049171006054 0.0980086062323391 0.002429490523694972
0.25267241535204255 0.11484637733129131 0.08823820846662891 0.0025521744027570074
0.25933264791740485 0.12510598896114916 0.08107162716964592 0.0012982810868920407
0.2627495073876516 0.11877497523960089 0.09330905517483906 0.0015300526402211453
0.2630945060941905 0.1353679390604237 0.07104562514075634 0.0009546163431131179
0.27417685236561684 0.1393560648678745 0.08111682588311371 0.0018721455945819154
0.28267022331914965 0.1385610121584095 0.0946786664620501 0.0022546395566484423
0.28194598770742507 0.14936584370549352 0.07991779022652652 0.0010365300574171315
0.2899349060207141 0.16926677124510697 0.06961451917480832 0.0023947713571967327
0.2898729951389133 0.1535558222813746 0.0886204148786334 0.0018028197487418524
0.2875225337759815 0.15945572480973083 0.07729936093200306 0.002230993606077486
0.2986411611541349 0.16386756106845363 0.09400141611675801 0.0017549599348730624
0.29551125137985423 0.16985691137814324 0.08039597817663584 0.0017524151843135668
0.29596687154845686 0.17883362522425844 0.07151607582836274 0.0010914486406769573
0.3056195072946206 0.18545234649359435 0.08670126617554652 0.001143680263850955
0.303968419966065 0.19120860097580886 0.07680185567577437 0.0013134746789885197
0.3097220597987572 0.20097167887067302 0.08278523655760497 0.0012655707190676372
0.31301401352709296 0.19584585122905973 0.09594578357170093 0.0008330491128404223
0.3074637803139558 0.20777822460449763 0.0708089686662528 0.0014171982442010118
0.3171712541854569 0.21035896327778533 0.09662828341526987 0.000548957163875806
0.31255734334226 0.22864953983491418 0.06963490680549717 0.0007080021979466281
0.31228219276426833 0.21639725384768396 0.07736189741382452 0.0005570647089489051
0.3190772874256777 0.22379484872892952 0.09264730039722777 0.0005583717322569774
0.323246190911393 0.23845461208651464 0.09737145914415307 0.00019404468150716804
0.31916943795247865 0.23513734177788448 0.08615317092396826 0.00042638633621217004
0.31860121294363 0.25434059485648297 0.07422389480319312 0.00586982283102289
0.3199098321908041 0.24585377406757286 0.08272549900942922 0.00032418991158066106
0.31962791859420464 0.26625921936605934 0.07299752072594348 0.01315367596202051
0.32320030218205903 0.26678367974635636 0.08485973978132322 0.014709270499335214
0.22123693306934478 0.07738043297884664 0.12281328784975466 0.002556326518810127
0.21845244060499336 0.08230325000075531 0.11251301301263572 0.002827279408410098
0.22509523635758996 0.08830499479990245 0.10511207332177722 0.002557043313445916
0.2134720768055618 0.08742254918664435 0.10073058775764254 0.0015610947973022423
0.20566049963107413 0.07585805369759158 0.11760746542636247 0.0018325472856510004
0.23388470878527162 0.08158100809552826 0.12448892776933315 0.0024280363343725927
0.233797948946715 0.08812612572675008 0.11278261973280605 0.0016818476332475575
0.24598531059221396 0.10172451204473543 0.0996985245362819 0.0021346351577858696
0.25128556686735737 0.08742525949081496 0.13088696805290165 0.001852414572868286
0.253560315951159 0.09543270426668485 0.11998948220025224 0.002164653018505649
0.265832119398135 0.10223457985690103 0.12406441479164468 0.0017372320881087454
0.2761629186745739 0.10941156992697784 0.1290804476062931 0.0011464383337334537
0.267931296951274 0.10999263741648663 0.11426606738937034 0.0009564884148232541
0.27223281222982376 0.12341501014681826 0.09959649539749509 0.0012204419937367039
0.2751124922534574 0.11891149306889189 0.11174887107229153 0.0021526550558641803
0.2828848675200741 0.12084979840857982 0.1217144864045094 0.0018366492150690542
0.2872191658618451 0.11829535643107969 0.1345015733416749 0.0006020199096730804
0.2924147897623444 0.13212474526347076 0.12417907954877133 0.0016941096857311197
0.2855080425728107 0.13498335657855048 0.10516566209152142 0.0018298354324895697
0.2923037406175317 0.14703381156754275 0.10142008324948866 0.000977637456635317
0.2936433908041673 0.14109965869505278 0.11320255497031094 0.0018568761300853953
0.3015307807781568 0.1519570639282694 0.11674498290314377 0.0014511785876048571
0.3015020773658471 0.1421402386928611 0.1304101904063794 0.0015357339686133229
0.3061891807881958 0.16371817593033552 0.11292405997014446 0.0014914048998928065
0.29874142075221366 0.15665796931957185 0.10301237153384878 0.0017522932598844046
0.3140055623746073 0.1711419736406877 0.12738770145263378 0.001119026952566407
0.31491763427387465 0.18841738550490428 0.10984175126851287 0.0010563092476893953
0.3083233295919216 0.17544367894363397 0.10434524932476727 0.001078995402549998
0.31655271754967684 0.1830069808230131 0.12126241412524577 0.0010974365819018828
0.32198368604807814 0.19045829845158835 0.13297899921921097 0.0005555708925784446
0.31942184170153914 0.20656995215040685 0.10782423970134418 0.0005648587826899927
0.31999633368892727 0.19846450377280211 0.11763108597891433 0.0006693737272866648
0.3231907792202237 0.21050265994082304 0.1180507040509271 0.0004112079295879577
0.3227855143134022 0.21860292035117668 0.10984998875606677 0.00038362219654117105
0.3260720819054037 0.20947973353986743 0.1305278220108607 0.00031027622203992254
0.3248840332305773 0.23296264884619583 0.10756284705082711 0.00033019755494688793
0.32940552238425114 0.2295732966484867 0.12849102729396047 0.00028567615503814265
0.3305107847635387 0.2432029335465009 0.12489105716490537 0.0002422202989611465
0.328427696334466 0.2505822620383785 0.11182562334525484 0.00018299079291718241
0.22496031637209116 0.06522992806724989 0.14969203232838207 0.0026231259290421236
0.221343448799393 0.06877631036033069 0.1392139346563591 0.001324467260221984
0.21211762301446174 0.05831895542880625 0.15730577846486457 0.0027864535494346366
0.22249966824050738 0.05755247236766362 0.1657435018661657 0.002164350299257145
0.23427354682047363 0.06397701149334681 0.16162333127853318 0.0027140458221470995
0.2399817553228556 0.07348417778781767 0.14657291015431811 0.0022939641887138877
0.24496697364434547 0.07017649576494263 0.15952904272642418 0.00214903999324116
0.2483754939002069 0.08025344626235724 0.1408461725759237 0.001250021030132154
0.2593587318102275 0.08004637255859519 0.15850804651191785 0.0023634532394944197
0.2693562558214012 0.08301902206407885 0.16790272976740075 0.002076858574908152
0.25907196751072303 0.08676659891291653 0.1435642256563154 0.001727909015761734
0.27528903585241066 0.0915394922685234 0.16225431904916737 0.0014981671354003408
0.2701518822689288 0.09490369970155121 0.1446772690141836 0.001410328406253501
0.28478720419847925 0.10194672751094362 0.16049210689749305 0.0012778014192219795
0.2943557630902558 0.11098782021557793 0.16666739840727274 0.0016939963187405497
0.2909643493324792 0.1124555027373677 0.15506735989867482 0.0013799722451863328
0.29794562274178943 0.13242506276948632 0.13545575471394958 0.0009293248668147078
0.29817194334328795 0.12460737517977002 0.15068843425144823 0.001201305494133039
0.30927403873026044 0.13483831614765732 0.16666515625580935 0.001332848526390943
0.3035269917440781 0.13578596077106778 0.14661000131413265 0.001057252567388415
0.31107940332593437 0.14677433398469913 0.15197441033283618 0.001136198359949431
0.31221517400054805 0.1561562523958674 0.1411210760780321 0.0010256643600463865
0.31528410510769206 0.14556620629763506 0.1691742104871586 0.0008482094257476533
0.32316601151351965 0.17121463578190604 0.16256103097206265 0.000744298130372182
0.32686136840374785 0.18446042737782228 0.16229027620577177 0.0005880011552710963
0.32207931213647456 0.17690601397664618 0.15018364084267083 0.0004470170732929009
0.31993707119286363 0.17867558737627995 0.13806903980308619 0.000934361151982773
0.3277746814326463 0.19553488773001185 0.15271672398094638 0.0003253375539000236
0.33200489009755824 0.20405047860745085 0.16567431734008942 0.00026284488556559387
0.3284702023383662 0.2074498954695967 0.14367153757193168 0.00028948318388303667
0.3348064208671246 0.21883398881732435 0.1660760825625776 0.00016832898970370083
0.33607930121545737 0.2380508391616209 0.1571617840971088 0.0001940833380345047
0.3332295596506057 0.23176170124823858 0.14616671644018975 0.0001965376024970363
0.33810949982023586 0.23786826160775784 0.16895834625674924 0.000129699829223378
0.33847935229163195 0.2508221448247639 0.16297862097177154 0.00015371195779955652
0.33654629395295 0.26576836205283105 0.14260991968618764 0.009759147822096656
0.3343309500390585 0.25030805152224744 0.13823723928568643 0.00014155692491765455
0.3378905758945075 0.26077102420004683 0.15342041140218837 0.0036463968847353103
0.21880251578643406 0.05278838584290671 0.17547465353499742 0.001585342208244885
0.2253138117857943 0.04781875110902222 0.19461439757529858 0.0014650830277865648
0.20796492772939423 0.03977948146762983 0.20401854608503875 0.001901675589165327
0.24166812113930486 0.053585473623262755 0.19843458604057734 0.0018794162607111322
0.2500550280857161 0.06522994363827346 0.17777016294410042 0.0015037695293128404
0.24285749788674518 0.05803073225270504 0.18773787113018672 0.0011720386221202935
0.2385989800433767 0.06149722178642453 0.17258541085730839 0.0019168331175663342
0.2615440916125784 0.0639666305967205 0.20258411292989703 0.00150707853751328
0.2571505339187105 0.06505517096631892 0.19138908268625532 0.0015717720704410767
0.2567166938642228 0.07309772879123673 0.1694818612613499 0.0016344909967851463
0.2696962088963532 0.07166686139061841 0.19759802411662827 0.001879916305844447
0.2665517098591753 0.07535275156589803 0.18215425495469428 0.002080695409985623
0.27831702989044155 0.07692742854778813 0.20431103017309732 0.001244817439821855
0.2806795263215971 0.0913131848236683 0.1746262976526578 0.0015188760000627482
0.2929332763832442 0.09224344005302013 0.20435988436164032 0.0017596362919937666
0.2929568133845179 0.0991815685238574 0.1885397706614117 0.0017593044182066572
0.2907716894481296 0.10184745553831578 0.17580137488941894 0.0018191598022181757
0.30175820006903614 0.10859171248472674 0.19383701175438633 0.0010306257314772326
0.3095868096193658 0.1191346223684544 0.1992230059978497 0.001107288928052568
0.3130924625895377 0.12956091605736425 0.19107801968540084 0.0019654685336360344
0.30400101072320573 0.12173834597333429 0.1729592809543363 0.001452759036832451
0.3196288941598698 0.14086838999243245 0.19728588252847942 0.0013625828514684198
0.31499466678603083 0.13805350192075405 0.1812416169618512 0.0014692188242428582
0.325218058798962 0.15134962103740035 0.20394542032854435 0.0008878758527465239
0.3208353345721825 0.15016303310617093 0.1861518591828476 0.0010908388737915459
0.32027328689134554 0.155006685677795 0.17498259257591475 0.0009642012929040741
0.32523420911986467 0.16090889169405703 0.18823971990114075 0.001060973495243872
0.3288705166072784 0.16350969184992714 0.20385007664306293 0.0008860529569809598
0.3244348080658588 0.16721574061293346 0.1742983687706916 0.0006997640833339187
0.330514562363278 0.17459132463476293 0.19577177809716603 0.0005072381938366945
0.3286055727283215 0.17510544363960057 0.18471150047267174 0.0006092826809243507
0.3322820634886933 0.1864324599128428 0.18904907759757883 0.00046611446458533695
0.3361761775413233 0.19592964431016555 0.20098927575894648 0.00032945760339984665
0.33461333926604664 0.1983843069251328 0.18823437445445879 0.00037494698696351447
0.33898861522346857 0.20871344497392977 0.20432075849337517 0.0002267342675479398
0.3357696388391553 0.21004153617935406 0.181010333089774 0.0002406427312260746
0.3397026988379365 0.22483272472268664 0.19248680214698977 0.0001440541266689467
0.34165128912586296 0.24011047728172016 0.1930218363795958 0.0002008973266925776
0.3419471319159819 0.2310488015288933 0.20242382858857352 0.00018476755179065694
0.34122050390600017 0.2481862313132029 0.18358096770687365 0.00015646853155361248
0.3438096239262033 0.2523664525543902 0.1991714759844504 8.854460220281794e-05
0.228743357016597 0.036022253134955974 0.23613624408126851 0.0016025678024875086
0.2278092888090189 0.03962499601955961 0.22293472280430254 0.0013871998114112808
0.223222363493671 0.041811136598168486 0.21117522168338654 0.0025240047630068537
0.2081524729413114 0.03633347934623633 0.21598334010270057 0.0020875588594694953
0.2138137093057897 0.0343523724366486 0.22810188262804118 0.0017097106167920939
0.2399081612268923 0.0441485517361684 0.22554982228699974 0.0020912093465634803
0.23485713110982234 0.04618687464865486 0.21083773720458363 0.0017979190765550271
0.25515722847992733 0.04995356623634462 0.23214309985016549 0.0014538938859468198
0.2541499795423952 0.055559564641407475 0.21206695111284868 0.001600841946440365
0.26742838968086763 0.06371130823313878 0.215869544682827 0.0020388236562364228
0.27372302260535647 0.06509681683426054 0.22578591994941943 0.0014865056930510017
0.28122940554933634 0.06817318088878964 0.23778618944819777 0.0016322694026216886
0.28913086331219806 0.08073013205234177 0.22345419000749706 0.0010693154667517667
0.2804357758944167 0.07428695277109054 0.2176154755676604 0.0015313000014944688
0.29358630304620115 0.07987602097070762 0.23943247429013131 0.001406081978640695
0.3032211768059868 0.09649594302832434 0.22849259371313996 0.0011309410407776492
0.3040959219126881 0.10606568284788401 0.20685260611522474 0.001686316495043881
0.3087231603641423 0.09917664138441079 0.24142164475104416 0.0016646173021184181
0.30962993243249054 0.10688511869071042 0.22709325300070632 0.0013268467312890161
0.3152918495369524 0.11394771851767974 0.23440501748586423 0.0007084159307641109
0.3140459691530676 0.11777034531611424 0.22034583075204442 0.0012223121459569556
0.32437874479329787 0.1298005061412294 0.24247475666173993 0.0006703555665936373
0.3238849464068841 0.13520147712069686 0.2290878113196646 0.0005845955749169972
0.3177105783543062 0.13155167548690766 0.20530572502531608 0.000516330149835476
0.3331719734109611 0.16065176323502384 0.2336101469147469 0.00048400320538736683
0.32996748726841363 0.14732866561452973 0.23719366732801514 0.0009613480043350858
0.32772408228050504 0.15240392274093367 0.21553713788990606 0.0006709971596115882
0.3330047442658385 0.16856281766838477 0.21951366360508262 0.0004573678299206873
0.33249353446389307 0.17396626490613282 0.20760973081868656 0.0004500909331755563
0.33707976443714033 0.17725146488435883 0.23213947322841863 0.0002464944052988134
0.336396628999853 0.18639317023965613 0.21517284594875316 0.0003733111799638418
0.34271840594306424 0.21092424771765478 0.22906928059596066 0.00013189383692898944
0.3390232860253158 0.20097662860898843 0.21311903699708112 0.0002970748549964244
0.3411946805607485 0.19826317165784388 0.23186465366579784 0.00024921815405611406
0.34148128088373636 0.22114343082989932 0.2086522078939017 0.0001742236002254745
0.34476902876490145 0.22366771860840362 0.23101968529571526 9.514497692900202e-05
0.3464509005005647 0.23722575520946654 0.23298983228243694 0.00016995177867910923
0.3435851154748664 0.2421895924427673 0.20564209256581145 0.00016611945827291457
0.344394781129157 0.23458048519871658 0.2188064262942783 0.00017127009233782763
0.3460234116487463 0.2578594957909379 0.21542963504051488 7.905874116189884e-05
0.34789359102568057 0.2520422147450764 0.23497219177641682 6.788167591900934e-05
0.349866346145769 0.27984822268918447 0.23911009102616776 3.12014050599766e-05
0.34778432800857506 0.26989647016380225 0.2253284878425852 3.517177451947279e-05
0.2150033587353204 0.02874499081079768 0.2501202394414813 0.0015233081075003865
0.22077031999563346 0.02793445656063666 0.26009228938497286 0.0012686759109667833
0.22286329831427337 0.02539532089634087 0.27339028029602713 0.0014461877446434771
0.23259477849066196 0.03322683353287827 0.25273032367421633 0.002382006918983048
0.2496136423147386 0.03519782555130538 0.27666325001123404 0.0010505562268225109
0.2324925381163932 0.026804619823104763 0.2794691379408292 0.0015939865427688923
0.2316475375211616 0.029860705134840126 0.2650544328447117 0.0021209294707778825
0.2418369326390205 0.03892873142568226 0.2468805450383165 0.0013910028938166489
0.25321931302490486 0.04029993828194539 0.26274962540827723 0.0014005793401814255
0.2415292271818357 0.03546192112715372 0.26027274316769 0.0017174730779170025
0.2595685875610132 0.0421980662671919 0.27153314952264906 0.0014413717647377437
0.26462242748640846 0.04910884590862075 0.2578486952995946 0.0019911230956124446
0.25674581641310523 0.04664838197702267 0.24678789516339567 0.0010715202016716686
0.2697089411450321 0.05615820544565571 0.24464685433106792 0.0015932249051871423
0.28626029078448334 0.06284452477208069 0.27168752890677467 0.0014976086561677643
0.2757483464975805 0.05256834055165983 0.2738240845434966 0.0010166365325798422
0.29079597351364084 0.0708366645270023 0.2588798129867841 0.0012635050627930243
0.27961603516653516 0.062214901779510674 0.2520698770001203 0.0014818196093791816
0.3058200154253819 0.085219598777237 0.2706907575938056 0.0015953949587710276
0.2996381324306506 0.07594940099315824 0.27548053995539057 0.0018211278511188877
0.3004276056611196 0.0821469721315333 0.2589015002961076 0.0011768140928351963
0.3029108715121458 0.08876652982877896 0.24863438895629075 0.0012038030370779289
0.3116091210967283 0.09992410013949059 0.25295847858025217 0.0013363297660557126
0.31544955234715566 0.09886388123405837 0.27432250947627385 0.0011052160797744136
0.3177972344782657 0.10720911196086894 0.2628883504765926 0.0013380230817703965
0.31640516390611906 0.11003665140222792 0.2489687542285286 0.001363338786824034
0.3261248981953461 0.12102504045377784 0.27187638712071116 0.0005324610474840421
0.32644547826250203 0.1272276255340999 0.25952231449414254 0.0005754082782362892
0.3340939282530986 0.13921949814590745 0.278010305186771 0.0007512969304326057
0.33659946618058106 0.15294864798060936 0.268537509445754 0.0005608708585967461
0.3310768109745782 0.13939317650489924 0.25841213089249404 0.0010454799004005063
0.3325657369779038 0.14870320723788805 0.25070909058991825 0.0003911762154031492
0.341067073951731 0.16706797407531365 0.2747145764816794 0.00031839708841440454
0.33792937571316317 0.1656040674538771 0.25450439171952477 0.00017101077315998886
0.34034441001554366 0.18446376491155747 0.24396572354636678 0.0002797257809937416
0.3414933049527667 0.177495870152808 0.2624660578156905 0.00042652532472606144
0.33779739417887683 0.17139403531297792 0.2450614496084909 0.00025051553366501006
0.3433925144205396 0.19169602929853302 0.25606846175424003 0.00030224789642076044
0.344691555983632 0.18946705976142428 0.26885669631526476 0.00021771607993479903
0.346921795582514 0.20728701637971148 0.2659277452300942 0.0001452960401409852
0.34461794102030496 0.20754543956043958 0.24702171264640982 0.0002136237142624105
0.3488717481816283 0.21321577567301253 0.27549245590070504 0.00017915645494155874
0.35004944431447566 0.22512559559774192 0.2757315541131782 0.00024187631420285883
0.34918692734680407 0.23245276569943651 0.2613320334121747 0.0001393163965832965
0.3464913518424749 0.22479313213335783 0.243983969683911 0.00014555269303189727
0.3482093557161487 0.23745205700499386 0.24746945226290096 0.00012724566109719674
0.34998364749411714 0.24470720381115557 0.25958518836457023 0.00016833778817905602
0.3530669609588277 0.27609633261380906 0.2762376843299351 5.017170634414119e-05
0.3515705145062544 0.2409971704558957 0.2776836245283395 8.750037037722013e-05
0.3518093061250015 0.2582172086111278 0.27187984799468445 2.9248073969070684e-05
0.35106764224592935 0.280213592415902 0.25157773794501403 4.6339041798808634e-05
0.3490043266942796 0.24948246510377928 0.2471153296576606 7.455651517092066e-05
0.3519725231017498 0.27559344757338716 0.2646479513589969 5.116420151430397e-05
0.34945986019951725 0.26191686889275134 0.24463121712957056 4.918290909177795e-05
