x y z curv
0.3463317041787395 0.26663534243381937 0.3784169306047447 0.04977967017650681
0.3483595605696299 0.5077438704909638 0.38339386146115056 0.04525223979378138
0.3490388224347192 0.5843699821249622 0.38506611215773706 0.10927233098238172
0.3524823162004573 0.3166133129393816 0.39353294446094433 0.1256579591950107
0.3476150697247896 0.5540837759639614 0.38156312762954103 0.03343918648724532
0.3494817299057322 0.5943549570712929 0.38615584560935756 0.09163535879899713
0.35231923994873215 0.4454349267901889 0.39313384704389853 0.1194373120962191
0.35148547150337894 0.42629627425220756 0.391082430284246 0.09596846716459455
0.35159274213509606 0.5267166131268451 0.391347940399021 0.0882256463566443
0.3517679170543173 0.3278892074684019 0.3917756720828629 0.104027877704266
0.35278657573195715 0.24606630349915454 0.39428029894570776 0.09989433038785742
0.35184700160601046 0.3599919164011217 0.391970741388019 0.11877430191328177
0.3512573560280646 0.48058978464393454 0.3905221314987082 0.11686711600395182
0.35204136463719543 0.34928929661418573 0.3924487106359593 0.09751645717699281
0.351140331679223 0.40952637148467586 0.3902331002456777 0.09345664300627644
0.3497520058854917 0.5667166298886784 0.3868202910191804 0.10356797082197557
0.35160165770371915 0.5489437520076685 0.39137023156448786 0.10410576293060671
0.349455153689881 0.43656419879677655 0.38608792218060767 0.06589598623779234
0.34976290522924386 0.4687226480866661 0.3868455235220262 0.0742985028365436
0.3547930816352861 0.5087847253228207 0.39921219957206333 0.1432584433284365
0.35294967648050085 0.29504647215083607 0.3946816082767326 0.11682129757291805
0.357206086165286 0.5264825504215418 0.40513897598098436 0.142997999972192
0.3542705650481212 0.4679004009313624 0.3979282759553522 0.15148910748684993
0.3533730627514975 0.5718778412012494 0.39572542373969327 0.1234197830910493
0.3550787661492101 0.48141875333520096 0.39991347252956855 0.11632209276771373
0.3538101655970094 0.3060643235688611 0.3967951925800591 0.11761214862271303
0.3528519286833745 0.28353553296643674 0.394441368100856 0.10423497407781175
0.35699159078306336 0.5431140262252385 0.4046123959649383 0.17518515988549963
0.3536432853201608 0.4542179840370735 0.3963874338052283 0.12553174823941507
0.3579883045587693 0.5855805294682317 0.4070610067858936 0.1387898516825858
0.3564641862961576 0.5625642125980502 0.40331732738000853 0.12716638419632434
0.35447624431824276 0.5189414303556642 0.3984341676179857 0.09256721543883283
0.3527220459871642 0.4934211014023459 0.3941253582291579 0.09122386426089933
0.35317745837701564 0.39912399332029247 0.3952425417369233 0.11183808136732862
0.35280945406123293 0.3746994631740988 0.3943383467443108 0.12362686885745554
0.35414115674063995 0.5913497891116212 0.3976121990425859 0.14392418081114403
0.35345084683395145 0.4167616789413372 0.39591425617770837 0.11079259738094065
0.35482050967392104 0.3356679551505014 0.3992771557442182 0.12061807151976515
0.3575077221626486 0.4994189209287756 0.4058801494580093 0.14059171531167095
0.3582826387969588 0.5959310768530887 0.4077841085097681 0.1350897267220645
0.35779327846063147 0.4666071552836467 0.4065818953310789 0.1609587047900518
0.35753951404700735 0.4401845187286934 0.40595834776786 0.1272112850211994
0.3585108623169748 0.3879510370679086 0.4083451357265221 0.14426386691439158
0.359041632607357 0.5122980067653689 0.40964933956058247 0.14891174397623877
0.35708537257552664 0.42808394321291 0.4048424355567894 0.11138838732385171
0.35331795860255166 0.21492988965292353 0.395585180889221 0.1264464416939962
0.359423051471608 0.20672475080972397 0.41058655845574893 0.15333266240681964
0.35607629850378175 0.3182964476862419 0.4023629481079477 0.1450849772474853
0.3574766765081163 0.2810736903436998 0.40580394395018293 0.1325730010299161
0.3554094629570864 0.26622186962897676 0.4007244059882263 0.13750366994853247
0.3573907167796454 0.4541335896855637 0.40559272450275335 0.15089601089508303
0.35663886569321857 0.2391622997988596 0.40374528298741463 0.13715683554532734
0.35753374414379513 0.30573199435927884 0.4059441700152091 0.13758662954316414
0.3593692159981306 0.4907599853344877 0.41045427442970234 0.11118477548827975
0.35843766702910795 0.2289773567570883 0.40816528094414056 0.1512898012850189
0.3565129713113369 0.4071316471927653 0.40343593648006115 0.14476845962444992
0.35538223850186323 0.22438497339582697 0.400657510309388 0.1357048062157122
0.35956143157245524 0.3627316767298534 0.41092658475592614 0.16083992082096588
0.3560585862019098 0.3672823298054305 0.4023194256040885 0.13690287015659505
0.35782681007828426 0.25882546554012453 0.4066642889109333 0.1392390439018995
0.3590538848831709 0.19410772572713733 0.40967944573905934 0.1530020188104111
0.3570051463030692 0.3512574544280423 0.40464530430429213 0.15981772281884774
0.3586883637119057 0.2967810875078202 0.4087812905076294 0.15013867742056813
0.359161548262443 0.24745577308430095 0.4099439951959128 0.1405108279653803
0.35982144841454705 0.32933314318066637 0.4123932219608442 0.13582965937950342
0.35975772485223734 0.37582467694754 0.41202822975262543 0.15175938497665153
0.3599463014014414 0.4022907795591527 0.4133585480386507 0.14459500870136657
0.34350724517301445 0.10670732296307747 0.413230059772414 0.11893989490107042
0.3460425305347634 0.4866934283623917 0.37770015729204964 0.0256291725913923
0.34624831260630057 0.45487737270859385 0.3782068882948584 0.02505777240384619
0.3461168813448062 0.37259396605557005 0.3778860652053606 0.04794516865529538
0.34663366342763524 0.5346180450503989 0.3791519695152672 0.03090316254155921
0.34610382679652757 0.5910002515747896 0.37784796799481163 0.09639312411592292
0.3464086300198621 0.5734654945473712 0.3785977212702347 0.06360837851731803
0.352448257859035 0.17132514651947184 0.39591353445911426 0.13140517653107703
0.35336724849384876 0.18213493941173622 0.3965428902957092 0.11767042226786305
0.35803020890193327 0.1806307068549354 0.40740107619667965 0.15012091455045504
0.3362932048712878 0.33643272896044707 0.3537530101068855 7.850304699680168e-10
0.3369450099602047 0.22577099069104006 0.35535600888155816 2.5663945144888624e-05
0.33646019576459385 0.287004680827446 0.3541639605910559 3.09475102051575e-10
0.33458878060855624 0.2180618946378104 0.3495664286552332 0.00021375528010698474
0.33726500291142525 0.3037642314427719 0.35614130433747504 3.5448053348465486e-10
0.33821186739094494 0.3450971602452019 0.3584673981948388 9.564392969335718e-10
0.33845773386757244 0.3944952985274041 0.35907091259304585 1.2618948676878232e-09
0.3344881469411767 0.2630306385419594 0.3493185860519483 1.1219643486436915e-09
0.3365227158540144 0.3133391542978231 0.35431725121838087 3.641218858551935e-10
0.3374748113351092 0.3848657070845217 0.3566558174376187 4.548614718700175e-10
0.3387778672404922 0.4067714650322736 0.3598573826625512 1.3259819808947248e-09
0.33740480933694617 0.3586984558246815 0.3564841403095172 9.041759344013453e-10
0.3363361886477509 0.2752688475270454 0.3538594010400693 4.371398493745599e-10
0.33363434801672065 0.23691451731883953 0.34722097884463676 9.90610177906915e-06
0.3370015958734738 0.25101526078548164 0.3554947319372721 5.348561021784228e-10
0.3394021049559292 0.5386089503017357 0.3613886948181295 3.1366191090836256e-09
0.3412015909057976 0.5188331237214736 0.36580791788669226 3.948710218038394e-09
0.34240011787973057 0.4814335241308332 0.36875164981606684 3.802628466300975e-09
0.34108549155706425 0.4184467960171377 0.36552430497054367 1.797829538140901e-09
0.33991329058996156 0.28066781088030923 0.3626478172552873 5.694092870196936e-10
0.34363490174906425 0.5562578684774847 0.3717827530996577 4.064015107761339e-09
0.33934946334110466 0.2953656725617039 0.36126303004276394 8.391235248086558e-10
0.34060330784924403 0.3193562225927916 0.3643416932589879 9.521531504594073e-10
0.3405218148955008 0.3310974706334099 0.3641414000536134 1.1911541271241841e-09
0.3420766656312149 0.5800986897512578 0.3679558979191163 0.07180289214381498
0.3425434443680879 0.45939713768653206 0.3691039378970764 3.0262563704638755e-09
0.34045779514151214 0.5281155195732345 0.3639812690263459 3.1542815335572555e-09
0.34012103097666085 0.5081804200662733 0.36315458540456014 4.42787980019932e-09
0.34068190999681025 0.43621314928214505 0.3645329815878344 2.7137473094315225e-09
0.34149249530059106 0.5683044261829169 0.36652154762196976 0.026798927388230174
0.33516028104242257 0.4122255183790392 0.3509683769752433 1.3309814075688165e-09
0.3370530788159426 0.5663318819419647 0.3556175025461571 0.01152905338752228
0.3369451718237342 0.5500997271978765 0.35535252688986174 3.3547094778629483e-09
0.33683480487765294 0.503246667093996 0.3550817849258609 2.2446467665358826e-09
0.33561038891249834 0.4445868210698618 0.35207397927212525 1.6976124764004344e-09
0.3367716930382494 0.4929222733317734 0.3549268154668645 2.61076616152661e-09
0.33573352022718783 0.4563895943187565 0.35237640060621545 2.8297042617118927e-09
0.33414970698536706 0.3258304513692696 0.3484862232621596 1.2915748100335726e-09
0.34087132574437046 0.24374585964861742 0.3650022248936887 3.593721060769214e-10
0.3437896842324518 0.34913752212922944 0.37216898581075286 1.1555074247562783e-09
0.3437104548622866 0.44563192598054063 0.37197155266313237 2.24463509688427e-09
0.3456273098370957 0.3352300128597099 0.3766840513025232 0.02186701276290917
0.3398913466321135 0.21141681666995307 0.36259555220533446 7.793618148429316e-05
0.3422223174169831 0.2299067148481992 0.3683217299318082 1.425982326876023e-05
0.34512615903009786 0.24276090705224537 0.37545549482232216 0.026768687389640146
0.34574306088090906 0.46650080589698995 0.37696464152522163 0.02446144613162733
0.34503736237761107 0.318670359925169 0.3752351505503662 0.023552383710323244
0.34356481994068433 0.2193696830996153 0.3716202836566135 2.1691517008642047e-05
0.34448355727819924 0.25299988507299753 0.37387646049887835 2.3562137833998867e-10
0.3439115983560943 0.2905592542969909 0.3724701929723958 6.412409599499485e-10
0.341713562545805 0.308885867059278 0.3670695470202411 9.741203621102617e-10
0.34531126775091875 0.2777789388906323 0.3759092585238744 0.020905841722095416
0.345373174785948 0.3049503457462662 0.3760605675847292 0.03342876548907425
0.34516929563522597 0.409246555503775 0.37555667080413724 0.014786678956299234
0.34170516009438473 0.2615996868531347 0.36705026774701444 5.055676133496768e-10
0.34142645770834934 0.27064696433591307 0.36636529294265374 5.900365336645944e-10
0.34309312560906646 0.4973785549211175 0.3704532743252909 3.7173496476269715e-09
0.34208683648831345 0.38851069885279943 0.36798428335061584 1.6309944723382318e-09
0.34192036019083216 0.3710556756398911 0.3675758063604994 1.296696689583163e-09
0.3414413078904178 0.3582792488133447 0.3663992021423724 1.3729347700158805e-09
0.34385099288615756 0.5098546373856191 0.3723149200575931 3.404252852711668e-09
0.03442655975551919 0.3577147374149425 0.327413475247286 4.069527158648667e-09
0.030568809143856786 0.5208380437125556 0.3368959814317445 4.448658436811929e-09
0.034414552443751786 0.4491308370237639 0.32743783042744595 4.657353087114627e-09
0.032869956915071157 0.4263703853735975 0.33123950673016617 4.916162722148678e-09
0.03169274619201421 0.5316755880305091 0.33412998672666505 4.94907641898215e-09
0.03162410900926724 0.4652121840946447 0.33430263635773155 5.040922696840839e-09
0.03391752209627264 0.4724188342292831 0.32865942211392607 4.96039110169835e-09
0.030764049847216826 0.5888647551631336 0.3364117427154585 0.09793901577779324
0.034346051218183224 0.39437565526468676 0.32760948107346805 4.234671652423016e-09
0.03329039838068766 0.49515171833949867 0.33020113222839187 5.050805550235251e-09
0.030746748481172134 0.5571043371523815 0.33645611417045046 6.523669921904246e-09
0.03449844589884551 0.38307110273815426 0.32723516466983227 4.828065179064798e-09
0.03461354240328107 0.512795529691265 0.32694461444674294 5.398660630368263e-09
0.03351023622003395 0.5770670644960525 0.32965558552097496 0.04372110177518789
0.032742618235013204 0.5670853048724736 0.3315448299897865 0.01025069436663508
0.03271061618147988 0.5441840442018251 0.3316248688249095 5.693864246891988e-09
0.03383469193507142 0.4381624951329197 0.3288651648860191 4.737902220577411e-09
0.3304244182210514 0.1279109818014903 0.3737557307212379 0.0019830368723310595
0.3342256664148848 0.12387227221028754 0.3828212781844044 0.08440508938555294
0.3287763942983926 0.11558996125394881 0.3801349479179618 0.06599172083489159
0.3283825406778321 0.1051200152862998 0.3875682019773368 0.09946039478307762
0.32025097265973956 0.1047759586937855 0.3764966149131854 0.041833125887571015
0.3150616434769684 0.09583303856991851 0.37711873429537246 0.030607911047404533
0.3216924871363841 0.0970276471149934 0.3853742201930267 0.10436551901741646
0.3079762633285649 0.08549006486261929 0.3785450033875143 0.0656940625920376
0.31227555278231056 0.08181937378702248 0.38733059076110665 0.0889537668716563
0.3106459534567519 0.07460909933301847 0.39277262564286836 0.12023072284974082
0.3566851686156868 0.15307618171710285 0.4097821564995529 0.14460049540558972
0.3511595303567784 0.14048208243451127 0.403529324013327 0.12985255853420702
0.3516885535401758 0.15011122876561284 0.40071232858900935 0.12670076044962583
0.34517743762646763 0.13653041305567098 0.39443810500072374 0.10683094404729239
0.3410025140545271 0.1245500665791165 0.39382793584497583 0.11372104533790171
0.2930013605355386 0.06710966241314884 0.3815599400234456 0.09760028392224757
0.2698717877994827 0.05449860814196766 0.37611681346691767 0.06196674272753981
0.28466991124917307 0.05793331035416893 0.38357980084630705 0.09139054200878134
0.2711986413276686 0.04557727163957205 0.3874756817473749 0.12159830267902151
0.28454866697767894 0.05083868186350015 0.39169230810522065 0.12762992635778414
0.25630076956876974 0.04458267184041268 0.37913895163011013 0.07998360635743423
0.26290117254285683 0.038132222631334894 0.39065119120268355 0.1575208066176147
0.2533155985166147 0.034678093445221575 0.389202005606606 0.12439550435089597
0.23745053002422994 0.040329360004850906 0.37487465829479616 0.0215422830401138
0.2429482331530087 0.03433881795249739 0.384307289685855 0.09821954429722751
0.2277706720198266 0.03583572794289225 0.3764885777175313 0.06768370488048421
0.3046541971396031 0.06459181650010277 0.3960348306841833 0.13711720114476478
0.3130671785289529 0.06783579431352024 0.4029175518235905 0.1609984738939198
0.31967362267378374 0.07969899724444417 0.39859832279804075 0.13622064300629722
0.3246096525450711 0.07690530898860934 0.40848006365361017 0.15121476529570774
0.21471096056141994 0.034070113098099666 0.37516931185397856 0.035596926069377186
0.22415051312599654 0.02935705270783127 0.3830570209949653 0.09480401537118291
0.21365596657161506 0.026920949381258243 0.38361845405065764 0.13361718727624303
0.21189495792565993 0.01992019315049051 0.39167646889385477 0.15963759664723537
0.203616060120327 0.027145274638225345 0.3810216798299166 0.11637643093522118
0.19093651017006186 0.02268124361020235 0.3854148251578615 0.10580702961958317
0.18164245022085268 0.02677329907912838 0.3797650762606698 0.06772928977264851
0.2009925824604279 0.018403838160670292 0.3913463414582834 0.14799052494821882
0.2791015718489199 0.031191014240223663 0.4118496244738562 0.1383248274008721
0.27008877155409905 0.029526458434944936 0.4056880425027065 0.15287416541070173
0.27333549342970875 0.03697435227483435 0.39934623088701926 0.17517264891717504
0.1755662891789001 0.019315829330578255 0.3889884364389294 0.1128185950626449
0.2604479922146954 0.021703479097228556 0.4092636338599908 0.14502310525985374
0.24816267041950982 0.026494570915730153 0.39603985772627925 0.14538472946808909
0.15542214709109237 0.021182161298962922 0.3884553216620776 0.11765323146006271
0.1409115552147177 0.02150801949903676 0.3914221482526464 0.142775565034886
0.22800138378739895 0.00843444989460431 0.40980696045901516 0.1221916389139995
0.23504829894856177 0.015539762720572104 0.4040592030902557 0.10967231369899907
0.12935153204653435 0.03225011853262443 0.3819531235174058 0.10274780076281796
0.12485102318746871 0.02778610501455725 0.389122104315056 0.14485418639181058
0.20973646632787182 0.009269954087395779 0.4041332672375064 0.14549219015788697
0.10296879850549814 0.03941076246945402 0.38572646820734435 0.12754022367611148
0.1847011593176817 0.0038460745226150746 0.4076963668100076 0.14061285944842594
0.18047321080475426 0.010436957829144855 0.399407727712533 0.14544364073780922
0.0865106855244748 0.04875632674414452 0.3855607792252495 0.12118955399966433
0.08648105711300069 0.04037499972761273 0.39540255806847036 0.14107811819224647
0.15733880510080572 0.007697573610444954 0.40445354507448766 0.13077387927036546
0.16943249811185757 0.01229782823705184 0.3979546500517627 0.15332669423994347
0.05671187243045817 0.07496262530230421 0.3836321391870773 0.08276020473848185
0.04703811517840005 0.07900234838246979 0.39102720959132353 0.10941786655096365
0.11390743628250145 0.024643638594051137 0.39738214868838756 0.1384502526623311
0.033490783311679685 0.09852225749116339 0.39080666445194767 0.09950227336634533
0.03981497702798448 0.09199917842531323 0.3878386167417923 0.09379227768151084
0.10453719652755399 0.030199930413893343 0.395886175340796 0.1351911922860822
0.09514462024633194 0.032708322150477635 0.39842984023530637 0.14238546373623562
0.03699962272685815 0.10752301304944405 0.37791941183608796 0.064469866418417
0.0881098592014239 0.03041313556818063 0.4060676684596214 0.1588246615146856
0.07889818146210853 0.03445797156965308 0.4086024934643528 0.13856059151801853
0.034091587413575035 0.12016891764834484 0.37216463204117445 0.0019251252847982353
0.03903747205125388 0.12114221034786204 0.3634840659390273 0.0019125038260736124
0.06309511815884145 0.04578565387290816 0.40963776543996633 0.12573371651105045
0.07022254981445826 0.04496590507100509 0.403348830435065 0.11888934851252274
0.02466136871204145 0.1402136291964648 0.37428569961725433 0.007755110854858894
0.040029714130120186 0.08325314446370018 0.39557625875498675 0.12715295450951275
0.03311161589884533 0.08086347284993002 0.4079448248097392 0.15507503683756202
0.020981042592256898 0.1630151631450958 0.3698050398474402 0.0014092579550998396
0.02209089775231977 0.09565963336070361 0.4122126797516067 0.11955766599275518
0.006947583152635852 0.17025154857567704 0.39743709613946493 0.11829133149449249
0.0027451610632086803 0.17765637581460564 0.40603017177400896 0.12581036109221677
0.01762149963328175 0.18571027912902716 0.37057415347345074 0.0008008857996691968
0.34967072073718586 0.15892308248128129 0.3933276198980698 0.1259368895276716
0.34545093541099164 0.14739526904095196 0.38898081900673415 0.1061587110171846
0.0003707038446710807 0.5148105409871118 0.41125011701690073 0.12775841823312478
0.00041772157821917916 0.3680134703961486 0.4109771127614554 0.13739651404796516
0.00021512501611109446 0.26989790802948815 0.4121534715397346 0.13211201892205857
0.0001544106334945131 0.4924921806055258 0.4125264416060299 0.15675390130180442
0.3476990054134109 0.17403750021108844 0.3845045150980304 0.08246933734162819
7.493431034477817e-05 0.5619399998998991 0.41302513055317736 0.12807314631283626
1.0986035452060903e-05 0.22763170503687227 0.4139820342215487 0.16679943477648912
4.043707695829599e-05 0.5055747056337526 0.4135449578404158 0.1339435189794716
0.33600249321893866 0.11702783584281809 0.39077219769016086 0.10494486758560524
0.3357345500000508 0.10786505261977192 0.3973882615848317 0.12983505793803388
0.3322217479252031 0.09751598008926128 0.39990052321689346 0.14022573703403757
0.33769163864906093 0.09921096689982942 0.40757883711111087 0.12522646508115154
0.35536196369875983 0.1651582109739026 0.40353916244831267 0.1520174290621708
0.3277656125914083 0.08741556148344568 0.40286829912594985 0.13799672159064819
0.34857568011701595 0.1285415079319734 0.4052924762928491 0.11095171125220678
0.34422250692059375 0.11584750899704022 0.40521728156210823 0.11841194482547514
0.30455356367576886 0.05554405635310865 0.4061125674329595 0.15316579724206988
0.2933144168777211 0.05366880601836495 0.3968662107187454 0.15568034615907989
0.2871906703227242 0.045802878935338985 0.3998376831246545 0.1571558892195954
0.25809956850053417 0.03081608080795279 0.3967093756286155 0.14227338330341263
0.2478225198755196 0.02007806692836498 0.40372231502476563 0.14147476404016854
0.2375559735478821 0.024640793210366746 0.39390782415889447 0.12396110819981127
0.2960444473959417 0.04775559548609014 0.4064801585044317 0.1404096329488346
0.28953593922792586 0.04035043310502873 0.4084572318381145 0.13396938854467152
0.21739723722492726 0.014241401297944338 0.3999161471029222 0.16395812376186952
0.22565299652201623 0.01882134955129085 0.3962427541932069 0.14786330963270203
0.19582623586621847 0.009909573363474361 0.40125113039151994 0.13391440926424017
0.1679518086668379 0.004028208196468198 0.4080621696634853 0.13610487184946604
0.2902468244611233 0.5563788684445716 0.20618340131587043 0.0004521736318115325
0.29020669322994413 0.5865754458972028 0.20531784214915208 0.07786460862077754
0.2905601964384278 0.5456392784455135 0.21294227662516427 0.0009189749799363601
0.2905906589463816 0.5681479511921053 0.21359929865578398 0.01177658422070599
0.2901702136720816 0.45670901745033277 0.20453104307078035 0.0002782242812463607
0.2900106866134767 0.35355921326032597 0.20109032859833784 0.0004313359783079155
0.29003200611637625 0.3736379329485454 0.20155015229729772 0.00032045365346258846
0.290120836763293 0.3852082871579829 0.2034660711082858 0.0003543748637193958
0.2900126193828377 0.49053162390255683 0.20113201499041805 0.0002826796550273003
0.2906514488132927 0.5934604906018873 0.2149104277939258 0.09896058294940073
0.29015349102247345 0.472508093707692 0.20417036530847743 0.0004933173416394856
0.2900127694528053 0.31028990642303195 0.20113525173228408 0.0002398390378389358
0.2903529360250666 0.5357576154937461 0.2084720387228782 0.0005879966518098949
0.2902884408471197 0.5144853321192109 0.20708099262633967 0.000593202281797637
0.29034301478012703 0.437600995883731 0.20825805514324586 0.0007355104006358688
0.2900000065565109 0.5341601576662407 0.15939009477323304 -1.8102998019393366e-14
0.2900000065565109 0.44580763961675773 0.1376812765416315 1.212285358579893e-11
0.2900000065565109 0.4408620831206448 0.18568613801004188 4.1036341724793256e-05
0.2900000065565109 0.5665281012316051 0.0671962657106768 0.007536124425816255
0.29000000655651087 0.41963620168703014 0.12987157622434573 2.1950659994809196e-10
0.2900000065565109 0.5345565479885195 0.12185303539970022 -3.034641421346571e-14
0.2900000065565109 0.6000194897466495 0.059919925823903125 0.0951967625496089
0.2900000065565109 0.5897868906661873 0.1397571033588258 0.08886384677936389
0.2900000065565109 0.3563161488289718 0.18836777561662452 4.970569986365709e-05
0.2900000065565109 0.2954927142237863 0.19777587291119483 0.0002731910282117466
0.2900000065565109 0.28538148600885443 0.19554398395985118 0.00019198006821774232
0.2900000065565109 0.4392078073592256 0.156951364275754 -5.1475572500314923e-14
0.2900000065565109 0.43425350692725656 0.13224257274028312 1.3799724532150457e-10
0.2900000065565109 0.4782766686048087 0.1281752113900321 1.4113462672933377e-12
0.2900000065565109 0.5961928625647074 0.18396647084390036 0.09918167333622023
0.2900000065565109 0.42868209743272967 0.17499837271009305 4.74830525737914e-06
0.2900000065565109 0.3979245957172065 0.1357664864203384 3.243020218276856e-10
0.2900000065565109 0.45376131454426083 0.14725228426495426 -3.3290655165539133e-14
0.2900000065565109 0.5497018551829173 0.14504506041237103 -2.6861962939677156e-27
0.2900000065565109 0.3466477223479191 0.19098822221759051 0.00011349988972353682
0.2900000065565109 0.532947924230494 0.16942123873954001 4.9676526682981265e-06
0.2900000065565109 0.566554541620606 0.10697047952811306 0.008786677859661385
0.2900000065565109 0.540167444125205 0.08709323097156577 2.1638946127309127e-11
0.2900000065565109 0.47428539158457295 0.11844796197476072 2.472527067521811e-11
0.2900000065565109 0.44894301747783755 0.17125856774294984 4.888677140556954e-06
0.2900000065565109 0.25439595612316174 0.19973823203989952 0.001611415052645346
0.2900000065565109 0.48143059741870764 0.14331099581154294 -3.464997569257556e-14
0.2900000065565109 0.5789469147982349 0.1115169525451231 0.06996087607049417
0.2900000065565109 0.5728358956466336 0.15910332272413416 0.04030790727192841
0.2900000065565109 0.5068279411877067 0.08243704909914534 2.793974947255595e-10
0.2900000065565109 0.5779685996944004 0.13243883502153955 0.05725646821811176
0.2900000065565109 0.5309456490046482 0.0969214462528725 1.870615464734742e-11
0.2900000065565109 0.38914819547538915 0.1412342140165873 3.5239033462732924e-10
0.2900000065565109 0.46186432929069643 0.113680882264585 1.821267411764473e-10
0.2900000065565109 0.4874579604215888 0.0939811655401904 3.0460559408418685e-10
0.2900000065565109 0.5292893787289261 0.18953461798853316 0.0001399204710813268
0.2900000065565109 0.49410900730092894 0.14411966824127392 -1.7613013961075016e-14
0.2900000065565109 0.4860702708436815 0.15978866625265856 -3.3972928082285055e-14
0.2900000065565109 0.5268498660970096 0.1106836624153151 -3.2638029664536586e-14
0.2900000065565109 0.276307914799303 0.1881189916130497 9.010315452441636e-05
0.2900000065565109 0.5911274549429361 0.05455420058077551 0.076581699879973
0.2900000065565109 0.523550077515403 0.19889777262720584 0.00020091036807846907
0.2900000065565109 0.5527344526351221 0.19629573470724895 0.0001687696211193716
0.2900000065565109 0.508219587782033 0.09329070836563921 1.7385193237272754e-10
0.2900000065565109 0.4536933814286453 0.18499089508916466 4.468884308576087e-05
0.2900000065565109 0.3866721880964349 0.15996701241606598 7.917034242182753e-11
0.2900000065565109 0.41796343136834574 0.16881608596164357 -6.808420210960932e-14
0.2900000065565109 0.5543952514280713 0.1872812823238063 6.756909644351107e-05
0.2900000065565109 0.5537583679547348 0.05603208927933449 2.99301360009743e-10
0.2900000065565109 0.5240664301894823 0.1752085567885565 7.131995664237751e-06
0.2900000065565109 0.4648590680863698 0.19264213785572165 0.0001917759542766187
0.29000000655651087 0.5910710485064767 0.06782381493642448 0.08543300958779196
0.2900000065565109 0.5793106549135814 0.07750417184626882 0.059481340090107415
0.2900000065565109 0.5834390624394747 0.19586780455473385 0.07625976136940678
0.2900000065565109 0.4026039665709285 0.1709131987669864 5.769874747544931e-06
0.2900000065565109 0.5598778315442658 0.11574868201423795 -3.364195925539336e-14
0.2900000065565109 0.4691809073839857 0.10317015287687031 2.7535259613454605e-10
0.2900000065565109 0.4088472881720586 0.1965308103842892 0.00019534322061119368
0.2900000065565109 0.5962401264425956 0.195398064163686 0.10546374280854388
0.2900000065565109 0.5036136910304321 0.13137043868415038 -1.7635320593964657e-14
0.2900000065565109 0.49097387162488115 0.12881460772483325 -1.8164067025400256e-14
0.2900000065565109 0.5474964071092026 0.0807611523214655 9.328167951079485e-11
0.2900000065565109 0.45517074073789554 0.1567864170963106 -3.311268499027917e-14
0.2900000065565109 0.35574297508753194 0.17501765909671096 1.5043858396960781e-05
0.2900000065565109 0.5533594384140765 0.10582799018883267 -4.8849845858850845e-14
0.2900000065565109 0.40639669331328565 0.18141964516707293 2.8756314522374437e-05
0.2900000065565109 0.4666148672457285 0.1265010178531969 1.9496667748956946e-11
0.2900000065565109 0.49601379497737463 0.11280782109704213 1.9306068592747314e-11
0.2900000065565109 0.460967400572325 0.1781077275546684 2.4373127244744084e-05
0.2900000065565109 0.5411594637435787 0.19357616292915053 0.0001355500389066233
0.2900000065565109 0.466523585048845 0.15448713894877933 -4.721169949886524e-14
0.2900000065565109 0.3941847762946458 0.17933128739481197 1.9518452925473743e-05
0.2900000065565109 0.5591060887655659 0.0763616325922225 9.119715440628547e-11
0.2900000065565109 0.5923440769450894 0.09281278904554666 0.098429463096594
0.2900000065565109 0.5179016351077298 0.10242576934119868 1.4992084371656194e-11
0.2900000065565109 0.568007235727769 0.09446039725151362 0.022227204827888744
0.2900000065565109 0.5455948071955854 0.17982392227920915 1.6181469221521253e-05
0.2900000065565109 0.3657133045317848 0.17907393646845643 3.014700310129969e-05
0.2900000065565109 0.5357517676145944 0.1803469176345187 3.076304807793114e-05
0.2900000065565109 0.5860443345288808 0.10310633687404042 0.07375528549930752
0.2900000065565109 0.40871326706433475 0.16001564448763597 7.908569510588475e-12
0.2900000065565109 0.3806378216619146 0.14777980255291218 2.680022745533837e-10
0.2900000065565109 0.594100795888766 0.15176527708991225 0.0956692552496293
0.2900000065565109 0.41845500177460715 0.15699402166802387 -5.1582986798116975e-14
0.2900000065565109 0.5913888682415094 0.12788749737958055 0.08946143030705568
0.2900000065565109 0.474396314508693 0.17503065376573354 1.0204809229253413e-05
0.2900000065565109 0.4475340022461903 0.19423424156910207 9.401900663334253e-05
0.290000006556511 0.43394551988583363 0.12159191206590249 2.499845971633624e-10
0.2900000065565109 0.5131572500872053 0.1628543832953824 -1.858764701067209e-14
0.2900000065565109 0.4794439214105223 0.1962242197713174 0.0001904150665069744
0.2900000065565109 0.4386331713411499 0.17547648072979932 4.641618109214401e-06
0.29000000655651087 0.3364862959321175 0.17120855747647173 8.887811752267852e-09
0.29000000655651087 0.3986431630936481 0.18798242604295676 0.00010923786202750938
0.2900000065565109 0.5694815655016808 0.08273234155625986 0.02502157857516449
0.2900000065565109 0.3692682439065025 0.14783768156688235 3.559748537304273e-10
0.2900000065565109 0.5777155552691055 0.06835154820897907 0.04418374551943255
0.2900000065565109 0.5087081844763626 0.17881099999799674 1.2599340763787734e-05
0.2900000065565109 0.5694770211730149 0.1710605540355864 0.01777084282012985
0.2900000065565109 0.5837831479163453 0.18202876884841532 0.08205913908375648
0.2900000065565109 0.505240302131807 0.10957870060157585 8.631878360934577e-12
0.2900000065565109 0.5486254641528955 0.15568038003950474 -2.805081062837223e-27
0.2900000065565109 0.522736391956668 0.08716542866538546 1.821776607625549e-10
0.2900000065565109 0.45339935298931 0.12503590800144548 1.1653027019626553e-10
0.2900000065565109 0.5722014137257263 0.18933942500772083 0.031110013872515992
0.2900000065565109 0.5889860609529254 0.08280035863144691 0.08581226068181232
0.2900000065565109 0.5046926506685988 0.14669390148111172 -1.718124635936381e-14
0.2900000065565109 0.5038471270035929 0.19927006797089142 0.00026172083809476737
0.2900000065565109 0.530063070700601 0.1473583570456217 -1.7769073375752475e-14
0.29000000655651087 0.42167627443892847 0.14392338703617275 5.585044489120571e-11
0.2900000065565109 0.47253935544155956 0.18565870471261664 3.934804341970065e-05
0.2900000065565109 0.4286287182359281 0.20063249738644764 0.0002541946880936303
0.2900000065565109 0.5021112056222985 0.16491706086114474 5.554772190424704e-09
0.2900000065565109 0.3475230527899603 0.17990339087676352 2.049789080847925e-05
0.2900000065565109 0.5843911393373561 0.1211518588297586 0.07553132077999478
0.2900000065565109 0.588532671506263 0.16468066541272328 0.09533221038231797
0.2900000065565109 0.41871944922561144 0.19891869256674283 0.00026489873227862474
0.2900000065565109 0.5573120252795601 0.09003965271647874 -5.2497965512829813e-14
0.2900000065565109 0.42859073091850897 0.16118727944502936 -6.392065929001113e-14
0.2900000065565109 0.41829355976503724 0.1794836203477675 2.424004287794436e-05
0.2900000065565109 0.3186680284720929 0.18128603699702814 2.4829264648363915e-05
0.2900000065565109 0.48947088537893174 0.18060901325506384 1.796861956390192e-05
0.2900000065565109 0.5413919872663543 0.10298771420425636 -3.304840677291402e-14
0.2900000065565109 0.4975129006969217 0.18820841243950712 0.00013870814278907256
0.2900000065565109 0.3260158980373259 0.1717849236369678 9.65128792294944e-06
0.2900000065565109 0.5783523083831319 0.08946961311781224 0.04075143459188776
0.2900000065565109 0.5151291535454376 0.14401864659071367 -3.2373510209027785e-14
0.2900000065565109 0.37780561818222136 0.1855021902854659 8.497117490055646e-05
0.2900000065565109 0.5981684835192328 0.11659541640656698 0.08968126714244119
0.2900000065565109 0.49191686281514724 0.10198999548568069 1.6322350341757726e-10
0.2900000065565109 0.4327267079894809 0.14437664305801826 3.946340978569896e-11
0.2900000065565109 0.3539272786433161 0.16135269755274195 4.010754649115374e-09
0.2900000065565109 0.5595880583807724 0.1399385745614215 -2.605316126197909e-27
0.2900000065565109 0.5814411010111233 0.04233255152979221 0.06425400013620292
0.2900000065565109 0.40017566963536305 0.14827347360794127 1.3053445723238158e-10
0.2900000065565109 0.5161047171316139 0.11714964126953974 -3.1900035520629557e-14
0.2900000065565109 0.4932417797754749 0.17073530286622707 1.0040546897100151e-06
0.2900000065565109 0.37262019212377656 0.16910936278889677 4.795273227838821e-07
0.2900000065565109 0.4937911343087553 0.15351689986279143 -1.731165787548086e-14
0.2900000065565109 0.3707978787409327 0.15895993832705324 2.0294284010247898e-10
0.2900000065565109 0.30572515942361855 0.18618658663030016 4.3465746871597566e-05
0.2900000065565109 0.3248613768355738 0.200435968844795 0.0003587845626689963
0.2900000065565109 0.3687468360482121 0.1923579016371732 0.0001725267381050842
0.2900000065565109 0.5541286979391444 0.17142686276635302 2.49899875626142e-06
0.2900000065565109 0.32958079702765913 0.1855537366613539 5.616253625357744e-05
0.2900000065565109 0.5705977132511602 0.05421828213668276 0.025734878553275952
0.2900000065565109 0.5190816461237625 0.13383718631135616 -3.235238075983633e-14
0.2900000065565109 0.5669778282898528 0.20059069569889806 0.01668167256129886
0.2900000065565109 0.39758397227026365 0.1626808310010312 8.712135852719251e-12
0.2900000065565109 0.3888887441401452 0.1929682315464611 0.00011275453939362694
0.2900000065565109 0.4846102577043623 0.11851121785786398 1.527712947196773e-11
0.2900000065565109 0.5383412550016939 0.06338433629496898 3.050766497232145e-10
0.2900000065565109 0.5228206675823737 0.15880762074316165 -3.376558943126021e-14
0.2900000065565109 0.5750545477544784 0.1438522296280823 0.047957679670502386
0.2900000065565109 0.595118291567109 0.040490208683706314 0.09468565221584804
0.2900000065565109 0.3847419637998454 0.17296041023905845 1.2615700748386206e-05
0.2900000065565109 0.5431032879615928 0.11694951313638699 -1.637943173073698e-14
0.2900000065565109 0.43056408102668287 0.18950859262915024 4.0381811820612015e-05
0.29000000655651087 0.49558701845128206 0.08615734959090894 3.396526134175981e-10
0.2900000065565109 0.41101201278062854 0.1406725676882179 1.9172913127534164e-10
0.2900000065565109 0.4470628719948011 0.11156347378824409 2.9042414261517085e-10
0.29000000655651087 0.2673090846190775 0.1988425230873557 0.0005166801416578831
0.2900000065565109 0.5742039698978594 0.12263032163349323 0.04713481125070538
0.2900000065565109 0.5526203356172419 0.06906886287222083 2.0675632093097882e-10
0.2900000065565109 0.4640496794822235 0.13932938333176131 -1.751952469540927e-14
0.2900000065565109 0.5507534703495128 0.13237191309585702 -1.6076095643460362e-14
0.2900000065565109 0.5208957680453596 0.07545781924255203 2.1268839066860774e-10
0.2900000065565109 0.3166079319845965 0.19237715135205868 0.00018769960483966272
0.2900000065565109 0.46817728232246075 0.16497676499334837 8.427040871160738e-07
0.2900000065565109 0.5357781949077407 0.07555563004433077 1.4231436832327176e-10
0.2900000065565109 0.5361190314944163 0.13515250085870767 -1.1586119988678612e-26
0.2900000065565109 0.47778976192168376 0.10712429995678938 2.091341985504019e-10
0.2900000065565109 0.5174492746642203 0.1866565306389516 8.014537877893362e-05
0.2900000065565109 0.4769802749881845 0.09056236338022783 3.119373041016771e-10
0.11575011684588696 0.16094921995669656 0.11718619985285993 0.004358160003680134
0.11805633642782509 0.15937378208215924 0.08391996302770481 0.003240208703020645
0.1215562455299851 0.15698339361792804 0.09320783415037151 0.00332030899622897
0.12105639442487764 0.15732454520014355 0.06261086623724954 0.004553029002297399
0.12310291073248954 0.15592727177052706 0.12523591812294013 0.0027057258398981376
0.11455958629027056 0.16176253904417454 0.13888585580187465 0.0042468234444932515
0.11932574406826693 0.15850667989122907 0.0732788628342895 0.004398245665243075
0.11956662040639625 0.1583428664167014 0.15961437388492086 0.0050179675126312715
0.11513180270827925 0.1613716127843829 0.10149813052541624 0.0036673758279001916
0.11631890420310068 0.16056065698339575 0.03707785795492669 0.010745326253468497
0.11635590998544473 0.16053537687550873 0.012501200495840959 0.07487894714161772
0.1139928631239046 0.16214966728684266 0.1294518229464336 0.0037748530192332117
0.06999902427196503 0.4720331442837251 0.1706268868504414 5.20531708550946e-06
0.06999902427196503 0.2623111328510251 0.1751908329995133 0.00021464387266467212
0.06999902427196503 0.3148270540604512 0.12485656036651904 -1.312590650714786e-28
0.06999902427196503 0.5209560731990965 0.18854428748091306 8.720062826140086e-05
0.06999902427196503 0.3466276893254624 0.12474722189187762 -2.557188938920214e-28
0.06999902427196503 0.5299336734096314 0.18012082379973626 2.1070136860420783e-05
0.06999902427196503 0.39707731302510685 0.12227273023639984 -3.162076182687287e-28
0.06999902427196503 0.45628368854402845 0.12793704908741826 0.0
0.06999902427196503 0.2970408019851062 0.10847191361355656 -3.062676962583674e-29
0.06999902427196503 0.27657259542444723 0.1794343308294037 4.4408544234130925e-05
0.06999902427196503 0.2920722950937849 0.12090108333749452 -3.979918059577676e-29
0.06999902427196503 0.31257919518720423 0.041955318729765934 -4.6197856169249803e-29
0.06999902427196503 0.3970399375424573 0.08863697734957833 -1.9085422939738726e-30
0.06999902427196503 0.3174855108097495 0.05294775557834637 -4.255481946827735e-29
0.06999902427196503 0.3747677282084043 0.17799349577030305 1.1271756550064018e-05
0.06999902427196501 0.4566652506884046 0.15349172000588684 -3.764791388722955e-29
0.06999902427196503 0.4172418813625326 0.12155360116885881 -1.4914291821136375e-28
0.06999902427196503 0.31221243938906196 0.1358321812193453 -7.59976827281206e-29
0.06999902427196504 0.3374331997515212 0.08776490950285465 -3.901697887146567e-29
0.06999902427196503 0.45505446584402337 0.17179312670390576 4.055726361462291e-06
0.06999902427196503 0.3245672271608455 0.13235922081693852 -6.996459191119949e-29
0.06999902427196503 0.5534248117155885 0.19446192216813296 0.0002059640478553705
0.06999902427196501 0.42849613463918973 0.1675658707110791 -1.4006077828848123e-28
0.06999902427196503 0.37283042490696355 0.13063215136241302 -2.960984577206983e-28
0.06999902427196501 0.46522923232977764 0.14359079978462347 -1.436621322045188e-28
0.06999902427196503 0.4640430088005379 0.19518655954507186 0.00017298357164125254
0.06999902427196503 0.3219761464243256 0.178462611636472 2.0886268363673402e-05
0.06999902427196503 0.40334849177603127 0.1507532109105514 -4.3831754671285536e-29
0.06999902427196504 0.27705679484631623 0.052949923248706426 2.046682783219952e-05
0.06999902427196503 0.2808542729492949 0.10105963729231496 2.293095219116967e-06
0.06999902427196503 0.2896819723525478 0.05225584231244464 -4.714047926296033e-29
0.06999902427196503 0.2530268584636149 0.09300451504454929 0.0006564417777418368
0.06999902427196503 0.28438979314494683 0.18780385804799865 9.163826990766342e-05
0.06999902427196503 0.27225156328240424 0.017559046654021485 0.06870089128933084
0.06999902427196503 0.5541782282747058 0.18062375538783987 2.0686397924582714e-05
0.06999902427196503 0.28675074938223666 0.16930021682092802 5.522451991168049e-07
0.06999902427196503 0.2574374613728482 0.01454935395438429 0.07496193923008358
0.06999902427196503 0.3620361178619506 0.07642704072095684 -7.939652839173898e-30
0.06999902427196503 0.4300850568861987 0.12426790887009265 -1.43669814709286e-28
0.06999902427196503 0.3970530737309091 0.13991386937441425 -3.115751872420337e-28
0.06999902427196503 0.27029270253964727 0.14819511562109597 0.00010176301557435171
0.06999902427196503 0.3291689474328743 0.18666347712378945 6.920453577601384e-05
0.06999902427196503 0.5058241569961451 0.17311895562973031 9.251790162098605e-06
0.06999902427196503 0.45622150574031345 0.18571271796248284 3.8968400948507086e-05
0.06999902427196503 0.43127366877161843 0.17929635105092506 3.62994689844254e-05
0.06999902427196503 0.3691618101089358 0.18811098699161824 4.65241424015561e-05
0.06999902427196503 0.27760613977765536 0.129074500013088 7.364242113962551e-06
0.06999902427196503 0.3166040113300075 0.1694617668851965 2.0006924218076833e-06
0.06999902427196503 0.37126923875525375 0.08539365605132875 -1.4832708157684412e-28
0.06999902427196503 0.4244766376525297 0.14949141756433876 -1.804617226376396e-28
0.06999902427196503 0.4131445284633548 0.16662772921280133 2.673917501442481e-07
0.06999902427196503 0.2952093940793635 0.06635434348657832 0.0
0.06999902427196503 0.3527961911534939 0.13752000561369723 -4.4877696827701283e-29
0.06999902427196503 0.28184813062784375 0.04218328344662005 2.015762932631015e-06
0.06999902427196503 0.49130416084975015 0.1476939579956223 -2.7252718220607366e-29
0.06999902427196503 0.34652997006556663 0.1967214414270987 0.00026240654697319956
0.06999902427196503 0.3635601988785041 0.1702810678490117 1.703386900177905e-06
0.06999902427196503 0.3913102966720719 0.188530569698507 5.399632166092283e-05
0.06999902427196503 0.3058590428241631 0.15956609760017093 -3.3886222009066574e-29
0.06999902427196503 0.43931609037105174 0.11961649193660628 -4.5013868722306254e-29
0.06999902427196503 0.4450504774936618 0.15441001773152413 -8.105815897824547e-29
0.06999902427196504 0.4469091777466079 0.1342201271659511 0.0
0.06999902427196503 0.2554395388059008 0.10640194388764142 0.0008152545822527906
0.06999902427196503 0.33171664708824367 0.10220742485830159 -4.1211787745967084e-29
0.06999902427196503 0.43523971857647303 0.1394315737387631 -4.869082702601044e-29
0.06999902427196503 0.4017382779951728 0.11285032105703974 -4.759521241060466e-29
0.06999902427196503 0.5256399593591436 0.170046353280768 2.3740639205082666e-06
0.06999902427196503 0.33233457211902223 0.11433582915297719 -5.110374351091691e-29
0.06999902427196503 0.3376109935085825 0.07454870455837656 -4.653129207056563e-29
0.06999902427196504 0.4835845864182412 0.13892456779654724 -3.3530605031532655e-28
0.06999902427196503 0.2829939212651217 0.14298375134700037 6.101053882821328e-06
0.06999902427196503 0.35542908726454875 0.18021206090399122 3.518696258844418e-05
0.06999902427196503 0.3997827400550231 0.1947175839609509 0.00015392279914991933
0.06999902427196503 0.541334064881092 0.19443492405347268 0.0001826282266453008
0.06999902427196503 0.2580450746315231 0.14653519097887785 0.0004468425379030377
0.06999902427196503 0.4783101307858778 0.15793421028551838 -1.5612814373924915e-28
0.06999902427196503 0.30402456913321174 0.118259510221974 -5.274174458648244e-29
0.06999902427196503 0.28936927703485416 0.03165825115950527 0.032707756027423956
0.06999902427196503 0.38298790712049813 0.12407823192185882 -1.253024915917506e-28
0.06999902427196503 0.40126811486053277 0.1812451084852176 2.014852094169937e-05
0.06999902427196503 0.3347924403341259 0.17641896663612436 2.0252914903938212e-05
0.06999902427196504 0.46739239641431896 0.13098436404994346 -9.267437263508946e-30
0.06999902427196503 0.5731258385449522 0.19347548295657246 0.0408325284871509
0.06999902427196504 0.3735249588806314 0.09999181295514889 -2.23448263015114e-29
0.06999902427196503 0.5091897392038959 0.19806065100562076 0.00016660082949734067
0.06999902427196504 0.33329504773446156 0.05408328527669354 -3.4369024920905134e-29
0.06999902427196503 0.32184442312253947 0.07073358251024603 -2.326920254430074e-30
0.06999902427196503 0.3864470536855925 0.09897745467458859 -4.505078614188669e-29
0.06999902427196503 0.2654375474334616 0.07055324878778009 0.0002914309801077687
0.06999902427196503 0.45244646876063194 0.19631397878746826 0.000244864708553908
0.06999902427196503 0.3418419307265357 0.13974287603172753 -4.474786383223593e-29
0.06999902427196503 0.5072627435613294 0.15560146747946824 -1.2952683546945659e-28
0.06999902427196503 0.313326850924475 0.07858141413905749 -1.7339742621048413e-28
0.06999902427196504 0.36212581858625953 0.08762452503564985 -1.4154462527529257e-28
0.06999902427196503 0.4345720300419573 0.19779690008150375 0.00022527676998423813
0.06999902427196503 0.27367095291670096 0.13879440272787613 3.5633429712800786e-05
0.06999902427196503 0.3096930812825802 0.060923354492521356 -4.5295914123012895e-29
0.06999902427196503 0.49297985038401493 0.17521200678271592 8.88969941025105e-06
0.06999902427196503 0.30569693093197403 0.0711129335887585 -1.5189630942299753e-28
0.06999902427196503 0.4103396108092836 0.12871104154740998 -4.012925110307911e-29
0.06999902427196504 0.49858926922391306 0.15977411047048842 -6.236360245444388e-28
0.06999902427196503 0.25572094115220895 0.13695740716443525 0.0006323267309340138
0.06999902427196503 0.42071980245518026 0.15807991125637522 -1.4533893769905362e-28
0.06999902427196503 0.3888983210059433 0.17114283047411993 5.252858511260734e-06
0.06999902427196503 0.35417069798565687 0.0665018331520817 -3.0989163728259763e-29
0.06999902427196503 0.42093998631655416 0.18388661441129628 4.4713646893899827e-05
0.06999902427196503 0.3245558778656268 0.08940307320888857 -2.883221511904601e-28
0.06999902427196503 0.41691708421228874 0.1062824351383645 -3.8949529538020137e-29
0.06999902427196503 0.3990461228934755 0.17120527370126298 3.103810264847521e-07
0.06999902427196503 0.47386221234519244 0.18203904044819502 2.447583832180079e-05
0.06999902427196503 0.2817927734447631 0.08159458894981156 6.214053890455807e-06
0.06999902427196503 0.28124669355747545 0.1583368309434189 4.169194423793772e-07
0.06999902427196503 0.29853541905331143 0.03798442698110795 0.006139388749110594
0.06999902427196504 0.38967394216861634 0.08246904574130427 -4.1998467181228436e-29
0.06999902427196503 0.2822074287957883 0.0719909461551317 6.649802011433548e-06
0.06999902427196503 0.44388747752563906 0.16611520554699255 -3.588719145870972e-28
0.06999902427196503 0.4109989986751307 0.18020654747920672 3.0448591334648735e-05
0.06999902427196503 0.38001334248260166 0.14220234591360775 -4.877659290620134e-28
0.06999902427196503 0.3902216854684401 0.11016458357681572 -6.168561737304562e-29
0.06999902427196503 0.25600467720547954 0.07669232039807518 0.0007132084259834265
0.06999902427196503 0.26644996132223087 0.04711217711778995 0.00018673069961398924
0.06999902427196503 0.47998375651889497 0.19365168101045346 0.00019865559245548875
0.06999902427196503 0.352796262809003 0.11307561363800248 -5.572170290926629e-29
0.06999902427196503 0.2945153617143227 0.13577240104928656 -3.383372507950805e-29
0.06999902427196503 0.29335681059401136 0.18107038689905708 2.5896130701634114e-05
0.06999902427196503 0.3069893717961665 0.187156447219971 8.36843280947438e-05
0.06999902427196503 0.25511502544261794 0.1900389451723652 0.0010122605845660855
0.06999902427196503 0.32826383543686255 0.07879656938568422 -3.8637086661703465e-29
0.06999902427196503 0.27567648701513786 0.09281846009289262 7.0770411449162105e-06
0.06999902427196503 0.48609935395215836 0.16738253960939437 1.7484967126798282e-06
0.06999902427196503 0.3016859554248983 0.0562866107308448 -3.5709243038455956e-29
0.06999902427196503 0.2963931260846754 0.1569059644122662 -3.392125476641511e-29
0.06999902427196503 0.5320607095937716 0.19801406876424882 0.0003041833172508915
0.06999902427196503 0.3292716312894013 0.14455657813867395 -4.1550511908380453e-29
0.06999902427196503 0.3422970503010909 0.15388369904164886 0.0
