x y z curv
0.1466316573448256 0.01152314848433735 0.4250000119492963 0.19386222018296492
0.11994496850334967 0.01820345560465234 0.42500001194929626 0.14725556281688967
0.157014980543142 0.013946115896802638 0.42500001194929626 0.20463872084491522
0.11811783947783837 0.02797149708028587 0.42500001194929626 0.21975840241086758
0.1839977930057174 0.023942955278960475 0.4250000119492962 0.24604139674633466
0.16338026554601026 0.026001830663619715 0.4250000119492962 0.28021569929181606
0.21051682557940468 0.028209871868853417 0.42500001194929626 0.2732743081010101
0.20311758760729365 0.022337757391181712 0.4250000119492962 0.2477034999609909
0.19384514892231772 0.029014171568319792 0.42500001194929626 0.26012316376411976
0.13854925846026395 0.033016668518672854 0.42500001194929626 0.2840614925787209
0.15714525061944182 0.034172058869690485 0.42500001194929626 0.2588755967979077
0.10741806087626724 0.03925981115229344 0.4250000119492962 0.24438311090370518
0.24782255376210327 0.02910842162775707 0.4250000119492962 0.22462921804627425
0.24392871069648897 0.04115286060419405 0.42500001194929626 0.2794577039285565
0.1460225658870544 0.041705082803483805 0.42500001194929626 0.2385669814407651
0.12247309523316169 0.04165226690266785 0.42500001194929626 0.2555315149290247
0.2368826057897055 0.031394896696282495 0.4250000119492962 0.2662472056209338
0.22410818248538183 0.03533460229598023 0.42500001194929626 0.25718766196694215
0.1717339127723699 0.03616316821958493 0.42500001194929626 0.2507247479799415
0.15893358252595147 0.004253938401951903 0.42656913752684533 0.15218852524725002
0.2889248543059858 0.05614825938176089 0.4556994054394877 0.13961882070801537
0.35223722990626904 0.15377694007539827 0.4549025465361777 0.12386719424289679
0.1335741292887845 0.022724027822572775 0.44991891748459634 0.10403508613005412
0.13896853879529844 0.010204965566647326 0.43302932282587736 0.1287811838876431
0.14224820900060212 0.01819909390375968 0.4457402182150753 0.13247626344341132
0.15498502554881402 0.020980729518930027 0.4531360986774165 0.13241824057861531
0.1529215970771655 0.009322590962328101 0.4357136814480098 0.15627260518166447
0.18988278139458478 0.0063342033165232695 0.4335376281318519 0.14169521045209835
0.19822517620857782 0.019369786382337224 0.45152142408152574 0.12238833583253039
0.1942287163168278 0.013366371619150566 0.4432089272925749 0.14353430797133118
0.1861224696322447 0.01820685059214151 0.4508508998576447 0.13421038143945754
0.35270991578588023 0.13387543201159943 0.42735619850602596 0.14091629405172726
0.32985359934326886 0.08408429237404368 0.427444964822835 0.14856475497474086
0.17877475010693059 0.021954582605046603 0.4566432703210258 0.1156330212248846
0.17895190422605411 0.008660452542205294 0.43767676246702003 0.1392557632020913
0.16811246264386998 0.00775383261716203 0.4354291444758073 0.1559272489703704
0.15902053797525167 0.015191090260539572 0.4453036401786443 0.1457227542090255
0.30453985331980504 0.05312851627229659 0.4272961809425037 0.12928764302783274
0.3413290531303902 0.10686390537842815 0.42576095883798926 0.1457294098454539
0.35815968810061516 0.1792689840926164 0.4253863932323755 0.14556743409002218
0.3587539253765567 0.29417934932359185 0.4256118135392315 0.1411879898097051
0.3590714290701502 0.1986393175598416 0.42597045917157017 0.14293116836744318
0.3595054229492848 0.37191683141623927 0.4264028769386929 0.13227605456663116
0.35838160654260304 0.40314240268508394 0.42539971201840965 0.14275416381729664
0.35962606622795634 0.31244328467909854 0.42663200846127286 0.12778221491488018
0.3597596713787066 0.2110203809871149 0.4271207691871921 0.14729596422527486
0.35974978394976087 0.36055433126480724 0.427069086084028 0.12937275503526308
0.26697778646376163 0.026542718414275208 0.4256393872729638 0.1493254773499589
0.2135147168579769 0.0074654300159913076 0.4255667145400139 0.14599115049270875
0.1782804628903896 0.003044135755411287 0.4294741392432971 0.11852308920336421
1.4547240299617091e-05 0.42226401252977025 0.4408316043712879 0.11697519486793458
0.00011075010938378952 0.23890817766341613 0.4310715014402216 0.12099398117132268
2.1857573911195952e-05 0.4083310359432836 0.4352621765372108 0.125001370850676
8.346175952241243e-05 0.29091783411742655 0.4317232952299469 0.11749435744755889
4.590054106608137e-05 0.3625068483975753 0.43405806314145845 0.11951409203122172
2.9203418680677416e-05 0.3943303776123097 0.434042761636133 0.11359781971422798
5.748559459890639e-05 0.3404265592886924 0.4303135003661327 0.11733578870582832
5.196351725071005e-05 0.35095124646293074 0.43069837143677464 0.12858908736168634
3.848581909333763e-05 0.37663878178539145 0.4308724811825718 0.13834871428953974
5.523343833303463e-06 0.43946291819734246 0.4280399104292694 0.13589287808603065
1.0616537563794978e-06 0.44796658255535177 0.4421349628601136 0.15817820465321022
9.658662512547359e-06 0.43158129454007105 0.43607287686149654 0.12345134190069329
6.35036389417573e-05 0.3289565942528189 0.4284538868422069 0.1150595281091142
0.00010292654505442874 0.25381933554151914 0.42906913439431443 0.12730307747941355
9.243612630855287e-05 0.27381332850200746 0.4337072219715914 0.10886576177363322
0.066988502397457 0.06246204573370257 0.4586002144945467 0.13678474141099972
0.11026251334876268 0.03713081013572925 0.4587458839282384 0.10248746695506628
9.768793485225166e-05 0.4448522707931408 0.45272222803922124 0.1527718780695625
3.0312814440883225e-05 0.32896258360735753 0.45222410378913647 0.13405535233289703
0.0001865291180916854 0.23524046745800847 0.4529794879704574 0.13872086645934278
0.0004034291517536903 0.2172272051005308 0.4540132757529611 0.13676806524991228
0.003859778151308049 0.1520066819333054 0.42621178425416345 0.11262906565380017
0.13946870170341566 0.028499000205087943 0.45866148068975654 0.11963099671596504
0.09302929479057691 0.025403660920550332 0.4269104249416716 0.14022626330164728
0.3549703917780609 0.14679330189224749 0.42606069841572014 0.13598008223663202
0.35999203137554037 0.4034893623458512 0.43858034767289084 0.12834297610264048
0.3599993059116582 0.2947338981654262 0.44552966883459877 0.14399998537872558
0.3599526548028269 0.42255901431463383 0.44559468181746154 0.11587548926486761
0.35994207625294417 0.41186042961516 0.4487187465441277 0.137010352064794
0.35994050812179024 0.43805193533317444 0.4470054327751486 0.14182855968267732
0.35998836578983073 0.44218187519823327 0.4363407731997376 0.14819198746002615
0.35999754037767967 0.38587095339605876 0.43877040050195426 0.11881915362201284
0.3599837706857907 0.4324332337525112 0.4380975068224603 0.15052435142363493
0.35999388925548914 0.32224429201555993 0.4445446057828663 0.1287272929177858
0.3599977087855589 0.2574963620336204 0.4487924082867433 0.12079128945723328
0.3599930165023945 0.33993696680710034 0.44334693475436837 0.13238174898927013
0.3599473957003733 0.39224894165183316 0.44910591989131504 0.11425513815129515
0.3599786771977332 0.3081442878796982 0.4489363853111482 0.1264945709364484
0.35996603282000805 0.3536671787596011 0.44810177225278364 0.10841816406566714
0.3579015748720158 0.4314831379971626 0.42519497552110935 0.16133991275372708
0.358355973604155 0.18055577996336578 0.4457890265403208 0.11434611045603271
0.35858916259654305 0.17159716213404108 0.43252357046461243 0.1206170233576894
0.3558648862187732 0.1627232995885099 0.44689757995196533 0.11385948926678993
0.04322925713527145 0.2450767749029423 0.45999889819561757 0.2215352208667354
0.03985853535914704 0.42512909472679145 0.4599409565638447 0.16828017421233388
0.15331215835997272 0.3408983118207548 0.45999959463248685 0.19593331582151352
0.04972547027333676 0.2666489055858571 0.4599939009563569 0.20379028300382399
0.11494642916036446 0.3697858792206638 0.45997963760766913 0.21847901623239716
0.036380603581920724 0.36165866659698337 0.45996006648375404 0.20282397116724366
0.02084143979311292 0.2508589899035609 0.45999075800298006 0.15626735742284936
0.08810399525072575 0.34799117535971813 0.4599789707576312 0.22299610065403233
0.034350896934854824 0.3005245903993319 0.45997884506209286 0.17052402796574717
0.21304317131401337 0.40138728075609165 0.45999728324164624 0.15496647301483446
0.2172223531201405 0.4320133610041352 0.45998876712337455 0.14749350324143545
0.14934601669153533 0.3793421100194213 0.45998630824512626 0.21160212992124888
0.013478646123469554 0.36744200799122056 0.4599517810252606 0.14726684606127372
0.02060238736175481 0.23166971485844132 0.45999676456942007 0.15695076157168752
0.16692241813497266 0.41747112198996505 0.4599791932173225 0.17390876729654323
0.1708983938376875 0.4033592517582408 0.45998478063986625 0.21847511888461768
0.06611167922723042 0.3011406197720299 0.45998760178187575 0.18838906128576777
0.015242050937125856 0.35716060795826093 0.4599555323882335 0.1406123610243866
0.07573927429281925 0.2879478523561174 0.45999449117978725 0.19264093905300686
0.06626713473243626 0.32400798868686964 0.4599804074341163 0.20284993545091923
0.13319457081924546 0.4248354152079855 0.4599673560888036 0.17327476996414115
0.20180791687113184 0.4101033437903666 0.459991357730577 0.19306911137260385
0.09906258744682214 0.4025932179700805 0.45996477633861843 0.178539173968276
0.03816200451150814 0.3763162714749648 0.45995592902552435 0.2082254496794282
0.09355243090761729 0.39223710011425916 0.45996650131375855 0.22677039900082535
0.10995839249195821 0.41273147112691355 0.4599646382575686 0.15955186589844178
0.19589531134374905 0.4361637256158307 0.4599814424344621 0.17886149376458013
0.13247344252076668 0.3727499952058865 0.4599836393341672 0.2077282706254812
0.014276231755919723 0.39115162497416955 0.45994450106544255 0.15620602243293316
0.24100318892000408 0.4230486759619326 0.459998307276243 0.1777746838007435
0.12090738489625719 0.4162395540613347 0.4599666138017917 0.14649937056105444
0.20609685093319016 0.4416159772493267 0.45998259192683444 0.1387650193524723
0.13869769744051477 0.3644501022915545 0.459988020775963 0.22836473556644565
0.06671489140547827 0.3752634331454935 0.4599643098500292 0.2245600316596884
0.07939592415705046 0.41145275830627426 0.4599564290379454 0.21548372394388404
0.040505828291075775 0.4123005725843999 0.4599451995884782 0.19205202278347122
0.1314388391444318 0.40921776472613725 0.4599718046631751 0.19689408093798216
0.03688434685036639 0.4011992991473843 0.459947692745367 0.16689883107692868
0.05753147531358309 0.3904672428283267 0.45995690909184767 0.14477390215186695
0.04292722012652587 0.25552051408465026 0.45999550733123007 0.16747132060474762
0.11167372119152129 0.3814214112022965 0.4599750322300673 0.24644060601955706
0.07256834176375845 0.4421340176372841 0.4599447932203874 0.15640935301303333
0.062429006686641225 0.3515377750319419 0.4599706117174831 0.23197341344502123
0.127122912884755 0.31819806223270236 0.45999939851282723 0.1409172081728493
0.198094080729432 0.39850842436076506 0.45999398111026496 0.1501406683295573
0.072788144885403 0.39824977455489163 0.45995874576317575 0.193649691556183
0.1355866216849952 0.39139648358198237 0.45997861464153905 0.20939927717814993
0.09482168201965183 0.3552373921640136 0.45997857049313406 0.18591787617115885
0.07795876320936496 0.3476321763038041 0.45997622497836727 0.1924097400237746
0.19243819336059226 0.388140823007096 0.45999566864632296 0.1963993989162948
0.057382005686623785 0.28384312264766237 0.45999061648375933 0.2272909183467889
0.05988520302485953 0.4417377455645288 0.4599413439353608 0.16460459629389254
0.2045037410957721 0.4266072927669019 0.4599868935810416 0.14002442885384553
0.016566629501963977 0.34667708020345606 0.45995922404802597 0.19781646014609106
0.2204784591169896 0.411192698417706 0.4599962751727742 0.15033160501248144
0.14216425145154976 0.4172870912831044 0.4599722734304878 0.1758273625502615
0.08791476520808277 0.4225704135763956 0.45995531100635223 0.16173310000476043
0.08726732531589543 0.36586933109661046 0.4599730760070568 0.2157232028139486
0.14176608074409958 0.3354134879764439 0.4599980764948892 0.21194296651562003
0.08750246531034553 0.37928695205639007 0.4599688952280344 0.2595302372445353
0.11315249642218982 0.3414199985980695 0.45998811058695266 0.18473971764879904
0.07735571365880864 0.3590784535143021 0.4599724319428638 0.20157506725502888
0.06830383449097792 0.42372397000459333 0.45994941857347055 0.1625090313071523
0.12271129504559361 0.3448309610530117 0.45998972504930574 0.19328084143115862
0.15599813448725072 0.42721811691630435 0.45997302903391313 0.17240788904761012
0.21878908095426858 0.44272248067869724 0.45998581896610846 0.1334604215450387
0.04591301994141657 0.28808442036134013 0.4599860414845311 0.16567747295187532
0.09353477695964005 0.31853245620252263 0.4599898259216288 0.1803729627190441
0.23594077315036693 0.43613497267097623 0.4599927382655665 0.17103838279021752
0.10686849739258816 0.42208739360386677 0.45996080596563266 0.15555085786008307
0.022984133213971324 0.3027684942193086 0.45997493110502546 0.16208154609403774
0.030961806362364758 0.3507220673906323 0.4599620009469295 0.16690483683003265
0.09039088378769225 0.28531786490763855 0.45999945317007246 0.25188637689107835
0.07892180752989328 0.3259847649609465 0.4599833484222412 0.23383267604922317
0.1216379510978567 0.3572748329836928 0.4599854836956435 0.24117164533105043
0.12467364928004432 0.4009667572431781 0.45997250958340874 0.24751116574407545
0.08264330622247619 0.27994669550008233 0.45999896965698994 0.23586024907554118
0.036793331750131865 0.3363232146082368 0.4599682021902998 0.16444806275920829
0.10440316787280617 0.3040533670506217 0.45999747219211284 0.18387722291909295
0.10406995107168376 0.3150139635245077 0.4599939089399605 0.16876193553118451
0.25800494713558875 0.44075582858616225 0.45999749437675724 0.14666770283858885
0.06835930359542515 0.2805852912310417 0.4599947416071741 0.1815520657120686
0.029438354551599093 0.4091599306341355 0.4599430743451774 0.1872975881122076
0.052290627277088844 0.41847238938422704 0.4599465675566898 0.19857828328487734
0.01816353133559056 0.2656692065600765 0.45998531539178744 0.17333452954505874
0.018027469420263415 0.3137307080006776 0.4599700642320461 0.17361572594482186
0.06801676993933267 0.36234333261094215 0.45996876635537637 0.21208550927681988
0.07514637352247866 0.3856083185904598 0.4599634117997904 0.203583621098609
0.11515970061235316 0.31654966481827407 0.45999654847030697 0.1695357467597279
0.10476884199391026 0.4322116210701461 0.4599570095806511 0.1921501418405504
0.09966805241990397 0.38102836184612576 0.4599717728684597 0.24663770640080407
0.07838741527417661 0.30916457502335476 0.4599885218659938 0.20362657868080059
0.13328809463563693 0.32981698947787264 0.459997458440647 0.1946352242832984
0.012672894575127533 0.421203910055088 0.4599345367784771 0.15864745282080897
0.06614562468103158 0.341954626445696 0.4599746925733877 0.2065729312968229
0.1735385998969445 0.4485718402996213 0.45997121372617517 0.14017321106095654
0.11296237685100825 0.4432158815311601 0.459955835754817 0.14511922252755183
0.18367764336728545 0.4411430009766876 0.45997642283011714 0.15147377501327547
0.10132090790360153 0.4428622762200414 0.4599526665570266 0.1440767173280163
0.18187949114737567 0.3951542754924474 0.4599904727440038 0.23915580828263852
0.0953068081186832 0.4339315281574379 0.4599537983273613 0.19505700992668287
0.061732464611999105 0.4039166997607474 0.4599538360022135 0.1920006707490396
0.14498755567191965 0.3946849384150658 0.4599802233871658 0.17863275443005172
0.04715788074122476 0.34688425908508314 0.4599677805505465 0.19828425362843452
0.043605732512414515 0.4386482913578988 0.4599377334992724 0.1788101392835851
0.1800188121511119 0.4122960111158732 0.4599845224761948 0.1750666981041805
0.10846059126085451 0.39028058390162323 0.4599713224398648 0.2542490636125114
0.17176648569374647 0.3874434149434095 0.45999006311775814 0.2629518122228997
0.1898624478524048 0.44977526830560716 0.45997543365005644 0.11279049596518309
0.09336666711264291 0.41351175541608304 0.4599597149325061 0.16299536680963583
0.08626738514621217 0.3322630903936794 0.45998343149219234 0.15103898830735618
0.06635049646801429 0.31334738960173625 0.4599838053075653 0.18172658221190918
0.0274477782817298 0.3210133260922662 0.45997041417392914 0.21142033858047163
0.17021928804068523 0.430979031817984 0.45997584680154274 0.15693017813949509
0.1617326234332687 0.3598362712367385 0.459995973528591 0.24672099288134586
0.25092356865070325 0.4288069628701456 0.45999928065556117 0.16876659289992318
0.13185772866134404 0.3563983478894122 0.45998864155073593 0.23427419425079074
0.20578342313956688 0.3870546163669874 0.45999977378635337 0.20707965894204214
0.1586583169758333 0.37912113530079106 0.4599890028422491 0.19524432955545726
0.24541448021828483 0.44184302071425496 0.4599936016531326 0.12228502154039697
0.05469926817442931 0.3192291357921048 0.45997865969577745 0.2000323474275778
0.056148829707922406 0.3598892782626765 0.4599661981780611 0.22532706908717645
0.23558304126028107 0.44892109374063427 0.45998859027423633 0.10359311335792167
0.19169007838285085 0.37530840503654117 0.4599995196112825 0.20498424656651246
0.018930123629652483 0.4497668856625968 0.45992725938388135 0.1188580925627467
0.09720229925331544 0.36803180320373374 0.4599751916757925 0.20257129780133834
0.02238951187374258 0.3743382719881576 0.45995210967355316 0.15998354455244687
0.01244083869014441 0.38046181389196954 0.4599473673882627 0.13604080207140584
0.21322132479246253 0.4191425451007802 0.4599917134155035 0.17217304484669932
0.18960614480907115 0.409025532955397 0.45998825984384756 0.17396240738150243
0.2271862216232011 0.4220809126941647 0.4599947193169648 0.1452409892168698
0.04939294781626141 0.39948670814476844 0.45995176035149943 0.18799339123177328
0.05772207028314702 0.42952359198461987 0.45994460038251955 0.14154463753838437
0.03031806601837952 0.2897185545937102 0.4599811288300115 0.16680108174079444
0.17598000055023874 0.3788805245272638 0.4599939610827292 0.219354895942971
0.08233192655326503 0.39483364064373 0.4599625169601963 0.23378419825944644
0.10817923995496967 0.3315314008274257 0.4599898389030618 0.14018805815562113
0.17938439689606178 0.4228195402465968 0.45998101267593794 0.16756443749793748
0.1649346742116421 0.44474503373688024 0.45997000001907473 0.12457453873449169
0.16779295153250154 0.368812156998654 0.45999484050026457 0.21436342460746993
0.12729894425787533 0.43222513225935366 0.45996335536637245 0.17826967729139956
0.032280579330516604 0.2514034378298817 0.4599938097676162 0.1475177712050933
0.011267250770853277 0.3348355954388924 0.4599614785906706 0.1749277492451117
0.03027851447904288 0.42352608099620204 0.4599387638536473 0.15770675384541574
0.141723716785642 0.4310667860541207 0.4599677876074702 0.17135705094479814
0.08627944643762367 0.44175756424281876 0.45994877682471874 0.16281348018282968
0.13582320090250058 0.3444105766232096 0.45999355367610156 0.20472402966595152
0.02948866823398843 0.26567652661972024 0.45998850504102734 0.16270357280132708
0.036846698635028506 0.31791836354468683 0.45997404288236027 0.17814256945517268
0.15789746125444984 0.40728867635315436 0.4599798725811877 0.22378779032647095
0.10290803082694794 0.3410183668701352 0.45998535033335275 0.18895161940018274
0.018142568839444997 0.29195137657239906 0.45997699044081686 0.1734047471137288
0.12150173548446042 0.3771342781834201 0.4599791592330674 0.23492980532338095
0.1526915654855414 0.36704790494102835 0.45999114264124163 0.2222804913810253
0.030553311013734447 0.4437793358569719 0.4599324305822041 0.12825360091050705
0.03561530278341509 0.389170268575402 0.4599511425929407 0.1781442637024261
0.04992663559555417 0.3306949834600358 0.45997368527738525 0.12133308212375203
0.1629994400202308 0.3933503612397733 0.45998572243029456 0.171055271618136
0.016691651320725556 0.4348584091442909 0.4599313474253937 0.1532731232105043
0.047079203063788704 0.3838296588350608 0.45995606412187945 0.16066928228824912
0.12479635637175324 0.3893432914655415 0.4599762233205337 0.18461008073022758
0.008621074120205264 0.2699477155128607 0.4599812716022132 0.14292887351579187
0.07182749918003478 0.3344660227053344 0.4599786643506514 0.21978688409317415
0.02141601715853203 0.28061681056358306 0.45998150076292715 0.1886569713186697
0.10605503883737813 0.3559552546059279 0.45998150936778937 0.2194627115152905
0.14560564284436592 0.4058965130719974 0.4599768488164341 0.21636595704237696
0.046539891266394365 0.298349188494814 0.4599829690803706 0.21676625281481327
0.11529534443217922 0.43389359050104287 0.45995944406301414 0.18624969685192955
0.011008655351378625 0.30062325019280545 0.45997223487133915 0.16020579007798078
0.09632963795172376 0.3289886735895165 0.45998730396179044 0.16816358380140278
0.03656227760483775 0.27922334800475745 0.4599862107748013 0.16655409899980458
0.02378145350220777 0.3892312255848599 0.45994778795257135 0.1860374534249865
0.11414370728860765 0.400381158110707 0.45996972709971584 0.20485913054011254
0.14662750553957596 0.35326997230709717 0.45999379460005174 0.2138561657442716
0.14271473352366326 0.44374649305361646 0.4599640534411641 0.13269952187727632
0.12354021093017349 0.3344916611437883 0.4599932313554527 0.18816467523637273
0.1909188500303418 0.42364098838790326 0.4599840036261886 0.174793910666192
0.09335615442358697 0.30595179688108554 0.45999375770818485 0.22280847669835918
0.083912791992833 0.3013258834567696 0.4599925603472838 0.23419248992395786
0.011158545510282294 0.41062967794637484 0.45993745700289873 0.15436656551879566
0.08090566650082184 0.43238132914875493 0.45995023007698843 0.17560527658774816
0.03141422183660604 0.23763532965320508 0.4599979235783194 0.16558261365943183
0.0631872007101918 0.2721718174479149 0.4599959469607875 0.16446154629927354
0.34688515583117396 0.3946533343298765 0.4600000083730176 0.15954795170153552
0.30091185677243076 0.44495367779181194 0.4600000083730176 0.1478013252786788
0.3456049874147581 0.40931240349439413 0.4600000083730176 0.15734834872731335
0.3455968477211297 0.30289387260681383 0.4600000083730176 0.15221301023393402
0.3357035626777091 0.29290478477148163 0.4600000083730176 0.18924947099676195
0.31730450919372305 0.3631966591479106 0.4600000083730176 0.18767105277251186
0.3038933234417897 0.4115085857417641 0.4600000083730176 0.1798124913872168
0.33370943841662254 0.3978526229017728 0.4600000083730176 0.19292931911998248
0.30780748737430286 0.3560308143635698 0.4600000083730176 0.21528934801961985
0.31723688261401584 0.3515471070612084 0.4600000083730176 0.20180134327588292
0.2976990659918029 0.4357660357403875 0.4600000083730176 0.21134516021594288
0.34580681060341595 0.25954529659968295 0.4600000083730176 0.17120564948720698
0.3392449746908679 0.3864203602409427 0.4600000083730176 0.1740046909255755
0.3391029158631028 0.3730182574489584 0.4600000083730176 0.1559979976023059
0.33078601303181343 0.304697975081956 0.4600000083730176 0.2083744652577823
0.31888543731527574 0.42506094018703117 0.4600000083730176 0.22504983942255016
0.3253151634255545 0.4057580465639993 0.4600000083730176 0.2190156403305682
0.3270345262538886 0.3271941046569342 0.4600000083730176 0.16909892260816137
0.30497819282504024 0.4240376953431785 0.4600000083730176 0.18429067262404253
0.3136026484224712 0.33600010860573754 0.4600000083730176 0.19554490935640606
0.34597522601947867 0.24263714920154988 0.4600000083730176 0.1509792155215355
0.31313214176205895 0.43429224231772345 0.4600000083730176 0.18172011351648074
0.3055832214991514 0.3844256465418924 0.4600000083730176 0.1983220747050793
0.31276240676804434 0.41321550967140663 0.4600000083730176 0.2044209220447748
0.34985233271654737 0.28001003065858204 0.4600000083730176 0.15182238843713777
0.31858971683897397 0.3791960553651158 0.4600000083730176 0.1820486033038844
0.30457859430915524 0.36718952145896533 0.4600000083730176 0.17156639020920195
0.32721399565677445 0.3558571700540124 0.4600000083730176 0.17850574602825225
0.2874683126234815 0.4377471937569129 0.4600000083730176 0.15595310597285994
0.3504095625273095 0.37551731800243304 0.46000000837301763 0.1261087988573185
0.340219891022507 0.3603963442791471 0.4600000083730176 0.15985783796435454
0.3285979466125185 0.38370826925664214 0.4600000083730176 0.16202177863782105
0.3256742203881299 0.37166862189766287 0.4600000083730176 0.21117428585894013
0.34875835709908637 0.26848962773097196 0.4600000083730176 0.14029752397127704
0.3207479098547274 0.44687176077970225 0.4600000083730176 0.11853900266348573
0.3335956680145935 0.33761069126481014 0.4600000083730176 0.19418049557067776
0.338594582799859 0.3475854712842952 0.4600000083730176 0.17772524580984142
0.34852876826150503 0.4256155345756974 0.4600000083730175 0.14419885517085756
0.3284863882450781 0.42326387788448583 0.4600000083730176 0.17884031644959894
0.2832506983079395 0.44698091219974795 0.4600000083730176 0.13188914180959838
0.3454263290896282 0.29152173533744513 0.4600000083730175 0.1797317252555651
0.3344079297585987 0.41265422464879226 0.4600000083730176 0.1998287798206009
0.3238324025646497 0.33733905459338387 0.4600000083730176 0.18461026119126708
0.3035265348059032 0.39598963851233926 0.4600000083730176 0.19639723518757501
0.3423891647293982 0.3332202603954132 0.4600000083730176 0.18939345119546838
0.3448629234440376 0.43721677107905993 0.4600000083730176 0.14874876383953595
0.3375789055311832 0.44608951948667963 0.46000000837301763 0.10436273983640726
0.32483763292489076 0.4363309618502133 0.4600000083730176 0.1621966476951018
0.3470625553547242 0.32051588351245763 0.4600000083730175 0.15863094743828937
0.3178448823694363 0.3953922921075555 0.4600000083730176 0.24807006641174295
0.2923474913630457 0.40367420898587486 0.4600000083730176 0.19638004292878117
0.3363526456771357 0.3158570312085168 0.4600000083730176 0.18783124451974884
0.2923416462287349 0.4145814246539375 0.4600000083730176 0.18883010855756469
0.3495223504580165 0.34325438195639735 0.4600000083730176 0.15078597789629555
0.31970114970893426 0.31737926704925357 0.4600000083730176 0.17440566003420072
0.18006027403159008 0.30241607822648364 0.4600000083730176 0.19933898876225367
0.3230819333041882 0.23637645543180036 0.4600000083730176 0.18601322201345866
0.2856630314544281 0.3533258932557821 0.4600000083730176 0.20001323931342377
0.20309813674725458 0.31461771960065865 0.4600000083730176 0.15652493503577683
0.10467777491078126 0.21957880854360962 0.4600000083730176 0.21121722302463283
0.27250054107027766 0.43103676884573505 0.46000000837301763 0.1891426005460539
0.0953595154880904 0.26828572310818377 0.4600000083730176 0.20026288940862869
0.23893050385617737 0.3358637486569654 0.4600000083730176 0.13919369465812248
0.3039035743458923 0.23612712900609087 0.4600000083730176 0.18458639484705297
0.1814965819499708 0.3639114763125251 0.4600000083730176 0.2278302670780399
0.23507502913841374 0.2445149127621144 0.4600000083730176 0.20203571263632952
0.2491861166242885 0.2328766330160643 0.4600000083730176 0.19960986558236152
0.03177590800577702 0.21260084712905764 0.4600000083730176 0.1612036080167828
0.21961299231285322 0.33758394249058465 0.4600000083730176 0.17175059154471772
0.10948850437868322 0.2746400978665494 0.4600000083730176 0.20698790156469804
0.2934691469559379 0.39170613701851137 0.4600000083730176 0.21341214314036458
0.27779880765058784 0.3621899983119797 0.4600000083730176 0.21243955285227212
0.27390990323475256 0.26622491039601265 0.4600000083730176 0.17974530063752253
0.16030078746975396 0.3202561469751184 0.4600000083730176 0.16154652276536477
0.1430054320026818 0.23929408390002183 0.4600000083730176 0.22922612978708468
0.1169165785375813 0.2377825327783884 0.4600000083730176 0.19325206718253454
0.2756328628557281 0.3114972593024635 0.4600000083730176 0.19969397907692527
0.2441414388287199 0.38360622443877324 0.4600000083730175 0.15035380336974827
0.2646616047743994 0.3088477215344463 0.4600000083730176 0.2210841369060862
0.15459675087321553 0.2635960155043241 0.4600000083730176 0.23544344296337408
0.24908830550178004 0.3597590164585324 0.4600000083730176 0.23780186579500873
0.24855495337889222 0.3161149229765496 0.4600000083730175 0.23013679101232146
0.343727691327269 0.22889952962668328 0.4600000083730176 0.18980948112206275
0.30100344732885953 0.268690048122155 0.4600000083730175 0.19181780730306752
0.3436797266903067 0.21843380066262058 0.4600000083730176 0.15816044466371654
0.17577432398202406 0.23324495200631395 0.4600000083730176 0.23057453756239002
0.18458286642961572 0.2657762788674926 0.4600000083730176 0.2033320011493967
0.22874680769261801 0.21653843303476794 0.4600000083730176 0.2346064518446448
0.25800971248551485 0.41710166005070815 0.4600000083730176 0.19474102762584872
0.2563858589424198 0.2523835267346425 0.4600000083730176 0.21587230905199223
0.2821917706499712 0.2464369524579626 0.4600000083730176 0.18781150250324116
0.2897723286762823 0.32001495374096894 0.4600000083730176 0.14612929842125524
0.3187256320355732 0.22558233776018202 0.4600000083730176 0.198780758266068
0.23812818133681773 0.3941496712838863 0.4600000083730175 0.13369384708500245
0.270956358010792 0.23161691440386392 0.4600000083730176 0.2523700385212343
0.14172534853111238 0.252000870558714 0.4600000083730176 0.21443089342882374
0.32030330406722046 0.21332962716869475 0.4600000083730176 0.19453273578691696
0.05507963816635237 0.25013540695159764 0.4600000083730176 0.19784896433315244
0.25667112995868246 0.39341382500739236 0.4600000083730176 0.15046109067707164
0.3297438884136408 0.22116505143125534 0.46000000837301763 0.14053247787666207
0.20008103033324318 0.23479710245336716 0.4600000083730176 0.22803512281126115
0.3268294036855362 0.28520269899693945 0.4600000083730175 0.230471754164813
0.29855561235526945 0.31050856131472376 0.4600000083730176 0.17969626380918854
0.28606921175651306 0.2794696124526366 0.4600000083730176 0.2215240394695416
0.21764239898515272 0.3056926544469046 0.4600000083730176 0.17081968864757024
0.1894419585315391 0.23806172196185382 0.4600000083730176 0.21455864358914772
0.2463839586701404 0.40283632776024425 0.4600000083730176 0.19658069965860647
0.25549971757561035 0.38348615574939215 0.4600000083730176 0.20417881727936388
0.19323861631160305 0.21779737400233745 0.4600000083730176 0.196780217655727
0.2848483044319354 0.37082783736294517 0.46000000837301763 0.20452628350004215
0.0622291714898172 0.23073132120538056 0.4600000083730176 0.19689650914500656
0.20743098004331534 0.3381954689818718 0.4600000083730176 0.23300520417733425
0.28853725242607303 0.3423550696897851 0.4600000083730176 0.21112779255211925
0.094156074880345 0.21229392966089736 0.4600000083730176 0.16812988778705487
0.3090174517201291 0.3219071554981013 0.4600000083730175 0.19759711605721395
0.2757552745217536 0.3494478605149043 0.4600000083730175 0.24625175948848288
0.1952997063892493 0.30236239514201624 0.4600000083730176 0.18084372512899743
0.24609793612744035 0.32751908243293404 0.4600000083730176 0.22258913324860743
0.06497690498310796 0.252662831845734 0.4600000083730176 0.20895502691859025
0.3073281029610567 0.21475778624805075 0.4600000083730176 0.16906422132603496
0.05195926255181556 0.23821116708156362 0.4600000083730176 0.24511901986851667
0.2819115681505247 0.22155993072907726 0.4600000083730176 0.2154049137127706
0.31539648066163134 0.2795953006726951 0.4600000083730176 0.22274207132933688
0.3108191340074136 0.30698232143736554 0.46000000837301763 0.18960576464968187
0.11493816519237485 0.30140083614670155 0.4600000083730176 0.16379913125303064
0.25732097060245446 0.3693925500304861 0.46000000837301763 0.21126979646583202
0.1308174201963623 0.28042292888964926 0.4600000083730176 0.23726885843683693
0.20090888148186253 0.37296845184112576 0.4600000083730176 0.21130742122086826
0.24743872764039598 0.2791202358866179 0.4600000083730175 0.16810564348888624
0.16296450043770458 0.2231278150735973 0.4600000083730176 0.2315459270986663
0.2702352739046278 0.29873040107108106 0.4600000083730176 0.22839074164461684
0.04333354172432841 0.23332346884099958 0.4600000083730175 0.21559735224714094
0.14666004563401683 0.29373948021703083 0.4600000083730176 0.20289624679116078
0.30573515422663794 0.29878278909898504 0.4600000083730176 0.23731653448448783
0.26482416997041175 0.24309441652506114 0.4600000083730177 0.18505151237123632
0.06787898241194573 0.24051202279590728 0.4600000083730176 0.19367162238037214
0.17241044665065178 0.32902706023418515 0.4600000083730176 0.21201692757592364
0.26460009924969025 0.34651909196549824 0.4600000083730176 0.24199164047603922
0.30010829355884905 0.25188757852049626 0.4600000083730176 0.22599567037927942
0.17256629286928205 0.31274918877615787 0.4600000083730176 0.16223387396269637
0.29496630337072033 0.2938059879945971 0.4600000083730176 0.25340097735100947
0.07817491158443018 0.25281185026494724 0.4600000083730176 0.17836380372393865
0.2618244443666686 0.42890935984556083 0.46000000837301763 0.18185526934483703
0.12025205610599819 0.263658807523774 0.4600000083730176 0.22820972503870746
0.13063079572769903 0.29214990076944364 0.4600000083730176 0.20126439489289064
0.14102684239700072 0.2760299661569242 0.4600000083730176 0.22985145883109986
0.16969928442834264 0.29807391395954536 0.4600000083730176 0.2053613521001597
0.26770533502128974 0.2190280814453885 0.4600000083730176 0.25767459502868995
0.21244835490758932 0.3224327351345282 0.4600000083730176 0.19024632132152317
0.11948154517758376 0.2509698544618138 0.4600000083730176 0.27136469344683406
0.09941032800897431 0.27840754034006543 0.4600000083730176 0.22628231694103976
0.23672077106104444 0.3137477239914698 0.4600000083730175 0.20212713362914134
0.16247087315601721 0.3083765862502037 0.4600000083730176 0.16905012947191317
0.19268443357257353 0.3222474525055631 0.4600000083730176 0.17755674118479672
0.2221756671095094 0.3790970190921158 0.4600000083730176 0.17492217612380162
0.2739877584314791 0.38830729791958707 0.4600000083730176 0.18270576283281836
0.2970491292707572 0.280730914518979 0.4600000083730176 0.21292533296644583
0.2162609080226378 0.3889262763225725 0.46000000837301763 0.13414194529838738
0.153227909653992 0.24460722217757241 0.4600000083730176 0.20923269314953016
0.28363420254583865 0.3023930006604032 0.4600000083730176 0.2410310263894144
0.07836257900935471 0.2704875159769566 0.4600000083730176 0.23302013725240833
0.1516651574005313 0.21500944999745503 0.4600000083730176 0.25729234480833835
0.2996275412468744 0.37756481884715654 0.4600000083730176 0.1391037018652099
0.10413767958586906 0.29182840932585674 0.4600000083730176 0.21757514340037895
0.2436358715910102 0.25764208417060985 0.4600000083730176 0.19907695188996866
0.20756228484764164 0.35479294936797273 0.4600000083730176 0.22542814479826925
0.33459837629881073 0.24586154515302472 0.46000000837301763 0.1898726817434635
0.1008472133531919 0.2587526178402142 0.4600000083730175 0.17521450960244606
0.17812551477877306 0.34027244218440666 0.4600000083730176 0.17666485912558885
0.22153976809067502 0.3271548485832779 0.4600000083730176 0.19630085917924653
0.2042994482895737 0.28700430136664196 0.4600000083730176 0.22216119652001443
0.1340846894968419 0.3058967959025395 0.4600000083730175 0.16209240029507954
0.1480929844376054 0.30974450895025607 0.4600000083730176 0.16147957569255295
0.26942727304701997 0.3776009030825411 0.4600000083730176 0.2154692980015678
0.2152705492115631 0.28291459965773347 0.4600000083730176 0.19817037814524807
0.19121123151089633 0.3624847845060351 0.46000000837301763 0.23155847317200623
0.20666205699222276 0.24584724078748393 0.4600000083730176 0.200069757962785
0.23234328220390582 0.28884566164841524 0.4600000083730176 0.1761989127662243
0.2507823528068743 0.26723863054397473 0.46000000837301763 0.19441613904150068
0.03399962182915063 0.22658674814652185 0.4600000083730176 0.23031935831427583
0.17878433258130946 0.28831391919240346 0.4600000083730176 0.21062904488798062
0.22410745892388978 0.3957476885560919 0.4600000083730176 0.13184553501091825
0.23856527087786716 0.23397900187067477 0.4600000083730176 0.18584642450524042
0.29915110469031525 0.34809730713646153 0.4600000083730175 0.1601476124344445
0.23268270463404392 0.40777685962371596 0.46000000837301763 0.20576775937931777
0.3155232154336423 0.2591316935850343 0.4600000083730175 0.19777705448625066
0.1478559319723208 0.22495690839648802 0.4600000083730176 0.23413626797160744
0.3113963555769736 0.24689238574311187 0.4600000083730175 0.2178721596815475
0.24717433660038013 0.41460595566348246 0.4600000083730176 0.19087045164858682
0.2312844722955508 0.25782362721616464 0.4600000083730176 0.22861007599770622
0.2246426929940748 0.269167974458945 0.4600000083730176 0.22770789659324758
0.18166350025853642 0.2759907855832061 0.4600000083730176 0.2241393884204345
0.2722468759769219 0.44371155038216487 0.4600000083730176 0.1362759668777487
0.18488094364833427 0.3505458597187344 0.4600000083730176 0.19047565392536092
0.023580739118380364 0.21779499236850836 0.4600000083730176 0.18193298932344176
0.13208774659962982 0.24341555512982493 0.4600000083730176 0.22149511599705235
0.07338135510653805 0.21555969510547304 0.4600000083730176 0.18509322880219628
0.09692367612219009 0.23490119455036848 0.4600000083730176 0.19018025757948928
0.2777461527680255 0.25735689699342895 0.4600000083730176 0.21175096677955313
0.2773408831941303 0.28688798230286067 0.4600000083730176 0.25363874219730287
0.25946846799491413 0.40502769023670976 0.4600000083730176 0.1907693304127891
0.28308704863090184 0.4193977148642266 0.4600000083730176 0.17690202827385
0.29025302669546754 0.3631140619781509 0.4600000083730175 0.16480224348101144
0.30072634248162666 0.3349177101700586 0.4600000083730176 0.227302507523004
0.13997015449852854 0.3197477967974051 0.4600000083730176 0.14495117998402474
0.18064165827095408 0.32137553396590496 0.4600000083730176 0.21171691589371522
0.20254609962235523 0.32909861412858643 0.4600000083730176 0.22404016759986425
0.16895500775891478 0.25820124749078865 0.4600000083730176 0.2197913899703032
0.0684757715853586 0.2621702823165352 0.4600000083730176 0.18482163785333686
0.19111951825573426 0.33952857943634485 0.46000000837301763 0.20292624920196511
0.25968848227412245 0.3181507139549644 0.4600000083730176 0.2397006247142169
0.28263120129968905 0.2341037963286514 0.4600000083730176 0.19952403893041062
0.13256659715502883 0.2303342350970637 0.4600000083730176 0.22120339005517067
0.15934007113492038 0.27778974484324587 0.4600000083730176 0.22701460380539457
0.31176953354821224 0.2893262779153188 0.4600000083730176 0.21504115383142794
0.13747453102864693 0.266453310085762 0.46000000837301763 0.2501464629326022
0.14975501652972345 0.32062959604077823 0.4600000083730176 0.23115338997515855
0.22566326479746235 0.2476395076325968 0.4600000083730176 0.20208788584694184
0.2813818995175626 0.3305315359821115 0.46000000837301763 0.20115783249046615
0.23727051091284518 0.26889581632135495 0.4600000083730176 0.22443855230506093
0.2503836677268929 0.3479731515214678 0.4600000083730176 0.2110240974537317
0.1812589058481112 0.2160768678083227 0.4600000083730176 0.2292264966118281
0.25604373923295565 0.3379933761025383 0.46000000837301763 0.2382246605589039
0.26107975385309645 0.28408516907310205 0.4600000083730176 0.1519346014986914
0.27086713702620696 0.3381165682268122 0.4600000083730175 0.2287791707713839
0.13052286226215534 0.21701504441356567 0.4600000083730176 0.20342567458853783
0.073804372542587 0.23061734132761022 0.4600000083730176 0.20152921507236468
0.26624403234837335 0.27366865303695304 0.46000000837301763 0.21888345464334577
0.04431158466671904 0.214943771719585 0.4600000083730176 0.1916212015273961
0.20844107732262016 0.3015407632068046 0.4600000083730175 0.19536964137351434
0.2005243224385386 0.27277063802514706 0.4600000083730176 0.22023001382010454
0.2050492833667486 0.22467285661929132 0.4600000083730175 0.25098660204688245
0.15993421863445653 0.2923033667105739 0.4600000083730176 0.19724701123479188
0.22643298763051867 0.23591335323330753 0.4600000083730176 0.21630272728795993
0.27327920253255483 0.40063667829081934 0.4600000083730175 0.19705753233251228
0.16908654088578595 0.24324405464775029 0.4600000083730176 0.19392787583059015
0.28536581872836636 0.38411231073765395 0.4600000083730175 0.20775860671113067
0.1968708299616462 0.24765317052804559 0.4600000083730176 0.20521574395320172
0.24107985908580315 0.2219400191631721 0.4600000083730176 0.2096366651562413
0.09450547073290484 0.24738192102677148 0.4600000083730176 0.21466974927944155
0.22424376717297567 0.2974229619282288 0.4600000083730176 0.20187242805255964
0.2457964381799709 0.37285665706112 0.4600000083730176 0.18663204156918528
0.2639977174092313 0.32935245188480067 0.4600000083730176 0.2383048608233609
0.3231709710153527 0.29510685189222025 0.4600000083730176 0.25045947139484676
0.21151955323753127 0.2153644669483431 0.4600000083730177 0.217331979086382
0.05601017424485112 0.21204797250731935 0.4600000083730176 0.2245102663156517
0.18725212412049644 0.31300482976996113 0.4600000083730176 0.1452065440182458
0.2146403575241552 0.2364741331467107 0.4600000083730176 0.20322881849535812
0.32522595514345815 0.2706990403375724 0.4600000083730175 0.2103986444447847
0.20983984834444525 0.2666693652631592 0.4600000083730176 0.21454181406280343
0.21487207925020435 0.2541521848757323 0.4600000083730176 0.24497492618010194
0.3325094070943409 0.2572994964882773 0.4600000083730175 0.19930360946808334
0.2941646315250246 0.23025343666738776 0.4600000083730176 0.19492033786813118
0.2618729190338591 0.3576054228856714 0.4600000083730176 0.22574612027981691
0.15466962703247467 0.3310261260268394 0.4600000083730176 0.16133785212399226
0.11867599817996924 0.2834108518000126 0.4600000083730176 0.23757155885590106
0.251884651037705 0.21823196690779656 0.4600000083730176 0.25423131666266846
0.1076160648843012 0.22971518314294434 0.4600000083730176 0.22182291074644703
0.23906085888244427 0.2990171426761161 0.46000000837301763 0.20165274799511168
0.16808414067563848 0.21071861358346766 0.4600000083730176 0.22628265698839267
0.22554229189494965 0.22555229312380615 0.4600000083730176 0.2228488591851304
0.19392711282180877 0.28328656359061166 0.4600000083730176 0.2079450633644513
0.32139217644636564 0.25057908841791454 0.4600000083730176 0.23540269059948057
0.09004821484584613 0.22569377408632318 0.4600000083730176 0.16950053638913015
0.10810228946954982 0.2436112121563182 0.4600000083730176 0.23790392699779675
0.2500290547388547 0.2893801898233468 0.4600000083730176 0.21012026439674497
0.23312571643949806 0.3450020467333439 0.46000000837301763 0.2129972300507615
0.16786741221194856 0.28421990182550516 0.4600000083730176 0.22474816134780715
0.2657697049284149 0.2598398813909294 0.4600000083730175 0.21457987131966252
0.2332539326651518 0.37253913479729145 0.4600000083730176 0.24039415835076428
0.18691132608485975 0.25050570230984737 0.4600000083730176 0.23443285820541582
0.05256484567969944 0.22631150089726482 0.4600000083730176 0.23037226885884068
0.16337764823964138 0.34462826079096043 0.4600000083730176 0.22908436136114665
0.2908081017151244 0.24140207653941953 0.4600000083730175 0.1929833753500648
0.22657954280253434 0.35483455713304995 0.4600000083730176 0.1902272350990556
0.1574566133289242 0.23228178169874936 0.4600000083730176 0.2188525691125028
0.1678107807102896 0.2690475116935931 0.4600000083730176 0.21905325508668824
0.2951774796447275 0.2140442597679154 0.46000000837301763 0.18193292273495726
0.25595719544301343 0.3043252789646159 0.4600000083730176 0.21280897919032046
0.08945498186345971 0.2558773306674187 0.4600000083730176 0.2094760388124199
0.2795192247842523 0.4089626293311847 0.4600000083730175 0.19219770893711477
0.14970811727210814 0.2822710535429803 0.4600000083730176 0.19612478432002997
0.21697190109446404 0.34851511078496655 0.46000000837301763 0.14901560248315193
0.3345350551679198 0.2320980110702255 0.4600000083730175 0.16576955551222047
0.2848409783240354 0.2691662666082931 0.4600000083730176 0.22822580239922913
0.08504002871847502 0.21441370393957795 0.4600000083730176 0.2192631678150289
0.21634370016936086 0.3673072985294693 0.4600000083730176 0.22410115163092892
0.22996994884116448 0.3200986717435298 0.4600000083730176 0.19983494484739925
0.287843906116687 0.19224469007947878 0.4600000083730175 0.19946722932215355
0.10092955099908646 0.19131295366692225 0.4600000083730176 0.14676937574923135
0.22305235082138167 0.19650560683234644 0.4600000083730176 0.23117060733667733
0.2527602319743068 0.19074934669615215 0.4600000083730175 0.20280425289889448
0.12149369521603265 0.1895087414418896 0.4600000083730176 0.1996482367865171
0.23288494518445146 0.1887939723092757 0.4600000083730176 0.22125001109205514
0.21744783054179015 0.18818177543850173 0.4600000083730176 0.2026381185822194
0.32167292683008225 0.20434651194895231 0.4600000083730176 0.18990335259190527
0.26414222556782907 0.19415277161286165 0.4600000083730176 0.20676210008346915
0.1746361756446729 0.19437794663502828 0.4600000083730176 0.23123884337270795
0.3483909338993751 0.1873089535991795 0.4600000083730175 0.1467666379418229
0.13828976245255126 0.18803665185412838 0.4600000083730176 0.18426610271192848
0.3331363974695254 0.2087659753680616 0.4600000083730176 0.18517044931161078
0.24160383420901355 0.19618867690431602 0.4600000083730176 0.21781329695346507
0.3082358614100704 0.20514416459113208 0.46000000837301763 0.21475534608926022
0.30657318434713193 0.19228496596995717 0.4600000083730176 0.22563235642470467
0.2990361316771822 0.2002672466745347 0.46000000837301747 0.2134671736826668
0.163504338568893 0.19051636303760772 0.4600000083730176 0.19587054551149588
0.1931955620152646 0.1934701813657999 0.4600000083730176 0.2079013633706293
0.0737062706784457 0.19022451910747806 0.4600000083730176 0.20005094332433143
0.05136504198147928 0.18893600858422818 0.4600000083730176 0.2048770977540492
0.34847632633257125 0.20981799731912604 0.4600000083730176 0.13325341487567827
0.08408118028375622 0.18983511095354752 0.4600000083730176 0.17813051453507514
0.3218116548443528 0.1927844822571699 0.4600000083730176 0.22575839116042293
0.20752448123330303 0.19639911444986607 0.4600000083730176 0.1976760837047512
0.3425666622509791 0.19907849532940958 0.4600000083730176 0.16041469669111208
0.2755600437228671 0.19714953266330995 0.4600000083730176 0.19827878077393224
0.06508104909636125 0.1999436018354161 0.4600000083730176 0.1729116951254759
0.08852201330446373 0.20277283857690453 0.4600000083730176 0.19732465204700816
0.2432419955066502 0.20672592046997806 0.4600000083730176 0.2408803029138416
0.11471436303582647 0.1984239630861927 0.4600000083730176 0.20745606224392837
0.2585740727776576 0.2064218712356001 0.46000000837301763 0.21127969051282758
0.07471908527597557 0.20380275689670344 0.4600000083730176 0.21486875431542776
0.19812131715123535 0.20303290370956006 0.4600000083730176 0.17890232245393292
0.2801444553599911 0.20918502776889547 0.4600000083730176 0.19966920979349398
0.015284325139237028 0.18989565202769618 0.4600000083730176 0.1494580384244004
0.09952438122997657 0.2028816436396994 0.4600000083730176 0.23573448417900247
0.21601986277137758 0.20353925983299206 0.4600000083730175 0.1954043056326588
0.04276097677510528 0.20403768729590724 0.4600000083730177 0.21751178226846907
0.030798256914510137 0.2009574656459607 0.4600000083730176 0.15949843494099686
0.22908087410978 0.2064058154708857 0.4600000083730176 0.20726795973467405
0.12299867876632187 0.20900336690126117 0.4600000083730176 0.20049219668521137
0.01603948455534577 0.20525108757024266 0.4600000083730176 0.14988388992277488
0.12999121019452384 0.19787197961050731 0.4600000083730176 0.21585942202302502
0.2691427167427036 0.20925968920449203 0.4600000083730176 0.23001957039238216
0.1510038935087235 0.19928622442988558 0.4600000083730176 0.23345989272219073
0.18253378608208784 0.20572309172560455 0.4600000083730176 0.20186367476507044
0.039537262988841054 0.19309333423419445 0.4600000083730176 0.1914111627918656
