x y z curv
0.23720531145222257 0.3748475945695193 0.4530088222881519 0.1435519164623822
0.15295267792298445 0.3748205708298038 0.4529914951145607 0.1574635375324036
0.3537248708942276 0.40314304005603174 0.44651033444480565 0.2528900610193231
0.037598416581748985 0.3437812438953049 0.4413965665154278 0.13030645138787708
0.02946220143982766 0.33616467061227784 0.44067260699905986 0.1255156351248617
0.058446994131331295 0.35352884304033977 0.44446787096888113 0.13528897990417105
0.15380292694116504 0.3516578708904638 0.44384158033750976 0.1457182439860975
0.12196522830929123 0.3492907029521717 0.44289147460921013 0.13320403026720362
0.09994669753038668 0.3520611553124703 0.443942130206722 0.12657962196140862
0.10420353057048576 0.3417728535691797 0.4417796649914447 0.13289254023348582
0.08932210324677428 0.33807281373801856 0.4414392640324083 0.11665280129342014
0.20039583185653184 0.3483171258155499 0.4426685938019542 0.15247299458298708
0.08010467866476133 0.3461343016592162 0.44200995828622713 0.12829867340049242
0.13097391377682138 0.33816912503497387 0.44161704221620435 0.14364480988343484
0.1746646185163278 0.3399494309783308 0.44193003889683663 0.1331278065524529
0.07895532906872675 0.33239776237652696 0.44124296758361314 0.11375957618670267
0.06602839403726155 0.342165549672506 0.4417130611884172 0.12124171302110603
0.06681618711939877 0.33124313345529627 0.4413781233920982 0.11447697191045782
0.1871525309672996 0.3374713238343414 0.4417412667836416 0.14626447115808186
0.24710730923286026 0.3603452934508844 0.44723785449411185 0.15053399799868808
0.11109509099515785 0.35706449568942866 0.4458792269641747 0.12301144071205086
0.189875969925778 0.3574040706613614 0.4460686895420137 0.14660736802142466
0.1363234236044016 0.3529149419909591 0.4443097287249458 0.14028829332860532
0.17872315479875667 0.35063640056927015 0.44346945688412087 0.1358994330007558
0.21684735630911012 0.35472862340216615 0.4450648276477499 0.13735651394886994
0.33105400810556246 0.35037323418774524 0.44306863087745685 0.1176582254267208
0.29658232569661863 0.35290423013298977 0.4441652332600687 0.13321247814941817
0.34720521054009906 0.34511649153011736 0.44171422593354137 0.11620070131283404
0.24167896191530094 0.34768895516256276 0.4424502397707649 0.15812231676086275
0.36251099295814787 0.3453483918807344 0.441750973957096 0.11477736553196957
0.34562933535122364 0.411432056577376 0.43752985368041863 0.26203852083988605
0.3532784793980365 0.42245391546077127 0.4367058063009181 0.28959097695354247
0.32118095069879027 0.427629849643346 0.43941641112162466 0.30990365465448716
0.3362209036173649 0.42510619220830814 0.43751051930505547 0.30059108679654906
0.3205443840904006 0.41545461494117 0.4365780891282565 0.2636233925756621
0.3617322031941659 0.04920621858641558 0.43471491158510867 0.11878478502811878
0.2799750666769028 0.07407761005977069 0.43533818586687595 0.11327268906712339
0.18499362991009763 0.014151710851647216 0.4348325240940609 0.1360218015008035
0.1994827123827185 0.0465116742487801 0.435226932357493 0.10726831864570174
0.18949217444498867 0.05923612922334298 0.4353363004933303 0.15228316410670723
0.1800845782071397 0.04737374680413498 0.4351797821539109 0.1338009646779569
0.18167832521023597 0.0714474195019214 0.43544642728404065 0.1401656066134437
0.2073431736655209 0.012058001038151168 0.43484891223074895 0.1491330643791449
0.02455478671571222 0.10169134370861518 0.4346830608445764 0.1295425206018156
0.016853993463507928 0.3456635137023524 0.44119822404666426 0.15188377607048012
0.018230149312878335 0.36010650130738636 0.43030604757734187 0.18515155031583136
0.013736450292249769 0.32203236654732814 0.43495893424383353 0.1534125102067905
0.012843522034363175 0.28629733003907987 0.42670957488429684 0.1283428796477071
0.013231094890758115 0.307012990019421 0.42593036919044513 0.15007120504927535
0.012664591848113135 0.2730108744898144 0.4305999244941241 0.12914045226689483
0.012284545381557753 0.2485590844660443 0.4257990952159166 0.11719937222025746
0.01229531902153915 0.23666480440999374 0.42846521340393934 0.1315862758051286
0.01207102706225548 0.174631089430072 0.4266281461525828 0.15426913625077407
0.012364436586947436 0.1612585901193337 0.4358188251589538 0.14473979798562459
0.012215930134471302 0.13777860812738024 0.4320170452547679 0.13167101035048195
0.012340007895995531 0.1953242407241197 0.4359611486183787 0.13175614389104767
0.012321599562794036 0.1484948909295376 0.4346009324761887 0.14085677586447062
0.0796324517597916 0.42898221688125937 0.4405026460792032 0.28810795251537097
0.09609600001714359 0.4104070979537082 0.43841938231136307 0.2593101721138031
0.0649041230089831 0.4171148379430277 0.43693533042688093 0.25498033729388003
0.056890014026207296 0.4095098907907161 0.4390430805765355 0.2746704023012461
0.08279987935999207 0.40928552752392455 0.4393591031132564 0.2862327222092587
0.08868898353851495 0.4200319439116371 0.43599422717598857 0.27124803863844954
0.07801010744341375 0.4083646767069208 0.4500691988077842 0.28749567143181687
0.04964542600491876 0.4084666657563133 0.44806259102665263 0.2856847334070563
0.0688680302587354 0.4258786280212889 0.44498088441710293 0.31449262820355733
0.3963542069089334 0.30231720364052855 0.43695648535568093 0.11813399760078765
0.3961996601338649 0.33197470331771334 0.4275340252421371 0.12784039225330027
0.39644103338270725 0.3073678198436419 0.42729162854667524 0.12070174232296485
0.396721685422076 0.2675435400041099 0.4252617761770163 0.130066752271465
0.39645910961949127 0.2958971793199075 0.42500181390464326 0.10803276192373937
0.3973893877954535 0.197108180632315 0.4263264777811572 0.14528513974268026
0.39772810876621534 0.163504270659739 0.42901986334668507 0.1304003077889566
0.39753487434796597 0.12721462227313649 0.4348666440817929 0.11488355592152431
0.3974749005735697 0.20898687388872011 0.4340551653425511 0.1598202250512539
0.3974072945303701 0.22449199753662466 0.4353046980669163 0.15305994436238735
0.3607630354364181 0.3227409884308765 0.4408561052722534 0.08273678824198977
0.3649341477620625 0.29894629221591495 0.44075181033218713 0.08132838097540462
0.36490491732029284 0.3337475809160815 0.4408072714085688 0.09194761903998365
0.35500825743030356 0.28413471791814315 0.44088711500460664 0.0866536444106257
0.3600835503918341 0.31082410763615986 0.44084813861733574 0.08505011841893328
0.3539371873775522 0.3317502937935491 0.4409794839901164 0.08860647942218482
0.38204334529087347 0.32550906595012774 0.44043249174711296 0.11824476826111699
0.35887545122230086 0.25826536432224845 0.44078286562170693 0.0935890100374898
0.3735138209173362 0.3133599332128192 0.44061973187768344 0.10027101731855192
0.3712811952860063 0.2890094857719027 0.44060046165669986 0.08191207208833547
0.3890207965741854 0.28637326439887 0.4402106226564973 0.11425119350490678
0.3836052508001825 0.2968337217888771 0.4403563647654729 0.1055099566112839
0.3674967317771849 0.2775338053013869 0.44065029982389986 0.08705445766432496
0.36809173558450997 0.265293508580676 0.44060358136124056 0.09590553480910273
0.3818736026768371 0.2416290734908048 0.4403047967221384 0.10770322902643173
0.3783335375270104 0.22962202223968636 0.44036553593712735 0.09685210290428696
0.35884664999969507 0.23902964607005422 0.44073215424272266 0.08214415712272355
0.36127569201450205 0.22488016282336698 0.44068090907540247 0.07546358330990403
0.3904296995627229 0.26338207460659346 0.44015488822571247 0.12311229565926772
0.3664516032611158 0.2478629138088469 0.44059442215443007 0.08880359505516087
0.38244072116378103 0.19616624648122566 0.44027102566508586 0.10918154853332218
0.36842669090932756 0.16936553084297723 0.4405001718092043 0.08715240335666469
0.36862914907172484 0.20347492895424685 0.44052802207559394 0.08568440356368995
0.3557251703015125 0.20890842416525565 0.4407668416436513 0.08578403127311285
0.3710839410367953 0.15169310110520542 0.4404356967773501 0.09381917145275287
0.380620909353928 0.1791927603316252 0.44028831345841124 0.1100263625957774
0.3799397249594384 0.15960985965155064 0.4403041366123471 0.11599823084744616
0.37853160980665934 0.13845353385592216 0.4403638902726826 0.11356212437761162
0.3907460902334555 0.14764312904745114 0.4401220215399835 0.15460572151479388
0.3900485658325785 0.16429339352026728 0.44014274262167713 0.12801531050414483
0.3563784488475726 0.16165397274974286 0.44067002235868735 0.08899382706283976
0.3611600027864775 0.13469656640054622 0.44058156518391894 0.07877108491987754
0.35767278843260175 0.17565788700805268 0.4406887790957273 0.08224834142962979
0.35597877147168216 0.1870350636015286 0.44072377969296733 0.09299846326579539
0.01598210370000207 0.33485437516867256 0.43996862952408106 0.15590005415930838
0.022945610124735755 0.32286273310124447 0.4402488664646542 0.12809816554502101
0.021882715399783457 0.3068932526320316 0.4402460629112143 0.11599205478790253
0.04207697419313112 0.25108051941289744 0.44056643814390906 0.09225665654563286
0.04745116882311754 0.2628949140968624 0.4407182060796288 0.10840618994142959
0.028287102161065898 0.29033572661091517 0.4403758750677168 0.1025850645960323
0.03695558338716102 0.26961725014068183 0.4405069786645155 0.08984690743122369
0.0347473191053312 0.3105589113239088 0.440575524203978 0.096972216060684
0.04401923795770328 0.295041564152289 0.440723814821737 0.10237268868861021
0.04685977928237458 0.3071380742195964 0.44077385279146253 0.10380869212212482
0.0459724359400388 0.28234229857971543 0.44073798988957 0.09710757654000815
0.01755251761413069 0.23907180738927253 0.44009586610482654 0.11372656309436428
0.01719085346012928 0.26289079667424486 0.44009894559323953 0.11797330162557515
0.01627083406779701 0.2520657211541891 0.4400769989520681 0.12064812979098608
0.041245193474480225 0.21825588596129608 0.4405361182450327 0.10310914875602596
0.029053738110638418 0.23567452286734486 0.44031237624330843 0.1147285052983726
0.04649475126087641 0.2410326715559619 0.44064508538327213 0.08656852462637232
0.048583559248263006 0.22943601818955195 0.44067982869406036 0.10277774731534235
0.03190642309233195 0.21043101494014135 0.44035590296195565 0.10621457710554491
0.04897898228985515 0.17786282258434785 0.4406437097221343 0.09020104728170637
0.034088015344341124 0.18895918332423212 0.4403779040734337 0.07449531050499714
0.03257907562417121 0.16143111386453096 0.44032567756616625 0.08421500800232552
0.02394442676839932 0.2006297294764029 0.440200469250666 0.11379183715514435
0.049327928521546174 0.19174519209496727 0.440662422041206 0.0982993595906946
0.05054175827923618 0.20813801789284056 0.44069935753144407 0.10682640027005022
0.037380435361559605 0.20002280174700382 0.44044860577143136 0.09144118752931463
0.04328383909577801 0.16823043514236946 0.44052980202858455 0.08529536694659103
0.056421217431994464 0.15117802573848063 0.44067012449741993 0.11050026488358566
0.05153306675792281 0.1379963543552623 0.44060852862442645 0.08955709269281982
0.09744083049205594 0.3155080395962545 0.4412499741670436 0.11826340140990546
0.06731111266496245 0.3130588539242596 0.44100168456813915 0.1133760037909678
0.05877022630879926 0.30447551620796764 0.44092553636389764 0.10791525741527437
0.1111129671704796 0.2972766716926951 0.4413206273822181 0.12101498980396211
0.08359502009058557 0.28665590902234966 0.4411110298267845 0.1271754610441492
0.0604996829825544 0.29214177160192656 0.4409370053560001 0.11922222045179304
0.11052466211247415 0.2834887160681818 0.4412955246553446 0.12450069959144945
0.061894144033841234 0.27889555813100947 0.4409450556032926 0.1216230275635906
0.0920051356520101 0.25286336855208325 0.44111890916076163 0.12822291038019307
0.08855906119490317 0.2662296113896496 0.4411109670636445 0.1262751333969285
0.0812153017467859 0.25681051137270755 0.44104968141017975 0.1295811240513754
0.09288093950831768 0.24024120353406925 0.44111013075749894 0.12999484950654294
0.10273814562754655 0.2543205278469729 0.44119407300739544 0.13031352042451894
0.07159615744374762 0.2659596760067312 0.440994554312833 0.1320629035033414
0.2164499281556585 0.3146243367653282 0.44160105545847705 0.113472298373613
0.2576207283043641 0.33572194958675283 0.4415473196283951 0.14926614661091048
0.2371243638929361 0.31834424451064947 0.4415792849823933 0.1171548722561445
0.20843848166351514 0.30411698965342854 0.44161636718881325 0.10615963879731577
0.1958970000908617 0.3273273173090111 0.4416102594270933 0.12273042152135778
0.21878143230285746 0.3345778133511886 0.441583785761311 0.14388768752325218
0.2395426328279977 0.33355486867148804 0.44156553274552146 0.14095930010028096
0.16509982418638555 0.3268797718986926 0.44158118776396815 0.10466262863344598
0.17940402369866634 0.32118587759394834 0.4415980330781634 0.11650092452501774
0.1553325277028773 0.3095906572207199 0.44151260371700457 0.11554813913661842
0.1341757675033113 0.30341243688049835 0.4414483354596333 0.109418077713409
0.15041996550809855 0.2757725400397214 0.4414650225640229 0.10927950192520149
0.18693753050421252 0.2936025504600725 0.44155412128506605 0.10593031157652265
0.14531045793491923 0.2869844871636026 0.441456294345145 0.11337181990183808
0.16303360869200254 0.27168476985091133 0.44149300377212636 0.11029782925084719
0.17403379464104518 0.2804940718887862 0.4415207807683461 0.10600311093800197
0.16718431978321574 0.28936798741651937 0.4415074012553791 0.10369981795019216
0.15233589104500678 0.2960071203425608 0.4414749608923109 0.11098806709483407
0.2806130939628231 0.3055167550162498 0.4414280321037942 0.10841322616303226
0.26647578313412856 0.3133955761201701 0.44149004109560624 0.11628595810274601
0.25401556443585854 0.32084239572109563 0.4415459601393532 0.11084887142363291
0.27270131114849133 0.3250681712240071 0.44150087530993276 0.13834905835316827
0.2235497842896377 0.30353548161121946 0.44159322876753254 0.11357817234399928
0.24423241455566586 0.2760288784622692 0.4415044143727334 0.11129626472588873
0.22998432969993815 0.2718069347154745 0.4415450837203401 0.10720727571724505
0.24568437335840454 0.2942308014340723 0.4415119214132274 0.10843576355630953
0.26856354237436564 0.2929277792136633 0.441441316683954 0.11011056043620035
0.2305292752571639 0.2920055734396143 0.4415566650082605 0.10680746139840867
0.31138511895354853 0.32665807709512523 0.4412683864194865 0.11736807411826476
0.33750068811746836 0.3308208799929563 0.441102420162199 0.11549642358453734
0.3274554550437896 0.3240902828714831 0.44116381267624144 0.11084059421571925
0.308083817282681 0.3163253401868068 0.4412846907809973 0.13520210948312775
0.29444992151682164 0.31836707047366986 0.44137334478580537 0.12927123770036458
0.2987043067705183 0.30177849580511074 0.4413380752838557 0.13768757022471179
0.3499046419670897 0.3080097619505374 0.4409463058104892 0.08999523443301535
0.3485692162507451 0.3212218296824474 0.44099181298531837 0.09921093882048293
0.3408698454186502 0.29784191350180134 0.4410089543467045 0.1013840823818405
0.3229238648345264 0.2985323606526988 0.44114584199208595 0.12152591145373359
0.3278765564388566 0.2879222425002492 0.44110580200853144 0.11552825291867411
0.30525506019269494 0.2804651591707804 0.44125089959171027 0.13105017127842503
0.31460844554303935 0.2882460460590225 0.4412034786742128 0.1346720985298919
0.3046246297516311 0.26659051122832084 0.4412241278293633 0.1303749762637259
0.3244532047418985 0.25325502668226607 0.4410754805254127 0.11733700081279813
0.3397270780013991 0.2693496047688162 0.4409918906066139 0.09882564390842176
0.287980199426002 0.2601841607440394 0.4413282701163743 0.10765796963244734
0.28109456136465055 0.013842322807391092 0.4347126532850749 0.1665251859043546
0.32369875744434756 0.01572198158284512 0.43212765764300515 0.15509031389675512
0.3835234882323184 0.07014259108163626 0.42617022977165697 0.14069533657352723
0.058607133955023025 0.08992337726920199 0.4333951638168708 0.11913524790557906
0.054675431118873255 0.06421950498667606 0.43495984375426433 0.09952155613499955
0.016261259672909995 0.18502551437603754 0.43110629836258413 0.136146190049106
0.015520333288287377 0.2789648330001514 0.43991737033803513 0.11082694080607318
0.013786507176487273 0.2921013548418275 0.43847618548257555 0.1295881084981468
0.012839452393682895 0.1257214551593797 0.4382602499690528 0.137360346683915
0.013287089431575305 0.21824367846018275 0.43898727844407204 0.12926801106536595
0.01293016292357579 0.20615589330088363 0.4382809730487379 0.1299556281576761
0.013841370846182584 0.10814527829910905 0.43915376381603044 0.1471502445178702
0.020279381632554556 0.14307081730316248 0.44014209074475336 0.1348200140733809
0.028052820202822865 0.13292121170648372 0.4403169770801057 0.10484119357334562
0.01947347061683131 0.17619242037294452 0.44012183553632156 0.12644367356837258
0.39576383102934626 0.31839421201772056 0.42498955852384424 0.13564156239902214
0.3971926003870261 0.1350904481349785 0.42493788504276137 0.11808161069933314
0.3966847221182028 0.21801636951322406 0.42495835307097146 0.15271294861097903
0.39700133872740573 0.14862444508931763 0.42494333069772455 0.1297697676608783
0.01392464655919635 0.3395041652336312 0.42541184193915066 0.14910394194464638
0.012533283693137078 0.19421866621909972 0.424936120651758 0.12532489878534517
0.3809228403377488 0.05794228920067319 0.4250114473331082 0.12555382712723764
0.35308861988697116 0.028464229445925218 0.42500035961888244 0.13294865128071404
0.3386019052145046 0.01996601038080137 0.4250917554369647 0.14546808539704878
0.02174385539616374 0.07198508707725715 0.4260492967934626 0.11057585886361794
0.031520910898303466 0.053552971587358944 0.4309106286202308 0.14010120705723214
0.039644395122775046 0.04503959518604847 0.4250115285766549 0.12519516301432876
0.058089388173375306 0.026171891509880394 0.4358712851782433 0.11859584996617237
0.09791323807424923 0.0077715169201171995 0.4264164454945487 0.10507159257221199
0.0898009056748893 0.010293216186055141 0.437494987420913 0.1295515827312141
0.012554857365169118 0.11083893021665746 0.4272078720650463 0.14095738592032234
0.12706797836543304 0.003214352636918931 0.425937872162579 0.15007717982141613
0.10757282514401001 0.005703848215939534 0.43593117875175647 0.14609557656545744
0.19683983839649297 0.0019790620113781846 0.42492323770548474 0.14636659807379845
0.22244076960204984 0.001459233757035642 0.4249227316321214 0.15143987200389758
0.27582704867703295 0.0025562435936305515 0.4249352381413086 0.11603349782808815
0.314429219587902 0.008404130326131316 0.4249242691897619 0.11677295323623807
0.058917429501003274 0.4309078498641129 0.4432012887888026 0.26714561204772325
0.39711544673155447 0.2499647207801683 0.4374302322783676 0.11697527345024633
0.3958970980670106 0.312947602122023 0.43841760853119033 0.1251903846461937
0.397112367545798 0.1940392423475806 0.4379018517104277 0.13060905886705165
0.39403735755396774 0.3268595200278235 0.4396628696600607 0.14175867036167586
0.3940878417829999 0.23468040835469234 0.4399527851952201 0.12121231154126545
0.39455243287057473 0.13786999781041082 0.4397817496012938 0.14819952805629547
0.3941498444145899 0.17845137167750097 0.43993699893446325 0.1330418775072732
0.39394357930104207 0.08986147099086034 0.42631774784343823 0.1280696105359748
0.36863356568692085 0.04057399640744169 0.4266840683593621 0.13859142668544094
0.3365308020311941 0.01713944575695453 0.4358487991892065 0.13332448955656634
0.3974156277594779 0.11234169218880086 0.4280804375766144 0.11847448787462751
0.3013986315450108 0.00545807272919574 0.43344805215683957 0.13940697186405104
0.2831398281219528 0.003455172621260389 0.43524696137906554 0.13878599562733068
0.38710516044948645 0.11714542661201563 0.4401979854122462 0.12361862695245544
0.3798784280318036 0.09236264789917668 0.4402451512476617 0.12463363332291237
0.3556713240856629 0.05832586589882138 0.4403230346388143 0.11549066123464269
0.3694964049597169 0.06347713819639539 0.4402130168332434 0.110606181739095
0.3429384397005253 0.04196974566905257 0.44028495650580024 0.11976594973923332
0.3325816526382813 0.03297161601690002 0.44026452834815993 0.11071310897564181
0.3618532472648205 0.07959583956729582 0.44039941943552563 0.09852497499257551
0.352955858331488 0.08755420070400592 0.44049529558725475 0.08342667239984396
0.3397913047182833 0.06383743268416445 0.44047042071167286 0.08675988689022726
0.3291351008067374 0.06643879957154702 0.44052556453050373 0.09290713171439414
0.33389330075872053 0.07894454651448084 0.4405589717198448 0.09917213068794678
0.32260432585261384 0.08693931038132456 0.44064629438757474 0.10776640133173508
0.32767107257381184 0.10785081566936379 0.44070330040926275 0.11164297591220956
0.32275981200437653 0.14519654977878854 0.44085534459998277 0.12006478564821349
0.3111981871169113 0.1298401527272758 0.4408634370180952 0.11398961665008056
0.3004478046184722 0.15095589202624005 0.44098632886285605 0.12978931475368038
0.32043038577121596 0.18161649111375416 0.4409697744922811 0.1124420339538815
0.303262545164778 0.18293788661959276 0.4410682583989497 0.11236823401787151
0.2980225880827407 0.1338581422059977 0.44093551536868714 0.12052458042567434
0.2999164244748948 0.12330120547136322 0.44088905197982164 0.12426387324697707
0.3157058302274752 0.10480355192362559 0.440748119326679 0.12197491811641835
0.3049206841020858 0.10402054522891657 0.44079180367043047 0.12143531504394567
0.2808940341804046 0.1787180381574882 0.4411554495151109 0.09656244973246557
0.29221472959501865 0.16506685334377738 0.44106621610032326 0.11199856770158509
0.2846576879654028 0.19902323340314093 0.44119755861704063 0.10975499835600983
0.27930488500353484 0.21173363535093612 0.44125485950440335 0.10955375189305147
0.28867110899701376 0.2177717640593293 0.4412245342443643 0.09646348700921112
0.29728396308320654 0.19262028653714025 0.4411258261104191 0.11014376633339788
0.30624876317264327 0.22226391925435307 0.4411486059106036 0.13448054461977835
0.2742454076015914 0.16838468706447735 0.4411477579928179 0.11368906712006109
0.27141823063358406 0.15200424989358824 0.441104281641407 0.10783979750169871
0.29057869985862905 0.14283159983422766 0.44099683776590864 0.1019801752560919
0.28103754763153843 0.11342680796003728 0.4409192675275622 0.1074056651134923
0.2858567994097606 0.09392871132681638 0.44081509908519534 0.1032015795410415
0.26557044500574767 0.09032386690228575 0.44085297229628995 0.10245720733413702
0.26106746418321064 0.11088229067527357 0.44096246234954856 0.09858294105984747
0.24951575450186825 0.2179785183984131 0.44136554929434324 0.0994211317265411
0.26731007438077586 0.21640722955192987 0.44131256537832086 0.09541278384197899
0.2628600741701662 0.25996942993455774 0.44141888911193117 0.10734275545736446
0.24470718786676957 0.2535117010050011 0.44146490903038205 0.1101541796721315
0.23661895395362653 0.24511682104708704 0.44147080325210186 0.0946846448457212
0.23905903695805641 0.20982871506706705 0.4413709561129369 0.10123696153521151
0.25705530868849497 0.17649123759333396 0.44122438234789046 0.10003450064016281
0.23640714208875532 0.18878735415345288 0.4413184499428444 0.1002321750383514
0.25965246057402447 0.15462044544767584 0.4411428076092278 0.10790195765581342
0.2442760839528046 0.16197111509952267 0.44120414863050356 0.10590641538527257
0.24290294048219727 0.17256607738096835 0.4412455359487715 0.11249127885243228
0.24782761513711205 0.15056864479388138 0.4411543848030335 0.1039202514009983
0.25843467249792856 0.12979967050569385 0.4410474523734241 0.10666286408027027
0.23539814054069402 0.14316710840261698 0.441151970330973 0.09986308092262874
0.24024299141521968 0.11146762741947566 0.4410096427692675 0.09799788893311352
0.25493568484226337 0.0844027757074374 0.44084745039433515 0.10357122703603788
0.13640030192434402 0.22714940962698332 0.441341268606503 0.10212567080994683
0.2144431391616082 0.23417526764226237 0.4414328116948807 0.11549640254306671
0.23163759358298552 0.23563227314530677 0.44145273946817054 0.10342098687343315
0.1923470450802112 0.23508258553628303 0.44141457179989263 0.09729527940451739
0.21528915720325723 0.25230304682003235 0.4414816575555308 0.11226686001438017
0.16573820909792084 0.24218644311254 0.4414099537889031 0.09646113280587454
0.1888157904947649 0.24923069795603953 0.44144973961113976 0.1156243958504747
0.2048269899955294 0.26024235760563497 0.44149783407685067 0.1205521584538856
0.13872282501671032 0.2480249651184322 0.4413971398971044 0.10134326717902184
0.12409170646758798 0.26249503437893057 0.44133484236920634 0.10879094641624834
0.1453293454481296 0.25943418535421797 0.44142909040432843 0.10077198295602528
0.3480337284612577 0.1420647190206781 0.4406937205492778 0.08690088340960184
0.3394242625356473 0.15978767336975944 0.44079552933292954 0.1028821262904211
0.3449005883305636 0.16964749599514445 0.44078245256959125 0.09514921622508749
0.34360847502295677 0.18087861332666322 0.44081626076190306 0.0987589904351856
0.33247412138230237 0.18676371901095906 0.44090849841661306 0.11825462217783955
0.33734621545788646 0.19623051591500137 0.44089129279822176 0.10758211827717612
0.31734626407432104 0.22473329943504297 0.4410852654251672 0.13460666849707362
0.33933256342706064 0.2327043979743527 0.4409395967016303 0.08954479807263198
0.3349122590879475 0.1196058899452593 0.44070734762454844 0.10566827626101769
0.3068873857580589 0.07946700571273241 0.44067532894419176 0.1098952706036597
0.31538593940474546 0.07113145748790314 0.4406007246524908 0.10712764597206696
0.31190912896178574 0.05322818786688199 0.4405251507379191 0.09272973815908349
0.3113561000189727 0.04107182497824409 0.44046458845769093 0.0827073286081655
0.2994501497101406 0.06045136559980629 0.4406040473288797 0.10975736310719694
0.3018818989219425 0.048352888863518184 0.4405326479768107 0.09138447905916491
0.26826356297385884 0.07310639585886802 0.4407574831076039 0.12628963158723372
0.2703593375515946 0.041383853282626296 0.4405744212574034 0.0784626377894028
0.29108949197113465 0.0696828099199297 0.44067892559980953 0.10841032739576352
0.28409757190066726 0.04716186399827468 0.4405820746172055 0.09662300420489299
0.22398373168824556 0.20577065397102476 0.4413653861003485 0.10080557668793592
0.21485571725953112 0.18989157099997195 0.441314200838326 0.09842607697490048
0.2185027656406984 0.2173207582917579 0.441396003586942 0.11134715021642835
0.20582955419291926 0.1967122738114626 0.4413291223911081 0.09931271469688534
0.18983946937125903 0.19701857794245226 0.4413212886364536 0.10410605657016495
0.1734229346801685 0.18999741931423964 0.4412919009300231 0.1192124108402711
0.226135085189477 0.1941508446092946 0.4413327489763267 0.10286740400103593
0.20766711366085067 0.21101210292315586 0.44137173432655935 0.107380607779222
0.1954823045012377 0.17192439020883604 0.44124121769208946 0.0991043959948151
0.19861980360327702 0.15691020034987943 0.4411881354332955 0.10528550482066826
0.22553356886482387 0.15287631971748147 0.4411865996206866 0.09049976992636566
0.21218275148756868 0.16992565862612652 0.44124209929049496 0.10394021617083941
0.1725452517479947 0.15890589985027742 0.44118266705340686 0.11374782807174802
0.13705407597342092 0.17068577694359452 0.4412056064283846 0.10836277842936451
0.16431871777191073 0.18163640782135249 0.44125864843356405 0.10713190510482529
0.14825329074662505 0.1842426480743786 0.44125908035703354 0.11234401113243851
0.14929734811975304 0.16634491761930117 0.44119704093780937 0.1131862804393409
0.18095222325358346 0.17320248949167782 0.44123813917597576 0.11378311088630334
0.13208838633769715 0.1590097302344437 0.441143498604627 0.10149205366813614
0.10710497039529415 0.1819841045070289 0.4410695925336332 0.12591137008544612
0.12993853981423778 0.18949867779071441 0.44122204399077003 0.12062813763729288
0.11601947490949298 0.1947203016032334 0.44116283748924734 0.11688835590689611
0.12443317907412872 0.21691380628063434 0.4412936869440671 0.11788392354149062
0.10577281786280238 0.22175867053965767 0.4411778647536279 0.1280892085398662
0.1024660998920855 0.2086723468394528 0.44112095441842314 0.12551758591729986
0.10206626533729748 0.19750250747751033 0.44109059782923654 0.13790615424390085
0.12142136949054981 0.14708898707707502 0.44104136998332133 0.09791218161937204
0.09975549632101442 0.12167282605875657 0.44083867397054605 0.12474859999569791
0.10122233160955237 0.1466972609934583 0.440931817368173 0.12260279880504826
0.08486122955732016 0.14958422375962352 0.4408551976639334 0.13129473069473166
0.1318400068710619 0.14022243585089444 0.44106816467629895 0.1014197037233341
0.1254653527605497 0.1228811028945708 0.44095361441786085 0.09219980236518724
0.08109796162623994 0.11278730886676165 0.44071513092499126 0.12666440297712026
0.08417597085462089 0.09438529518624701 0.44066176109551625 0.13792337651539993
0.10245634621978142 0.10768409882365645 0.44079601832382914 0.11757250650238947
0.10557307316619352 0.09514567938802432 0.44075605178885746 0.1249916623125445
0.12304160820590761 0.11087383897629882 0.4408875940411393 0.11357599520565913
0.12708583662156847 0.09457101713131524 0.440827513349101 0.12655036517841728
0.13585023684853612 0.10639953539057162 0.440906997160975 0.1065430219248901
0.13975407973406984 0.0952275587453601 0.4408659527731407 0.10181811586403545
0.16356045879794667 0.10385730208559374 0.44096397023553974 0.09190577746931938
0.15543235886900764 0.08146354235691342 0.4408340976619472 0.11695878752401925
0.17127523318002177 0.0831365615799384 0.4408715690738914 0.10695229527986341
0.06249462489997132 0.10620375467660947 0.4405879897584441 0.10278866525922498
0.06885060731050331 0.11739680147402094 0.4406643614966011 0.10268788992484551
0.06574342456372667 0.09526031154712152 0.44056856741102673 0.1227807217748182
0.05029105562415212 0.10793170721106113 0.44052543790522164 0.10862160917461164
0.09457181685386346 0.08007808791393935 0.4406464631336705 0.14236225650079581
0.08331683427123815 0.08245411975985878 0.4406086365683972 0.12085446896789157
0.07654194911068357 0.05994093023174182 0.44048055867850683 0.1068551859747122
0.07652434378570198 0.0712028691360931 0.4405288424052982 0.11860861468917508
0.06516944976540787 0.08299765971372361 0.44052496871554625 0.10549507472374968
0.09054829829620911 0.05565652327966448 0.44051511471093796 0.10693986520261514
0.12377794598494564 0.08017221510620959 0.44074962829184755 0.12262685210862936
0.12205367551600455 0.05800634403648376 0.4406223742281078 0.14388480919011304
0.10943807298426668 0.049847507277667895 0.4405398331746847 0.10567079723927725
0.10981863400925808 0.03657144133095186 0.4404674618088759 0.08740740021150809
0.15874080580079758 0.06810356043213645 0.4407610777940414 0.14222796285501527
0.14258365493262953 0.04232102246549911 0.4405771895221218 0.10399166261948267
0.16927930464147603 0.05425222599260916 0.44069303342680916 0.12663575297050886
0.15603077258580086 0.036848510229088124 0.4405654785687324 0.09898332305502636
0.1685665641783931 0.03691351006506869 0.4405846792887247 0.08207822180921033
0.15178715195803247 0.026861182076736406 0.4404973171308295 0.08810965248954823
0.15359026290341074 0.04876557640334953 0.44063555704165824 0.130949448234247
0.1735298371372887 0.11217776613443801 0.44102481766410284 0.10130216968479389
0.17972518403230717 0.09285721440954675 0.44092447295305537 0.10472816160139763
0.21824200091329055 0.10609798653673952 0.4409935617966711 0.08984393475281732
0.07484696005399569 0.13261165210192774 0.440746693158927 0.1241761530645668
0.06543262757057207 0.14090490457583388 0.4407141292289686 0.10711843145408077
0.06021773526818128 0.1635638208652164 0.44073511627416356 0.10759135998616191
0.06757955294464182 0.1528406502514178 0.4407590820304988 0.12490369795574048
0.07446987479346781 0.1616221771589426 0.44082604298567624 0.1275404250586556
0.08447196613497088 0.17264276616973426 0.44091602977175753 0.11594205413386603
0.06857791380472428 0.17367553053980245 0.44081253583293845 0.11248839903938138
0.23301830851110694 0.12856727205303167 0.4410929089703861 0.10386726813072529
0.2191985163128077 0.1367908990269272 0.4411271538665044 0.1056115746560723
0.21373704731841398 0.1254209416904233 0.44108099115581845 0.0967646610048589
0.21573387355966758 0.06913907981496266 0.44080079081250667 0.12141030075787522
0.20100179346302174 0.058105691866136996 0.44073111929037606 0.12476964597798486
0.22010803086493533 0.08228257204066852 0.44087626394079954 0.10278736651779485
0.20352009550209132 0.08051822813907676 0.44086503678384914 0.11839967156477431
0.31716720805820386 0.022606766765585897 0.440226371139612 0.12469428980387079
0.3053876778614281 0.024632569303232592 0.44031867786106704 0.11077626678904438
0.29486173772638646 0.032000735848457446 0.440447247904251 0.0856903154353468
0.37195956373476313 0.1272671709080719 0.4404619729413882 0.10185558933131626
0.3484749757293405 0.07586969717335665 0.44047777298494667 0.08103604805222693
0.34471587494762673 0.1259050028127919 0.4406681875039383 0.07945843791806685
0.06361555565606217 0.05911142060073013 0.4404081643176332 0.08803843882206158
0.0669617252149887 0.04750384414314161 0.44033798353020415 0.10097582479986777
0.03048288598931592 0.0910763918841611 0.44024879294617886 0.11292944512283459
0.03575098066212889 0.10438150229724896 0.4403748955832868 0.10502493421705848
0.0795874920496249 0.01956400864081486 0.4400295866762358 0.16169470092501018
0.07910012853053049 0.0481048343196548 0.4404293860468586 0.10385035551451913
0.09796036284471997 0.03237295159408517 0.44039318904784425 0.09449991501787837
0.02525599008706471 0.11687023032522918 0.4402459946613406 0.11201874749883255
0.05094271394841263 0.1264573346489125 0.440579270025498 0.09823133644504119
0.064212082269789 0.07145336363267567 0.4404737893684475 0.09018613605532123
0.06904196115845668 0.029049315984722456 0.44010519329246833 0.13790655529395043
0.12975530664165935 0.020034872057910165 0.4403388520008437 0.10156459752072194
0.10972280334521843 0.016343289073820832 0.44017972918758347 0.11385727695595622
0.14797979532301533 0.0075619743791071736 0.4401022793899811 0.12667238461330094
0.14081823424119838 0.016059374535695642 0.4402790587124683 0.12065000414236059
0.16222402756813667 0.01683410241560334 0.44032066847362183 0.11672134180575955
0.17494186880094612 0.0148816283301012 0.44028631339067215 0.1097933713741215
0.26361901659194564 0.02238748284833078 0.44038407599731805 0.10641993528057998
0.27101654582653417 0.014504150849730855 0.4402214820171725 0.11553262955084626
0.3931918983478418 0.27889828944508277 0.4277989901240566 0.1303165686646892
0.2902475796004678 0.007810841608944029 0.42648106011039005 0.11408788786492072
0.18453769787314483 0.004421642698967502 0.42805364480348673 0.15956444025614097
0.024086083985230582 0.07500185703849185 0.4399377802083273 0.12053067375562344
0.017135057440175485 0.08512160992097839 0.4368294252726711 0.11830733017379835
0.026153029011937917 0.06305123350169926 0.437105074148495 0.13090493982400037
0.03902705668787273 0.04375196290716564 0.43630416831412794 0.1363079618201712
0.0356141805443612 0.05854177586225951 0.43999178488931406 0.1292603738931179
0.2386240056592496 0.0008731429774977696 0.42535220477857083 0.12320985721997525
0.2515697736481706 0.0015518668112016686 0.43556754127974356 0.11662661847333
0.2146591816311149 0.0005403228434305143 0.4360712053750112 0.1473421470718038
0.20241884699475474 0.00031350940148807327 0.43430117650732925 0.14457167259735323
0.19056871144753207 0.0005624370515831463 0.4370952717296784 0.1335303224355191
0.17383819259445374 0.0008478388046525497 0.4339255633109642 0.14585632689551378
0.12643622255354794 0.005759111470772489 0.4393493244193556 0.14503482502278228
0.3965156067661151 0.10640563068123861 0.4373640120705975 0.13479635173444163
0.3132494869204968 0.009395374290554067 0.43872490375784207 0.1312907716740991
0.3765772179263509 0.055261769737484395 0.43977429554416303 0.12286673070512215
0.3862655390770031 0.07926891513564957 0.4399009711523222 0.13006737540523572
0.3571770791203396 0.030784158163132465 0.4371780764454517 0.13105635051906933
0.3699705404558317 0.0435409866903048 0.43824257613728557 0.11157532221438923
0.2948067757814658 0.010428886376707955 0.4400867026746052 0.11174063421324568
0.16046427628933108 0.0032584162874519577 0.4396485916708426 0.1211523149365586
0.2262857525049855 0.0011116702868591206 0.4379855298598557 0.1417253847233033
0.2631443083097768 0.004519487570340002 0.43980746799858883 0.12862090304310522
0.3352098180699638 0.3968298748109459 0.45493758521401984 0.1873563197844947
0.2063282209976725 0.28800463921374553 0.4361590560626778 0.11625945583423566
0.17621674699785297 0.29480472127751567 0.43615696388712544 0.11061446814318232
0.08200766195979005 0.4366012431506894 0.44955053930873673 0.2610270569477353
0.06319805573915906 0.43617602471671835 0.4518446257857034 0.235889484039792
0.05189709629803353 0.4364624397280689 0.45045066916264537 0.25442066675915126
0.2725162039097573 0.374293452350835 0.4532223597563024 0.15913369212156497
0.39406628960967244 0.3505700838402416 0.4418475919843073 0.1599949558550178
0.38746505517723057 0.0801210954093851 0.42798581994542484 0.16307997455730266
0.37273915417111264 0.10186562619957724 0.44038339155494655 0.09596207999186408
0.04596888712499766 0.09802600589361479 0.4404613246782355 0.10055681196541184
0.048873708552691665 0.08650381699669052 0.44044014875375526 0.08195747477439316
0.0481387982551104 0.07493205872214642 0.44037632088315337 0.09594510596289961
0.08333693518988433 0.016249536869334506 0.42724090345066146 0.14958354457479792
0.13805990444727548 0.00281573585943507 0.43841044788490513 0.15989122271688444
0.33139583240507586 0.4348512711332782 0.45831761377637653 0.2727224875093736
0.3501649613278983 0.4346826216733582 0.45931235408410165 0.2830472324680814
0.33798541133573445 0.43246658357463186 0.4704534646021118 0.2123059754947726
0.3187870810867863 0.412317083057668 0.45896719975277384 0.19379362727135424
0.32767051203345976 0.42338243535430253 0.4592712184697713 0.26443332642506195
0.2907801292500679 0.27874409031387287 0.43595846639754354 0.11069386717192047
0.3272717918739935 0.2669202241664027 0.43569267434028475 0.1151946793231205
0.3047203552928563 0.29103048903718715 0.43588947856761723 0.13528185315816177
0.3155468155729757 0.2714220342192453 0.4357794360137806 0.12384588113659212
0.31303446051303685 0.16161683898223295 0.43555649388425555 0.11734888134047387
0.3012677744541458 0.1600663213173645 0.43560939705709345 0.12165560958937964
0.27532735756949933 0.128336911852368 0.4356146646444963 0.10120409901211279
0.27433723176121355 0.1420330101540301 0.4356914533479502 0.10432138564574524
0.24600504024388944 0.12090699384145724 0.43564814039570854 0.10688977432452076
0.2573651707727825 0.29914481520415886 0.43609416195487954 0.10206509118061136
0.2687077963461318 0.30425572522285016 0.4360607793749722 0.10953544370062314
0.10513663575020393 0.1288284884258507 0.4354895913663151 0.1258888103088613
0.12419894629560746 0.2384783300448334 0.4358865143265971 0.1108308552964675
0.13524711893982344 0.12300489256893474 0.435578034634176 0.09364963538253199
0.171618425186046 0.26971997625574684 0.4361234299070384 0.11252442546401932
0.08020560850405822 0.30831944410511797 0.43570019682554245 0.13725101171604992
0.09407354485446912 0.3276083893267798 0.43581658643521354 0.11964815815133706
0.07805937157936854 0.3191728897972091 0.43567662731928 0.13360476437269866
0.09000506725824131 0.06641704093621349 0.4351165447768979 0.11929990013384033
0.25994857560472884 0.19833437241426538 0.4358961836478228 0.10019834000847179
0.1840579276870408 0.2219821210128594 0.43601110637845325 0.10767632370853074
0.23025496918815574 0.21366904996986885 0.43595265969553154 0.10872348138598964
0.24686393584228206 0.19794148916441884 0.4359075382364086 0.10552063171972001
0.2383979218010944 0.22174495726064977 0.435960414492189 0.10255811374061177
0.25970409770716946 0.20922675074616093 0.43591702373470864 0.10855681178185751
0.27062366327053033 0.20288358983780724 0.43589492288857845 0.10197887369903907
0.2102154396696626 0.22090918085466696 0.4359848904425211 0.10896506815466059
0.13511099409997046 0.05554215647698963 0.4352236140256986 0.14559188346474466
0.1830643216826882 0.14690346485828956 0.43576720739058544 0.09161921097872133
0.2085513416459406 0.13521139555797548 0.435717229491527 0.10031200287115485
0.1972923102939891 0.1479631577782868 0.435763618756687 0.09903331931833309
0.25580962822546804 0.1446655711101479 0.43572432631394464 0.09808340912049185
0.223010189971081 0.1263523978452218 0.43568174362448586 0.09439771988480994
0.18563580208888905 0.08627028924162991 0.4355179350853225 0.10408929952337644
0.17553595411208553 0.10279533507729915 0.4355883456163224 0.0935012332620386
0.19658383254225023 0.09807881459173504 0.43555321602227526 0.08824739047094401
0.2097704859658029 0.08857315808114914 0.43550660891391046 0.10966097795625533
0.05402821808978664 0.2537228446622845 0.4354304271315082 0.11737771290651088
0.05346384223490387 0.2172025809318876 0.4353796427911103 0.12741628451488196
0.05301491111882724 0.34246468778278466 0.44169130280561997 0.11475839859838569
0.055113719831221285 0.31780521058001365 0.4410496426331424 0.1079922434269399
0.04896203859913969 0.32831125506741465 0.44109845449247737 0.1043610218140032
0.32284319645593623 0.339158405429472 0.4412043512701299 0.12127068195080941
0.22494887577294165 0.34654252873824615 0.44243197788850797 0.14909183375988014
0.27678875707044615 0.34465014264236005 0.44187643285199674 0.15124970191445286
0.28553490630944 0.3566394531524415 0.44567227946009086 0.1465561660492815
0.28502913515815176 0.03596571808922984 0.43511099457776004 0.08763818214699762
0.17178982665112175 0.06437673086777394 0.4353816147595585 0.17745013684921854
0.07663140532971069 0.4194457245171965 0.4372505973459303 0.2949861338140189
0.03132565041408307 0.1471469666626046 0.4403471241356143 0.10246679285458292
0.040477931145733524 0.131631594701222 0.4404926314081373 0.08705548428218463
0.13073863696673887 0.27543024619875744 0.4413931352578031 0.10480080053143799
0.06034748114893679 0.26242881365939374 0.44091055359527903 0.13876463907593953
0.07570866987356778 0.2458798221204404 0.440997591660146 0.14553061959812189
0.061869676989926736 0.2375516796914013 0.4408855241670691 0.11913257569655603
0.06363486016025532 0.21041899990879964 0.44085764577268116 0.11392194498157407
0.0812619430137008 0.22263044436546867 0.441003610889912 0.11969107522845891
0.12183144170196564 0.22757249068098623 0.4413108791614661 0.10426477371621601
0.11076702401506616 0.23899535957647386 0.44123693346482007 0.14040904580496813
0.07176881192052402 0.20207062787525149 0.4408948115899586 0.13493705272544965
0.081556614746925 0.20939566306388924 0.44097742285907915 0.14153216914605823
0.09294350173482768 0.1632873187863918 0.4409410668272923 0.11669522092078843
0.14022173781110553 0.13256791228145184 0.4410519923920138 0.09768009411174175
0.14735143368779177 0.12038641206356412 0.44100665505564185 0.09720141217265457
0.1276812796024571 0.317981276155099 0.4414187621604848 0.11848379766938932
0.13770950280232797 0.31472674514641164 0.4414683223139781 0.10334793163888158
0.20339145805343978 0.2718288026259065 0.4415306960743232 0.11655324553520235
0.18920848214417496 0.2629854054543218 0.44149595190317964 0.11465518107788547
0.21766468475858913 0.27779291369455444 0.4415574398456181 0.12672127632583668
0.18544923822209652 0.2814604679172869 0.44154504976983244 0.11974748043058168
0.21370953021406125 0.2670794748590068 0.4415246529906613 0.10879416052549008
0.11702710858529483 0.027151654747238584 0.4404310736040008 0.09588620936870926
0.13083306609469364 0.06531512067576868 0.44068448726988885 0.152556732209677
0.34986187608971225 0.26583304578316336 0.44091672593859227 0.09160069644503482
0.3406205326102073 0.24359818209563888 0.4409480419885855 0.08639476133348002
0.3168790867883239 0.19629270030038454 0.4410273979318614 0.12702602928395482
0.30481442006536597 0.2072900742345955 0.4411214290965874 0.12289554521251458
0.2962627197204195 0.23058925558463042 0.4412169936154356 0.13186703842391398
0.2841382011416574 0.2406349676863314 0.4413007438402972 0.1044260789487984
0.27549738860168216 0.23193353118150145 0.441321912792883 0.09863866363866679
0.27184208453629516 0.1188540571559218 0.44096865723711826 0.10647327296432069
0.27985799725984506 0.280163208715127 0.4413917699283471 0.11002811531920835
0.27949984528579397 0.2682249384471732 0.44137600524035375 0.10022888807145472
0.34965411654759926 0.10075257444963484 0.4405564290543269 0.08176821880873698
0.3405375341392029 0.08984314898414636 0.4405706160365227 0.09403627214607967
0.3599551000893008 0.09865991383808814 0.44049374256315016 0.08755392091615755
0.3276701332189908 0.05561599397967612 0.4404832026028201 0.08593311829490037
0.3228172140580635 0.04430249819911007 0.4404424966541569 0.08095532223602175
0.15996686035049668 0.22122970508026157 0.44135091399411985 0.1166269395761187
0.13809055230453005 0.1982138599530686 0.44128633192548 0.10891526335803199
0.19396643623327983 0.22154824012285174 0.441382954204921 0.10534540327655227
0.16126287956159607 0.19803061105701866 0.4413073972126649 0.11929041339250634
0.15179660367085432 0.2119757126570803 0.44132552566403727 0.10866002328577583
0.13654544804177599 0.2130163152137812 0.4413134345121952 0.11490343253294405
0.16564967930542543 0.13413550612282524 0.4410977362603515 0.09967529529855118
0.21238214575935535 0.15067832074722348 0.4411725417175403 0.10449540668582036
0.19119288166245235 0.1380794563855967 0.44112261396030783 0.09454313581269437
0.15859376241026996 0.15052898775422435 0.44114576664832444 0.10354511590743458
0.062487866514781804 0.024793593935433973 0.42502294392274764 0.15496916105837433
0.014768835528623011 0.0963409461221911 0.4313158461605289 0.13881262346471152
0.386192058620184 0.1017246649853761 0.4401753201906588 0.11822467707163195
0.08084848810155645 0.032847554529138706 0.440289438159348 0.12030247542335493
0.09440671980658685 0.02084049553915957 0.44019825993338324 0.11159703835804213
0.03456980351551208 0.07223124768639805 0.4401949623772044 0.12034154057915868
0.05748436516762128 0.03650306292978618 0.44011003708743035 0.1253759249752348
0.15550493027307288 0.0014146401971237774 0.42561920148560084 0.13985348319620414
0.14099918618824053 0.002156099888478821 0.4266580999840547 0.13637524434687556
0.393744158759733 0.09137980431347399 0.4377010273065012 0.14042420487113547
0.3846613202429295 0.06743461866012099 0.43955066964046796 0.12446029333271859
0.3472165768678693 0.023176542048194564 0.4382580747795805 0.11838444731389612
0.2525853797833463 0.025712415006409386 0.4403821594778665 0.1063037135773492
0.2500922867400964 0.014165760687021776 0.44021003785092383 0.12793336142771639
0.2408081308594575 0.04659835092589767 0.44057059971835644 0.09420345413220187
0.2374674891947087 0.058356963196725425 0.44070151489931236 0.10648489434020687
0.24127284907836494 0.022512786046120323 0.4402543138186778 0.09269278999700153
0.20766371591045368 0.0260769694735127 0.4404176773052442 0.08360291813847959
0.23787355395771942 0.008397885051612023 0.44012339408046763 0.16489905582685435
0.22747534624850313 0.016608944869238404 0.4402452891434173 0.12218431381534649
0.19562998862204156 0.025116400426737052 0.4404573440168493 0.0794781403544931
0.23113348962818359 0.03788248789391347 0.44043656856076646 0.08269667321641858
0.21983092409665028 0.05060284667255808 0.44060584508206335 0.12032036697956956
0.19300966166280345 0.038340171995912276 0.440596163564371 0.08052951165143472
0.205315815519243 0.03796420293528195 0.44054243535860527 0.08486881942207104
0.23703788129557843 0.07089962659683113 0.4407988915721141 0.11944586594571138
0.2451813336613458 0.7050387397204709 0.7788936171500609 0.17727691503921708
0.27596565466963874 0.6020512027942939 0.7788936171500609 0.20778604601677134
0.26178136425296183 0.649874285612787 0.7788936171500609 0.23319027224134262
0.24410334541108142 0.6253439195491741 0.7788936171500609 0.22855728446742118
