x y z curv
0.057447986842055716 0.6444080415165161 0.8054495183863525 0.08754844987088388
0.13190827543338451 0.6714748201766283 0.8058074214414834 0.12728807850796117
0.04648164320570662 0.6398300284806216 0.8054019436599248 0.121074671440484
0.0768420644401085 0.6503957020055959 0.8055519596825143 0.07650333130820754
0.09344789729573956 0.6533296697523724 0.8056587096730137 0.07520773898244291
0.17977929727806374 0.6545463956588377 0.8063355408785214 0.08999675884900755
0.13169745600694585 0.6578635925100297 0.8059239034207453 0.09170175258617738
0.12811555703656585 0.6447317307482252 0.8060093825327375 0.060750344973502846
0.159962665192949 0.6595543726966022 0.8061342807389724 0.10219299375298946
0.14986829842374733 0.6437799504657205 0.8061908461985041 0.06337342208182144
0.16966783123678217 0.6490283062824003 0.8063029338237471 0.06782849322940543
0.035480057194397716 0.6619904628170314 0.8051379804820156 0.17258001811108942
0.05139427090882162 0.6631037279971359 0.8052508905587221 0.1355677757636265
0.062204184923866306 0.6602335022553043 0.8053565466396628 0.10464772830879492
0.08162348622703147 0.6626734672435086 0.8054856881445607 0.10283136049644297
0.2955303118414441 0.6365320198080405 0.805948076855695 0.06051065678471741
0.3348157724997388 0.6315807668021615 0.8057252931796373 0.058327383804947175
0.31089402234342817 0.630536113727886 0.8060867485385165 0.058500271533896614
0.3661168378767954 0.5990806586965219 0.8052143148906818 0.15785290570300234
0.3724324276573335 0.6301267245417167 0.8053127054516244 0.1234621817624918
0.3553194196615045 0.6086625750996624 0.8054064253846454 0.11379912731177835
0.36913431099501903 0.6143409525848897 0.8052637798557487 0.13716965581118779
0.3474454090093313 0.6247858944833178 0.8055990566129244 0.07401725928671773
0.3359485154831854 0.6188625144646159 0.8057108798841355 0.06018196576663166
0.3356619244430674 0.6071822369299418 0.8056141861933767 0.07575894818596964
0.3369925774187837 0.595053652613194 0.805422449805217 0.11124117557546005
0.28609486618319896 0.6188326227810569 0.806166980531671 0.06367861744414577
0.27554721228462226 0.6115317371651207 0.806138194462765 0.07148601328428628
0.2966860095809184 0.6022248909369796 0.8058374953799127 0.09322931805095544
0.29856413234353024 0.6233126119950114 0.8061388657604316 0.05879861803686468
0.3237006700618413 0.6171406993794646 0.8058545830783672 0.05997019862311533
0.26534424237814414 0.6199341477324416 0.806341873448939 0.057962538253263016
0.3094554588798312 0.616363463226573 0.8059516891239829 0.05991917824607298
0.3129440173564361 0.6059700896763024 0.8057694582435828 0.08705680124258763
0.23435982794990942 0.61102036094027 0.8064449463411985 0.06539219768546681
0.22711238024399444 0.6206698057101026 0.806577654053844 0.061942373569534595
0.245252628914428 0.6172374806272101 0.8064423914765317 0.060217289191755716
0.27626837926184944 0.6283800163001878 0.8063557088235747 0.06060578331771801
0.2179349556482093 0.6343260609108322 0.806649123581807 0.06540842192443755
0.2168316929390297 0.6177458397800095 0.8065492709314206 0.061624776854353636
0.2016784027182093 0.6343287275284526 0.8066375961543322 0.0608242107362792
0.16192935496902372 0.6150516346485586 0.8064127910815856 0.058089270856477776
0.20158884545859485 0.6164178167719631 0.806548496270008 0.06078338376822458
0.1379925875089878 0.607223296142708 0.8062352965734068 0.07323627386509544
0.1743462068340492 0.6097750718475362 0.8063774253132946 0.06264696416765246
0.18608266459555553 0.616901152113166 0.8065093247381475 0.06616254904823649
0.16402394820422933 0.5909349220369536 0.8060385395453493 0.12423500247843124
0.16176399493327454 0.6020154403072941 0.8062190808142371 0.08732735971668848
0.1390474522392145 0.5951571612321533 0.8060389504014946 0.11083165816133365
0.18464151519413 0.5985839051523076 0.806226058549873 0.10009179823530491
0.12445804668120572 0.621239172482305 0.8062620212611873 0.06166776401670306
0.13729762674745105 0.6265959051404653 0.8063720374777401 0.060320883565497925
0.14550348409661887 0.6157022973863717 0.8063436134893468 0.06184380980832354
0.11358297542363543 0.6142775683712026 0.8060694616598201 0.06541841924067796
0.0876324689772167 0.6267176151937045 0.8058888068476999 0.059644970341797235
0.06565662115070303 0.6341979144753347 0.8056930296361344 0.06434366155942767
0.1004158960760112 0.6305234523178332 0.8061169728701288 0.060823264170979316
0.0745878239306958 0.6207191125348036 0.8056597355034121 0.05775639787304448
0.03666429443431877 0.6250900258502893 0.8052719281526568 0.1574517448988327
0.11950675577248442 0.6045536342144375 0.8060576425492809 0.08940840128483982
0.045128831308754606 0.5976166044626178 0.8052103375817758 0.18091053464350018
0.05582170068184063 0.6026163205189938 0.8053545270598708 0.13481793201103423
0.0657315149027513 0.6140405445924135 0.8055261237766083 0.08523640342679452
0.10793964411236333 0.6038027518275161 0.8059277048842867 0.08699648259608123
0.07919858403389593 0.608560056500083 0.8056418752430605 0.09253873083449074
0.09475095463602218 0.6094838642496718 0.8058161012140039 0.07855945404864925
0.05608855208394606 0.6249563820323062 0.8054823309982531 0.08780227205548558
0.36019299865554094 0.5902901978352266 0.8051812478242444 0.16503013636114652
0.32427059872392516 0.5949383947901248 0.8055250519774292 0.10936430617795223
0.3061045644017559 0.5920663198676401 0.8056690978776552 0.11767524664683489
0.24883381014368 0.6030043504464523 0.8062373601467375 0.09102427036987185
0.2684437561204033 0.6013403618106117 0.8060546649227179 0.09490028363587928
0.28087247227073153 0.5968973651208157 0.8059195289248584 0.12020671513927342
0.28947460804759984 0.5889083560059184 0.8057711688010986 0.14241128880826776
0.26246615628390413 0.5883008884344683 0.8059346155494177 0.11972939914584894
0.22441929891265944 0.6032461528875436 0.806378606923782 0.09456770919931336
0.22164210787768185 0.5826022207402177 0.8059360485553801 0.1342051287316837
0.2493871424274678 0.5883911758030994 0.8060027901102547 0.13050545024806554
0.23362935688013425 0.5895614805289715 0.8060617322509305 0.13333291257212512
0.21055163176721922 0.5798834462881967 0.8059005770063808 0.1474556677380322
0.16515142896573692 0.6315346166249335 0.8065151633717548 0.05877667567359627
0.17499500287830422 0.6375461026716359 0.806527428156921 0.056312934991814036
0.18795059802393638 0.634834013071458 0.8066103293659954 0.05937882804380271
0.1477751179117209 0.6320953498733017 0.8064233082048884 0.06125885870682222
0.3079286527083906 0.5816209158745574 0.8052550568740398 0.15402228428193354
0.18226151342737867 0.5853287917279016 0.8059731293701242 0.13859711826350296
0.21114068661003463 0.6014310681039742 0.80634056138629 0.087962420940678
0.19771775005744593 0.5996550448208984 0.8062802620826868 0.07887851817658711
0.33191522805938634 0.5839555620236382 0.8053721295168308 0.13924508443479225
0.2845479050189825 0.5781045811290078 0.8038326644289439 0.1554092119580427
0.09263587738886647 0.6394770869917721 0.8057862234088752 0.06163842182985879
0.12308825130832826 0.6328091611981923 0.8062750554044962 0.0616799467965641
0.07843229626347796 0.6372210980671429 0.8057380705687784 0.06598292667286675
0.1373780611859158 0.6375729313251361 0.8062399089281778 0.06056939836487437
0.11229799099062221 0.6344750978376344 0.8061251978317028 0.06111407489381818
0.252048933315577 0.6338222097761405 0.8064815836788777 0.059424877084755336
0.35810119175487576 0.6781285656248037 0.8048632652120994 0.17439951762065528
0.3135534538388267 0.6780126556714392 0.8051980544003956 0.15347673803823456
0.287104002968004 0.6786513530387237 0.8051020291095476 0.14381074788135859
0.23703065524969122 0.5772388574565338 0.8047737500410679 0.15698685314076571
0.08533877080383116 0.5805114956497315 0.8033140739734532 0.15372170137909907
0.05395347747323485 0.5843853590043991 0.8043223781780359 0.15637469638034093
0.07195666904140793 0.5945924773393896 0.8054791923115321 0.1422611665644852
0.03223333256491283 0.6146470971874076 0.8043864490900601 0.15504029158322585
0.20661374305607327 0.6770946635163753 0.8059260404453247 0.13528510534872734
0.21857941859205424 0.6769247934490985 0.8058771877115932 0.14537236492682676
0.16348502916838895 0.5791534490163202 0.8056271606124504 0.14546308768506178
0.12568227451304295 0.5910177935322722 0.8058755251517815 0.12019523855867105
0.13512125407364609 0.5822536055472364 0.8057777268088765 0.1329779718724921
0.10139095875372087 0.591014679169727 0.8057006083169455 0.12592143542244918
0.014819789195947711 0.5495309187244695 0.40410186903273926 0.0744636851227307
0.014832564574795228 0.4550097372779299 0.39538844463456785 0.09103510935813812
0.014834288634431831 0.442755889943518 0.3937477247573599 0.09342395072229508
0.01485364972436455 0.28732394931781374 0.3918264237536649 0.0558230471557741
0.014839234950180122 0.41363667499182255 0.38344999518434136 0.07723590199000324
0.014855770549626106 0.27389767042411517 0.38828236751213596 0.046458921350429686
0.014830869407854018 0.4562303350373568 0.40702876405483696 0.13908483971697697
0.014836454405953894 0.43202985049593146 0.3873645250046815 0.12170329577006095
0.014829798980011301 0.46971059148130695 0.40260960050542954 0.12877807102985833
0.014841824321303501 0.391238030475044 0.3846849166950318 0.05058358952140417
0.014818064967481214 0.5746228526008893 0.3938552395499696 0.00962095139992465
0.01482367354615444 0.5271327146107634 0.39558057728309376 0.12357399033997724
0.014827287375791918 0.5006009785961724 0.39292509768727907 0.10900924484038424
0.014828218365349215 0.4813518447045162 0.4037369572895128 0.14944471497835568
0.014858857129673518 0.25148588623639223 0.38578370258553696 0.05481563135855016
0.014823763341806675 0.5178364524845214 0.4035128354012444 0.13643670553572376
0.014839449355065471 0.4027261008630375 0.3919384243633078 0.060075541549617646
0.014844569404438929 0.3634663331423762 0.38972245048163956 0.05886452688135959
0.014851862395867284 0.3072424278075506 0.38684600485517195 0.04723831590907036
0.01484790036487722 0.34098227430571704 0.38544966012695714 0.03181545460395196
0.014848917149416196 0.32947412644647306 0.38844669132466325 0.05980126392782638
0.01483439931167644 0.43012774152432465 0.4046081403585774 0.13302065799415994
0.01482000743065565 0.5586112347346834 0.3940490204544126 0.045394768186408245
0.014828788117285174 0.4892302749158651 0.3921489298529488 0.12965194978505298
0.01482114699616862 0.536103422315076 0.40630723684113684 0.09892342897528246
0.01484169038091791 0.37586498760475084 0.3999300649422818 0.08035075417020615
0.01486047515553792 0.23896624961678437 0.3851879270521537 0.04765842728910257
0.01484294384464483 0.18373396863818967 0.4014014016720131 0.0666131578373056
0.014840857696694467 0.33349181707587067 0.40182802947337226 0.07552093098425242
0.014840868531919883 0.3577883191949065 0.40168639108897525 0.07061392710992698
0.014830205904371842 0.3981843066694284 0.4078984410528614 0.12742762528898194
0.014864615937062134 0.2004787859922023 0.38822558722508843 0.055534660146350626
0.01484773501577968 0.264143540419246 0.39806202725339296 0.04753526619151182
0.01483790883912758 0.27981430518363154 0.40390662155491036 0.08106364304182455
0.014837219503649229 0.312402539965007 0.4041415473782889 0.09572181826977334
0.014838014738344738 0.387330320586733 0.40324486503005696 0.08932044997869538
0.014830032583056957 0.26994167975521366 0.40871614562708947 0.08467379422211636
0.014838649340054733 0.16524349008013017 0.40409666231465535 0.08926286784912393
0.014819786069074945 0.5104522085287087 0.4135642911784321 0.14825302230243556
0.014838029355481588 0.34630786548045345 0.4034641411634782 0.0784310028195395
0.014820446386157647 0.4972322180954995 0.41323918818345234 0.17197418311222554
0.014869666199012848 0.11714776912901163 0.3856402666240712 0.05499892700296579
0.014864476584446208 0.1532273463544849 0.38857244513046135 0.0673526590857835
0.01482808951038273 0.20309001615247918 0.41026083263477775 0.11526009774663327
0.014848440122212356 0.13553227991000538 0.3983515045315459 0.05432451075470554
0.014845117228720459 0.1250883763364966 0.4004154945820183 0.044598003107480785
0.01485698266120107 0.2227939745349179 0.3927094562515133 0.0640260626802007
0.01485008178390144 0.29734338880553357 0.3964607595201303 0.08052796180390724
0.014827112482501757 0.23293686050428974 0.41068467174651857 0.09547253485399629
0.014836100004883012 0.14742294550979532 0.4057346982949541 0.08484511664529693
0.014868109717670776 0.1295829795061919 0.38651071725162817 0.06807352540284506
0.014852168083966904 0.2347680415454926 0.39554927298232057 0.06233515326795324
0.014856246758055448 0.17338368266713958 0.3934284354925615 0.06750085337809947
0.014843968172107095 0.21311856712566374 0.4006196607065453 0.0739636703518418
0.014827718035583446 0.2504246634804024 0.41022188124726555 0.09809596924633769
0.014846521075565465 0.2531327945941576 0.3988560655978918 0.056374278099397775
0.014836500313353257 0.4117877494743903 0.4040230796896635 0.11767787631590622
0.01486378494389087 0.3786460048845299 0.38197736850806324 0.0320463365796007
0.014866913556280996 0.4665983498959178 0.38169915307234703 0.049635655719437594
0.014841226622096996 0.5157241409244366 0.3829033995018727 0.11646113523354473
0.014871959669116572 0.320912513195609 0.38165307679095517 0.04784765229018058
0.014869988063792687 0.295714970634126 0.3817860739237453 0.04386167976980947
0.014862515756065191 0.5427134219615133 0.38181052100325535 0.004241097765993566
0.014829557182442483 0.5554542432030012 0.4144687898720096 0.10205096458498929
0.014833674335642179 0.6672584166232404 0.3991030749434302 0.023349704768710042
0.014849411681162845 0.7088899096399993 0.4025198789540847 0.07257372188769505
0.01482179502122311 0.6880108645683559 0.42195010786903975 0.10865981321297799
0.01481659494584974 0.6215890210167726 0.3951572553285574 0.0033908718809074557
0.014835117021283645 0.6540947719813166 0.3911419238962939 0.0030281086706499183
0.01481859102658231 0.6067126034241551 0.3857682440287177 0.0049238867035077795
0.014839214065996788 0.6894817437712205 0.40399397138173665 0.07047816200118208
0.01485318100849862 0.6915181194796678 0.3900139899007723 0.041793876645035845
0.014843833004273322 0.6801151689231006 0.3944782412145524 0.008539160639560638
0.014820464687448735 0.6654769101060021 0.41239544823170227 0.0651740481500633
0.01484877089558762 0.6681435314233425 0.38335115727039093 0.004321366596540403
0.014862082190217491 0.7085473203884831 0.3887703850350959 0.04509602395740869
0.014834435354247957 0.708270322842886 0.418272300333624 0.10920366100177822
0.014818128985964681 0.6424328753410408 0.40366996298969443 0.009969318685421759
0.014837041578361534 0.64274726981581 0.38354921834663314 0.004304831996967422
0.014823475838837563 0.6985147938360052 0.42526684712626467 0.15561632237496906
0.014820673413948951 0.6541862515671701 0.40666978104526497 0.055278403034146356
0.014828361806367396 0.6766760286912378 0.4093871921430162 0.05364629566758893
0.014816448092460632 0.6810745410592729 0.432444303348302 0.13265040699478334
0.014816448092460629 0.6081042585926681 0.40016265839884 0.03624454873548545
0.014816448092460632 0.6186746248405939 0.42999287259767993 0.1618455414301836
0.014816448092460634 0.5900652011720611 0.40641683929318345 0.05065981787486582
0.014816448092460632 0.5947860996541773 0.39159372870784903 0.0033902315331120524
0.014816448092460632 0.6321555895725228 0.4182709476486626 0.09493882209839857
0.014816448092460632 0.6706755758921195 0.42774566416552195 0.15604683511738374
0.014816448092460632 0.6138731263912272 0.40964407555149585 0.05181782420266755
0.014816448092460632 0.58673506433634 0.42818787980002415 0.1415172823850112
0.014816448092460632 0.6483696554805016 0.42285656312933695 0.09859944522518321
0.014816448092460632 0.63794552736555 0.4284722285817498 0.1834417649268587
0.014816448092460632 0.6268303410836416 0.4080480357041626 0.043837395962939826
0.01481644809246063 0.608002254267621 0.4229989489168495 0.1301299819266378
0.014975479783334486 0.6086802081828142 0.4360576268993699 0.16749680094004907
0.015143422927887493 0.5927732261527918 0.43862622190883116 0.21992563683379857
0.014921502579913077 0.6470960595050471 0.4369426669567243 0.13697813612897974
0.015011871038812206 0.6302874909029769 0.43790109022704715 0.18860803067624424
0.01574382225411163 0.1056045109934424 0.387826127866827 0.05300826697873786
0.01499351068871854 0.11180977913958959 0.4051371218048586 0.08872019007110553
0.020220078067174293 0.08390524146603663 0.4129927611167096 0.12172970306931057
0.017266104184141314 0.09495273902204741 0.39261821478801306 0.06366757741588346
0.0177078657725481 0.09340542062411993 0.38136482306645947 0.05702942550115312
0.020313086801277136 0.08376576024605414 0.40144167925066165 0.0748033437092838
0.025339342274383666 0.07120676686289434 0.38458325391232634 0.05862211448341708
0.026434224792507725 0.06900440406605128 0.399678927156758 0.0887398927125955
0.028622286292200382 0.06443795165222811 0.4115012143437528 0.13290629251508274
0.03334706240402216 0.05694985660934268 0.3924632724328856 0.07684808680998335
0.03590793485599107 0.0533396254248028 0.4100354518614926 0.10229019325069212
0.046561082706715426 0.04058879653859519 0.4041992066440152 0.09923879449409587
0.04258106864774114 0.04517556909524366 0.385112982429054 0.06966678579687058
0.04458356229051255 0.04741340171512087 0.37152173465755584 0.08827245374385881
0.0512221714566033 0.03626073244681229 0.4142989126748376 0.11021930836358218
0.05548099880229045 0.032689133544341706 0.3955765084795407 0.06663874054656427
0.0592698329157957 0.029617766848352232 0.40808374341954673 0.08823571638827221
0.06228779445614198 0.027712011439103013 0.38040329380118953 0.06387092168857642
0.06458496186678855 0.0259743070332994 0.39712445279164654 0.07576366905512764
0.0703622198096114 0.026810195016758822 0.37097655289646025 0.08234214697383611
0.07176162973551972 0.02161141579644393 0.4071631537824323 0.0837322695921787
0.07805453783707543 0.01841359882423526 0.3968898277804341 0.07676601738458665
0.08935551887200077 0.01420022730141051 0.37926273524245846 0.0683279073243582
0.09767472131374079 0.01649465074042606 0.3694628646713691 0.09457185449207052
0.08986335290490556 0.015620788762356192 0.41787068842131264 0.13631373501676264
0.09378778090349955 0.024235526462641876 0.358031130427483 0.16180725225823336
0.05016363632199243 0.03940887447717353 0.3759888971189607 0.07122011211582469
0.0842175001569141 0.02261319399731452 0.3663708301894048 0.10651474212290982
0.08613229589336958 0.031053263711784185 0.35169537432918135 0.15219386094011414
0.07817244206407162 0.019001812414002034 0.3787876221642373 0.07670425386676828
0.11266642565348284 0.012891865514256754 0.370678088832486 0.0881338975421865
0.12090008607153724 0.017588530317373636 0.36028824440469315 0.10371248577172076
0.12688227423788784 0.03052871888040646 0.3369387670124379 0.06633370350432864
0.12576803447306353 0.022417118366845314 0.3510344045146472 0.09599766331964923
0.11360078591824863 0.035175199531523364 0.33137347624977675 0.04046557183503437
0.12573757934421317 0.038055002581051836 0.3241190868049446 0.0011236452988199247
0.11612529540842445 0.008555076824128743 0.3834317038820786 0.04454959907929071
0.10280243104056279 0.01021607463967212 0.37982619556589464 0.06212837347725408
0.1537436368067711 0.005683104708017629 0.41306748629342854 0.12357742587425248
0.12716224732463627 0.007388687525059176 0.39457635097958155 0.07552108542908756
0.13725112851244886 0.006744085280484627 0.40271411433356136 0.09098589708911366
0.11893254107248613 0.007966334029576912 0.4090673246300909 0.08188491530893215
0.14925243964702517 0.0059424577876349815 0.39749203914059605 0.08333084116294528
0.15011882571539853 0.005859940872601389 0.38516463965300796 0.059956430639209315
0.13500124357554702 0.006853096127011489 0.3864476629498442 0.060412018296878846
0.1609822341016035 0.0054425069254072775 0.3804594308601054 0.04915617830490998
0.15998273236424665 0.0053629831241869715 0.3933931132276108 0.06946840864605888
0.18871449857512657 0.004753519070085483 0.38344501691624355 0.050821471312017065
0.17092076226708802 0.005035088955078942 0.4015873163615925 0.08155449340875966
0.1767597530994561 0.005003046456446338 0.3880914959806979 0.06106068496979915
0.18212244104699926 0.0047886213948718295 0.3990327333052768 0.07210912750220565
0.19774899111855623 0.004488740321418381 0.39121036639144924 0.05675180894313219
0.20116135630293117 0.004322454912058639 0.40826621126398865 0.08036749101873114
0.10611622701091382 0.009611531520402531 0.40093591404755136 0.07068116863343744
0.12422721791901162 0.044460130573604977 0.3126340896787355 0.0017651794080918717
0.09856055437387283 0.05586801592409997 0.30260552446820665 0.005051255822418542
0.15059830586516032 0.04333536903972601 0.3098837163297004 0.001165572902203363
0.16711557409591585 0.04356560976840578 0.30710204785874873 0.0016610117695337325
0.16448022763854056 0.038716767818067085 0.3174705522904572 0.0011320470290860905
0.19913834312944131 0.043852013798295855 0.30525737140073333 0.0014342320458679489
0.18251833888876928 0.0432483931402336 0.3070691089663472 0.0014454094396830726
0.1776897943067227 0.0383293719573093 0.3174969186304153 0.00119148285733008
0.18510469450245792 0.03311606676466495 0.3265789990152924 0.0004912223559168767
0.19670583502012237 0.033830685332673804 0.3249470423085788 0.0006926700384567475
0.2243602123192371 0.026994157838656975 0.3374610667674021 0.04582623161054386
0.19748037692368098 0.024762597883892623 0.3408962807061327 0.08970649352901659
0.21230423859090455 0.026285480050338234 0.33847768936286204 0.04381668985732024
0.2204120863045787 0.033581195044468576 0.32559957138753715 0.000763904411497385
0.23333926137936412 0.03092877985371566 0.330658395861944 0.02974179783577098
0.2313331697044229 0.038212640867818067 0.31760342415408976 0.0008201530044220657
0.17228493417013938 0.03166672354756053 0.329711656584004 0.01519304777995717
0.18386648527571497 0.02761130214321409 0.3363140536256471 0.07098497079343163
0.2353367198669459 0.012549063166475078 0.36291597829774175 0.08695740887725781
0.22768651754469305 0.018296946025872396 0.3529093985568236 0.09841395597328727
0.216229588188164 0.014798362884161522 0.3585530111049191 0.0722750202200358
0.20559420761305497 0.016689473971092012 0.35502914480860304 0.04809644077582224
0.2179963557819395 0.00454933895692379 0.403162882924506 0.10282618019123818
0.20984545660154597 0.004421255849447619 0.3948358772169491 0.07860910529008497
0.2183603121050062 0.004624477245254089 0.3873399905008795 0.04514838486723338
0.2399440756121643 0.004994074645210531 0.39224387551540196 0.05387640822903264
0.2277367751298153 0.004784016753248279 0.3966307449486094 0.06371791779914066
0.24901179892358635 0.005240451059423182 0.409801106093877 0.10144410900664515
0.25399807228101134 0.005624019065478815 0.39141591311122453 0.0549491999716758
0.2651047407549262 0.006332347045109859 0.38554023264814874 0.06391448269700567
0.26501022663916174 0.006276960502774259 0.3997743334259662 0.05935856694721225
0.27657790333122 0.007041784798915651 0.395947406675231 0.08288741981030219
0.2820429142588127 0.007382848044787088 0.38489003811666334 0.05355143556632891
0.2738834463240389 0.006888649828643056 0.4082542094070848 0.09728105496626274
0.13827929446031292 0.008266513943592183 0.41683523635066705 0.19246051088202543
0.2424533130327143 0.019272960796344867 0.35186495208621127 0.13818246349383467
0.24683134695938483 0.012679410411736772 0.36335643489311686 0.08767303656614558
0.25959211379784297 0.01011292618916375 0.36922443864403387 0.08918888851283947
0.24584967226788623 0.0072385217739938425 0.37371884107469344 0.09273819272994802
0.23161851815182088 0.006523042547208787 0.37426687831640815 0.07619815966461879
0.1279632576430553 0.010663216222748226 0.37164488220869435 0.0891390334430314
0.1458214785885653 0.0078020164655950444 0.37546357529101 0.049578493006904124
0.17105203364549632 0.006634680277985659 0.37533349905041713 0.0882094900115793
0.14387584967570297 0.0257244726013311 0.3428378796882349 0.09116166087471349
0.14051414964455453 0.03208645014174011 0.3320562202447261 0.044974477857243914
0.1401618654032749 0.020825203719035023 0.35183049806928746 0.13209543969160034
0.2680672209211837 0.020322966825052042 0.35238498220963027 0.1286976289374206
0.2547111999982905 0.019741114823731785 0.3521849390307768 0.12410073190771453
0.2713734346779304 0.014487345394660362 0.36283496995154546 0.09939957526970916
0.2617085804971207 0.02969148735268036 0.33551318320964646 0.07947278674935812
0.28475064030774905 0.03677543241726209 0.32665844835813856 0.0010177631164535127
0.28551803332912673 0.03111387958233128 0.33651849593368977 0.06881034367750034
0.2788637274300303 0.02056063992862008 0.35342965985946356 0.1361599857414837
0.27244732908883496 0.034759423923578454 0.3278856471835232 0.013383752323696565
0.2865901664239277 0.016092365142444012 0.3623668344557556 0.09545646658722425
0.29432719961874104 0.027492453095379926 0.3441870129763078 0.11170529484075764
0.30163340240194864 0.034281979626922955 0.33518130514628647 0.07353884336285788
0.3004966526266076 0.0403783836737268 0.3247394150992825 0.002618110170219471
0.30431992998942115 0.022061249151773637 0.35644160889179133 0.10676836506694078
0.30559540802064444 0.0157193528599088 0.36766456139572234 0.091005123578001
0.3164318273482998 0.015304395693484902 0.3745988968175601 0.056337397165031326
0.3104118605308059 0.01111790448597243 0.38537198792222677 0.0499561016101124
0.3204695692375878 0.01395999144045746 0.4016196050995696 0.07141940426172512
0.33194129166029457 0.018833991287713757 0.3842388344633755 0.05910148277100734
0.32920111883478126 0.017385464430885657 0.3961798886042073 0.07111792081252845
0.3430814327601531 0.024709765070124616 0.4087795909361151 0.10391728661556787
0.34236413911178787 0.024300205495567506 0.39500329406587414 0.055967397521645805
0.35217727420537503 0.031100959485913723 0.4052704156701426 0.0844669942742575
0.3499900048996926 0.02936390300042544 0.38881775389427997 0.05769563672298311
0.35929402260889376 0.036909887635597584 0.39861598909259965 0.06690304066359824
0.3550629445568339 0.03356822250887829 0.3797493000419355 0.06540879406610244
0.34302362813924225 0.04511073341046119 0.34678808740306094 0.10636938158892362
0.34780885371932124 0.04158533607827765 0.3567563429306724 0.10818853439987264
0.32609293218873253 0.028058280667402763 0.3578332497134734 0.08290250143355347
0.31501575782854263 0.043555996196794365 0.3265544562008721 0.003283930202616413
0.3439179121132022 0.052603373829914195 0.3371855676396043 0.0674705714862601
0.34003245953877487 0.06455343748596341 0.31643327904199914 0.006837488658150371
0.3496867168824962 0.0770192052077527 0.3113981807704221 0.007569641881597345
0.3585768836527531 0.07779702285751204 0.32528237944858746 0.007065174757546844
0.3705133904529969 0.06895835638084405 0.3535545859566009 0.10925993654397359
0.3651953008893698 0.07970283287399584 0.333829901946304 0.061488927915280545
0.38302582219500525 0.06858841463799144 0.39114251271480116 0.048292947932702134
0.3866171590016086 0.07640380563685281 0.4003415343398332 0.06488470150633578
0.3861138867198447 0.07529732999769793 0.3831137001185516 0.07900628679706412
0.37403509775539673 0.05374628437659991 0.3955144757869625 0.051049480732055466
0.37496585197927457 0.055213997982084956 0.41094099522777816 0.09431670939446885
0.37107993809070394 0.07934694279582168 0.3444695510848733 0.1022617789717401
0.36553846360111797 0.0886358381454801 0.3265308133788409 0.0065151291567545145
0.37672188550876695 0.07911625225139529 0.3546834470209067 0.10521655468379393
0.36035984273541866 0.0890805308861809 0.3162661182221149 0.005024152874919545
0.3566355166185745 0.09073462692851439 0.3060341424687141 0.006128614409913804
0.3504323848862613 0.066982465245724 0.32604662973463605 0.0056776153533017815
0.35445690656679385 0.06137593422032221 0.33831917590214733 0.08206688411935409
0.36323507235066194 0.0585233111940167 0.3539578505996404 0.12836427069064546
0.36892776789975984 0.0544320576506115 0.3674019504074285 0.10470697962476051
0.3627985072875933 0.09953810404472073 0.310223889645048 0.005658987015752058
0.36520361630808224 0.11293552110744942 0.30483345745949436 0.007271605068056607
0.3774681704191133 0.10593912199524956 0.3382007246619988 0.08190740419587116
0.3716928242216835 0.11100771920719005 0.32345489076112177 0.004148147214492656
0.3852789191445468 0.09913755629930562 0.358035787600702 0.11659824462233541
0.38323561061218897 0.1158181306555629 0.34713126044853454 0.12324870918265042
0.3773910292045345 0.12402033477459577 0.3318104016252035 0.061380537502089876
0.3716292411334602 0.12746538837011256 0.3163302951697377 0.0031167345722627263
0.38987229182849126 0.09337109359089832 0.372553971319053 0.09306011360776693
0.3914465009637982 0.09134132243213 0.4060955435008561 0.0907018590269101
0.3914377935268099 0.09131193693048636 0.3945689010178711 0.07159200981092036
0.3783070406459821 0.06848412610292778 0.3669230998399607 0.08292275761463543
0.3355071598458 0.07122771054808963 0.2992356750627654 0.008404671845713457
0.32485721625313624 0.06178754686992449 0.30371675764526374 0.004967354472774862
0.3538991939536046 0.04999139440056993 0.35227595362094566 0.11689367966250645
0.3631781235305963 0.04090707773815244 0.38769697123099245 0.07303848816668322
0.35416215508722715 0.03985138206744754 0.3660827476057522 0.10163790497803062
0.36196474043222476 0.042040378774290316 0.3755511063214595 0.0655145541193776
0.36602309518937487 0.04393775052400533 0.4071746211053137 0.11125229238580212
0.38780435806031543 0.11734856828090605 0.35764930836993303 0.12886033596982582
0.3875614060645577 0.17930473204180689 0.35636280653496877 0.13450139354606797
0.3886728737977666 0.1312187071405355 0.35849744323085364 0.1688322060614648
0.38658749195828607 0.1541397440637997 0.35361278758289266 0.14439831684502918
0.37898514712951537 0.1355440162781934 0.33447047953768333 0.07605296680777279
0.38356617596851195 0.16180530742835872 0.34620204057469384 0.17504389236167836
0.3840094301960063 0.13486641129844917 0.3469518897107432 0.13818490885073426
0.3872184988475038 0.2129401851557687 0.35594993719430373 0.09765575763584484
0.3877272582077626 0.20143957914660862 0.3570643980562649 0.10531358085621187
0.38306752344591966 0.5437097524650911 0.3490516058403777 0.00015488266587536338
0.3869651970922588 0.26531841732426237 0.355907936255792 0.09665983019839378
0.3814664306339237 0.3415506521500251 0.342893644617221 0.13333434711444744
0.3830400622471525 0.40470833309029447 0.3475151391120721 0.14078289976466285
0.3864205516146903 0.2856689467018062 0.3547540172408124 0.18204936982792613
0.3794245884768332 0.20073367117983987 0.33627562101531444 0.045881614214513575
0.3814813580912716 0.3060505062030222 0.34255638021559687 0.1251848785113946
0.38201291973951434 0.29234482210236523 0.34374756830558717 0.19185019255905847
0.38427250203442087 0.4688920161493896 0.35129000774662333 0.03590724819784576
0.3834943120230419 0.20787595494655092 0.3465787441398464 0.10642872993410055
0.38161765889488813 0.4393391919364573 0.3443060644431626 0.10916642912331972
0.38243611909225106 0.5799720808097095 0.3478476336007084 0.0001363548056686771
0.38199277232596607 0.5083465071874268 0.3459772889733754 0.13397429858446816
0.3795407907901136 0.3826511604840247 0.3384881748828471 0.13482227100155217
0.38462385930444354 0.3881003824159538 0.351320086057456 0.14832381784576307
0.38624936234894325 0.3773718654774515 0.3552919151645424 0.16108725668198978
0.3877021650367408 0.2965689961332547 0.35808994413368406 0.1543347637816597
0.38241512894097296 0.4512544626523938 0.3464359966434258 0.06561407549418902
0.3810972053105234 0.3949361150722299 0.34252933169754585 0.11907805473714139
0.38703884504105435 0.24277208181884014 0.3558549985558428 0.1106704458719584
0.38234578416324616 0.26014602294298117 0.34424417171082977 0.08467390230020687
0.38280891967131075 0.5595916098367355 0.3485693689241074 0.00020169834667294273
0.38178089238923374 0.42512044838888974 0.34456618166421094 0.16348947123627033
0.38142076467272706 0.2790615568864798 0.34211917610554377 0.11279821685968006
0.380623497004575 0.49121048012425067 0.34235522292481924 0.0798148865165667
0.38279230518037316 0.240934981208453 0.3451635214540115 0.07963773238524308
0.3827420823810838 0.32390180250871115 0.3459131952023243 0.13409198617369894
0.3847527792419947 0.4156335643965045 0.35193474872886443 0.13771584458337666
0.3785082661321464 0.1662515024798831 0.33360875698012527 0.050164783605992656
0.37946012080171754 0.3686447269562969 0.3381375737083673 0.11725169927735389
0.38044062780613014 0.640713454420614 0.34347396928929685 0.0005215383165952264
0.38443701285520027 0.35037204837164226 0.35045221551509387 0.1024535885386234
0.3799610021786917 0.15173080639608225 0.3371063666881467 0.09200446454783257
0.381987370047429 0.6021119774917073 0.34695360479177373 0.00024745213131475025
0.3808815492052712 0.22173548797601145 0.34015886296217207 0.09222006636502271
0.3862541827001411 0.22694398742161256 0.35371594559967384 0.0959142845483915
0.3860167773032259 0.3102720755365233 0.3539990201419908 0.14529100973279932
0.3820940043937584 0.18871671388414774 0.34285733074998404 0.08663577015277464
0.3814811074293343 0.35850128237407897 0.3431094789023989 0.13828657303831876
0.38149860017588594 0.527384596618574 0.3449363601322264 0.1260498659719504
0.3348695114541421 0.0280655156059112 0.36456089035573436 0.08325036114504263
0.32840080911423186 0.04534079722148873 0.3331256556755972 0.04606339204597569
0.33476739843402614 0.035911898780523095 0.35259393227774705 0.10437930831311497
0.32887927557021307 0.03918761425139233 0.3428348406721748 0.0721225656037168
0.34409315684543856 0.026139095627576967 0.3785364202249023 0.06872251197457986
0.3848996548324821 0.07948108019762559 0.3707965613076235 0.08247669796273242
0.39384855044460576 0.10450387032049904 0.413793772620641 0.14263970517334684
0.393541112585684 0.10210931712621177 0.40034376545746 0.05752221591441054
0.3948025292253345 0.18059742153392183 0.4017445511709077 0.07994089490737578
0.39480048853377725 0.4255270378167182 0.3842544313920564 0.13597477949138495
0.3948056722577444 0.40347676291823753 0.38930574520423 0.0718137851598965
0.3947852564893787 0.21529635412870085 0.38745725416897003 0.04927857781000032
0.3947864816112338 0.24706606311240084 0.38622455733570027 0.03255291997538503
0.3948007344628412 0.13076019283626666 0.4037666571131583 0.06888902126797843
0.3947919462236161 0.1923546845249266 0.39361425426989083 0.041843198334586315
0.3947945823725379 0.11391943410018487 0.400593841851667 0.07229575599698781
0.39480162796672225 0.3582774966356474 0.3894593307118147 0.043129935566447695
0.3947836624609793 0.20352782124293228 0.38712105005671593 0.03553578463371249
0.3947974427236876 0.23355219735070787 0.3947330318026054 0.0659163950299079
0.39481135504217535 0.5110647990488254 0.38619781942614534 0.12240566342408457
0.39480876866150655 0.1595803609171315 0.4074621548051874 0.107313672703983
0.39478965963817536 0.1686400940759901 0.3935803282428627 0.06766366151644487
0.3948031560297046 0.22066417781789785 0.3995514037024288 0.09568947438059804
0.3948111334068349 0.37971860140225405 0.3946620287907458 0.03876355588184141
0.3947759211151119 0.1459469116233617 0.3855163313632797 0.05647451682218788
0.3947957834526923 0.31724839895411605 0.38808751270048036 0.03283490935144666
0.39478999856721186 0.15704670145353306 0.3945767050878918 0.04826538664759945
0.394805348804521 0.4500197354798407 0.38602690161064 0.0664935892463954
0.3947989137960109 0.4128961236221957 0.38398822635394225 0.07770055563829108
0.39480641458249677 0.47888960954393905 0.38487367935074723 0.07058895200955745
0.39479389532798764 0.27816519865902656 0.3893390706816845 0.039778723381311006
0.394793076202873 0.30338225933265167 0.38711487045340875 0.054665094257011555
0.3947940681947154 0.14285387421268203 0.3983377682534345 0.07334770611082195
0.3948064396083806 0.26691724866610367 0.39879971472974485 0.053908586640497046
0.3948044693459197 0.2463033407053897 0.3987822901297833 0.08115018530600579
0.39479497016224935 0.3360432773548961 0.3862887631121622 0.0484441947895427
0.39479713903762714 0.2892793407191143 0.39086531092956694 0.0631945673064167
0.3947822257569084 0.12941197515615177 0.3909851794222127 0.06380396776922927
0.3948163710976737 0.5475584618271697 0.4102509524901739 0.06705487495178071
0.39481478328346165 0.37940178160028193 0.4114993293072911 0.10651245297800294
0.39481598156962994 0.53088424887264 0.3951030841575862 0.0861043442233985
0.39481491397405893 0.4190187284012683 0.3951894060323625 0.13303419905551328
0.3948140568080955 0.3178524245917149 0.40239529006504077 0.0765101079330371
0.3948160848239093 0.5131035643761401 0.41307736154619606 0.19150591286973373
0.3948150082046341 0.4119280247892453 0.40584841960355467 0.1331864441511817
0.39481421764078156 0.3332732301561536 0.40328247110316073 0.12782337356499812
0.3948158200031143 0.49715799792918636 0.40567742713209975 0.17826082664488674
0.3948163039688313 0.5763454553040145 0.38773345343217935 0.003695123309809837
0.3948160442793377 0.5487685904816414 0.3879845189006623 0.01979947281802181
0.39481439690236203 0.3483187959199484 0.4056182616252234 0.1045064626631172
0.3948158663015534 0.5097402880242393 0.4008126962716369 0.16427004538639514
0.39481336941554723 0.2385026129041977 0.4070552998799819 0.12856428503903705
0.39481570408971506 0.48404442406356285 0.4062953539387348 0.1569723118106557
0.39481636697311606 0.5679180184077455 0.3971781812565222 0.030943486355688783
0.39481562342747384 0.49962521744620675 0.3911909081313984 0.1197604325801083
0.3948151789102283 0.4262429016496372 0.4080806337938081 0.13769075169621672
0.39481388099106274 0.2908215009804214 0.4078221263736302 0.10967185552448852
0.39481553577208117 0.48591998632417943 0.3940403027060415 0.11374007370684296
0.39481249994548295 0.14038173880473534 0.4115366824200304 0.10201661068440196
0.3948160699999293 0.5226571801677264 0.4060949294760632 0.12060881969721383
0.39481456871622655 0.3647093589617413 0.4066182855223063 0.10321606419046322
0.3948129952829942 0.1972066672508883 0.4084017657784182 0.09381886416964502
0.3948137576098508 0.2772582902088374 0.4082313661828958 0.08902703395511084
0.3948131161799049 0.21074381793590719 0.4078454377526775 0.10363916240028237
0.39481408179175953 0.3067504286853489 0.41101982363166556 0.11304088579673442
0.39481545109570304 0.45740061003970744 0.40640033145572885 0.12210703581007734
0.3948148734424592 0.39525209475345546 0.40746592766026674 0.10052476093163312
0.3948156559086596 0.4692392665745851 0.41243386328406506 0.15290411665937112
0.39481359655345805 0.2609311108348184 0.40789936020048706 0.10552032616221373
0.39481542121965196 0.46815296132674517 0.3976737094127061 0.10127043676017286
0.3948257255904857 0.5744242860207234 0.4121471029896586 0.058650187034226746
0.394819845689457 0.5612518487395575 0.4121462861546192 0.06485158500403763
0.3948193431040215 0.5781765080094973 0.4007966575188254 0.03836398860555754
0.3948192496992055 0.6058266247635101 0.4055522167912818 0.0436213972406099
0.394807024712973 0.6469974880805515 0.3920469734262617 0.0032344422854283634
0.39479210013104715 0.7027971378015119 0.38163204276600193 0.052504686325835395
0.39482128426619817 0.5931805026399002 0.4014453843701301 0.03937075502671532
0.39481036950736176 0.6284210572977496 0.38772304297677324 0.0035298693381887445
0.3948033546030157 0.6582151376545748 0.3867396301864633 0.0039040815514165437
0.3948162381289647 0.6064519327301126 0.3917880401920394 0.0029138390980722488
0.39481435472661164 0.6190941750402366 0.39661592749136043 0.016612051139643737
0.39480795463164253 0.6729591272197223 0.4290508295298301 0.12051713897293273
0.39481103688522196 0.6394360608122358 0.40300996748951 0.04479435542753685
0.3948063872586602 0.6684717368445703 0.4148628758615809 0.08659124396046107
0.39480427307701793 0.6641752500354752 0.3979624721521696 0.0024228731152965035
0.3947975046257258 0.6987421623216259 0.40540826679602854 0.09146852390787547
0.3948204949097025 0.6121341081577917 0.41935588335092056 0.09415372490667137
0.39482455166316993 0.5965745411999059 0.42146400600423933 0.08123202234926033
0.3948116232459504 0.6469161801409067 0.41570742386856546 0.0713541411269787
0.39480111104871524 0.6831157231106938 0.40499707450595634 0.04957285803628171
0.3948107356764547 0.6598571653784531 0.4273939250700879 0.12189524887707942
0.394815074423903 0.6418741873513973 0.427939386637675 0.16051795018888837
0.3948048301251081 0.683435193279526 0.42550642716984677 0.12725072414951652
0.39479892788008186 0.6826090669224446 0.3925512030414817 0.01609489774599915
0.39479908385740276 0.7073339308228077 0.42488840650300796 0.14099803728067492
0.39480779241248853 0.6520677672501284 0.40156293986318664 0.020290969730674752
0.39479337344742765 0.7102191230832641 0.3976975072415775 0.06459987390432168
0.39480123033243614 0.6963594588635422 0.4225114748524833 0.15452584013233234
0.39481663103134246 0.6250620626180186 0.41493818926567827 0.09741434299251432
0.3947956172588813 0.6931450680451863 0.3880771546884611 0.04405562410005611
0.39480355301463704 0.6956320142208468 0.43413947080176013 0.18359134185731826
0.39475575323441325 0.6109516094920922 0.43129005237337625 0.15561472609932253
0.39474748021930917 0.5762284980845316 0.42826396305552306 0.1460141493260435
0.3946843646780416 0.5879511460406832 0.43162489600493104 0.15793978120489763
0.3946163716152077 0.6299539866262965 0.4380539065239361 0.18704400461590615
0.37094353163100874 0.10043822710396424 0.32769213861917657 0.014126152307564912
0.3722447594361459 0.09118151919958886 0.33659618030135807 0.05453969168967876
0.38344695022286324 0.08802153820499949 0.3605364451747622 0.14453883574516757
0.39049388071502045 0.1702671752434705 0.364070964852547 0.09476803663756796
0.39115734865983937 0.15617522421240176 0.3657584068886793 0.10013188243537215
0.39079593168080895 0.10813748806505519 0.36643141296664966 0.10660585702290203
0.387667867360747 0.5005132582843407 0.35961434324017816 0.13750310153460998
0.38953952775071493 0.6789326492984123 0.365373094784711 0.005032640099379085
0.3862783179731818 0.43087901991117794 0.3558165839622509 0.11377623974336509
0.38653783210145964 0.6682743520902565 0.3582317274387668 0.0012970804601788418
0.3889421811889456 0.625615172852137 0.36356273342895584 0.0024569984682620365
0.38760400965376585 0.6573904442468361 0.3606567601077657 0.002647637085042113
0.38689819594959163 0.5152918857333239 0.3579163363970217 0.14081161214803486
0.387953474039452 0.7039006641686635 0.3618323231113017 0.05359200607097035
0.38853747074568923 0.6903568890946913 0.36310298889991643 0.045973764660350566
0.3878556904745113 0.3331674552808115 0.35878392264025455 0.1359764588890779
0.382689433137915 0.6962749048261249 0.3493927083057879 0.07516333237343806
0.38728567184048224 0.582969788097498 0.35934222867937216 0.0007590699437258884
0.3869380270803006 0.5361184656112001 0.3581683525057246 0.06360867367153403
0.3837100030016844 0.7093458826604166 0.3518925770787483 0.07512273314256326
0.3872888338583961 0.44532394081401305 0.35830324963981774 0.08991513787716861
0.38381112583286964 0.6857597462026519 0.3519511224246432 0.04065281522645563
0.3865151307504005 0.6429858138593736 0.35798608171319596 0.0014374616384307893
0.38778397163429446 0.5539149909456871 0.3602934067930073 0.0008762400976822223
0.38507422771768873 0.49085728499882963 0.353440391413668 0.06510096926695642
0.3893171624299037 0.358758976727666 0.36241602902651476 0.10606728295852871
0.3895849377710507 0.4762465387675615 0.36393903645074444 0.04810919111558905
0.38758228547434637 0.45855692191999553 0.359094082549404 0.038322584686244776
0.38908781461341174 0.31760293773749326 0.36156369804735444 0.12585818543799893
0.38520922773445343 0.5713203671714908 0.3543696267889143 0.0005748689238786176
0.38193279548325043 0.6719186851561958 0.3474278459695773 0.00026710655157880783
0.38418526052048485 0.6323598298026876 0.3524251722487559 0.0005961824203738186
0.38597934907310305 0.6133733995479269 0.35650073971249063 0.0012065794803557523
0.3859597700485561 0.5963859936361227 0.35632554524801663 0.0012254295770770332
0.3947941117978039 0.6736719378663603 0.3819054805390816 0.0037890223668439996
0.39481082651505406 0.5969774276658328 0.3836028277846917 0.004393692299179193
0.3945692778316877 0.18367505750174945 0.3810109273371233 0.044694003935687183
0.3944260557496915 0.32658612066143966 0.3789998477888831 0.04988956149512577
0.3947365418764 0.3690584496692703 0.3820814343189437 0.026505582254199987
0.3947518803789165 0.522356063513805 0.38168508580487315 0.1108779186789171
0.394557419832133 0.43751554863590736 0.37996636349493995 0.09354709367583532
0.39464769068864514 0.265519013302 0.3815311479845269 0.04947435599622994
0.3945496116096703 0.38211586626221095 0.3800859931270525 0.04909653900084592
0.3945404500061025 0.2319035817510215 0.3805355190459617 0.0464003804969461
0.39434527677663256 0.2847332815723234 0.37830987270982147 0.06996314835544135
0.3943660304475434 0.39809849796804564 0.3781148408284435 0.06114006023023378
0.39472385672527 0.4909363287861618 0.38150703894801485 0.08484118181757971
0.3938177975036742 0.6638797658987355 0.3763013299061292 0.004478531275567788
0.39412733802262084 0.534207503879994 0.3773402517716568 0.05284113910227927
0.3939335828944134 0.646081773819084 0.3768141369270858 0.003966595357574418
0.39446039374339387 0.5605109785758484 0.37912878095954994 0.00421999457630356
0.3928048639368077 0.3057423519335102 0.37185132917917996 0.10229105321631807
0.3925298980224745 0.34756680562515013 0.3710126284169208 0.05487086862484523
0.3933813964701243 0.5711037116186182 0.3745171534826584 0.004477813403467674
0.393146041506926 0.4688663016645089 0.3734445468667423 0.04746705002373606
0.39261117635531695 0.27264483682940965 0.3710997794824791 0.07841351203763093
0.39372491332299003 0.24927406640500555 0.3747021346934662 0.0512703368012882
0.3922865458481191 0.22433946910397623 0.369434359325203 0.10748321143742053
0.39276101426821225 0.2118321069282097 0.37090741628963486 0.0720863078354372
0.3927600348665497 0.6928248059632343 0.37348665837366374 0.03903550994457763
0.39184630945718546 0.6148280149612895 0.37066459162797005 0.0034136611496666403
0.39192376392055844 0.4182648295695916 0.3696966500662087 0.11392157059353131
0.39152537913218727 0.510844481278999 0.3692183391151631 0.11913535850522095
0.39247108696946703 0.4517048200621889 0.3713081684332424 0.05241759278857058
0.39168793637708366 0.5433432058887709 0.36983104798366606 0.002608560238426662
0.37897124311801084 0.6197660283913063 0.3395869128955609 0.0008049404505633715
0.3788315722610808 0.5172802881319554 0.33814748169698805 0.1536569688261472
0.3780880024400879 0.6871235116775151 0.3381058662359299 0.07484132322800753
0.37984893175759865 0.5712911073618958 0.3412552910184364 0.000500702763541702
0.37711603431198715 0.5038349090188278 0.3337338788233245 0.0917814251971798
0.3782020046876524 0.7020679487940631 0.3385488440914653 0.10157243320337822
0.3781606295683727 0.5984112469191443 0.33734161980685545 0.0006968035504321125
0.37806749935672695 0.2871405047608918 0.33379389845257484 0.08681635438555659
0.3789238331695798 0.3301902861577609 0.3363841119446368 0.09881835622028695
0.377798829720152 0.24499191829482947 0.33267611775077577 0.0477969836568469
0.3769352719697631 0.45035765654365945 0.33271423800149347 0.06881110230366819
0.3782061076264935 0.18001545915274703 0.3329977471042491 0.07578373609049628
0.37853240980382624 0.5864287359803726 0.3381394200714897 0.0006465577369433557
0.37695036817495287 0.43457815376451986 0.33258372039415474 0.12112899232891079
