x y z curv
0.022759070492299943 2.1036607760190056 0.3657596534685581 0.13706621676991312
0.12653083710438617 2.086859441513713 0.3657596534685581 0.16328485694552183
0.05011896389032817 2.1109978710792245 0.3657596534685581 0.17478575508400518
0.06974264656656591 2.089355708677312 0.3657596534685581 0.14843013994316145
0.08195774270383668 2.102933402438202 0.3657596534685581 0.14744510123786644
0.12579820027747662 2.0748193493899256 0.3657596534685581 0.15068617458623604
0.23873564509565406 2.079353877659079 0.3657596534685581 0.15915291689679098
0.16950541928234816 2.0760947246715435 0.3657596534685581 0.15776055580270562
0.023998331386797474 2.1172303051570687 0.3657596534685581 0.1433133282997007
0.2293785687550371 2.0735260872585464 0.3657596534685581 0.17256920337916445
0.18018471302409655 2.0798352356072853 0.3657596534685581 0.16038922968741953
0.21267846973170534 2.074869194682172 0.3657596534685581 0.15023048925315166
0.05828152637550699 2.0824058237727203 0.3657596534685581 0.16080800235292406
0.2034023618316564 2.0798509082899974 0.3657596534685581 0.15337353838467319
0.08205880053422454 2.077673256547186 0.3657596534685581 0.15793346573449732
0.04213564699821648 2.079914348770565 0.3657596534685581 0.14581500848096993
0.06936405977108565 2.0785803367258087 0.3657596534685581 0.12952600087461394
0.14189107006787355 2.0828295389843756 0.3657596534685581 0.14035923338959888
0.15274212016170274 2.075704369361338 0.3657596534685581 0.15587640277275913
0.10178311712860298 2.103346863035834 0.3657596534685581 0.14189771028726342
0.2755631474651404 2.0755159379748833 0.3657596534685581 0.13222669323647784
0.04937962566381676 2.08939532949276 0.3657596534685581 0.14114111269921073
0.031246218217591777 2.08074264109119 0.3657596534685581 0.1457813720006842
0.16340925303228973 2.0904126415985065 0.36575965346855804 0.1460440913013974
0.11811339151519228 2.094130669217739 0.3657596534685581 0.15783525548224256
0.2016486606182307 2.093518316248669 0.3657596534685581 0.14977645352609092
0.2883275768243904 2.0749383594140545 0.3657596534685581 0.15646183394449148
0.09008909729555145 2.094210976358633 0.3657596534685581 0.1336550892306345
0.15171875335043716 2.101161489534716 0.3657596534685581 0.13198351103475134
0.06021936490614749 2.1122415179165768 0.3657596534685581 0.1508731778970389
0.10029650404784841 2.0802785585874237 0.3657596534685581 0.14676217529391206
0.2672028860812958 2.0853826370769255 0.36575965346855815 0.16056433137124723
0.050741164236370324 2.100362618328073 0.3657596534685581 0.16163505213495083
0.14167224185588387 2.095648497497722 0.3657596534685581 0.16197740778989936
0.19366684113108146 2.085825286452118 0.36575965346855804 0.1595097903389628
0.07101205577159929 2.105867406677384 0.3657596534685581 0.1766018833502693
0.1873502286207459 2.0945966337686133 0.36575965346855804 0.15391564877426026
0.03476945927591272 2.0928380948843763 0.3657596534685581 0.16064219741408958
0.25234785901314694 2.0413722249587263 0.3657596534685581 0.14256688132154033
0.18421470359747857 2.054594638706705 0.3657596534685581 0.13431836320771387
0.33939122080039763 2.0708385430004768 0.3657596534685581 0.18862249284066632
0.30749192096687955 2.0531162206155553 0.3657596534685581 0.13373625091183178
0.20480291152497365 2.0474373517309954 0.3657596534685581 0.15009643086005675
0.23093829839077218 2.0601916214731264 0.3657596534685581 0.15216618534601475
0.3210303678537823 2.0508429720583496 0.3657596534685581 0.1531096348866078
0.3559615025207231 2.03215246918407 0.3657596534685581 0.16496632174034706
0.32672281835744627 2.0374356989581073 0.3657596534685581 0.15830971565649962
0.2856990535713785 2.0645293632120008 0.3657596534685581 0.1401321050501062
0.2730417335746028 2.0444306700991444 0.3657596534685581 0.16169342093285627
0.29067766491955527 2.0485778597220343 0.3657596534685581 0.1412289380874975
0.08627063786643988 2.0643928410277135 0.3657596534685581 0.1326418294410276
0.12029130516009066 2.057983392619071 0.3657596534685581 0.14738651996331725
0.26339253437436444 2.0409685580377657 0.3657596534685581 0.1461287341963595
0.15481991819658253 2.057038377204445 0.3657596534685581 0.14357715958635425
0.26803260623892794 2.0569185500206695 0.36575965346855815 0.15387798470760156
0.32229726869033615 2.064441960782655 0.3657596534685581 0.1517411641622972
0.1646899569699615 2.0616692976278905 0.3657596534685581 0.1506991213277667
0.3391103821939416 2.0343957126409773 0.3657596534685581 0.17874176385876947
0.023239127235030927 2.07140056478571 0.3657596534685581 0.16406085257137715
0.22722468528856232 2.0478782431393547 0.3657596534685581 0.16676667520172464
0.25350004305787344 2.0675701490291 0.3657596534685581 0.15082727570833962
0.2201969820751374 2.0628761821003128 0.3657596534685581 0.14269925361483776
0.2570099879385917 2.053136328326019 0.3657596534685581 0.1654507008670881
0.18830531200503886 2.0708581600411122 0.3657596534685581 0.1571160195808768
0.11471229207612457 2.0730455663038985 0.36575965346855815 0.16655542846683766
0.3093225645485114 2.0732882435934576 0.3657596534685581 0.13307654387938905
0.03393253023296036 2.0697510681344085 0.3657596534685581 0.1703848812254714
0.060225516637980724 2.0696208002717125 0.3657596534685581 0.1463817854264231
0.245653877831657 2.0547613773191893 0.3657596534685581 0.15299894262082997
0.10689328928127177 2.0639248229427825 0.3657596534685581 0.13932947673249135
0.33333308205237877 2.0507490205208914 0.3657596534685581 0.1673921362989518
0.27878328567038424 2.0549353124593077 0.3657596534685581 0.13659706716179992
0.3137910875779171 2.043176964568972 0.3657596534685581 0.15700533167163908
0.30168391456886373 2.062752527410665 0.36575965346855804 0.1585427385977202
0.2057718513500803 2.0625436258963092 0.3657596534685581 0.1490009807493297
0.19317434891005478 2.047459865574518 0.3657596534685581 0.14754039354106568
0.35431679506923086 2.059457397836996 0.3657596534685581 0.14006114412064044
0.17690561112126005 2.067141336408318 0.3657596534685581 0.14518546829180326
0.34497185710660466 2.045296365116991 0.3657596534685581 0.17842164136501
0.07441273856030035 2.0641636320698433 0.3657596534685581 0.1374203345351658
0.2938906338475264 2.0380278900055657 0.3657596534685581 0.15543908776171947
0.2646324663150616 2.0721637444516325 0.3657596534685581 0.16721143438819205
0.14137034152405684 2.0628105093808715 0.3657596534685581 0.1563688144545471
0.2403604631939484 2.064749815024082 0.3657596534685581 0.15858410592479288
0.2683549114653559 2.0265902964348084 0.3657596534685581 0.13578356264699565
0.02165583893364877 2.0254809761910595 0.3657596534685581 0.1754610642488561
0.13066155845430236 2.0498635690222375 0.3657596534685581 0.1578167869977838
0.31283021265286415 2.0241929310089413 0.3657596534685581 0.16588622475571327
0.22346704674355675 2.0256163303215375 0.36575965346855815 0.1447305571164424
0.060840762108796034 2.040601410278743 0.3657596534685581 0.15774880949853193
0.33163113857687976 2.0259096955531963 0.36575965346855815 0.15743757005253756
0.11829852250936704 2.0450032611452387 0.3657596534685581 0.14425523799703222
0.14141261693219956 2.0243376284440755 0.3657596534685581 0.14883702277174635
0.09689383831329397 2.0252812221028105 0.3657596534685581 0.16496726185246233
0.1662717814740714 2.0497327748579006 0.36575965346855804 0.15250591118824539
0.14489292193350412 2.050038335888464 0.3657596534685581 0.14820482271971366
0.09428599482159598 2.0546536400875315 0.3657596534685581 0.11613277127046502
0.06539411700355026 2.028841257772721 0.36575965346855815 0.14308524545195778
0.08564088037363325 2.0413728179002466 0.3657596534685581 0.1448724999945202
0.16103601592972044 2.031150371597963 0.3657596534685581 0.15299337664527451
0.017525448075732968 2.0376122999718898 0.3657596534685581 0.16343846670001408
0.15231236866310593 2.039523928513165 0.3657596534685581 0.14680515983932618
0.0258651042330999 2.0591595172017896 0.3657596534685581 0.13302980516687618
0.04203583636126842 2.023477655376016 0.3657596534685581 0.13610299772492035
0.013283379166962293 2.0534113564052157 0.3657596534685581 0.17495171491757597
0.2178110865990658 2.034542999727918 0.3657596534685581 0.14865210321630412
0.05896700941332153 2.053131023285248 0.3657596534685581 0.1511045644731418
0.007036375166706485 2.028030941740614 0.3657596534685581 0.13838046343256413
0.2476487151902567 2.0309655474684667 0.3657596534685581 0.14090505086706104
0.2883170431528717 2.0287566161186654 0.3657596534685581 0.15259540609353883
0.03427839502058498 2.0498688728313064 0.36575965346855815 0.14411569483422498
0.0324943748201261 2.033737137350668 0.3657596534685581 0.14001124370916668
0.12298860019467597 2.032198509641792 0.3657596534685581 0.15127119808641865
0.04465750680228906 2.035061399180513 0.3657596534685581 0.15230162572626335
0.08073486490206858 2.0308801692156764 0.3657596534685581 0.14996824039621942
0.21189515308927606 2.0251123682604253 0.3657596534685581 0.1392816276323248
0.13404581620070627 2.0371433890637087 0.3657596534685581 0.14921557108121833
0.17206422116153147 2.035657069084227 0.3657596534685581 0.13860827019712427
0.10529327862999341 2.0409832477867025 0.3657596534685581 0.13978146860774943
0.1786846665830897 2.045238687174498 0.3657596534685581 0.1439491528651477
0.006157978940042495 2.041865603111117 0.3657596534685581 0.14430256234280836
0.18909355996141586 2.031565571039699 0.3657596534685581 0.15431216868160022
0.0478300065308589 2.056298446126476 0.36575965346855815 0.14321232890195487
0.23832579055279374 2.0354958017981533 0.3657596534685581 0.15496849999360246
0.2000566630021054 2.029037552424299 0.3657596534685581 0.14004048999484323
0.010403420562681676 2.065286337655095 0.3657596534685581 0.15192897380242795
0.07208657141130319 2.0417098411245416 0.3657596534685581 0.169092993194664
0.06490044165343999 1.991983570306682 0.3657596534685581 0.1323974226320775
0.1451507428749822 2.009631905848813 0.3657596534685581 0.14836240976580498
0.024950304795427605 2.0033533025958916 0.3657596534685581 0.14249416005554777
0.26918809539998356 2.0147404164504845 0.36575965346855804 0.15279463838077717
0.12564730144858363 2.0066130215023086 0.3657596534685581 0.14386152757933668
0.06301869961056017 2.0103260187369556 0.3657596534685581 0.1480869571054309
0.04519264526299684 1.987622009523011 0.3657596534685581 0.17336922773024435
0.17428986307452374 2.011756059140655 0.3657596534685581 0.13780714051185838
0.1815190719526417 2.01964977063092 0.3657596534685581 0.1666854378352701
0.12617993525087307 2.019142623524075 0.3657596534685581 0.15245747444929653
0.18879376294620787 2.01243306059351 0.3657596534685581 0.13337747197661773
0.04858203834094769 1.9982307149050038 0.3657596534685581 0.15367795746092683
0.018304093459224798 1.9931395334195936 0.3657596534685581 0.14570277419495709
0.11492074006790585 2.012782934884254 0.3657596534685581 0.1440749048195137
0.15634198321624343 2.014969683372164 0.3657596534685581 0.147005266437501
0.0777518433401488 1.9889141619892292 0.3657596534685581 0.15752146398038772
0.09015907714522045 2.01466895044236 0.3657596534685581 0.14427540463289176
0.1565798173824072 1.9987037599254944 0.3657596534685581 0.1694721494333993
0.08130158900138261 2.008170215920857 0.3657596534685581 0.1404005107134091
0.16624324310442506 2.0212919606057724 0.3657596534685581 0.16264136712209856
0.006472547851380262 1.9934166824421036 0.3657596534685581 0.1287737813752887
0.21603574246686738 2.007756316088505 0.3657596534685581 0.1613114467091788
0.1033185542892691 2.0134378512582933 0.3657596534685581 0.13782104872401751
0.25632433468027516 2.0226884479717167 0.3657596534685581 0.1527599932382539
0.10480543097369177 1.9938391022179784 0.3657596534685581 0.15586015772588482
0.03211995145876519 2.0198265092836123 0.36575965346855815 0.14329494353501623
0.2038516225203647 2.007569970539396 0.3657596534685581 0.15517713447242154
0.10961590285782911 2.0035159201855244 0.3657596534685581 0.14681471261620896
0.003893881659454255 1.9827311599258324 0.36575965346855804 0.14221479627110997
0.043240852613550596 2.008815032538522 0.36575965346855804 0.15312251452810405
0.1651898601276691 2.006656112880864 0.3657596534685581 0.14673045007442195
0.1287187062274091 1.9963981467156227 0.3657596534685581 0.16012481632974282
0.141029010684289 1.9996941850032979 0.3657596534685581 0.15052716913533673
0.07328818904519636 2.020608550795235 0.3657596534685581 0.16074269272426722
0.09132191979959847 1.9962829498741725 0.3657596534685581 0.17711399015309423
0.0325323745801588 1.9859565219406314 0.3657596534685581 0.15473959635154083
0.24527033196428236 2.01983580465524 0.3657596534685581 0.17290344766655535
0.23444437825093922 2.018462009232218 0.3657596534685581 0.15119378320140997
0.05575236201525041 2.018764308614345 0.3657596534685581 0.16271652827941346
0.29949723624454866 2.022402068544037 0.3657596534685581 0.1667324414688198
0.014832384317417516 2.008686419671264 0.3657596534685581 0.13967009866761107
0.1595331351314956 1.9780689113389767 0.3657596534685581 0.17057044025082016
0.2969676191692703 2.010490088587254 0.3657596534685581 0.15604403598452074
0.33983495259491897 1.986502433784607 0.36575965346855815 0.14271572830283255
0.24947253978595613 1.988587692043021 0.3657596534685581 0.17219893846843456
0.054066719819865675 1.981442372443777 0.3657596534685581 0.15580204357634586
0.35244570265440955 1.9782282989373605 0.3657596534685581 0.17245592654272718
0.11608597239239651 1.9900728051996408 0.3657596534685581 0.14419543279667846
0.1673935707333912 1.9877474772845318 0.3657596534685581 0.16122372681014882
0.32269891374509757 2.0059290999962576 0.3657596534685581 0.14963098892221358
0.27788886180633493 1.9899971168191342 0.3657596534685581 0.13963348513662752
0.25985325753769434 1.9822430416948786 0.36575965346855804 0.14371716037123622
0.22174759473923158 1.997735129270594 0.3657596534685581 0.14413493179169962
0.3226185525722871 2.0180875088067527 0.36575965346855815 0.15954396824662812
0.2815872622692184 2.000553284164974 0.3657596534685581 0.1439983076539037
0.3495823305629405 2.0018498764874844 0.3657596534685581 0.15121949849819277
0.1341837079481789 1.983969159696582 0.3657596534685581 0.13616473933450862
0.19746353930606478 1.9866145234649322 0.3657596534685581 0.13512769513261352
0.35180433979245107 2.013539979047165 0.3657596534685581 0.15531198617922656
0.14953399354426505 1.9847049287480818 0.3657596534685581 0.16006091691253982
0.24522339565461035 2.0049197971890194 0.36575965346855804 0.1781964556289291
0.2311949725856712 1.983492754257329 0.3657596534685581 0.13441423342559708
0.23079267750328142 2.0046198136808338 0.36575965346855815 0.15239376430252394
0.3115789144760464 2.011036533954021 0.36575965346855804 0.14075824085520108
0.29143433493418996 1.9829232781847774 0.3657596534685581 0.15956487548337944
0.266762797795475 2.003590611410416 0.3657596534685581 0.1565422608929971
0.33010725419133385 1.9902999327733748 0.36575965346855804 0.15781358126176845
0.21104376733824654 1.9822790627660583 0.3657596534685581 0.14647667391628857
0.319236282692261 1.9886458265742615 0.36575965346855815 0.15483501197168215
0.3053931760437283 2.000898943970957 0.3657596534685581 0.1444446068492812
0.1734760409906251 1.9994458243044848 0.3657596534685581 0.11758693366510531
0.09728373022414455 1.9834208225005479 0.3657596534685581 0.14510990800506854
0.30300084222928814 1.985069371695435 0.3657596534685581 0.13464333614486143
0.3338318447657965 2.007118779428538 0.36575965346855815 0.15793652469631878
0.29133467006436864 1.9978911462359226 0.3657596534685581 0.14151135702251863
0.25705061167003 2.008123814772193 0.3657596534685581 0.14996936922901974
0.17721440062963623 1.9848874941923524 0.3657596534685581 0.16545193174912923
0.2062045463332418 1.9934332066380376 0.3657596534685581 0.15699108837063608
0.2798120820215442 2.012068601051094 0.36575965346855804 0.14259743722255888
0.1849871707026876 1.9931331496258156 0.3657596534685581 0.1696562434419327
0.0674762677355199 1.9511387717607254 0.3657596534685581 0.15366766388864725
0.08077277285928607 1.9439219601209348 0.3657596534685581 0.14643928914393178
0.1016540370033648 1.9563387222480593 0.3657596534685581 0.149046399295696
0.22717051171111594 1.9445013612162891 0.3657596534685581 0.1497030163189765
0.09347049768881605 1.9399742317268378 0.3657596534685581 0.15726235370482303
0.05187318137176126 1.9446635330959179 0.3657596534685581 0.1519559632858027
0.020316648244867695 1.9531510861808008 0.3657596534685581 0.1795934161994339
0.14272399252892604 1.9514060727160776 0.3657596534685581 0.1801079428974908
0.15370390045571886 1.9456847219824693 0.3657596534685581 0.16627638411437892
0.039922225521288546 1.94784861521862 0.3657596534685581 0.16974372807005225
0.0727949662177874 1.936260366505545 0.3657596534685581 0.13081225695738655
0.01745303447933081 1.9398670508999507 0.3657596534685581 0.169800569694583
0.1902622077761262 1.9536846184299506 0.3657596534685581 0.16279889733460345
0.2957917403788576 1.9359266475771504 0.3657596534685581 0.14487869588190153
0.11546588272684276 1.9427264983681654 0.3657596534685581 0.1611145508058153
0.14843445322127213 1.936379450032109 0.3657596534685581 0.16293959633823965
0.16317679876517296 1.9523380334670888 0.36575965346855804 0.15551350079747245
0.1767451769872709 1.955624465449936 0.3657596534685581 0.13987898011220826
0.05118574316361313 1.955207555911121 0.3657596534685581 0.1462915561423476
0.1293144815727533 1.9385681648582604 0.3657596534685581 0.15946397389392422
0.014974593153264253 1.9648727888475475 0.36575965346855815 0.16498282584114446
0.0785902741841521 1.9569132710404562 0.3657596534685581 0.14328565842595775
0.19051314759164223 1.9407299934535782 0.3657596534685581 0.14655123464659472
0.12564632986552735 1.95123089120362 0.36575965346855815 0.1663029098563643
0.02872367796664893 1.9678416247732746 0.36575965346855804 0.16824462746565624
0.16238455867616836 1.9369298800964616 0.3657596534685581 0.14831139457051837
0.028955821516040894 1.9448515656480285 0.3657596534685581 0.16934768618809842
0.062092623147196206 1.9352306635624914 0.3657596534685581 0.1279363217051737
0.26441341266484153 1.9415323905647504 0.3657596534685581 0.12947803271228903
0.20702912939847326 1.948163000406805 0.3657596534685581 0.1469769274529235
0.10849801295663501 1.9355096701175465 0.3657596534685581 0.16627818445517434
0.14121991600797437 1.975743467487802 0.3657596534685581 0.15987507059443065
0.12172460666591135 1.966958958272007 0.3657596534685581 0.14896666162766686
0.3407415359681091 1.9673357339225839 0.3657596534685581 0.17072348784816416
0.3296899165317673 1.9527005882880646 0.3657596534685581 0.15679939422974218
0.29192296145384955 1.9490224074545304 0.3657596534685581 0.15724799563329767
0.03764546322118868 1.975672750508781 0.3657596534685581 0.16124563311230727
0.303051828426887 1.960929545087721 0.36575965346855815 0.14555184589183504
0.08741712371541104 1.968188307234453 0.3657596534685581 0.12949051786211502
0.2797973444321424 1.960032043412407 0.3657596534685581 0.16867515468340233
0.13164132104656676 1.9720015962593256 0.3657596534685581 0.15832330839839484
0.3037820670112522 1.9461928443764314 0.3657596534685581 0.14072603252187266
0.20892540648235414 1.971600086844323 0.3657596534685581 0.14551182250689185
0.24075201021977607 1.9768077451699824 0.3657596534685581 0.13830522409808316
0.22515468190299462 1.9736531593367581 0.3657596534685581 0.1470662352388528
0.18336052742492587 1.9752511284547563 0.3657596534685581 0.1686788576411516
0.28232623470039586 1.9429193026446658 0.3657596534685581 0.16043588171827158
0.30952023632497455 1.9724358885748494 0.3657596534685581 0.15521050064312564
0.24603924686910303 1.9641059662209641 0.3657596534685581 0.15586825981117064
0.25305659483210163 1.9737519146154332 0.36575965346855804 0.1372455242716899
0.2703426383062706 1.9722617726026674 0.3657596534685581 0.14713693519840268
0.19741698955624531 1.9703674274705811 0.3657596534685581 0.12990841453876442
0.23952161307252412 1.9484863296090933 0.3657596534685581 0.15504124845281428
0.17100123038086285 1.9741493922861242 0.3657596534685581 0.15524515823495366
0.3471795288036554 1.9577830342115279 0.3657596534685581 0.14676130208477378
0.061434816190071746 1.973091311275655 0.3657596534685581 0.14840377780827316
0.2524833545283437 1.9534906511147252 0.36575965346855804 0.15038767986427012
0.327514859121283 1.9404506590530506 0.3657596534685581 0.16815533844486236
0.10527521152999333 1.9711525327735382 0.3657596534685581 0.14952403430712194
0.13917985650578996 1.9636926446675198 0.3657596534685581 0.14811150768104442
0.3398315468795144 1.9485624965872126 0.36575965346855815 0.1854134830273897
0.2691224724375902 1.9525502631410507 0.36575965346855804 0.14791706428897963
0.3379455812792043 1.9359847704528854 0.3657596534685581 0.16562986048457654
0.31507031420346626 1.9517959696313123 0.3657596534685581 0.13723068937824598
0.2601325883097723 1.9618108766795874 0.3657596534685581 0.15558342140545822
0.22085998490526143 1.9543672677200234 0.3657596534685581 0.162693204359873
0.31559442820893496 1.9400249793181004 0.3657596534685581 0.15965256499602049
0.31937697289402983 1.9630193078161577 0.36575965346855804 0.1669809637738708
0.18420049953969167 1.9639808094477424 0.3657596534685581 0.17313372844926903
0.23277443622093288 1.9655058378279993 0.3657596534685581 0.1494464460453565
0.15438412476765473 1.959954166135191 0.3657596534685581 0.1828824484957298
0.32511235812716877 1.9757091455693072 0.36575965346855804 0.14162202892685488
0.2877078934962521 1.9735500448621708 0.3657596534685581 0.15762274655605304
0.20993659412636448 1.9613437991803506 0.3657596534685581 0.16100208808930808
0.07744936275796192 1.9688258631691395 0.3657596534685581 0.14496503377866896
0.058887659999897604 1.90708411419403 0.3657596534685581 0.17664366046485896
0.07018130968778494 1.9137023106677091 0.3657596534685581 0.16006779464865725
0.14303116404178065 1.913113722784358 0.3657596534685581 0.16798898330662018
0.10164679636866719 1.9031201172323609 0.3657596534685581 0.14289827033850863
0.15014650670164364 1.9219887649102958 0.3657596534685581 0.1563027405231182
0.16542708863138145 1.9165896970131695 0.3657596534685581 0.1550793082290592
0.13250342545085522 1.9262394104060816 0.3657596534685581 0.14862390953417112
0.19034286861491928 1.9188386047741721 0.3657596534685581 0.14691241709589217
0.18419555452942046 1.928830441795613 0.3657596534685581 0.14874986588379147
0.20806084082919862 1.9340661182137506 0.3657596534685581 0.15738532972503952
0.040025401944959856 1.8981778583156683 0.36575965346855815 0.14163269049728452
0.08165334479962624 1.910353675009356 0.3657596534685581 0.16524013952935537
0.11400908307273652 1.9051812942927082 0.3657596534685581 0.14740262007717114
0.04793265635360503 1.9304501812856623 0.3657596534685581 0.15355897856818101
0.06846030387505533 1.9022068318197372 0.3657596534685581 0.16407087964541547
0.12114923302628078 1.929616049041924 0.3657596534685581 0.16180182789768316
0.2013188245920045 1.9239412769135718 0.3657596534685581 0.16412142235196522
0.2563318500400011 1.9342384681664198 0.3657596534685581 0.1289597267451521
0.09465151472013568 1.9111241132333703 0.3657596534685581 0.1517898321947222
0.12587286773597303 1.9093697984229454 0.3657596534685581 0.1634967893714375
0.04154262637710257 1.9087336100600396 0.3657596534685581 0.16614358500836907
0.10544219529430103 1.917128782883191 0.3657596534685581 0.14478198317499769
0.23352672006287775 1.9299189985283545 0.3657596534685581 0.1503382846587896
0.28085544582985555 1.9298469393211062 0.36575965346855804 0.16347353265874368
0.1776532252987019 1.9195966193338285 0.3657596534685581 0.15158473271394474
0.05482798692217258 1.9188514161904147 0.3657596534685581 0.15082936075182238
0.0844577107274216 1.9232483100696873 0.3657596534685581 0.17578684955535095
0.03429570482096213 1.9185577703187238 0.3657596534685581 0.13800272859456497
0.09600810683103778 1.923085817310946 0.36575965346855804 0.14878872433254658
0.24493424139997305 1.934267054086634 0.3657596534685581 0.13038381701185855
0.07443411033941258 1.9256934795683258 0.3657596534685581 0.15778205243335558
0.02605405549741363 1.930153250748711 0.3657596534685581 0.1708509047733057
0.2703763760755842 1.9326042940209005 0.3657596534685581 0.1479863719446972
0.22013546965269193 1.927903786084041 0.3657596534685581 0.15793748551063172
0.2496897971952668 1.8979992804679036 0.36575965346855815 0.16199910345024274
0.2230429112435705 1.9068613732497894 0.3657596534685581 0.1488454477745226
0.14443094173595195 1.9009166925010998 0.3657596534685581 0.16947122872373294
0.1816683555120932 1.8953465664596507 0.3657596534685581 0.16976976303028854
0.16585415315507152 1.9041638433520558 0.3657596534685581 0.13246879939323963
0.058947893443258646 1.8963685024780643 0.3657596534685581 0.15269880863957755
0.26229479229877684 1.8979753425473795 0.3657596534685581 0.1634591212636591
0.3213749890467011 1.9281405828053457 0.36575965346855804 0.1615833948284349
0.3408801597894451 1.9247972663654527 0.36575965346855815 0.11996033798002413
0.3181777421595861 1.9165148969581496 0.3657596534685581 0.15173137590044192
0.29934134531199236 1.9051259843117583 0.36575965346855804 0.16441270610882308
0.12929295864533857 1.896647563290131 0.3657596534685581 0.13869241766198065
0.2471040370410508 1.9091338761162935 0.3657596534685581 0.16625635114145135
0.2032341564208764 1.8939613248378055 0.3657596534685581 0.1694944720659279
0.2744006520551894 1.9084778686023718 0.36575965346855804 0.13454978553537636
0.30642079920296755 1.9230258573368098 0.3657596534685581 0.1626551667213585
0.33411447045002296 1.915767181624638 0.36575965346855815 0.13034690040260685
0.20756709034799248 1.9146143260473667 0.36575965346855804 0.17162597029537247
0.15490499309697436 1.8962264786060583 0.3657596534685581 0.16356176189326407
0.21127944629277534 1.9015009159557315 0.3657596534685581 0.13678168111342
0.23490349764878066 1.9113481886606702 0.3657596534685581 0.15550784805367818
0.2844103198715611 1.9140615959309368 0.36575965346855804 0.15416333259665252
0.27394810542779335 1.9206746168282383 0.3657596534685581 0.16367301427124942
0.19119074444868356 1.9019373529943715 0.3657596534685581 0.14405181950447157
0.28512864146777045 1.895121171072175 0.3657596534685581 0.17808128507902152
0.256575461557275 1.91607684980545 0.3657596534685581 0.15651670998247988
0.2915034099597162 1.92421393042184 0.36575965346855804 0.15170876829138796
0.31021856419578936 1.9015787668804132 0.36575965346855815 0.17067305416124987
0.1355524943551772 1.8705508504931871 0.3657596534685581 0.14752592514973473
0.0856379309968978 1.8803611871478119 0.3657596534685581 0.15014837681145907
0.05831799489929221 1.8828822896981028 0.3657596534685581 0.17018271221445092
0.09516218080940214 1.8715400068176873 0.3657596534685581 0.13250632378192742
0.27455878258441985 1.8921414671234813 0.36575965346855804 0.17300934378169028
0.21314196459442555 1.885534315441681 0.3657596534685581 0.15694883244395255
0.19382638898149324 1.8900128769256406 0.3657596534685581 0.1675429443678178
0.12437319412357048 1.8720529143921556 0.3657596534685581 0.14098200574945347
0.16310694081221774 1.878422928905148 0.3657596534685581 0.14491362037255773
0.09514005259112546 1.8877948844725825 0.3657596534685581 0.14461443061489235
0.24467459901683986 1.8879087713639309 0.3657596534685581 0.1719395382865302
0.14899295548615787 1.88632986333053 0.36575965346855804 0.15350925512339494
0.2579118062858626 1.8870297041128554 0.36575965346855815 0.1707436315013614
0.10971792224767982 1.8741677874596245 0.3657596534685581 0.1470479009064082
0.22544546254644593 1.8913371966708132 0.3657596534685581 0.14969626404832853
0.1710025613902251 1.8931874110428624 0.3657596534685581 0.14945775713208187
0.04753602307436969 1.8851848625096577 0.36575965346855815 0.1718538319065772
0.12210928551426734 1.8880665831846792 0.36575965346855804 0.1258443065075719
0.13256343490789924 1.8823285283326094 0.3657596534685581 0.15253167916153332
0.07014554547207374 1.8907779114044756 0.3657596534685581 0.17044746931116334
0.07180600871009239 1.862840888375335 0.3657596534685581 0.1352525820880742
0.08072506445890645 1.8922410920479809 0.3657596534685581 0.16852061846869043
0.0494099877649328 1.872543404336297 0.3657596534685581 0.1479722275846097
0.2738187450110243 1.8811140185857962 0.3657596534685581 0.16524743764318733
0.2621748399177396 1.8772834636667088 0.3657596534685581 0.1703170093611053
0.2155797444093404 1.8623715107189318 0.3657596534685581 0.16193368398519212
0.3064558275627921 1.8665629613055985 0.3657596534685581 0.13431181027371702
0.30227383974944805 1.8900198411352482 0.36575965346855815 0.1955517947237156
0.19155608780896674 1.8713452417470182 0.3657596534685581 0.15897435463830942
0.14496477444727388 1.8652541972049876 0.3657596534685581 0.134999686902051
0.3131779337977072 1.890015976805404 0.36575965346855804 0.17841543709538474
0.2060044080526021 1.8719664571956587 0.3657596534685581 0.13945752885286022
0.2837361720698344 1.8756804691136213 0.3657596534685581 0.18207442877956242
0.2841703283204534 1.8653209164672135 0.36575965346855804 0.18473436593895687
0.22700433946395474 1.869224443672191 0.3657596534685581 0.16974825402667745
0.2959617442144926 1.8675321130891258 0.3657596534685581 0.17031773947936296
0.19098046443512434 1.8612485817398 0.3657596534685581 0.16224740487030867
0.2900988904045761 1.8850397484290728 0.3657596534685581 0.15572681593063362
0.2732364331013765 1.8700698478826356 0.3657596534685581 0.16767238864779394
0.2385893675318544 1.8729828383042446 0.3657596534685581 0.14860218940044037
0.3054522293131988 1.8782312323428205 0.3657596534685581 0.18699883123777372
0.2511741806857268 1.8766344568504665 0.3657596534685581 0.14374980467736956
0.22880391881031875 1.8795213071343044 0.3657596534685581 0.1584406061737046
0.15543162164130925 1.8670108343974634 0.3657596534685581 0.12338822470635903
0.12552308147936955 1.860029206545152 0.3657596534685581 0.1585634384537547
0.17293871291988555 1.873153905532648 0.3657596534685581 0.13830034160922025
0.10861380556948455 1.8633364540410489 0.3657596534685581 0.155127401028687
0.09069074715605666 1.8326065261778155 0.3657596534685581 0.16066420573701098
0.22648243689361017 1.8569473614287684 0.3657596534685581 0.1748596869056929
0.12509231915623142 1.846881581085713 0.3657596534685581 0.14250413928866487
0.16069164388524787 1.8527043413864623 0.3657596534685581 0.1480175344463854
0.19060042241332312 1.8474167193176956 0.3657596534685581 0.1605062946453678
0.0742963275966428 1.8465473514542923 0.3657596534685581 0.1362639817478581
0.1736170692723153 1.8556853720231756 0.3657596534685581 0.15083304652519838
0.10983878416597247 1.8518000186096413 0.36575965346855804 0.13722407560646763
0.21821072737741629 1.8486795383308048 0.3657596534685581 0.17518915550786035
0.260662964131354 1.858206856098682 0.3657596534685581 0.14146712209507903
0.20412994761038122 1.8505397610184584 0.3657596534685581 0.16370646217525214
0.15221674436793006 1.845782140093566 0.3657596534685581 0.17083665184570132
0.10490379758695523 1.8336738888384831 0.3657596534685581 0.14782746949997655
0.09658568611060622 1.8438007096791513 0.3657596534685581 0.1742966839893194
0.1342775320940222 1.8532241507532379 0.3657596534685581 0.154382365127704
0.1688237231629881 1.8418072731532338 0.3657596534685581 0.17858183530842445
0.11865277117721418 1.8351665611779655 0.3657596534685581 0.16254532738900015
0.08631433889164067 1.8435214975473626 0.3657596534685581 0.13226607311041108
0.2560567610769654 1.831165408238697 0.3657596534685581 0.18737185558764854
0.19858422569289053 1.8340242562870421 0.3657596534685581 0.15590206815586527
0.2447260074871269 1.8309226353373402 0.3657596534685581 0.19200373079011224
0.2846317425506325 1.8513022703172308 0.3657596534685581 0.15105497763790224
0.1399242518581129 1.8356758109581865 0.3657596534685581 0.141560740826217
0.15272594788282318 1.8347605915682752 0.36575965346855804 0.1722699976599902
0.24716902410761885 1.8489269397798904 0.3657596534685581 0.15058984435810618
0.21085220260592002 1.8402061876166873 0.3657596534685581 0.15174014593357488
0.2792317345189012 1.8383782520266458 0.3657596534685581 0.13724070996726825
0.17781517919159173 1.8345683819698204 0.3657596534685581 0.14035360631596447
0.22315983748582852 1.8359099034992594 0.36575965346855804 0.18967735919083803
0.26224210273147497 1.8405650920035357 0.3657596534685581 0.16716388275965394
0.23355494200826807 1.8475893780230304 0.3657596534685581 0.1562605168594867
0.2731986890483186 1.8493481738454816 0.3657596534685581 0.1411122862481392
0.15502108634717393 1.8223819971918025 0.3657596534685581 0.170877916759865
0.18498820992622877 1.823829973854374 0.3657596534685581 0.1755820526939745
0.23369622521824254 1.827198993064464 0.36575965346855815 0.1600937804074174
0.11724822097919191 1.8127937592880765 0.3657596534685581 0.12229623925657736
0.21057053574416007 1.8271841217191769 0.36575965346855804 0.15343820927247467
0.13028232482439225 1.823935825770044 0.3657596534685581 0.16601249483380534
0.17450507884627578 1.8222233402382386 0.3657596534685581 0.17478090650796713
0.14472802421779402 1.8197906735756844 0.3657596534685581 0.1576010252644772
0.17456349095448448 1.8118626627127392 0.3657596534685581 0.17029961988285422
0.22434619763781544 1.8166642157250985 0.3657596534685581 0.17322083103310887
0.21112031096815012 1.8148083484309834 0.3657596534685581 0.1467489111013615
0.24733828852410508 1.8161032689995757 0.3657596534685581 0.14226094182391597
0.16157219620343638 1.812675454622909 0.3657596534685581 0.142677210605478
0.1287000754490175 1.8073668816639925 0.3657596534685581 0.13317936861331495
0.19966665560213057 1.8097701147148704 0.3657596534685581 0.1747328477777222
0.18793437445012723 1.8091331398730528 0.3657596534685581 0.15735704111531174
0.15537586510782422 1.8028055739049393 0.3657596534685581 0.1412530684452501
0.21853671353824206 1.8049515052928704 0.3657596534685581 0.13457447326973387
0.18288924407015422 1.7988719423441806 0.3657596534685581 0.11231486829801601
0.04819867483324471 2.228742983484902 0.3474304309157877 0.2308845887139686
0.2878982142709063 2.2289171244029338 0.3489818834076379 0.21212088871336676
0.2622526193772844 2.2290128183672206 0.34983443799977537 0.23652694218827439
0.12529026234484653 2.2288612631228273 0.34862925179989157 0.22138818646593839
0.1635329778686667 2.2284092438872394 0.3462511377624099 0.21299709836785535
0.06454506003868471 2.228598805393859 0.34677216110147346 0.24340946349536358
0.14246166741944125 2.228080319745346 0.34516432511879636 0.24408306323152573
0.10304149196414844 2.22699711336416 0.3430520469187483 0.2820310819742324
0.08929384251295942 2.2265724649445175 0.34238638358842177 0.2820962010301269
0.11441717546695379 2.225026033536244 0.3405201414422708 0.2605933814932531
0.189525700246739 2.2227143504900106 0.338619995870358 0.27364752417835786
0.16724627993622665 2.220263214344424 0.3373978499323798 0.2558158230868643
0.12242285072930913 2.2191405834102826 0.3370267775771572 0.22190183703627928
0.16109392204157633 2.2117166298743127 0.3371246513440859 0.20931171532628448
0.07676688795378807 2.2111298296419424 0.3372122344461757 0.13340244896708414
0.22152827907629896 2.209562729838243 0.33774531164340343 0.22327798937131452
0.053262012559184495 2.19704596295593 0.3444568796767914 0.27092999551522395
0.30184631250553934 2.2043116743816578 0.3405560448381635 0.22007358871761729
0.2841706748925864 2.207872010393346 0.33864456199252835 0.13131444319262367
0.14919853734316263 2.199860979037244 0.34294554621501877 0.2637491783670765
0.18828485466465264 2.2029405440110597 0.3412921810269738 0.2934471174701903
0.1381963861844148 2.198998805014525 0.3434084325406264 0.2882389419698486
0.09192919134684474 2.197901924421127 0.34399732876590056 0.24712060135770172
0.2501250731917609 2.1971431408245596 0.34440470655935207 0.2883830996752306
0.06594092572002436 2.1819497463618647 0.35033850686871437 0.23772500999481008
0.17770050785516195 2.188446914403173 0.347967520998834 0.26110263884086193
0.299842673451236 2.1941661371486276 0.34588042763293075 0.26993462905987287
0.11815700367249483 2.1936201330156697 0.3460796787644867 0.28063499428312066
0.22414058010288773 2.1927793397936983 0.3463865061138966 0.28207390514560327
0.15904671919760868 2.19189663652683 0.3467086275304485 0.28295184249245864
0.1560881996598653 2.179616332380185 0.3511900304161999 0.2871560763789458
0.10040404334332705 2.1813760174058068 0.35054787551045263 0.2675333200855775
0.28775715305176763 2.187566711677273 0.34828872990284737 0.23059053847377503
0.26823865236880656 2.191361911492477 0.3469037626251023 0.23888296588084984
0.16701935814656796 2.182829038720203 0.3500176301815395 0.2688672953060325
0.2609821050685331 2.181953286174971 0.35033721509869975 0.2532177329404025
0.2961421725698415 2.174253795397836 0.35236190664182465 0.25531717276549604
0.2835456436276903 2.1740508234283 0.35240483937389877 0.2436448442000372
0.2710282340054181 2.172747682106836 0.3526804804751659 0.25417340798085286
0.2796118811517244 2.1636636287079765 0.35460194397385875 0.22295467681823872
0.1693587488208394 2.167724785843955 0.35374292599404156 0.24241128643738283
0.2361750083983633 2.178197451974605 0.3515277424388057 0.29003778833033994
0.11561237624466772 2.1681327066783633 0.3536566423760072 0.24935731786279625
0.08838596313120109 2.178733919615132 0.35141426853632596 0.24639675417589105
0.07958890715786897 2.1720896939871785 0.35281965844990726 0.25525826490122944
0.19921076652623276 2.1760540511975854 0.3519811156385525 0.30966683674606543
0.09086929209167878 2.1664695346070935 0.35400843736076504 0.24107442386793415
0.1362544567402901 2.1767264761929654 0.3518388839686689 0.2929633640022604
0.2678413734258445 2.161135526159027 0.3548116797466839 0.21681405963442435
0.08127914094780132 2.160516729221963 0.3548544918469382 0.24303962312479063
0.05418472023953678 2.1500173739926005 0.35558090049856883 0.22922197966448446
0.06665510042162932 2.162873417837364 0.35469144192986907 0.22816950719680706
0.14942050902424334 2.16170728313426 0.3547721221543968 0.2285786806918066
0.1309044707021034 2.163043684048814 0.3546796618875354 0.24940266498430722
0.0997835835357896 2.1535684921633416 0.35533521274862256 0.24277756955179766
0.05300608891446544 2.160614635556376 0.35484771809685417 0.2306323976995477
0.24336712276707115 2.1588373406715675 0.35497068206489035 0.22436246325333603
0.15402487611322332 2.151994702359298 0.35544409700908725 0.22232407388305578
0.16672080672844714 2.1493615939494024 0.3556262713129226 0.2088485923942422
0.30735886670437634 2.148343933731283 0.35569667917804504 0.22787572612379955
0.2976076456579588 2.1567241088876314 0.3551168881715719 0.21872198153830802
0.2661983202379317 2.1511610235560035 0.3555017759314748 0.20997260861137285
0.22802159429035115 1.8063652043528597 0.35575966300530126 0.18373074288410268
0.166661875430123 1.8080082902871693 0.35575966300530126 0.20625184001661714
0.13536858062454918 1.8099216180901216 0.35575966300530126 0.16967876678129146
0.19486846456513104 1.8061433291380866 0.35575966300530126 0.17479545479283287
0.19811984457709939 1.8189985003183988 0.35575966300530126 0.20401956476433236
0.22119256806731266 1.8163900779395437 0.3557596630053013 0.1893619835735999
0.15087516624653258 1.8157913739479992 0.35575966300530126 0.2033569560467676
0.26044121126946984 1.8248583812392534 0.35575966300530126 0.15769832680642662
0.2422867359677752 1.8131136680601494 0.35575966300530126 0.14906871093834576
0.185482973050798 1.8139278586275926 0.35575966300530126 0.2184273149499239
0.12495138762647154 1.8165645113069888 0.35575966300530126 0.17437433448145015
0.2156121567642606 1.8298096338058742 0.35575966300530126 0.18703001807507133
0.15723603426454508 1.828869148248517 0.35575966300530126 0.19549295985446466
0.09485761308036983 1.8267508221436106 0.35575966300530126 0.1649381968085519
0.2468413371861839 1.8283353754759417 0.35575966300530126 0.18411470920215764
0.23672572402784658 1.8419233344219292 0.35575966300530126 0.18248441910757612
0.2065148862294541 1.8461482460510557 0.35575966300530126 0.18865881166690973
0.28268668398386054 1.843427266775721 0.35575966300530126 0.15379521398161447
0.2676000558248161 1.83769473750707 0.35575966300530126 0.20011910419153298
0.17596069743261716 1.8343259802841876 0.35575966300530126 0.19322915126225915
0.21882670763861178 1.8427525782482341 0.35575966300530126 0.1865266191090448
0.2400295670354547 1.8562472570170236 0.35575966300530126 0.19287099074176392
0.15040186400273362 1.8593886458582642 0.35575966300530126 0.17958970546411326
0.1050546732689812 1.8475718970028776 0.35575966300530126 0.18278812240133455
0.20949302310396128 1.8587211073130951 0.35575966300530126 0.20612005453439397
0.18148473543475707 1.8439786014486468 0.3557596630053012 0.1925775466786797
0.12383097017757673 1.854356057452207 0.35575966300530126 0.19631110304070098
0.14086490332740556 1.8385012201037285 0.35575966300530126 0.16957495747890755
0.08700818119054816 1.8528218855455711 0.35575966300530126 0.1664089577994986
0.13905105050776004 1.850720977813809 0.35575966300530126 0.18471229488293264
0.16302898965087423 1.8426643506461162 0.35575966300530126 0.2027178054004165
0.11873835996521576 1.8428028825165619 0.35575966300530126 0.19211041477876625
0.10550668014509818 1.8362003469693031 0.35575966300530126 0.18492087938198448
0.11297288226991609 1.8627698481522885 0.35575966300530126 0.18419628802121352
0.25563846285363695 1.8744392156126493 0.35575966300530126 0.19402513350465342
0.07969236076488423 1.86164148679019 0.3557596630053013 0.17055507386197694
0.19393639451836417 1.8645596972754022 0.35575966300530126 0.1830541628945817
0.2916860313217852 1.865857107898165 0.3557596630053013 0.2075992859195304
0.28993187096702144 1.8766911392592767 0.35575966300530126 0.21315351879071887
0.3040283561199223 1.8724731783416633 0.35575966300530126 0.19797871497280814
0.22126919937391312 1.865656641531896 0.35575966300530126 0.19908943728461903
0.1324887031796589 1.8606942525303425 0.35575966300530126 0.18862560941702983
0.17494587745728035 1.8669359783297959 0.35575966300530126 0.19296551210235177
0.26589280298777035 1.8748019922038563 0.35575966300530126 0.19062242068953933
0.09271685424502082 1.8642413902917185 0.35575966300530126 0.15998734995953542
0.13528375209151408 1.8809088184699796 0.35575966300530126 0.18420653080299965
0.18077191317842953 1.879411685116362 0.35575966300530126 0.19393758062841884
0.20657263434597356 1.8819815609919959 0.3557596630053012 0.19685536251457858
0.06935350518984397 1.8779300636120815 0.35575966300530126 0.1899308557769703
0.08433715987075655 1.8725227251052858 0.3557596630053013 0.1651577077290949
0.13217187073141248 1.8925456818135902 0.35575966300530126 0.19208623457148555
0.10222252211801783 1.871019550617352 0.3557596630053012 0.17228992319061348
0.12529508832368283 1.8744198166877308 0.35575966300530126 0.17997506446748865
0.2614002358055152 1.892186815145605 0.35575966300530126 0.20593915150089065
0.16138349433226024 1.8877754051908004 0.35575966300530126 0.18061110831172442
0.17274100542673684 1.8864014223503556 0.35575966300530126 0.1914771893044759
0.08553595643222028 1.8935301946733314 0.35575966300530126 0.18726641591412027
0.2428938805376256 1.8919953032958 0.35575966300530126 0.194575153485779
0.31559174721060834 1.9303174939223346 0.35575966300530126 0.19869368873718837
0.20187139645037694 1.9077650038227874 0.35575966300530126 0.1917450531427342
0.1715001054666853 1.8995323735202123 0.35575966300530126 0.19229168121889445
0.31592695476220684 1.9028085103626333 0.3557596630053012 0.2117534451750747
0.10333883371271482 1.8942596387805055 0.35575966300530126 0.16931855640619814
0.21759712114520063 1.895480885840231 0.35575966300530126 0.19844690180090377
0.07630804692729978 1.8993448940899866 0.35575966300530126 0.18249483084588772
0.2415563472318781 1.9205467703739911 0.35575966300530126 0.19068264914507957
0.32663514108053837 1.9223855400769567 0.35575966300530126 0.201312260581085
0.310797892458126 1.9158311456213672 0.35575966300530126 0.19289672553092926
0.25739419837194916 1.9037905917013676 0.35575966300530126 0.19018701648532035
0.2296509924430615 1.8987113835183709 0.3557596630053012 0.19901007273844554
0.27987495883952557 1.9205813961484106 0.35575966300530126 0.19155077673847012
0.2999758177613263 1.9140784631617271 0.35575966300530126 0.18591438642324712
0.12144492040382654 1.8970098513397189 0.35575966300530126 0.18629461164084016
0.28973937367162805 1.8980435652892695 0.3557596630053013 0.20879810110680916
0.3372280499817138 1.925260826293357 0.35575966300530126 0.16468815318480462
0.3212818051528893 1.9126754441522047 0.35575966300530126 0.20713977916960133
0.153259594203262 1.9052991410808986 0.35575966300530126 0.1852510867692725
0.057197959263726394 1.932918824733642 0.35575966300530126 0.18154766966136607
0.22633216271409035 1.9206951513485844 0.35575966300530126 0.19081047373693602
0.18776856425801766 1.9338264953865256 0.35575966300530126 0.1868402349003408
0.030162288531985246 1.9247081067884007 0.35575966300530126 0.2039234066423681
0.08863904004264739 1.907143670155299 0.35575966300530126 0.17165931023690156
0.1751631498682996 1.9295531911261246 0.35575966300530126 0.19440620214688828
0.09835872780030233 1.9330259036626058 0.35575966300530126 0.19680595653937594
0.23518376203577773 1.9340797144739694 0.35575966300530126 0.17510698125031224
0.1187233802024491 1.915912853322652 0.35575966300530126 0.18261747182549026
0.16010117077313749 1.9321423042937735 0.35575966300530126 0.1932832618542752
0.21140038906528857 1.9237535516881286 0.35575966300530126 0.19663463680158355
0.20107903638031316 1.9305596761295138 0.35575966300530126 0.21268224675764857
0.07697540581505619 1.9199279648433862 0.35575966300530126 0.18361881918812886
0.18728372320820175 1.916342417597504 0.3557596630053013 0.18235733335883764
0.16003867145395373 1.9170717631415881 0.3557596630053013 0.1951835397877987
0.13558190853435548 1.9324884093333736 0.35575966300530126 0.19305101913328993
0.04321105521364607 1.9118734366319186 0.35575966300530126 0.18315601062932452
0.06023729178133208 1.9148824051204796 0.35575966300530126 0.17028442166534774
0.10925648460658599 1.9402614116181855 0.35575966300530126 0.18684989728539916
0.3530647326466489 1.9611766883357165 0.35575966300530126 0.142631307919174
0.3156039852538202 1.9571878054112937 0.35575966300530126 0.1820776098701876
0.12097416144243764 1.9385688179101996 0.35575966300530126 0.19954775138697925
0.28748249170879264 1.9401597611513541 0.35575966300530126 0.19448895337379696
0.2879450984049936 1.9569001784076367 0.35575966300530126 0.1936279217688216
0.3431905818398306 1.974171970521084 0.35575966300530126 0.20384266096375958
0.22653579873972524 1.9515704716164501 0.35575966300530126 0.18600231642235968
0.26522533018409933 1.9588424515444625 0.35575966300530126 0.17874024090680937
0.07605502628381675 1.9420333935289573 0.35575966300530126 0.18441385765881738
0.24928042369721268 1.9437549158649494 0.35575966300530126 0.1758465788580285
0.20611315474091707 1.9471124365216959 0.35575966300530126 0.20098100564175778
0.22221457721762997 1.9360261957758804 0.3557596630053013 0.19167719949345943
0.3441467836824669 1.9507919037263226 0.3557596630053013 0.16877726715060323
0.27376282182311024 1.9455627666479332 0.35575966300530126 0.18843787046045002
0.03249363298121052 1.9357357213804178 0.35575966300530126 0.21132933951762106
0.16892389617106152 1.9469565930266481 0.35575966300530126 0.18118494186694029
0.245264522158295 1.9567050438975957 0.35575966300530126 0.1832918829097244
0.18516567185489105 1.9443751939633631 0.35575966300530126 0.1980156444453651
0.2768792941437751 1.9555171423184001 0.35575966300530126 0.19371121149235412
0.14672878582608267 1.944149224688821 0.35575966300530126 0.18764922827163957
