x y z curv
1.6746433995620351 0.40131169548027884 465.93226895778116 0.1674740107899677
1.6756603731566087 0.28814642909573907 465.93718254968144 0.18032117380519305
1.674682756631479 0.3462285216955717 465.9467980563494 0.18377668333815547
1.6736361073372996 0.5364363053911074 465.92088740072757 0.1331233711863173
1.6723649073183549 0.4575990318513346 465.9770438333455 0.09079735265479492
1.6755136859729012 0.3185858553655657 465.9324816616047 0.12317829690022566
1.6723062702064746 0.47019998743462393 465.97504223034844 0.1393228589430072
1.6728299900596504 0.4695959321941579 465.96126257494257 0.19951273803588102
1.675069508301736 0.40546978712570053 465.9197426684457 0.14380556678031725
1.6761737703409527 0.2901040296322784 465.92295342867476 0.12538669359379687
1.6731011714994264 0.4804355464642705 465.9509736025223 0.19432611298184876
1.6734238795109613 0.5183176364724763 465.9316645173219 0.1647203873382255
1.6740004090674636 0.43640974120742393 465.93947079594847 0.1657603562021389
1.6741751794281745 0.3454035755705823 465.9605518352935 0.17124290643739953
1.6762298986997144 0.25618873003994524 465.93104953250287 0.17445524977921079
1.676142106635803 0.277501598425622 465.9273608187159 0.1554375973527192
1.6735523071167315 0.44495327931696393 465.94899091724216 0.17701066300036972
1.6727691794182415 0.49388791967260953 465.95601265717755 0.204794539656246
1.673935495165452 0.5240665104211052 465.91641068325885 0.15039760189433646
1.6742393629281986 0.4207100661919727 465.9375455626875 0.17623942930654884
1.6738766404917875 0.45132890376858037 465.9385485326033 0.16685905024298872
1.6730989037304558 0.3982549573404143 465.9742745953149 0.11316181635127072
1.6730982710861495 0.597901581732012 465.9178315884859 0.1225944437487955
1.6758378924793544 0.32346761016164954 465.92246512119516 0.15354029915978964
1.6728008973325896 0.5232636722191145 465.94686034523374 0.20207119893788641
1.6743002731553474 0.468942043099729 465.9222831256841 0.17880576295478384
1.6753594546336794 0.3024845068740016 465.9411434123813 0.1711650196675472
1.6749218223483568 0.41765094751794896 465.92023180358876 0.1652496433971154
1.6742254597668973 0.45807705544038524 465.9273485594447 0.18311467337336734
1.6727106149222202 0.42548885464515335 465.97691584189215 0.1164750257482843
1.67470296109563 0.46070683060723616 465.9138855167378 0.09278830449245806
1.672884234546955 0.6254402435754733 465.9157450384142 0.1242415157719944
1.67582612818698 0.26921200333049355 465.93812191961524 0.16434540700084957
1.673175599820871 0.4188263661375837 465.9664140456091 0.1456997549150312
1.673778692967641 0.3807875083520872 465.9611066235764 0.16797998281821888
1.6764096016593824 0.2659738760124405 465.92349550212714 0.17061767186007507
1.675354693227932 0.3353958665168495 465.9319629449163 0.18015968293785933
1.6737025084596422 0.429728319334154 465.9492955622938 0.16909433335059712
1.673842216526893 0.39721237053350017 465.9547695935954 0.2060180666705614
1.6747066842874139 0.3203343979885098 465.9534835196432 0.1793204686717236
1.67327297781454 0.5553644386706557 465.92520733340024 0.17503873811677587
1.6731076931896065 0.4338069039077423 465.963986414179 0.14732720637579222
1.6744918332232301 0.4298032089873888 465.92824890492443 0.14306256166030373
1.6766392009998856 0.24166681567306728 465.92425360766754 0.14884461119536463
1.67287711679244 0.5067093245911917 465.9495116171737 0.16940135610016066
1.674047921698643 0.49851080201508224 465.92064307212263 0.14200378662424457
1.6749017424179655 0.438873050360082 465.9147650899499 0.11782393969141526
1.6726883734720597 0.5469439658373877 465.9431609142684 0.20881948211953247
1.6737874898778964 0.4631775935884708 465.93757246682037 0.19813603419964876
1.6746256586934463 0.38897953787957906 465.93622904798497 0.1940014118293347
1.6743291283081416 0.3570617908782831 465.95315412193435 0.19748138199375903
1.6757266495883338 0.3591382453059781 465.91534071248907 0.143735075177079
1.6738120467198203 0.3651582781248499 465.9646380998862 0.05928086328521734
1.6728373668260919 0.41202810387527183 465.9773462000909 0.0883120156612211
1.6749462846602208 0.3344718597714631 465.94310315363964 0.11820569460804026
1.674172498761861 0.3695514505401306 465.9537942469492 0.1781161391948624
1.672336737110094 0.4340797131930387 465.98444545054366 0.11326722644328015
1.6723719168913511 0.4184600063744767 465.98792559316325 0.152469553838796
1.6725112349340938 0.4448466471653607 465.97675242228564 0.0765722760203352
1.6732947616956297 0.4971139616524713 465.94110024429347 0.17106608634086726
1.6732493291662156 0.5749439181242272 465.92030021295744 0.17896956136096276
1.675167574399282 0.3681907668452299 465.9276729209734 0.17645347195108094
1.6737647655431556 0.48172940788573043 465.93293134780436 0.1914429766481965
1.6769125883087383 0.22302736956801464 465.92224252462245 0.11405937679557254
1.673031703250964 0.6103473576972251 465.91608512316134 0.07806971428471796
1.6739859004362365 0.3283692697747356 465.97041084993447 0.06450787828543617
1.6732839931203227 0.3724329338966578 465.97664675319703 0.07014586924324319
1.6748765822763878 0.30575349970348625 465.95308135887024 0.17215842632795925
1.6771481508560078 0.19490981353549464 465.92391923373975 0.1712641295974926
1.674962877565097 0.2819055926297362 465.95752664411646 0.21959766150132345
1.67680278022729 0.20638317858321054 465.92987428750314 0.1364197310209529
1.6759486171580147 0.2359724020251686 465.9442590179939 0.17121625487168937
1.6736401461948864 0.3473526689829548 465.97425236814024 0.08983667023100139
1.676107435652125 0.24655382984405613 465.93703628044454 0.1518416274452286
1.6756330470387766 0.2603535654760647 465.9457700981455 0.1743432245960922
1.674681156767097 0.29479115376858084 465.96138691219215 0.20111717122847278
1.6728140319686398 0.3874998022984659 465.9849043061701 0.0419185012329335
1.6754326392020684 0.27754947025913934 465.94624552621724 0.23987628456520158
1.6698385763932784 0.24359725661928283 466.10470643580675 2.2263427923138029e-10
1.6704213947882207 0.38138391900193924 466.0501740517512 0.05156244606808019
1.6696155496912035 0.324051032699768 466.0877965633704 -1.2928080672905283e-10
1.6718281454540047 0.40022415056422633 466.00754281505834 0.20080124739318375
1.6689419589014252 0.4166502675712097 466.07938409312305 0.1052443705581724
1.6707375393336723 0.4098080984692498 466.0337316363357 0.17506377503403878
1.6700044291884533 0.2790412109859088 466.0902564066075 -2.2719028445004093e-10
1.6703247050359966 0.36438567398414673 466.0575585824993 -9.979233200469637e-11
1.670296589199939 0.40316897037067556 466.047302615117 0.12421741356742413
1.6697772984063823 0.2916511726611777 466.09269977043743 -1.9288164526238094e-10
1.668771311407198 0.3526328404613803 466.102066309528 -2.597600128875028e-10
1.67100045062126 0.3727956301599396 466.03726185274854 0.10044994352480578
1.6693186430754277 0.2885436949268892 466.1057382580299 -1.7349459838293274e-10
1.6699676609431662 0.21532781093754016 466.10930380677 1.4863374128009185e-07
1.6703591958276482 0.2681947152345497 466.08392973082186 6.456027613478674e-10
1.6706167619400514 0.313646429100777 466.06420998380725 4.1445483344667313e-10
1.669787648113001 0.4040405768386348 466.06054526698733 0.05250947011306261
1.671353326878529 0.4001581649492671 466.02014697817935 0.20236507433144849
1.6700041484587456 0.41368149900702084 466.05207202568397 0.16506386660173408
1.667646346309153 0.3302539738619948 466.138232357428 8.248692107981691e-11
1.6706428545209357 0.34436431054255856 466.05480500011106 4.0947706046391846e-10
1.6676527853069714 0.37174126275121205 466.12629347691285 -1.832551792223614e-10
1.6709401472422125 0.3249797441691503 466.052423610199 0.04699774259292689
1.6719223296643855 0.41100355523246196 466.0019887207651 0.19118944395704374
1.6708918427556876 0.2846853680058705 466.0651337894684 1.1341169784303218e-09
1.666683019867075 0.38105406444995277 466.1493562322393 1.0944780174037116e-08
1.667031811275475 0.33755855289296954 466.15244909581 4.376293320999274e-09
1.6659291149117723 0.40658855253881454 466.1620960185527 0.12422438695784627
1.6681862554690903 0.30548563667509143 466.13094737568366 8.126882280690454e-10
1.6710774716872616 0.26378227887823474 466.0661428789632 1.343789966505272e-09
1.6669564333479305 0.3552372586315201 466.14943233814574 2.307892936631018e-09
1.6671559092317583 0.38841087356020776 466.13473510251504 2.51278382923203e-10
1.6696086144864575 0.2760708851231709 466.1015903488617 -7.923325869733564e-11
1.670192476457959 0.33987606680522353 466.068015757702 -9.680193845514177e-11
1.6686090267616742 0.28661563030419634 466.12509411680725 7.277310635104003e-10
1.6678785878095725 0.4088516997785212 466.10978172134025 0.09655395808964552
1.6700395794855263 0.3572383259291406 466.0671434669437 -2.718210404281517e-10
1.6682730827874748 0.3488377117228859 466.1163487766082 -4.577373016239012e-10
1.6676443061138866 0.3841190130855853 466.1230071743082 1.2285372008455115e-11
1.6697906335048782 0.3375226241203739 466.0793344995957 -2.94049170646533e-10
1.6683181332513355 0.37922003856551934 466.10653648188884 -2.835966888057646e-10
1.668371191999101 0.4165014753245298 466.0945549320977 0.09730607191863633
1.6695803444175925 0.3918115039974879 466.06950889388867 -2.2343267623201993e-11
1.6673338689990076 0.34409155927412627 466.1425896736424 5.758102648087285e-10
1.6711321283827378 0.3577870789924875 466.03802892708427 0.15747688499141319
1.6693130164733605 0.2594918305341562 466.11412819520456 7.196187454511612e-10
1.6713152481860893 0.31250861061235324 466.04601879925633 0.09668152378357717
1.6687393491457752 0.34031609193485785 466.1064072415372 -2.137322542548003e-10
1.6712038826284223 0.3435917486973187 466.04015364532 0.1347281261508466
1.671351939612008 0.29770733064538946 466.04924476814176 1.5349826888052559e-09
1.6663550354618206 0.3725410218692507 466.1604645153297 5.22488310385936e-05
1.668677320828117 0.36490606279223126 466.10107620476504 -2.5761949962882744e-10
1.6670748255597512 0.4099823503116791 466.1307653637445 0.13739258246635758
1.6692460237233484 0.31075862867470383 466.101361643842 2.0643433272170102e-10
1.668112348789844 0.39371233859522375 466.1078801037231 7.427038822219166e-11
1.6678006470727962 0.34511187614347333 466.1299279265568 1.7412988658492122e-10
1.6686077555892656 0.3956259065684151 466.09420615138674 1.5202135294246572e-10
1.6688809472535384 0.27140395901490605 466.1222015621975 5.414175241497513e-10
1.6708092505196555 0.2512579270402432 466.07680493045206 9.302311142909409e-10
1.6716066247259904 0.3558325099073401 466.02600645189716 0.24726420539152427
1.669524682660479 0.3506447961800116 466.08266152752174 -3.0910505149696825e-10
1.668954559350285 0.25417592093781555 466.12513728903997 1.9162623624826117e-09
1.6667187872967717 0.39726714151934456 466.1438092156592 4.045509690597015e-10
1.670497076619868 0.2448187670466359 466.08690586965736 6.718731703688468e-10
1.6676329523626985 0.3981331360391582 466.1193328936498 3.804289200423312e-10
1.6691123088281352 0.3987119732075638 466.0799571765018 -3.950546922354162e-11
1.6693427381753634 0.3685491041741259 466.0824054076909 -4.092196477072167e-10
1.6690635049124116 0.3290367542556481 466.1010147105518 -1.543111420345557e-10
1.6705825089893243 0.29911501737044777 466.0692398397472 3.797824451103068e-10
1.670516566059253 0.2788411897756935 466.0767385472662 7.993061306370347e-10
1.6661873224040158 0.38872126677372276 466.1603202247805 3.895378162188161e-05
1.667434557735293 0.35767317405740073 466.1360683018122 1.6302928092963312e-11
1.6698056576995572 0.2613553105212596 466.1005417544644 1.82433103541601e-10
1.6713885176534198 0.3830930356771198 466.02405488244074 0.1840915770003532
1.6654752540696505 0.4149054777775833 466.1717667987919 0.1652616629861612
1.6685882808387338 0.32907111929554456 466.1136011564405 -1.5937823895084006e-10
1.6707294538934687 0.19836333901019926 466.09392398747866 0.00012409488155161634
1.6715109240584825 0.36977445228404593 466.024588328268 0.1612080678973513
1.6700860274410725 0.3921817637158822 466.05600033406535 3.6197426897659686e-11
1.6699396141001484 0.3012315952359069 466.0856798978384 6.895974160621089e-11
1.6691140597416254 0.35844891476638613 466.09133171386674 -5.120824048321814e-10
1.6661616206236594 0.41564339079594476 466.153364789738 0.16650287300038
1.6707882469371111 0.21395919103774685 466.08794173954675 5.770615997081565e-06
1.6689395924296626 0.37518579018756415 466.09120855741025 -2.931187080006186e-10
1.6708352744165476 0.3975188543336375 466.03462703475 0.154484748995696
1.6699439887947631 0.3768500169002614 466.06411415760647 -2.8016511171738764e-10
1.6693197657036518 0.340411197016942 466.09099585953595 -3.960742770529379e-10
1.6686744163490288 0.29884302076981206 466.11989251396005 1.1517347152301481e-10
1.6687783841829802 0.31490938901257354 466.1125794063296 5.7191973400256355e-11
1.6680337499249411 0.36279882317679235 466.1187323016157 -2.454421625646186e-10
1.6705067379126985 0.23129556853785224 466.0904857555321 8.968565352196441e-10
1.6693789172559739 0.38123763762138946 466.07784724567784 -3.361796757874522e-10
1.6696628624220076 0.22921448525174995 466.1134436660767 7.655674269509867e-10
1.6666027731204105 0.4099454863269639 466.14328794762764 0.12460415013864257
1.6717811274181444 0.2755548170287634 466.0440812102639 9.640321887101366e-10
1.6744829437606066 0.2850864083368022 465.9694117676144 0.16100187766129004
1.6734473037086195 0.33632766458861046 465.98250758199464 -1.3982692549345865e-10
1.675765664401962 0.20445621749568002 465.95804605834724 0.16801427817179215
1.6720508486668644 0.35896311491545346 466.01330572473626 0.19902297251437231
1.6725229991059691 0.355900880831859 466.0015942129057 0.18442915320182496
1.6720255210456068 0.37032604742375574 466.01076664586947 0.20667913642513594
1.67247642099445 0.27561060053005215 466.0255435241552 0.14378479559614704
1.6747942379268022 0.2343473240825597 465.9754697564368 0.07012437301896991
1.6724172303083642 0.23545347056086904 466.0384779535294 3.824252891534146e-11
1.6730579842783508 0.31335473080631193 465.9993760929641 0.10681334700100385
1.6723143772893991 0.3972316824661706 465.9954620845241 0.12177189603904325
1.672457463326396 0.1899603090458456 466.05027302824556 0.00014559152578500078
1.67292806608166 0.22743796489733986 466.0271368389284 -6.549474648688087e-11
1.6724241251180763 0.38502902423939794 465.9959897953309 0.14313801950677887
1.67229013297621 0.3472399490384759 466.01024710142235 0.1768855774631915
1.6728623823660134 0.297855737861923 466.00897031126476 0.09758672673036105
1.6733275034922372 0.3007998389851808 465.99574727999175 0.08281612198734827
1.6757037093228306 0.18960788201474202 465.96389603627705 0.1485510706416431
1.6752042325391197 0.2588311813366351 465.95762314496443 0.20579567654492806
1.6738755558573695 0.3157779464260362 465.97691146472437 0.08070094271648375
1.6736557458623107 0.23928018737577902 466.00440285631146 2.094083611394197e-12
1.672381918055731 0.2205365339477108 466.04363759631883 -1.4410294690514485e-10
1.6718461387704653 0.24094513679075139 466.05213803806896 4.864487574505121e-10
1.6727544220625958 0.28605793090903137 466.01518303958676 0.15274890357566798
1.672637724220994 0.31319818974225844 466.0106156650639 0.19067469315458815
1.6719659029735021 0.19485081037463725 466.06198451106593 0.00016036555390495883
1.675255488012307 0.2153096657492598 465.9685669517014 0.1383854399254923
1.6762308533909924 0.18605616109352402 465.9508579921577 0.1553677143169337
1.6721972588188316 0.3298239407784632 466.0176469474038 0.20749000214313237
1.6723932075058594 0.30162548474719864 466.0204024507143 0.22779632778003683
1.6713975577885845 0.2502960288829961 466.06144306113504 9.58423633183043e-10
1.6743956906738804 0.3049621926454123 465.9661146279406 0.17051239480480415
1.6749006358520533 0.21018948256137143 465.9794679924236 0.06555013506200193
1.6761227444810047 0.20904827583570315 465.94723503781967 0.18498510558334438
1.6738016283149881 0.25660047264337094 465.9956179969825 -7.78866087845093e-11
1.6748183475288962 0.2681237216410336 465.9652745151996 0.13795417361406576
1.6739380421920982 0.22886895227810694 465.99982738314225 1.516878872675162e-10
1.67281381065514 0.24125063267264343 466.026273846549 -2.914059852719377e-11
1.6728579253331186 0.1984998147668644 466.03718990015875 0.00011493538434189565
1.6742980419013722 0.2743368533946817 465.9773776628382 0.06432148105791202
1.6733642239367283 0.20511005197047472 466.0218330489634 7.685400912815662e-05
1.6730490427676128 0.3309527011855184 465.9946370477285 0.12267806250432298
1.6737607936809233 0.18540909192724633 466.01684086405567 0.00032838797676982976
1.672264885865622 0.2625865165272353 466.0348622079732 5.772632483117147e-12
1.6719500313108084 0.3156582023965059 466.0282393340175 0.1682389048838823
1.6730463242958034 0.2590447988254546 466.0150471932503 -3.8876482683311484e-11
1.674572388473182 0.2585543204096146 465.9745331284714 0.17418235992879563
1.6723644292558344 0.20117181381715804 466.0495804081936 0.00013655949938558306
1.6747813275796588 0.18874590541549546 465.98871113437383 0.0005341554182983992
1.6731007535250702 0.34937939786972894 465.9880478993323 -2.6511761852664384e-10
1.6714230109736259 0.19546275198332827 466.0762735224041 0.00014538801563493645
1.6729508755931306 0.362548718238489 465.9883158121094 0.05044493888521051
1.67577805204337 0.2224642460450339 465.95262284949615 0.1573507299813824
1.6734658570134675 0.2763402403617678 465.9989795976553 0.0586282341262495
1.6740093466643455 0.2030417272106122 466.00523262490344 5.848146540248636e-05
1.674295560869831 0.24935703461897174 465.9845088027471 0.0890521692966662
1.672866206173863 0.21257792803631176 466.0329875910953 7.81349496709653e-12
1.6744247703177824 0.2113138746381201 465.99182655087617 1.4992834855561105e-05
1.6730419569935366 0.18521226058067589 466.0360456071278 0.0003060853913395472
1.6734796004164105 0.32403118530576125 465.9851250467774 0.08125966433089071
1.671672571726504 0.34284770640698875 466.0279405596655 0.22211299497708675
1.6714308235760393 0.22770759886333586 466.0669455853725 3.20135711668106e-10
1.671019809106171 0.18790185238325588 466.08915285818557 0.00026628299869551356
1.6752681021118494 0.23955039552398044 465.96137491394654 0.1443393397667167
1.6713522025482472 0.21095143237683106 466.0737791193805 2.8545135578999066e-05
1.674307011211201 0.186232394972689 466.00205733342443 0.000675705003443452
1.6744623854870384 0.19954548216045132 465.994152978382 0.000152360885186596
1.6738318810652848 0.2972238682581539 465.98332257056603 0.06719359557757071
1.675357822270823 0.19948415853929535 465.970316803619 0.14325925060110883
1.6713293691720286 0.2762537108137003 466.05591791902503 1.173288680863215e-09
1.6742618699348202 0.23614379399364832 465.98914339857555 1.0647212727379887e-10
1.6748863005888825 0.24766381974058843 465.9692509939314 0.1518449265997665
1.6712288100521158 0.23973072107517557 466.0689265164127 1.5493371571155876e-09
1.6725609720132657 0.3721921011976561 465.99597500401745 0.1397413192023834
1.6718567224249852 0.25533090638198985 466.047787369898 1.0749942375404768e-09
1.6733774368504202 0.22590818847906352 466.0155987288415 2.3115938872267564e-10
1.671691863581517 0.2869782837596031 466.04322820579205 1.0385440520225197e-09
1.6740599230423208 0.26610954837565337 465.98604783592583 -3.810594194385258e-11
1.671821740130151 0.3014602818186768 466.03567248076604 0.11605593051881176
1.676954714860479 0.18472422464706312 465.9325201444857 0.18758231636791906
1.6752800936243348 0.17078994703240125 466.00864117934645 0.0020710222812929334
1.6762711082697987 0.17322030029944793 465.9775224411393 0.0787282799477206
1.6743484804246576 0.17174335391772322 466.03025910225074 0.0009251488144837317
1.6721781984991326 0.1783775598701129 466.07021369304505 0.0011312214731980326
1.6753678099701037 0.17755295921645056 465.9904465553875 0.0010988644583163976
1.6783434797209469 0.173999326553596 465.91961098016156 0.17376960227757626
1.67794423663167 0.16975810018227322 465.9455405632456 0.18409298276439273
1.679630532296619 0.16333103066161722 465.92290527987245 0.14429035315972027
1.6773545702060468 0.168347527453873 465.9617360387544 0.18231370877696718
1.6673059486639277 0.302321441744985 466.1552307330646 2.136011603348083e-05
1.6672811302355615 0.2889444969456453 466.1597198661128 5.252195737612923e-05
1.6677140576054905 0.3047499402822894 466.1436747087302 8.091920910584087e-09
1.6700572580570237 0.1955797884063686 466.1125611845847 0.0001183998594612821
1.6677559058278786 0.29102818775589623 466.1464883376001 1.6912810860973236e-08
1.6667116203038779 0.331574090317711 466.1626750681204 7.738390741143645e-05
1.668533341597091 0.24061839041608685 466.1402264161485 6.8147341018000995e-09
1.6673099364509487 0.314892075383078 466.1515267395813 8.083180271148109e-09
1.6689633968898199 0.23554763011952096 466.1302327142784 3.837741449144615e-09
1.6687182809510355 0.21082965761093284 466.1438305398498 1.761659299121602e-05
1.6694459854377794 0.2151688224138451 466.12322229838935 2.382763628391624e-09
1.66852099722018 0.26360139846053343 466.13397692164085 6.468125457394097e-09
1.6691407102765545 0.20535832424446732 466.1341544358569 4.607214965696308e-05
1.6701435504277526 0.18201463963973286 466.11414720429593 0.0009532916944844658
1.6687004618698085 0.22509307254340183 466.14022239575326 5.09837396492669e-09
1.6675385193652046 0.2758743997016802 466.15661081671743 2.455029219836839e-05
1.665418018139521 0.3966482453808258 466.17847655354524 0.03268462297384226
1.6683118546813822 0.2545312802020468 466.1421387864498 7.1881377197409164e-09
1.667880881014038 0.26293716155613645 466.15120237705696 6.248600760938112e-06
1.6682291360406256 0.2795374630278601 466.1371830975322 2.958512867085954e-09
1.6665988622266923 0.34559843145681096 466.16166195097503 9.285778833489152e-05
1.6689614689002532 0.1939298608860261 466.14219553109626 0.00013449593050834916
1.6696603021646637 0.17699513240422743 466.1380773748872 0.0008468900520174636
1.6720544509521855 0.1670294257803386 466.1001782486419 0.0014112080375257496
1.6745958513012926 0.16009990352914222 466.0514102912418 0.0019420240791692257
1.6735587661202975 0.1715967680553699 466.050841284504 0.0015217295143007568
1.674647379295994 0.16477363482760993 466.0390538082829 0.001965896980274709
1.675820320311333 0.1610021436052696 466.01789945091934 0.0012985590174608278
1.6770788526288845 0.1623859620961093 465.9823785079815 0.00197275677016265
1.6721270153680647 0.17301329568545581 466.08418905985894 0.001248277450049351
1.670785325262954 0.18140259182064214 466.09876420174874 0.0006380444389249674
1.6717944835736693 0.1645347871669193 466.11273114466053 0.0015229761833057413
1.673332831718422 0.16645865370474677 466.0687639477617 0.0015540009519775856
1.6710509602856043 0.1582734297131127 466.14657073516594 0.002021823333784556
1.673461560958471 0.16014599812886365 466.08037078051865 0.0022201283816708182
1.6706501400270315 0.17085202544391276 466.12714141987135 0.0011401261415234318
1.683276918369692 0.14399987076539975 465.94279829500863 0.1587722290003107
1.6812412008076345 0.14838532270791427 465.9660469182388 0.11132118171454156
1.6828706814559076 0.1477970585313425 465.92775053834436 0.2070825094245848
1.6795207801890573 0.15916214112518975 465.93800223215453 0.19717816281932435
1.6769324926341174 0.1548125582095513 466.02833370501276 0.0016218431518533502
1.6725085626253515 0.15602564842940092 466.1237203139044 0.0014010223934621995
1.6805850608261932 0.14692217468194058 465.99112511730254 0.0016078601572450352
1.679816046878246 0.15208326414502482 465.97785153840084 0.07357713874878756
1.6799480114386838 0.14705930045574744 466.0050873884839 0.0018997094253131173
1.6775327863916139 0.15717171408302547 466.0001696918049 0.002269863114547457
1.673510207424009 0.15572546299035192 466.10227727145093 0.0011805205478805803
1.6758243310659697 0.15208944567320865 466.0704830240368 0.001695292803481217
1.670789974917966 0.15506264450697296 466.16943363744645 0.002165128472520605
1.6741891431508147 0.14122613987243293 466.1739854584555 0.0031289329663499567
1.6696264883132261 0.16585540189526857 466.16361377578187 0.0020750495469286584
1.669522095287859 0.1734560571169272 466.1498698466796 0.000795344657727812
1.6684576822080006 0.17884105674036846 466.16049603661463 0.0006662869835298248
1.6782405005553682 0.14154833918700188 466.07797340728484 0.002025744555782225
1.6765293959764223 0.14629374065873202 466.08907319646744 0.002123579337505092
1.679255314784596 0.1433124540277495 466.0437689330337 0.001972570597482422
1.6744274998559678 0.1451728636213601 466.14463680520754 0.0015552994925182922
1.6788373637681273 0.14145176459904127 466.06469814919353 0.002133811457907425
1.6715481547106246 0.15416381394242878 466.1572477936698 0.001979465199543282
1.6761082487786738 0.14328186504207974 466.1170215747621 0.0023731844676257783
1.675293930734275 0.14442944000685615 466.129005120275 0.0018200154050629859
1.6776319468446435 0.13939168492619303 466.10511352456695 0.001520778812151998
1.6879707517342506 0.13290675961604861 465.93140048752304 0.13803446438637257
1.6895164534613452 0.1275590380237598 465.9512629551158 0.14929883131726737
1.6869770100511878 0.1311014355273487 465.9748148744399 0.002521667412075733
1.684531207263564 0.1379517174376284 465.9606540764006 0.15141685821065373
1.6897151366303054 0.1259772792697322 465.9633993696084 0.12690501231808418
1.6900551220117843 0.1226859056529494 465.98823923943615 0.0023057369415724854
1.6830601551822668 0.13560880662967795 466.01456557821433 0.0028733538814560483
1.6815677237633968 0.13124264995153914 466.08508822825354 0.002730283141601106
1.6840458667225162 0.1301444803549082 466.0440519927105 0.0027154648919653942
1.6775710581218009 0.13377165233558896 466.14436424915095 0.0016496052034803935
1.6766373017567726 0.13419242136653084 466.15976295207486 0.002151714435308911
1.6837907815068234 0.13203163280086538 466.03211087743693 0.002548723027875409
1.6849785540760935 0.13276559491060333 466.0009586623542 0.002693204672197506
1.6846401742956103 0.1349082419340702 465.9884051853119 0.0019591351395617683
1.6886040880636362 0.12371618590064928 466.0087386603914 0.002428646817821081
1.6814667900897022 0.13471784192818373 466.05550235276706 0.003025443923979928
1.6758969159992516 0.13328206692363326 466.18260217107365 0.0024773922755236735
1.6867158245490839 0.11621968018481107 466.11594901487746 0.0019227179113987546
1.678540183266778 0.12858841419756456 466.17163567717716 0.002531545793756793
1.6822472994167204 0.1238053622436451 466.13886379943114 0.002442767563138267
1.687902320410836 0.11921917541192074 466.0641740657066 0.0019049036505050345
1.6806092687419352 0.12957460070661528 466.12002844783984 0.002137570710159667
1.68434073051389 0.1262229505941031 466.07371043949286 0.0021577073121168073
1.6873439329025355 0.11795720212690063 466.08717658562574 0.002309373794639298
1.683434845861066 0.11864820172024709 466.1614004320171 0.003641972760081007
1.6933489849471255 0.12191988885215578 465.9265502899177 0.15650597942627795
1.6886806498874345 0.10866214510364697 466.16069423927206 0.0027257759749055015
1.6956090550387088 0.09830997220984876 466.1577750179206 0.0023700958130552837
1.690960787622371 0.10756057186743156 466.1328537732545 0.001603365242877535
1.6939722892000066 0.11092758300888153 466.0398605282054 0.0018121132291642362
1.6959249738799596 0.10145575517987798 466.1154587115524 0.0017024659355099232
1.69021331984331 0.10743655739194698 466.1476368775581 0.0017229455430402476
1.6947760767060531 0.10545963504387623 466.0892739313039 0.0017834270647570202
1.689017978380876 0.11350531161277028 466.09820468757437 0.002540704585252155
1.6909913247090185 0.11721083988135221 466.0197882541309 0.002121510389076964
1.6916687957944865 0.11350680549957243 466.05088856739576 0.002227942035623183
1.6969111813866764 0.10321443730649502 466.0773575752635 0.0018219001259503862
1.6996327357279 0.10039745486887461 466.0616469103746 0.002361369451303744
1.7024012568834634 0.09792308340821582 466.04110371686653 0.0035050855776212813
1.6966242575147776 0.10933949796107172 466.01106262371894 0.0014273388857107998
1.6993624480330367 0.1072526596939064 465.98654218831166 0.001926769886701461
1.6965437473275866 0.10808253783305102 466.02715426132187 0.0013853330310459972
1.6969057467075834 0.10128621227869698 466.09993628285775 0.0025458643244166156
1.7034238416933083 0.09891419105605692 466.01130436964377 0.0027057187663093144
1.7005604186712473 0.10417933621168042 466.0010022283386 0.0031180311862561397
1.7000846782053856 0.1079516405871971 465.9655064582518 0.13092354989526617
1.695353170247297 0.11629356235434997 465.9526500584236 0.1587572369880104
1.693340999384086 0.11767753944578928 465.9724217131268 0.062426028471838646
1.698433305663604 0.112614997740516 465.9405829390143 0.21946176260072245
1.698231717644682 0.11474794284588222 465.91572150295235 0.13628390446310512
1.7044887578239283 0.10510021599841543 465.9181870284973 0.10032759165157998
1.7051387138947833 0.10245661399351388 465.9391677507002 0.17815857886865621
1.7007696721535672 0.09189839254997693 466.1453876771355 0.00233929910199135
1.706985216616883 0.09144033644519617 466.05652533775685 0.0021372558851621842
1.706890947867625 0.09732852323069559 465.97838994437217 0.002631927715682122
1.7121576547128758 0.08875324210112576 466.01373973523687 0.0019076980249788627
1.7027868068166225 0.09116691657779387 466.1244257935438 0.0016390166773801145
1.7033821057482192 0.09390647957451159 466.07829768390263 0.0021871501419344175
1.7076592537630542 0.09486931497711981 465.9998758658829 0.002778674541210928
1.7135603514056479 0.09022259407031825 465.9724307949585 0.1301762619920977
1.7073123933383483 0.09787812653253392 465.96451716161005 0.15233685882640677
1.7098964088956934 0.09584804693841337 465.95156270046573 0.2186931901119176
1.709744276578109 0.09755663413962459 465.92886987352676 0.14877502885735655
1.708255120334956 0.08720682533879734 466.0943162323176 0.0017080905954880783
1.7114323662646367 0.0797080852181058 466.1470606288077 0.0024333549814259197
1.7107417611871 0.08526438071129419 466.0825382515262 0.002209539935783942
1.711558544450754 0.08844834043586328 466.02702219421496 0.0015917012111734427
1.7059584138607837 0.08880599490751995 466.1078284127004 0.001818698802297768
1.705530083453799 0.08545335692000333 466.1596834887865 0.002229118907476943
1.7135788151108615 0.08533931123048792 466.0381404175674 0.002772685170744122
1.7119307285210907 0.08018307632428573 466.1330208353135 0.0024716193275918443
1.7204154382268029 0.08473839883701703 465.95232480171956 0.21130517072133168
1.7270155979040887 0.0794610396139505 465.94423913178395 0.1692559981476546
1.725402007076196 0.08183101377469945 465.9289412267049 0.1804471675826473
1.7289209301916622 0.0768366349184972 465.95951815352043 0.2039202394727154
1.7200627513601705 0.08734370981309242 465.91788989845554 0.12248185303898802
1.7195585956316655 0.07692938404392231 466.08027228975214 0.002364671880554457
1.7214393429129786 0.08153203620484785 465.9873329983741 0.002904422328597997
1.7255708228187943 0.07610655712701889 466.0141814682251 0.002387543298560312
1.7144245305701007 0.08275727978215827 466.0605016195027 0.002646917735700784
1.7198951499341122 0.08444888821448528 465.9640792249895 0.07148884863695809
1.7252564070923755 0.07733856965251501 465.9999586225722 0.0026728967396162802
1.7183548029856968 0.07243731663848588 466.1627348788427 0.002204977672459101
1.7182928649269948 0.07636555279416203 466.10514375848834 0.0024417035999477776
1.7266674466516216 0.07014405202283397 466.0885353553725 0.001741610345478488
1.7269087479831224 0.07299674302406767 466.04298311738637 0.0015179939040332287
1.7256427787977755 0.06665881628219236 466.1536963276974 0.002203024540063435
1.7167852067628895 0.07643263543648922 466.1237872791212 0.002031945615623459
1.7232196777781217 0.07549396384652096 466.0539176889538 0.0020144822539917614
1.7250975445372292 0.0679348145105349 466.1418300176386 0.0023284841861499826
1.739030452013635 0.07040029713100732 465.9478295351839 0.1685731969041422
1.7365462779184098 0.07328280761430297 465.9263231827849 0.16891515687102732
1.740132008504232 0.06876582490682348 465.96355387361484 0.12939722458841058
1.7427464386477487 0.0662087935057002 465.97631758449336 0.002315880550549782
1.7292121006195558 0.06684842635835789 466.1114631125652 0.0024499719186554182
1.7269994037894503 0.06764825416628766 466.1224524366312 0.0024600544375874447
1.7309781979250012 0.07432114661825334 465.9731332396493 0.09016867334108428
1.7295380405599967 0.07169013706863997 466.03062594128266 0.0022707576122234056
1.733487888153696 0.06687457927001086 466.06512228612166 0.0026406572379484242
1.7371311674163206 0.06883162500749934 465.99473267614627 0.002760348184209125
1.7329860791385714 0.07082175107048895 466.0074637985164 0.002738408928536958
1.739088977187023 0.05990052132637673 466.11633910780296 0.0026096931627305883
1.7380794849263332 0.06486230875065573 466.04794661657627 0.0020331130145769334
1.7385610691455144 0.06113530034061286 466.10229081897046 0.0017994571395354578
1.7400084231879485 0.055918664813439586 466.1700502161289 0.0021907894993391684
1.7382193300278264 0.06260493747582066 466.0824925761441 0.0019250170083358526
1.7358942221225877 0.06072187355340736 466.1375355246146 0.0015578832799482791
1.7428587713785806 0.060131131921959666 466.07216782448427 0.002232062422021241
1.7497171506887028 0.06554963268102298 465.91930086004027 0.1550002166639566
1.750105549313834 0.06392373209697298 465.9455931723604 0.16367515753043535
1.750788649946502 0.06427992523948554 465.9326206187995 0.15096497417857294
1.7525920309890421 0.05103850847542541 466.142834085189 0.002502127359072942
1.7466275371068432 0.06098929731611283 466.02559243209214 0.0018287818351581792
1.7558175624516488 0.04858311558996443 466.15696051102873 0.003160405233180659
1.7449351258872072 0.05405719426740163 466.1566255998339 0.0020238178519231477
1.7508189271761858 0.053518887188208825 466.11602708955115 0.0015428975424260768
1.746857563428515 0.05674935669810589 466.09505820348517 0.0024079689970699088
1.7450145017131953 0.0610356954363565 466.0384264525881 0.0029338371454957286
1.747225309985608 0.061567082657460276 466.01081587131006 0.0018939635782526524
1.7461135236049783 0.05481494572192212 466.1339171362848 0.002314173449997837
1.759784742976579 0.05444523726544505 466.02478192140563 0.002474716264142505
1.7541892371725436 0.058569886450849776 466.00253342851806 0.0023060428658815313
1.75445232427044 0.05346152647207586 466.0863302179007 0.0016160117088797814
1.7521368511557596 0.05596966566957248 466.0636306930695 0.0024546847783642315
1.754595082992147 0.060993903142665944 465.95829335046943 0.17771859925424804
1.7544062746280498 0.059651466193461664 465.98249051757705 0.0023195573893796165
1.7343028851708393 0.05909653790379736 466.1801336925888 0.0020815465536849825
1.7485971004853829 0.05095289194560079 466.1777301435226 0.0028770640201853204
1.7620550765744993 0.059121944696896064 465.9278998478952 0.19629312827110576
1.6691851137089424 0.14926275881081483 466.20434266565167 0.0023932517175509556
1.6723987806340235 0.14496824022921792 466.18624374198794 0.0023033103966681816
1.6649324327233979 0.16923406109134517 466.2160441727873 0.16812487322338318
1.6672752819960854 0.1645324637488555 466.20003276351645 0.0029196860813809006
1.666439078297123 0.15787379696023646 466.2122146668875 0.0025804294664915507
1.667599100368693 0.17577511247896732 466.1881659459042 0.0013876343971037236
1.6694579866995911 0.15968539851312719 466.18297647090947 0.002556729680994488
1.6639389273590592 0.18203431464766545 466.2158342168473 0.21158475455788564
1.6670734965696334 0.26039833074139174 466.1730491877697 0.00015581600645279037
1.6678876238522706 0.21944045478767651 466.1633145510363 4.248307931306476e-05
1.6671055185102504 0.24902909552957822 466.1755236242225 0.0001785523083621982
1.6674744933633616 0.21236302690962078 466.1764126058655 0.00019359917172207067
1.66739136816358 0.22353434923702392 466.17535997370976 0.000149733443135317
1.66815726518267 0.20007272542300525 466.1617894096307 0.00013432147325523938
1.667495924709431 0.2346081659254039 466.1693270076432 0.00015474204099317392
1.6676922238862981 0.1857525654688025 466.17798459866106 0.00058831271324828
1.6666640887022535 0.2685506159650163 466.1815582471834 0.00016666648697590214
1.6670118857724305 0.23455901364985227 466.1818715759697 0.00013081852629271928
1.6676320398432938 0.19674549819924267 466.17662997921377 0.00033565397525077667
1.665985012833049 0.2419751975488815 466.191177256378 0.00019117653444783645
1.6659951909559065 0.2178633092470604 466.1934517717349 0.0001448653639368892
1.6659581249255697 0.19497292173932154 466.1960434554269 0.0007175937728501179
1.6661464736832494 0.2574248274048533 466.1881654693019 0.00019037787744160398
1.6649143147020464 0.20353137203208319 466.20486141427125 0.0005540000334930935
1.6647993217446242 0.1899006918843466 466.2072645290861 0.0006591886786727257
1.6651856938943617 0.3065386863637593 466.1922307817407 0.0002001961985145331
1.6646138156116594 0.3277664355099562 466.19543702484253 0.0002824512347298936
1.6653866204831962 0.3823659873928577 466.1829221638651 0.00021780525906491563
1.664157313078978 0.2335391791087348 466.2089181776977 0.060954595930234286
1.664880761757137 0.2891775561016887 466.1967579626126 0.0002039389513103308
1.6654143514426667 0.26813389957746747 466.19388792533044 0.0002284592294977671
1.6649460063544312 0.3520059797568049 466.18998186761957 0.00020652689802473049
1.6645838345900774 0.22179357343374534 466.2061254049837 0.12506955254459232
1.6644432055086484 0.2538165616585616 466.2042806769758 0.06531762265698093
1.6661692365995884 0.32075144285243595 466.1799076770092 0.0001401414949260234
1.6665401194741407 0.28166939582567135 466.18105597119575 0.00016412976412683364
1.6659935556250338 0.33269013347508014 466.1811829817208 0.00017412039656484394
1.6675381796248132 0.253273626766784 466.16289928310914 3.66300053627978e-05
1.6668299620986593 0.30675853825753013 466.1665579396017 0.00012028645215944206
1.6679438208760113 0.2305446790336988 466.1586160416326 3.703830545380415e-05
1.6651349984360955 0.4084693352410682 466.1825906102279 0.13129897317683167
1.6656107221357976 0.36782273937242327 466.18143915077286 0.00017620658485735576
1.6670417854132418 0.2803964723777078 466.16833207985087 0.00012160610550211414
1.6658629160971852 0.35513286989094817 466.17837737958354 0.00013831325776595836
1.6663543768523041 0.29739247818761777 466.1815462482693 0.00015984913835406951
1.6679451108813812 0.24615118581884976 466.1542634861835 2.1299369042689353e-05
1.8001170510026347 0.2950555356620785 465.94529594571344 0.30353122975073366
1.7989106487273898 0.28397451356993375 465.9452924762349 0.223156256694498
1.8137014054756715 0.2878501295650238 465.9453080955222 0.278227074405134
1.8203929492210316 0.3018934966602892 465.9453204208998 0.25940514704272216
1.830113825779912 0.2818040021083512 465.9453072740335 0.21293813652558025
1.8309759258537115 0.2935869762084826 465.9453223727106 0.27324607258181294
1.782399988552429 0.3491575492135202 466.15576890063016 0.013534776691108589
1.7701713727080266 0.3410599667238134 466.15585125286975 0.026947841887581123
1.7653517277033632 0.34841915884944563 466.1652940513426 0.008421178033166568
1.76071304771093 0.33475204833245925 466.1585156137364 0.016676455017069346
1.7754032673313669 0.329777375214487 466.14139837759706 0.03468905982997023
1.7653943506060465 0.31539697055225885 466.1463980709199 0.0321023225081944
1.7740551885089562 0.3221778312967265 466.1276372850807 0.027106050468614196
1.7678310295114388 0.3106142120736121 466.1321042534928 0.022711070675598126
1.7739890223012051 0.3114745826787496 466.09799040565497 0.023387243905466305
1.774464860154556 0.3168093513607032 466.1106630317322 0.026774642792302582
1.7843500171957674 0.31748638382492456 466.07695094940885 0.031893521021924255
1.7812996735134772 0.3219864580422643 466.0996484194159 0.029358611726391325
1.7810351886709308 0.3280297431046193 466.1201090588313 0.024474083978338976
1.784619697441391 0.335298428610187 466.13222946916255 0.031530158159451524
1.7902730554696749 0.32970177001380374 466.10242599627003 0.027022298455066745
1.7952874417341538 0.3351238245418063 466.1133365113184 0.01606081590836045
1.7885827545274435 0.32379414373561255 466.08723141810566 0.025669466144026935
1.7908423604436237 0.3178095417018553 466.06317948607153 0.028362588144345145
1.7777616466965236 0.30785153371933366 466.07188300306404 0.021606099314084765
1.7777622324098699 0.3026281209623535 466.05822864257874 0.08638744896652625
1.7835102803544052 0.3064430810077668 466.049070252823 0.1358912580332019
1.7962215386650568 0.31599490440591 466.05102475529424 0.029237037580735432
1.802163398406745 0.3253536880077522 466.0738148555144 0.019837405503423094
1.8024871346529647 0.32114314427320795 466.0600112186446 0.012502426678314301
1.8009535765206182 0.31170854693325395 466.033966759241 0.0330440459548498
1.7981310916150655 0.3078799010904975 466.01891018066414 0.055093635929321
1.8087960004359216 0.31111072144736346 466.02342269291256 0.049103304962488
1.792354839386008 0.3019816612559938 466.0034813669144 0.17619940107676524
1.7886474207252505 0.30169482546570886 466.0184452451391 0.20016456531957963
1.7870350332072238 0.30332516265376563 466.0306231151279 0.1498223979505276
1.7922070068428946 0.29798822174235934 465.98088178122975 0.20973169488075288
1.8003947526192725 0.30528042711340453 465.98899771288643 0.1144940912786264
1.7990290302757865 0.3023464061420075 465.961740681583 0.19986330875772473
1.8074311135860162 0.30669473897779254 465.97306684044423 0.04578349986068599
1.8131913993075406 0.307040398887767 465.95936121241937 0.12683813473680913
1.8201712752939643 0.30722293606383433 465.976383030003 0.05779013889126591
1.8086862147965055 0.30801730248673903 465.9979478840765 0.04256457970101344
1.8234192019250908 0.3078950948967293 465.9958500951914 0.042613741210119765
1.8209572547688024 0.30930429267577675 466.00840362987964 0.035181982232356676
1.8287803242180662 0.30552930246704174 465.969573044741 0.1737697996935068
1.8245347576444408 0.3105310861202654 466.0194657718609 0.03764823910706497
1.8278315349014447 0.3139754120625473 466.0386440103116 0.0180746332646932
1.8355295377491576 0.3088468797984695 466.02393603357405 0.06363213894746189
1.8413251826928678 0.30342782364493376 466.0135397626666 0.15411013110880167
1.8369331903890709 0.3044567376151625 466.00174975553387 0.14658908220434988
1.841652031709152 0.3129842644756554 466.04885001757884 0.06288509272442301
1.8482163729110983 0.31193373418429265 466.058378909854 0.05644498311531592
1.8442306841327483 0.3067669549345348 466.03688190227837 0.11115101151423926
1.8456812579294353 0.30255374082294506 466.0245625508642 0.20931031764878769
1.8395577475045766 0.30000355404764384 465.9782653350987 0.21287495198859385
1.8420366967866018 0.2989859746019356 465.9904328185574 0.221401087432709
1.8329084677757457 0.30287504456900516 465.95238067024286 0.24258465883192648
1.8404931035340857 0.2963214335945555 465.962363460372 0.2595860607458209
1.8457378817104806 0.2889113481270728 465.9780100289988 0.17841120634292937
1.8487928571203582 0.29200378198535143 466.0041112338157 0.20774915286440507
1.8445623245668819 0.2802085931404844 465.96851170668697 0.19082526026330532
1.8519730964598042 0.2848396999327754 466.01255874800603 0.1685200285281494
1.8492729661510452 0.27967074845549117 465.99476849530055 0.18071348370579826
1.8472623960335213 0.2756634099927957 465.98326921573806 0.17257322106082965
1.848322791123749 0.26042313787738425 465.9992415831354 0.14955544792274994
1.8449222221104429 0.26336410484998185 465.981658119872 0.15048925857614914
1.84283338602679 0.269131480096503 465.9689602846872 0.1739013316538885
1.8524556517308617 0.2728412083645785 466.01392155855973 0.1645024456260893
1.8563111551515405 0.2722161489937089 466.0367383778156 0.16007008212308735
1.8568064481633044 0.25890240533234865 466.04098418178035 0.2058842398580623
1.85136463670985 0.2568317233427671 466.01958638241297 0.15985514104671716
1.8602170368710342 0.2692734296135171 466.05529118497975 0.08008709528136945
1.8584076186830636 0.2780133455220625 466.0465028098291 0.13368773144055174
1.8608938713415244 0.2537045060609155 466.0637011660668 0.047208945082273406
1.85691539357012 0.24903787157993404 466.0472142600792 0.15416203699080522
1.860836697072756 0.24375270995240528 466.0689611020406 0.009536706825433774
1.8576618881209404 0.23863464960943845 466.0570871329668 0.10364669634611096
1.8472144991207706 0.24329979282068026 466.0338607261111 0.19906362125970223
1.838567576711092 0.2434926259041921 466.01782642149703 0.2146368027796226
1.843220443929353 0.2332275075277339 466.0403958258473 0.19351862545562595
1.849993469119411 0.2227548837319735 466.05818383238795 0.12820118156000485
1.8406143083265853 0.22163449691773857 466.04897259162135 0.2615929230365184
1.8364982053933814 0.2371622359813354 466.0304457575927 0.21006697599847837
1.8365684713846804 0.20990087616135006 466.0594011607134 0.1901285236866996
1.8260095205068758 0.21601456984579356 466.04812962117813 0.19494909299224278
1.823279855860314 0.23340290967717622 466.03113882616805 0.21749785014240464
1.8117922035793557 0.2308404262729655 466.0345632448868 0.22354602457177414
1.8102360382337372 0.21810391515344824 466.046074965058 0.2798243960603755
1.8170939167765674 0.20802639589822033 466.0547500560436 0.23280782790270482
1.7995540718884637 0.22997781286095786 466.0386110358464 0.2649235761932142
1.797544497269633 0.2079934333659062 466.06192470384366 0.18588913593526704
1.7999616412116943 0.20214220166569505 466.0721195682819 0.028538153089833766
1.789576545831168 0.2066919204771216 466.07894310228846 0.03150855550317014
1.7940532919307053 0.19789495354755948 466.10248067766287 0.01555756751114576
1.7911726340511416 0.2020173734392882 466.0902432551294 0.01952193254844715
1.7769391999489066 0.21801004157146026 466.09778701351826 0.01441212664974454
1.7764829850596024 0.2125874163538043 466.1224333513008 0.01602199598546086
1.7820123995302324 0.21628889486313954 466.07564917864124 0.015437678853431861
1.7839515262662595 0.20768361655769998 466.0979313860274 0.02023391103898987
1.7837492652132299 0.2048172774715959 466.11241058669805 0.01725330524143491
1.7883748324642794 0.19773473081111864 466.12280381233325 0.03521298430603061
1.8059373688570328 0.19444395123353397 466.09187086684307 0.025644929770729918
1.8134696767468177 0.19586800932104192 466.08011931332 0.02291017468412827
1.7961518453910794 0.19021195363311405 466.1316639355138 0.04854364233328004
1.812337423091126 0.18919934678685202 466.1132909201774 0.02735401705661131
1.7879682693253087 0.19204007383020377 466.1423193307069 0.049847175434816385
1.7828601610787653 0.20009044114884672 466.13525558561224 0.04678131075408467
1.8097774926037244 0.18514285787814544 466.13250215436267 0.05670980853886293
1.7985148974110257 0.18478614582674988 466.1426350762762 0.04939533967259175
1.8229141695358828 0.1878101284145908 466.1218791494749 0.04150687789402544
1.8188139011377882 0.1921242386627538 466.09602813026373 0.023143687247837212
1.8258279865359395 0.18519003573142268 466.1334655312985 0.06519591698656207
1.8175537141990874 0.18017821095262582 466.1433044848887 0.04871033613452961
1.7951678661064965 0.1675208951367032 466.15342868507923 0.01635939978974497
1.8080927611665887 0.16750455494818273 466.1521256215725 0.027012809984811967
1.802615512128476 0.15421104134591748 466.1567992144928 0.010046354531682409
1.7995368715061075 0.14174402733745767 466.16207782308726 0.0018924415602258203
1.820032457434486 0.1529269090219575 466.15669317171506 0.00362634375346488
