x y z curv
0.3406368065472389 47.78875366948811 275.41185012969936 9.42707581354841e-05
0.3427922327804841 47.78303213530817 275.42267883877867 9.011126912557982e-05
0.3419011033959728 47.75993297922316 275.4198739995851 5.794389477164827e-05
0.3495956664396186 47.767308917162175 275.46261913295535 0.00010029583630454314
0.34748939922890043 47.76492325126104 275.4492194732802 7.648605046445462e-05
0.34826366022864985 47.784701923637414 275.4513223457419 9.048553967472744e-05
0.34420073043938504 47.76052720720434 275.431804965595 7.201216291676163e-05
0.34908490469380427 47.8276999516716 275.4507957445783 0.00011626253717506179
0.34924057970611755 47.81471307032727 275.4530081430231 6.204132483609461e-05
0.35153993962409236 47.798279319585795 275.4715657139813 8.081596574106252e-05
0.3538305225931988 47.80762021962549 275.487123334426 9.35563339719007e-05
0.3531492027431271 47.81987971488981 275.47905573480006 7.615767328451977e-05
0.351188675526213 47.78570478199615 275.4703060424322 8.930381367337715e-05
0.3527756027565919 47.79019450345892 275.48253660847126 0.00011576550924138288
0.35147977321158064 47.75011141775204 275.47940539177955 7.343883145241105e-05
0.352057706798795 47.7622827441467 275.4808724914003 5.3354435214548087e-05
0.3544499964124764 47.75867671796587 275.5033310534105 5.7031284134794804e-05
0.35409803813263446 47.77201879075963 275.4976607469546 0.00010922386734867581
0.35327277824070435 47.77912410874003 275.488079792171 0.00010802556433362632
0.3452788958109394 47.747168615372345 275.4393163206572 6.88940969160609e-05
0.34637102547519566 47.737942782191176 275.44653835033324 6.381070983011018e-05
0.34966577332952165 47.73714048730389 275.46713071417264 6.73087835530692e-05
0.34859996061997134 47.74520585528086 275.45876799586017 7.898758619981965e-05
0.3531169893482139 47.731505323950906 275.4959970950434 5.891443806380584e-05
0.35345012409816234 47.72169653973819 275.5014740822096 9.567503666987518e-05
0.3546833852913371 47.716173322427856 275.5138016779516 5.3727406113583276e-05
0.35358452002148233 47.74480400252943 275.49669690515077 9.685989437421964e-05
0.3557066362364419 47.73570044254875 275.52323514032514 0.0005602682769769628
0.3544550426503943 47.73357139980025 275.50847925043036 5.9414487007541036e-05
0.3554800376018922 47.755261506304834 275.5151915919151 7.375540816242907e-05
0.35763095457139943 47.78984625847835 275.54102091593205 0.0036492100565424
0.3566889055970764 47.77292906954199 275.53061449218643 0.0020474294472740007
0.35772979201520344 47.779497272302514 275.547977596953 0.0031700961431283224
0.3569463989497157 47.79256495314392 275.52757327666967 0.0012461128641152632
0.3561464132907649 47.778303814740795 275.51909096068897 6.898018287424023e-05
0.35519558394032225 47.785771732194206 275.5058113190981 9.115238086360237e-05
0.35670966867484816 47.74252943196123 275.5350012014353 0.0028445448035745793
0.3568819044213422 47.76128193009817 275.5360254919034 0.003776089572465219
0.3560345403867298 47.76473596874163 275.52124238487517 6.041901397558871e-05
0.3575226591642165 47.74000997806543 275.5514931252385 0.0029763727234493743
0.3573617712023045 47.752715929337526 275.5457767518674 0.0033707936989660517
0.3561903266891532 47.71582554867463 275.5346969990611 0.003701718998701165
0.35689970172511126 47.72402834308512 275.54316562426663 0.0031188823117805713
0.3579785278298697 47.80447644886341 275.5451703450743 0.0035265158097123562
0.3575435766191136 47.80778549323639 275.5333841238777 0.0031741634692090412
0.35796333231427263 47.82082962280962 275.54188165146115 0.005461966155642171
0.35621388562612977 47.79951310073555 275.51636565888737 7.212148266983673e-05
0.3564649072937119 47.81136049405266 275.5151593185353 8.194671711008441e-05
0.35735045331431875 47.82678213123064 275.52660880514605 8.037355256096293e-05
0.3580393608809589 47.83350194412651 275.5402905915588 0.006749269695142183
0.3586045409044848 47.83899313858977 275.55389347391775 0.01113002513872164
0.35868374178271645 47.85383383299042 275.5510739083685 0.076746117544519
0.35484251442272746 47.802027859966756 275.4982747700892 8.022198956251245e-05
0.35447178750447944 47.83196189370712 275.48904165501034 0.00016844983475976005
0.3551311292441873 47.824263150120316 275.49804494710196 0.00010277810888788056
0.35625574123919 47.835357328888925 275.50623276546065 0.00010593108748415489
0.3571951117281185 47.83570681395849 275.5203248147905 0.00011027080299821915
0.3573501036507859 47.849242221093334 275.520955253734 0.04139456146082567
0.3571748303307952 47.86403487273378 275.5118652416814 0.08517275826849847
0.3581688128079461 47.8598515444065 275.52999422854174 0.09612206235399781
0.35587837880191037 47.85094907578186 275.4980977552833 0.05401126297365041
0.3560079949186202 47.86590447466253 275.4967994873844 0.06625362338039603
0.3525266101455828 47.844868073792384 275.47135752876795 0.02388546304147419
0.35393673488024713 47.84157314842788 275.4831277546278 0.022182077208961003
0.3535495822837792 47.857980461100475 275.4769156403181 0.06857556036776813
0.3507953179824754 47.83614068588442 275.4601881959477 0.00010323409883597195
0.3527706688340356 47.8669746149302 275.46884666234376 0.09251217976289612
0.35432545311560343 47.8715946224086 275.4799916861546 0.0660948484488742
0.35063600745246765 47.87122842611951 275.453734403684 0.08900898488240347
0.3510904321909609 47.85963086422893 275.4579512708786 0.0954471616990352
0.3567721804526156 47.70971671132289 275.5451926646983 0.0038095207768345284
0.3567649700396443 47.69527567021403 275.54725862721847 0.0035305572883592997
0.3561220307254616 47.70151272465905 275.5364285849258 0.003737454249018738
0.35426152608961303 47.700951418530565 275.51236434547064 7.351015402136794e-05
0.3552643985445894 47.70102372285508 275.52370521453395 0.0015946148863162023
0.3564649046744071 47.6695597083243 275.5472912188097 0.003271666128966455
0.3555667545721537 47.68594226258434 275.5314873265937 0.002971616492315257
0.35513670470943975 47.67440971685288 275.52890662828463 0.002250433057522055
0.3516623106866877 47.716311838942346 275.4857494879806 3.706997973827861e-05
0.35290968496286934 47.705647237556136 275.4983613382843 9.44017857302498e-05
0.3558570570997911 47.635400235127264 275.5442149338921 0.002923511709605888
0.3564737952496409 47.64737302384561 275.5507737676759 0.0030931005156898637
0.35570410879351166 47.66067980325905 275.5386358362907 0.00387288598696214
0.35479709814598054 47.65731055176711 275.52705091680025 0.002184647498669287
0.3523160538794622 47.67751172906824 275.49791531644564 7.313100788713272e-05
0.3526303378077867 47.691267511832265 275.49806796594106 9.332534013615037e-05
0.353590606318378 47.6801079830407 275.5093315862591 6.46317403554555e-05
0.3530808915263479 47.66310514696186 275.5083730393138 9.191015948962832e-05
0.34988461136015314 47.69481813208995 275.47620902999256 6.766451149974642e-05
0.35073403351832894 47.676887177070085 275.485427509909 3.7765550955776636e-05
0.3507770191470964 47.72514668751525 275.4767597518868 8.210207988868229e-05
0.34919262704928933 47.70602286798946 275.46882009207553 5.483897579161014e-05
0.34791250606840884 47.6979658390125 275.4608911637536 8.031162421588788e-05
0.3468525244110575 47.713934449085336 275.4524676875645 7.785748012388029e-05
0.34866603679229696 47.72399674492111 275.4630637582623 0.00010681734663638732
0.34241373062939057 47.728751703813344 275.42595645226106 6.158498617409593e-05
0.33989074366121386 47.73615570587717 275.4130742369838 6.682416416432556e-05
0.33870391069258016 47.7493068551451 275.40641167907086 6.289978207837413e-05
0.33526699969497126 47.76850227627356 275.3907044233765 9.929898555099652e-05
0.3382665103063899 47.76280865882481 275.40404561535655 9.414739775580905e-05
0.33852829153803443 47.72325268219384 275.40811620182797 6.699678097883868e-05
0.33672893692594585 47.731620203514254 275.39935095976296 5.8822487583959577e-05
0.33330773772240135 47.744681737544084 275.3844448059749 6.887731263605916e-05
0.332507251860337 47.774094120427314 275.3795612518218 9.726671549057846e-05
0.3294018816486987 47.76216013829111 275.36911421918387 0.00012958532123996273
0.332463500657616 47.76199387212115 275.3801750813823 4.954745379888424e-05
0.3302409532474362 47.74009759646621 275.37346411702293 9.830418630613855e-05
0.3360295564734843 47.715538215436574 275.39785829372323 7.906692037237832e-05
0.3325954394165521 47.71329671416887 275.3840438707501 9.585384008827911e-05
0.33216791829179004 47.72423350242024 275.38157359059505 8.595020929430685e-05
0.326974655889779 47.75109988339348 275.3613708221483 5.8137510706903175e-05
0.3274421629817329 47.727767887308715 275.3640387742044 9.66115638368671e-05
0.32480761597942853 47.7691693815151 275.3534651888998 0.00011991198201243235
0.32767598240081725 47.78247638766376 275.362193941001 0.00010633127981445371
0.32949758978752863 47.7043827286134 275.37319224175315 5.758703131096712e-05
0.32729915845780033 47.71247168885202 275.3645420431418 7.651291560715123e-05
0.32413417910493403 47.720058781112755 275.35335200285164 9.719158144898472e-05
0.3238363069984234 47.73275247603364 275.3518077326358 8.0700270025544e-05
0.33046801143463866 47.68463180109911 275.37877505100715 6.032192839403794e-05
0.3230612349694684 47.700540635924455 275.3511961958426 7.836170509324699e-05
0.3219571697799707 47.6888814325432 275.3484263301034 8.743919583067718e-05
0.32769664823550904 47.66389770118815 275.3711340780241 9.91753667458834e-05
0.32519174129761697 47.678367572751334 275.3605443457597 8.25512842524748e-05
0.31867451165298816 47.7255434949284 275.33606426322075 7.016898742139329e-05
0.32020820478255063 47.73720950811286 275.34032551306035 9.214664053027869e-05
0.3192264616575314 47.75539968265821 275.3367812928004 9.300101155436035e-05
0.3203876057991144 47.76958579748407 275.33990504861634 9.954179251044822e-05
0.3532538280986203 47.64969705996274 275.5132338266588 6.29892719337464e-05
0.35198880248255604 47.65082553713221 275.50022909683287 8.653231557107829e-05
0.35473977057160255 47.63878688999143 275.53017971343195 0.00214199837168084
0.3534226698789399 47.62411910411102 275.5195517067328 5.1947145722072676e-05
0.35462609543618895 47.62474502333441 275.5324254628994 0.0019785618604976937
0.3544257837780714 47.59916511486581 275.53543791251974 0.002121642698817893
0.3552320311474175 47.61003104840867 275.5423088421398 0.002876451202293011
0.3551447340629831 47.59073458740426 275.544791997722 0.0032169090147291354
0.3127624138432225 47.54860761107332 275.3550907482596 0.001669417904642253
0.31148811930951625 47.55882561844634 275.3474274841849 0.0012980747370653154
0.32443575534127905 47.50254657601645 275.41775945745155 0.0018407951092894272
0.3319193935465721 47.52005356066469 275.42870731474704 0.0009670184530082346
0.33063304566350604 47.50586272004425 275.43459830750953 0.0018959083367076981
0.33220877016771727 47.53231780317786 275.42286219141977 0.0006027236027305665
0.3447523074515167 47.460630536948884 275.55380358907615 0.006445669579297234
0.34135026566014537 47.46124143729949 275.5341899262455 0.08352317011032667
0.3362112759309651 47.45149688798016 275.5289947629094 0.0689424691900631
0.33297794709880907 47.44024730684929 275.5396997489136 0.0076491287676564955
0.3376524265738588 47.445862200706316 275.5502452635684 0.007577693800409405
0.21241268321034235 47.35263638242784 275.5417752521254 0.005450844378175725
0.21991662284817265 47.35675167772152 275.5291917503934 0.06800895974601573
0.22123570083155783 47.36056238466958 275.516249025692 0.0020295424044220883
0.20163759893283595 47.36267814230005 275.49914712260266 0.0012366680457997076
0.21722005789582155 47.363066092924086 275.505023216311 0.0012491956434367538
0.19166742588501448 47.35569178737499 275.5202690378753 0.07160769809339919
0.1972977779673042 47.3592478601094 275.50884221673033 0.0009406995947886795
0.18456487453515596 47.358607248755675 275.50873006982226 0.001388004125800209
0.19140675802789153 47.36832060347503 275.48113420603454 0.0014239386116325298
0.19078834467533706 47.3644099321114 275.4916231298841 0.0012214507979760522
0.20213117727426966 47.3667042495626 275.48758337505825 0.0014659138537139087
0.20196610989474217 47.37161992171829 275.4742907749844 0.001527564341036579
0.19452533231242164 47.37839797813698 275.4567374817503 0.0014648848285264016
0.19071685440498543 47.37383562204738 275.4669641348217 0.0013041101205346277
0.17839026373175956 47.36742396412998 275.48328230259676 0.0010391764343163055
0.1771708878925705 47.37296593237919 275.4690096277199 0.0008966949656419011
0.17974058924092579 47.36249885825268 275.4970165473598 0.0015831626757913156
0.17090658556128424 47.35862638049838 275.51075586235277 0.0011383388028689142
0.16514437365539775 47.363022999109994 275.49854218640854 0.0014694852735786426
0.15555874227323221 47.36017337903206 275.51167727005145 0.0016683203478887595
0.15916033978323063 47.367565392064634 275.48774981592885 0.001568233451175657
0.16383561666383456 47.37514220406278 275.46651963769 0.0011550865279339833
0.17934765664522256 47.37766653463733 275.4576812861184 0.0010311529498307622
0.14147431407508146 47.367656797369015 275.49762500809396 0.0011737436867827195
0.14195990360940078 47.363061519923576 275.5114606206678 0.001347510858553838
0.1412650016953806 47.358092548591614 275.53010920909014 0.06976282318950668
0.1310134589175058 47.36392797872831 275.52104987952805 0.09221435657073253
0.12922969973354145 47.36818337298212 275.5088613279275 0.0019427946231418134
0.12524182676281187 47.37341573928684 275.49745194497865 0.0014687746454240917
0.14716246861399024 47.37265356821899 275.47998337446455 0.0013178540628655945
0.1177084110711107 47.37250413728685 275.5097261962898 0.0014535707892674892
0.11955367338596935 47.36535708207291 275.5315135566164 0.06864887521047926
0.11405787619707057 47.37813097347225 275.4980925763589 0.001056338248583139
0.1212796459766836 47.37959991091782 275.4846195310087 0.0014348937415707293
0.14362258281135365 47.3801941140912 275.4635243748686 0.0013868197884710557
0.1083419915881508 47.38879247465744 275.47708342862234 0.0011146990579200804
0.12088949814770107 47.38545704447994 275.47034916231155 0.001578364297772874
0.13291525099472248 47.38647645440619 275.4573053793288 0.0016276469461803432
0.14888442053577572 47.38724478923514 275.4452885499226 0.0017041013238656237
0.15720230481660608 47.381345960616244 275.4542529710255 0.0017775997060710405
0.15864647050681407 47.388630983483274 275.4386528897142 0.0014066788147012134
0.16760296207128847 47.38338382952214 275.446780262165 0.002123872375093983
0.16118678354784022 47.39331484355489 275.42880543889294 0.0018697362297302096
0.12752265509891358 47.392659021603386 275.4483806927906 0.0014165478874788961
0.13335371983660987 47.395625858379375 275.4380091637847 0.0016416328243506976
0.14010133540957592 47.39765392651092 275.42926891580424 0.0015835983578685014
0.14558497546317867 47.402829569585116 275.41715127520126 0.001701786105393728
0.152814316190035 47.4061510899402 275.4086146421897 0.0010388308705730986
0.1636451279322992 47.403453697024716 275.4100878802708 0.0015089389913815127
0.17487630603928755 47.40434289850769 275.40672188640406 0.0010603662374442503
0.1702702984631809 47.41106782199027 275.39610878634477 0.0015255834687121213
0.16179716652754705 47.4204831886795 275.38401195522124 0.001621672382403522
0.1548893961600695 47.41494820781638 275.3937262696339 0.0020130513487570533
0.12741075695195708 47.4056408304968 275.4235413099635 0.0019301302994015463
0.14071710131788706 47.41556400348239 275.3986194902498 0.001689134189914753
0.1345248323478906 47.409143612195216 275.41264811912436 0.0016138161631239802
0.12835307982623884 47.42051037794817 275.3981645991416 0.0017418157975596488
0.14586303117385535 47.428157365282914 275.377804220375 0.0013833171175560994
0.13071676560837175 47.42810322075334 275.38567997991487 0.0015760734963020848
0.13423190504412907 47.43652892078806 275.37220552235436 0.0012569947303297583
0.11980700470817823 47.41884458787739 275.4073779410379 0.0019883691697299265
0.11064620023413144 47.41397352987471 275.42349464387416 0.0013855782722739932
0.10278300681338957 47.42483499618403 275.41344020950055 0.0014950256303912883
0.11011245855563848 47.42655002681764 275.4036936505841 0.0013818180485960366
0.11554874637990603 47.43824340041336 275.3819309732516 0.0012152444598513886
0.10689169767457529 47.43718045487711 275.39105046613645 0.0016656519342838412
0.11787416059401476 47.429940191033175 275.39189426448996 0.002071461763842326
0.09524260368036236 47.42402415810349 275.42383004068597 0.0013908649600331989
0.09617772253881499 47.41377630208178 275.4403969623534 0.002213855072411513
0.10848942199699677 47.40801543809344 275.43635378832647 0.0010497763930253485
0.08603237200264241 47.423959949772254 275.4360623088748 0.0018198961556162622
0.08149505926662932 47.42204901531799 275.44715320897853 0.0017215363949300406
0.09583430955419815 47.439425988458225 275.3992880191055 0.0019371817106319346
0.1156973380609986 47.44985557396863 275.3668793092123 0.0013689713044390203
0.11847449451237575 47.45994947115061 275.3527570214857 0.00158731785152601
0.12801870291687156 47.461579679643016 275.3449715695916 0.0017437762671132558
0.13393046277027132 47.444835147434674 275.36152924458315 0.0013605453147928458
0.0705158175652172 47.425868695069845 275.46020101301605 0.00164988126124236
0.06464801542654414 47.42665647329599 275.4715379127442 0.0018270983381367522
0.07061636290387231 47.412424829361754 275.48811072817125 0.0010257751453039711
0.07201676464745262 47.41724321080682 275.4741398751062 0.0016792413520415172
0.07831641409564447 47.41742379338868 275.46170428617 0.0013677802534449992
0.08993306588187797 47.40781427433802 275.4613676751161 0.0013068728910563278
0.08072938234223481 47.40641005351453 275.48021733973945 0.001141776094323137
0.06255992936011166 47.41475919879568 275.50347859874944 0.001556868636253113
0.06661100078997406 47.406675073708634 275.5123346271302 0.001594720412430534
0.07520048692097317 47.404862253206105 275.4960106298811 0.0017081053445138286
0.05521024225434827 47.420469363633565 275.51038341439653 0.0012184442927415814
0.04804696790100915 47.4240942900821 275.52609105173315 0.002221879191510997
0.05851462485233015 47.41077781719312 275.52663092050796 0.08046045757101591
0.07408010862840286 47.39732308450705 275.51959984819723 0.07377061026949407
0.07764782965233705 47.39845940232791 275.50692626666387 0.001019225530006386
0.09048974175830546 47.39889484613752 275.4801500112212 0.0017646328898448312
0.09098687906599386 47.39200043165478 275.4962890480649 0.001462267644365523
0.06801118070887818 47.396466251191754 275.54160209778354 0.0055321179637872735
0.049070900434824025 47.41895823578096 275.5371096734633 0.08997916796349698
0.055050446615737963 47.40978162519302 275.5419339049619 0.004721753227889444
0.0513641851408627 47.411344935896395 275.5533642083004 0.005912864530083152
0.08903675606704367 47.380903661135456 275.53462206039694 0.07774424986635972
0.0779264471166484 47.38873273290359 275.53638034851457 0.0750426609775811
0.09528407832913677 47.383057918269344 275.5140133351541 0.06857799938561276
0.10170150149395278 47.385210379710834 275.49647505956455 0.001246376243559703
0.10009681171602831 47.37621419756401 275.5276581221947 0.057527397068892365
0.1050751142024693 47.37676796679178 275.51549190215 0.0015819304586213436
0.09702689811747334 47.373627920155656 275.5458371645661 0.0057213483494471
0.10547084650034576 47.3677066566432 275.5507024302239 0.004629673614486134
0.12224251747514005 47.35970051843892 275.5526518543278 0.004725441194697738
0.11661311388256215 47.363924435442826 275.54370360677 0.0037987602151443624
0.12972905397296247 47.36063734749707 275.53498254595195 0.06737425266443745
0.14057131214066831 47.35400204301977 275.55011015530704 0.004967171370278954
0.16672929527749827 47.35209737131409 275.5362492481201 0.004576596924824436
0.16370881411611 47.35012100114443 275.54690411194076 0.004684138329843279
0.1552000901107696 47.35451654064578 275.5327449624234 0.004392678393148892
0.17891623932318568 47.35134481966411 275.53674247179026 0.005175393951812718
0.16807658543904022 47.3552261945967 275.523665397061 0.0015102217106684173
0.18056853569525644 47.35533748409216 275.52074269436775 0.0008952959346491644
0.19636019604688296 47.351979402274495 275.5355382524212 0.06396135307715985
0.1895732549638804 47.34840029937184 275.5513783104764 0.005673733643595835
0.10510494059358383 47.39500124903438 275.46714961225257 0.0008947351475945295
0.09981125310017881 47.403729843723966 275.45519153921964 0.0018196350145192155
0.11813621022207257 47.401036382261964 275.44008946308804 0.0013017920514237441
0.11588309966471955 47.395923850869195 275.4524041307723 0.0011665677844094379
0.1787522983543895 47.39333779942932 275.4256660170636 0.0013089623711723664
0.18884532175699412 47.390058018790526 275.43166726630403 0.0011834572756093693
0.18168019585010672 47.385609439971205 275.44037742182053 0.0010816449061276442
0.1960695723845603 47.384171502065875 275.4444838643524 0.002303215564127475
0.10176456099082476 47.52718465665595 275.3010243323484 0.023110211532031973
0.09233384670391617 47.534703223620426 275.30534403936025 0.01769525473973827
0.0896704102829387 47.51897100762138 275.31972967324555 0.004626907678464044
0.08248472103003755 47.53581407594612 275.314864341052 0.007937230297085809
0.07969617564527545 47.55590735322282 275.3052665018099 0.03240828525967688
0.07237526540481495 47.5580281456547 275.3149845003315 0.009025009357265574
0.07084214780802281 47.54423215549048 275.3259596493649 0.002421385809282875
0.06914058779188574 47.53327789984606 275.3361112695059 0.0030841986337832093
0.07902903799553668 47.515487349185165 275.3353406906414 0.0024741805129364935
0.0680923340320701 47.52402688207332 275.34457811470213 0.0031330770140229063
0.06911272160238097 47.51440162653569 275.3509363000343 0.003116154202787456
0.062267889600638726 47.52322861847864 275.3560228688432 0.002184326676615753
0.05445018568043549 47.543835790741426 275.3590948583727 0.0014295897420346314
0.0629684484810453 47.54204270520247 275.34151906742727 0.002360757755040158
0.05627773308327232 47.53217566443312 275.36226077078356 0.0030276788965799112
0.055731490882118706 47.51664201102848 275.3744237034223 0.002220075874443846
0.062211962808833184 47.506225840799495 275.37006435997154 0.0015327201649990541
0.05054976196525786 47.52501996843874 275.38055255507055 0.0011705119084069212
0.04861562268049177 47.51113868587065 275.39616597665247 0.0018289485900684099
0.04398137473182923 47.52735559581545 275.39752462633464 0.0017658814577240956
0.045764419099197644 47.53967069933432 275.3852570152894 0.0008279326530887258
0.049878100928920074 47.53738507794162 275.3748383730021 0.001402218247911326
0.03797642852741223 47.52874804134617 275.41574506116666 0.0005430925520595645
0.047139380939515654 47.499819826581835 275.4098297038292 0.0012961534546749916
0.05485367422556803 47.49289969673781 275.39779812866726 0.002232932492508757
0.05545729759670329 47.50081191599914 275.3890209302258 0.0018459810255577042
0.04014585285338717 47.51717534968107 275.41650592125916 0.0012982036793736662
0.03862533611579423 47.50976148529945 275.42688303391424 0.001261792331032456
0.041660611343514065 47.496564028720826 275.42879594798933 0.0021210290734263895
0.050944470338995906 47.48779337232747 275.41250653501254 0.0016539225260594058
0.062166356350962744 47.48007203667116 275.3965220570395 0.002331955992035335
0.046626060825292734 47.48006361886638 275.4323588695675 0.001188669428686289
0.05907023516127292 47.474696473528056 275.40928210718556 0.002460500599471217
0.06592700363476828 47.484423617801795 275.38484993767213 0.002459767409126437
0.07048307729318413 47.49127438888726 275.37017786638813 0.002454814969349082
0.08033484156331835 47.4907554047474 275.3562532198553 0.0018574990097238728
0.07469546763103896 47.502904501407926 275.35245609656346 0.002159490314937021
0.09052346926359439 47.505622659997194 275.33003766031675 0.001428647801398755
0.04224338883148442 47.47785495045647 275.4475153464457 0.000977345527205037
0.032817813514491874 47.48799087192087 275.46738920198624 0.00127321437952265
0.040823380832822644 47.470602616318565 275.46157367837407 0.00118703414904188
0.0392171925648401 47.490570400017404 275.44253212358643 0.001311908046790013
0.03344755057156713 47.49661831032894 275.45637529606523 0.00150638643968031
0.03016126603054876 47.48697723140224 275.479145612976 0.0017497459402251844
0.02715669437416786 47.48906496163803 275.4904525841174 0.0015582253748467462
0.03405627298827503 47.47639726551296 275.47709819241607 0.0013977147484215179
0.03013418095107554 47.472354665976276 275.49877424557803 0.0012377103466495014
0.024938603886001068 47.505822184247826 275.4858777126466 0.0007032093904084365
0.026425601403177082 47.51239311428971 275.4734804460487 0.0007866507551063719
0.023866325952981493 47.52301372804506 275.4799796829609 0.0006436057218712485
0.017953035359950558 47.528545210271595 275.51272736882714 0.0002895771884852366
0.019135668343768147 47.54900762951134 275.4999891315492 8.361570410616464e-05
0.019400318187517484 47.534509304064024 275.50231157537655 0.0002973677364070924
0.021535147717815777 47.52965959973599 275.49057347744815 0.000220083923482086
0.020842803141762258 47.519816137902886 275.49787428189154 0.0006203993562397539
0.01714791721752662 47.51794868833795 275.5235728158499 0.0009096987859644048
0.014925014392838228 47.53436596867594 275.5349942122353 0.003110186868665395
0.014608457804289252 47.54715492963305 275.5370018985202 0.0019362711918563809
0.016269343331903666 47.54088326193881 275.52380705937037 0.0005182914991593224
0.013974524880952102 47.56236177670712 275.5396751368531 0.0031807295391008683
0.015307814604094628 47.56197633804504 275.5274149129935 0.08536178816027798
0.018275970040307097 47.56762674608834 275.50200146804906 7.162564154892189e-05
0.0175967191191284 47.54057392548456 275.5123356764013 0.00012109830559592728
0.01750016117939563 47.558399141884664 275.50944187053534 6.847532902042917e-05
0.01811632178521036 47.586844193555855 275.4984875858695 7.046552663049648e-05
0.019791966686227885 47.57460764079691 275.48913285632705 9.153443127864338e-05
0.02109101089402014 47.588173561143016 275.477124262655 7.473790184799992e-05
0.02271842445872753 47.551806702011746 275.4769967093882 9.074619176983417e-05
0.020811228549377028 47.55903309026392 275.4869163701646 4.879629800342596e-05
0.01507518637207623 47.60386603722698 275.51853613961265 3.4073273536970456e-05
0.015046363675121695 47.591276138570436 275.52193047229844 3.9544607213258156e-05
0.016060525963798228 47.60911699092704 275.5086866000722 5.301830346004232e-05
0.01649905991540677 47.58094591358585 275.51189283573416 3.456101639716425e-05
0.019308772613069108 47.608669195683845 275.4838578981253 5.743712012493141e-05
0.017985270986830157 47.59957530125476 275.49593380226963 6.514918671908905e-05
0.017452308152523112 47.61276773469578 275.4959940513575 6.595844303895845e-05
0.01413420769289082 47.57324087457084 275.5353393071608 0.08246685219254693
0.015195973791719608 47.5784051605145 275.5240002706727 5.572618009835435e-05
0.012845602834442733 47.58628449743112 275.54465026689275 0.0024122781453865864
0.013130095264457225 47.54796960905962 275.5486914225007 0.00208597124239314
0.013361789701114134 47.53250104850062 275.5481386432939 0.0032662206344095898
0.01383209341187093 47.60366393796564 275.5305773466445 0.0021045511509631336
0.013998672448897437 47.61590127587499 275.5263324968852 0.0006966844502285576
0.013891880626077711 47.58877106482305 275.53284075741215 0.001708412326709708
0.01274504519739425 47.609281627285334 275.5414935509179 0.002192756931804628
0.011367038118340788 47.64963310604563 275.5511003555031 0.004150633306915574
0.012703136870331137 47.62518675712278 275.53841863961753 0.0022523768998078844
0.013588229048090664 47.63211427002673 275.5271229420114 0.0007146745490845651
0.013072441790651064 47.66487788393042 275.52635980578225 0.0019255276032198953
0.01206340566296681 47.65952162934724 275.5404244356039 0.004319893451648155
0.0138639543143887 47.65438133517066 275.5190581901734 6.154486639621301e-05
0.01331998817345634 47.64484798153378 275.52692186371945 0.0016584936292944783
0.01394948656989099 47.66836146508871 275.51503303990535 7.363348163583849e-05
0.011638587239798898 47.68893856472284 275.54025265664137 0.004873571889657563
0.011371702635382638 47.7050893579101 275.5419330965899 0.005435363236134493
0.010962224682544222 47.6832952441872 275.55156211668617 0.004695209242328065
0.012648725777994013 47.711727702206815 275.5211880630918 4.141599336161682e-05
0.012652040941300284 47.68565316700446 275.52739723662216 0.002095595393551797
0.012236784897954898 47.67067345122899 275.53646335045727 0.004202029276734646
0.015128206870297669 47.6517656384363 275.5080047709722 6.453606661796999e-05
0.016636281396655538 47.65333306629112 275.49530393975783 5.7309933518801475e-05
0.016669429311548623 47.6651375858199 275.4924385373829 5.172849415812286e-05
0.018003591104982078 47.660873117966304 275.481880549704 3.3359221282567875e-05
0.016820828375296824 47.67845463756329 275.4868621221061 2.5606316652857478e-05
0.015447393766766595 47.675243127791376 275.50002450701305 5.0365750665086856e-05
0.014482752801020293 47.68558028774299 275.50651988831834 4.65588471843364e-05
0.013747579997846423 47.69751220668115 275.51176489660907 4.624254339332196e-05
0.013806273795906711 47.742620795333295 275.50203661361076 7.96964213199542e-05
0.012997976257887612 47.733196876969735 275.5125715887517 9.04269710708248e-05
0.012665398930529698 47.722944363407905 275.5181687276971 6.270203144075629e-05
0.011013902424514766 47.72084559129318 275.54431751485896 0.004413093846850225
0.01181502863265484 47.72064930945588 275.53192423532204 0.0036329858028322864
0.011989036930919848 47.7358477447056 275.5248178727899 0.00023723387275767526
0.01678080311411454 47.72103628886335 275.4801818552151 7.002999281581327e-05
0.015072273966707007 47.717534013057644 275.4965752560956 8.226383476511784e-05
0.014044083419940824 47.70999622045359 275.50682137921297 6.32745734172961e-05
0.01124437600087256 47.74091203006461 275.5354113456208 0.003754681330315319
0.010615790581992813 47.736841440234976 275.5477744918654 0.004119120222987102
0.010450662121559765 47.76381308098045 275.54595549302974 0.0037096374134958786
0.011048956956267661 47.75419277754199 275.5366264986217 0.003711111976297316
0.011602275900365598 47.77525066079443 275.52020515166026 5.535088876068332e-05
0.012019260081802319 47.755101534699016 275.51920740954466 6.924529074500125e-05
0.013365125726421337 47.76014802854774 275.50350775959976 8.62764634116318e-05
0.011180235070391311 47.764927356500834 275.5310744572847 0.0020609795611232604
0.010837519614934883 47.77740593440337 275.5328147597053 0.002112281878438841
0.01553348472117149 47.778659926731144 275.480243585983 4.7275522636417715e-05
0.014223670156838819 47.772484120086006 275.4938177906326 9.220936247195215e-05
0.015619220822025208 47.74278184437595 275.48622497907945 7.770108660415327e-05
0.018030228136691345 47.742873339110204 275.46796627127736 8.045872148597416e-05
0.01735935442179158 47.73105264717699 275.47417532543756 5.806774271596686e-05
0.018673260796705445 47.753805314092375 275.4615849891756 7.479543218442013e-05
0.014743399000467547 47.76057839962482 275.4900624942807 4.2856972172281e-05
0.01700834655897153 47.75597520887751 275.47381559243513 7.598028446169284e-05
0.021462311381004226 47.737602454161326 275.44695974299356 5.064264450002432e-05
0.01566230615911292 47.70429454594208 275.49223515676454 5.268610827054533e-05
0.02041955629451627 47.72832980070502 275.45498782644626 7.283269982194083e-05
0.01899152552921804 47.71764495707865 275.4652245208817 5.556181885710726e-05
0.020583451743326906 47.71097859763916 275.4557019816728 3.3802958041284575e-05
0.01671083340686369 47.69272462497325 275.48601152702327 4.054391687408458e-05
0.01936659823503639 47.69620332849949 275.4661319363595 4.6202045636616335e-05
0.022222028158307525 47.71699742460186 275.44495175733215 8.339154076029782e-05
0.021819749104829193 47.69542232850962 275.45032540858824 5.954905575857144e-05
0.01854802130662088 47.67936352288001 275.47441142187097 4.8834641824959926e-05
0.020819903799506573 47.6768337998851 275.4593899488199 6.25105572877636e-05
0.01958028455197169 47.65820147826861 275.4709077255078 7.878411790264019e-05
0.023852693744208304 47.684905372851176 275.44007219612797 7.26368559392056e-05
0.02460869487892586 47.67238606569172 275.43784362880433 5.479792127500035e-05
0.021685128000786803 47.64591079866577 275.45968870356415 7.326720214291547e-05
0.021236202763729603 47.66166716104825 275.4593792077131 7.278770530324283e-05
0.01632303534410858 47.628323644640304 275.5021492847317 4.5568618329591916e-05
0.01764522084893333 47.64262836494189 275.4888052528251 4.730380079793728e-05
0.01911028457815575 47.6457244193066 275.47648703195506 5.660896875767071e-05
0.018671571631781268 47.63121352193788 275.48291252089047 5.384178144809219e-05
0.025287677362538542 47.64825457188133 275.43846349159674 7.056994645315563e-05
0.026050917947274866 47.6336176025995 275.43732850164054 4.9767002560777524e-05
0.02195447468686789 47.620633745724064 275.4636577158096 4.3906515855423735e-05
0.025124251188244684 47.62093782680798 275.445456511269 7.350918466559171e-05
0.027013941851754066 47.68319654871447 275.423751215314 8.874285825845659e-05
0.02571155598334159 47.66063974474596 275.43388878624097 6.119678116583493e-05
0.028169928755462804 47.659558885749064 275.4218737387159 8.248279973335356e-05
0.027325523065334867 47.67166105136694 275.4239742164692 0.000106023570039005
0.027485712328684495 47.64202685504378 275.4283973099911 8.657897892938964e-05
0.023492014404126155 47.60469277854723 275.45866937597407 9.783068050790001e-05
0.029994638525952695 47.62999977292036 275.4185698597839 5.323226320561509e-05
0.027563214042539946 47.62256154890205 275.4317976088664 6.9108552615227e-05
0.031127122499571697 47.597571222172974 275.42150799980067 7.28745339299763e-05
0.030715503331830495 47.585029273341206 275.4265460806414 7.715514730402648e-05
0.02758941436268153 47.609322206198314 275.4349980916118 5.2702636964369885e-05
0.028178069328662524 47.58023475881893 275.4399117881799 9.751105680531938e-05
0.025614541003169407 47.59779672888004 275.4481963477485 5.257954197956779e-05
0.021760391433094408 47.601422069253374 275.4695211528015 5.080292692525334e-05
0.023253886135069853 47.589643436570505 275.46373974586635 7.197096231057433e-05
0.025537392560839832 47.58648445724107 275.45175985900096 5.739774423447182e-05
0.026172004303625044 47.56843260059913 275.4542418649954 6.070967202793938e-05
0.026674823194321524 47.55639707591129 275.4541224750031 0.00013339312792514247
0.023466572218248386 47.56849560329706 275.46860674318634 7.100084341056526e-05
0.03136918771445538 47.5627965978313 275.42950712930104 0.0001478444008173989
0.030851664011356222 47.551669136439216 275.43534916551437 0.0001767480985302511
0.031803840461758784 47.539257299215734 275.43504396633955 0.0004250622823433933
0.03347765328371323 47.553316554602155 275.4230992678888 0.000374038157676436
0.03180095563119509 47.619364347268366 275.41312926787265 7.937997923775032e-05
0.03531595970208368 47.60948585219708 275.4002177651215 9.744016785306825e-05
0.034390080880648724 47.5976144054752 275.4071267109023 9.071245800438121e-05
0.03436004069945589 47.58094815364635 275.41165304507393 0.00013657436684877953
0.03545644061739243 47.558836596587234 275.4131220043045 0.00022155013856643382
0.03737911922139968 47.56630913336711 275.403607245219 0.00024140074159119474
0.034889884512116824 47.54036175401663 275.42253286621394 0.0002991370622274926
0.03304883155179285 47.52644335057276 275.43640952502096 0.0005825590696092005
0.028970619894808564 47.53867196636723 275.44821737535625 0.0005628740636803885
0.04051598745088031 47.542446446338445 275.4008311953666 0.0008264836843101211
0.04032232251907832 47.55316591411401 275.3967000718187 0.00033169005531005573
0.04370369709481339 47.55414173270937 275.38548528083754 0.0004933753267418679
0.03727542434767438 47.591478010344446 275.3970223331067 7.001624212448285e-05
0.03961216557219228 47.58085547386071 275.3910761666381 0.0001392827572749471
0.04445446312823985 47.58055429287896 275.3742484361786 0.00025221093318863417
0.04517690259153237 47.59130572667242 275.36900136922293 0.00020931736095720034
0.04502784174087389 47.56465838663858 275.37753080723655 0.0005100464812538169
0.04867425219992051 47.56767561822969 275.36487105924687 0.00045406370437320494
0.050340296260511355 47.5781682039348 275.3567913460197 0.0002764968075203423
0.049432396800628164 47.591183097198424 275.35591609090454 0.00019951612656930642
0.051730972390554714 47.55504622078061 275.36147236736105 0.0013609289223923745
0.043171753082820306 47.604307854614994 275.3725679820683 0.0001219164677879316
0.048596168400639905 47.609806209264136 275.3536815196261 0.00020993709270135288
0.04485543688295917 47.61941611462565 275.3632433936252 0.0001435855750553768
0.03821385749762061 47.60648311889946 275.3898305131358 0.00011915614079614027
0.038355239593015206 47.62090221640304 275.3858677357481 9.644107829877163e-05
0.04141876273148901 47.622430633418595 275.37445065403955 0.00012338304531306693
0.04245902417321081 47.65561364274509 275.36415394525835 7.487113492684523e-05
0.0401675552351534 47.6336749899623 275.3764556587605 6.335252267707482e-05
0.04415702460899585 47.634783566912176 275.36241139299256 0.00010799170327401344
0.047377443792418886 47.62563435526444 275.3539965564054 8.239221092492224e-05
0.04701440547457373 47.641588932619136 275.3518640764093 0.0001577893857336767
0.05364378911783029 47.642038172856964 275.33205814212954 0.0002223496364329589
0.052349042791663816 47.632422889945545 275.3377318630783 0.00015842482572734024
0.051848798557557446 47.59994999077958 275.3464456658358 0.00017816420771359697
0.05399567969076052 47.61324755320085 275.33732319926025 0.0002286464229679508
0.046944160229384316 47.66643981126033 275.3481241793677 0.00011581472461555125
0.04521661767064174 47.67666724672759 275.35230071064535 9.811035779339922e-05
0.04664158061562625 47.653435373526904 275.3508656628482 0.00010185530405850074
0.05064319242727659 47.66058359387179 275.3377424318536 0.00011680007645224993
0.039979296876920374 47.677496779868754 275.3701932705591 9.397378240872898e-05
0.038685059214420794 47.65910449487222 275.37731118054865 4.963682183167241e-05
0.0450114822585093 47.7037625322901 275.35031640708996 8.617487404657915e-05
0.04204617067808725 47.696207478557724 275.36078884185963 0.00011449419786971709
0.048324904451703385 47.698848605954645 275.3402778654212 0.00011465874823460704
0.046165027312006834 47.69031252894179 275.34757426126424 0.00013126763935235788
0.0499614494889602 47.68620008220372 275.3364223780624 0.00015541682025156886
0.05406209077547769 47.69783116679173 275.32353328706085 0.11851783111921416
0.05687012057618373 47.667602062569905 275.31910143909386 0.13062120922021953
0.05255755254472036 47.670068283173165 275.3307942214042 0.0012342939649273583
0.05409164419172398 47.68489621341533 275.3246382178104 0.1251785857981952
0.04824806210365175 47.71510504742535 275.339455694454 0.00010347787260095555
0.05025747159162355 47.72886312034197 275.33272565935823 0.00036109214909946615
0.05627203899996193 47.709164182085075 275.31661925736137 0.11380319756454324
0.04632220770684689 47.73369707623547 275.34457287011384 0.00011308922640672563
0.04337837621405684 47.71615371083813 275.3548797593838 5.441610137093537e-05
0.04907451537487267 47.74211182567512 275.3359069795366 9.065355801753131e-05
0.05180797997213286 47.75166250949221 275.327752561264 0.08054070035669512
0.05776182482702111 47.72295975114929 275.31205729462727 0.09909247118853787
0.0575737638031802 47.74134309235413 275.3121906869094 0.14374763154000395
0.062139602278974936 47.766126125815404 275.30054496101206 0.12518196138992882
0.0616137087518755 47.73833331040838 275.301770282627 0.11906722375620195
0.05833894952015033 47.76028670077318 275.3102651131303 0.11706680277916222
0.0607953141538524 47.805175137062335 275.30382259722694 0.13094291695027868
0.05911679870470704 47.79387689281854 275.3079626693619 0.15804929065279646
0.059054926168957675 47.779614130746594 275.30827822764024 0.14286332171119404
0.05742302052216937 47.84949275172832 275.3118090848299 0.15176038996711938
0.05831794832171538 47.866048770583156 275.30969534994784 0.1706717916626544
0.06189115052588177 47.83135605977885 275.3010621571055 0.13743866323560697
0.06139715043952375 47.857014635755185 275.3023979270389 0.17392667940669387
0.05819673350730081 47.83732089777571 275.3100166331008 0.14537937930963257
0.05837927869934123 47.82270761646734 275.30970083141784 0.11888627326381476
0.05404709299857885 47.81533882029261 275.32062163285883 0.07903076176293732
0.051808214777011585 47.78445325097002 275.3271643745813 0.06645407811327268
0.05334136273298595 47.77377330469138 275.32317480068275 0.11434052299472822
0.047812118615040505 47.77555030113662 275.3388079469665 0.00014840725705524637
0.04822578076477403 47.80726606892682 275.3367055273795 0.0001010075368648891
0.04703239206958357 47.79391870407909 275.3405431928113 0.0001323762891718341
0.052754827680176725 47.833815478809335 275.3238231860769 0.13511059146214927
0.04944662207765399 47.824333947598404 275.33272491178536 0.06616333393043353
0.04416769753653977 47.809473703433454 275.34847788989526 8.949960813705779e-05
0.044629403540381266 47.82445090649851 275.3466420960827 0.00015822058359541495
0.05275353376590984 47.85258249266998 275.32357209027106 0.1294859842728101
0.0506674271643634 47.86433852178001 275.3285610210721 0.11781975264659009
0.04536370922494721 47.8476159216076 275.3440624197466 0.10898384878444214
0.04367277726108923 47.83696912408696 275.34914576977576 0.00010935003887992528
0.046257351577351745 47.85888494307302 275.3411514057482 0.04582831824880726
0.03797032348762748 47.83667842573759 275.36697144152765 0.00012622270379286353
0.04054226676046016 47.84622539321393 275.3582670625224 0.03843804529223206
0.03921163587954312 47.80784218338263 275.3642731611892 9.504685694999821e-05
0.04119115842858326 47.82772625763732 275.35715526092434 0.00011286349315091891
0.03719836780283167 47.85182363598261 275.36912296889835 0.05489617771258467
0.043020615788214506 47.866310126926905 275.3502772460215 0.07158612299150277
0.039816420111345105 47.860733836275955 275.3600162424753 0.05873009698332506
0.03821907406131586 47.87398128204674 275.36487163077777 0.06310035620408368
0.03371546479503894 47.839198691354746 275.38164348353996 0.006287009971114798
0.03458646528818198 47.82586584496012 275.3793305423795 0.00010994443154152305
0.035689292690579244 47.80607645918551 275.3765591346695 0.00012434863171531486
0.035256400090884224 47.79372405043969 275.3788460295139 8.015878164353031e-05
0.03758210050094932 47.7851967978296 275.37102248150705 8.649558907645011e-05
0.043082265842025555 47.793502721157154 275.35245399548813 9.005416979763284e-05
0.03090286456606618 47.835126801374315 275.39246627665375 0.00011267392726898689
0.0282579066766412 47.82426416647275 275.403666974358 0.00012153855498748075
0.029603359486285705 47.809184500426134 275.39943538531224 0.00010488455617881251
0.032650703802815616 47.8162636865059 275.3868543127089 6.214220909305818e-05
0.030745832761185636 47.77604054645247 275.39744375153623 0.00011990313079125403
0.03251432531281026 47.78992684414824 275.38930002075773 8.148129732023079e-05
0.033868384220543744 47.77161212690768 275.38529208166824 9.334110248776876e-05
0.041084099131425696 47.780843345182014 275.35946973539757 0.00015014212439331677
0.038118942130577746 47.7729265986668 275.3698418725944 0.00010289325877778358
0.04081267434754106 47.76469192157362 275.3611016975272 8.201222946975117e-05
0.033903258284836285 47.745426718633944 275.3871267981553 0.00011391580341496696
0.033367311834679364 47.7578948374064 275.3883496934028 0.00010536632438165437
0.03731646007957235 47.749026487500046 275.37415972577344 6.599351294945775e-05
0.04398837358644467 47.75506660039345 275.3510795743077 0.00011060782542499347
0.039432717399880156 47.73014661103386 275.3675473712796 6.686802644460638e-05
0.04297286210548932 47.73891005751315 275.3551394999169 6.233997796772429e-05
0.04539898426411047 47.76534452359985 275.3462930469125 0.0001102881714799735
0.039144561148887806 47.70577987323776 275.37033038388705 0.00010159544618826737
0.039167483875983615 47.71752543037209 275.36934672531817 0.00012066140334067645
0.036577520633911065 47.7258099467397 275.3783150046469 7.932354376058341e-05
0.03607070092370722 47.71087640380044 275.3812597763531 4.779088971153888e-05
0.03225629291161529 47.727657585779376 275.39523966527986 7.604604922332059e-05
0.031355740705429534 47.74011113924667 275.39784567164594 8.175719448283279e-05
0.033425172598109766 47.68408321015728 275.39464243275165 5.3926053432138154e-05
0.03544021786309715 47.69859471428501 275.3848042484983 8.34593959401469e-05
0.03575948680034932 47.67585627387939 275.38624512798515 9.067643839197284e-05
0.03853744654874779 47.693366641444186 275.3736785711983 7.015194439867092e-05
0.02946317267596176 47.73175117550957 275.4068792762914 6.409016120027395e-05
0.02972243070924566 47.71573400785427 275.40726658953037 9.739401974125747e-05
0.028109088442054963 47.694151886736286 275.4173635760137 5.5670327545847196e-05
0.03067727257841947 47.69676629784104 275.4050085792282 7.183748806909138e-05
0.029629830729246697 47.68127454272639 275.41153748078983 3.6183620253908106e-05
0.029841353677844556 47.64306612381553 275.4164782187572 4.8244613680190575e-05
0.030872897885402123 47.66843618712598 275.4077824652845 6.700758831317045e-05
0.032580774955841836 47.65017810319843 275.40323712279496 5.489323505234409e-05
0.03559057607284421 47.65994932877196 275.3891457386492 6.085071583891757e-05
0.03639527213040748 47.64441547762385 275.3886957132494 8.46906618922806e-05
0.03279320193067832 47.635234204326345 275.4051169222653 7.206603138698513e-05
0.035439941914700214 47.624280992519594 275.39648425679115 8.957522852195858e-05
0.024357393830656274 47.72769844432338 275.4318519245721 9.652136051779088e-05
0.02463269972111353 47.70273367079837 275.43338153962895 4.614254925638203e-05
0.0252127264447395 47.75752254242526 275.424034744521 0.00011234200957196879
0.02054100612574695 47.74994150682062 275.4503574767493 6.422236451594122e-05
0.02311147720355162 47.748830357567485 275.4357732539386 0.00011358598887356706
0.023977931446989464 47.76790591416327 275.42910019552994 8.855767937420904e-05
0.023502144560804555 47.79297567948714 275.4286321287931 0.00010728894645567797
0.02540385613381529 47.78456528214711 275.42001521097137 0.00010051450245263697
0.026921807788721143 47.801178064120876 275.41162852018135 9.163716759201981e-05
0.02986011692175446 47.75493252723031 275.4028592464521 7.248917417517141e-05
0.02882451475867715 47.79071601563973 275.404088880855 0.00010778233131484996
0.027370920473042515 47.7654943014283 275.4130054444315 3.9776315389647436e-05
0.0267026100870726 47.739468711281205 275.4186031180796 0.00010766315367930209
0.0270967970126915 47.72698006624867 275.4180873404153 8.564009724145031e-05
0.026234876757956 47.8177102196177 275.4131781630842 9.989710770044972e-05
0.02296565035989888 47.80461990798024 275.4300547229242 0.00011072427513955687
0.021990340809127592 47.81796924846529 275.4336149156795 0.00010890338835744402
0.020186740805382037 47.8275693057915 275.44187396149255 9.508483313593059e-05
0.02350125227712894 47.83252949550405 275.4242438848082 0.000130077945503125
0.02370142609015114 47.84343522566504 275.42217453696105 0.035710095156606086
