x y z curv
0.6738697221833381 0.18897509588700162 539.3782013826378 0.13604262757277708
0.6944828728267662 0.1990563519982462 539.3782013826378 0.13198442381857425
0.6844409418217368 0.20826498294491566 539.3782013826378 0.11179552077265334
0.6708547422556506 0.2099009146865209 539.3782013826378 0.15850851248657802
0.678209195151294 0.22978466052439536 539.3782013826378 0.15013153373110158
0.7036657929799842 0.24276724727499743 539.3782013826378 0.10005602723155495
0.7023958311038806 0.2287089602608928 539.3782013826378 0.10131720920938253
0.6675637315012148 0.23595295442849928 539.3782013826378 0.1624708312039012
0.7067969741387842 0.26390269356912954 539.3782013826378 0.10230549077271577
0.6928415408417792 0.22282102706001233 539.3782013826378 0.09940078297680599
0.6887492175874467 0.2556562044247763 539.3782013826378 0.10611218361986896
0.6844479197544314 0.2395821575346183 539.3782013826378 0.10375442157247737
0.6656808469360789 0.24725783818980895 539.3782013826378 0.1523336636852629
0.6748705607146911 0.25721218564291093 539.3782013826378 0.11311680725598604
0.7059385732588443 0.31351116349587715 539.3782013826379 0.11192979220627303
0.7034980919154622 0.2926901228798121 539.3782013826378 0.10776682623790511
0.6973941717335157 0.3195977636734295 539.3782013826378 0.09766747866477712
0.693908680100727 0.3051443013917449 539.3782013826378 0.09305201699591953
0.7055924711698078 0.3299188165076879 539.3782013826378 0.09935866692465162
0.6726765738526015 0.3148865731806181 539.3782013826378 0.11288606933209272
0.6954495212974668 0.2748671527437094 539.3782013826379 0.1096367345450683
0.6671925451684566 0.27901565823769403 539.3782013826378 0.12252260331992766
0.6671031770670901 0.26588445112303716 539.3782013826378 0.1271554662417264
0.6867959838404668 0.26678984029271635 539.3782013826378 0.09948338688072693
0.69145858360085 0.2913527869874449 539.3782013826378 0.09811359344756906
0.6662940434297829 0.2906678761051968 539.3782013826379 0.12412412961233085
0.685250859845342 0.28124402629561013 539.3782013826378 0.09533779916934006
0.6805006442980217 0.29476459751200895 539.3782013826378 0.10767294266631601
0.737287763873222 0.38882066178708524 539.3782013826378 0.12124874389164605
0.7134910364140759 0.39588294690407616 539.3782013826378 0.15692049274649691
0.7256582087830767 0.39067851007950094 539.3782013826378 0.15609293532490942
0.7163253629621325 0.3682703266721273 539.3782013826378 0.12886972660212084
0.7344587004017592 0.3769519611835579 539.3782013826378 0.10383086162092217
0.7201856866999177 0.35655774312453264 539.3782013826378 0.09903160804707567
0.703701051201508 0.3874316686810072 539.3782013826378 0.14203154397884196
0.6926676601562989 0.38728318436169296 539.3782013826378 0.1662243000349846
0.6977546400257649 0.3649797507814206 539.3782013826378 0.1498870654050057
0.7041416025881418 0.3514775589442301 539.3782013826378 0.11614627436269093
0.7035834255752398 0.37349143708641086 539.3782013826378 0.14447676163468093
0.6870082974741727 0.3538640260674587 539.3782013826378 0.14889945321073314
0.7063205423575571 0.34139304598385983 539.3782013826378 0.10480953722121389
0.6879649943390262 0.3407110436120136 539.3782013826378 0.1087748271918939
0.6790785958308294 0.3321228890105998 539.3782013826378 0.13080024128655293
0.7640267986227511 0.4366691561324667 539.3782013826378 0.1866262360804921
0.7476404599716809 0.4580749648055309 539.3782013826378 0.164640728107287
0.7789279509985916 0.45516821691322157 539.3782013826378 0.15118391454387906
0.7539535963474144 0.42665313910225955 539.3782013826378 0.19053667816631942
0.7675852791838967 0.45080861715578424 539.3782013826378 0.16706099513135297
0.7544664855340982 0.41311624399462 539.3782013826378 0.15574305201312638
0.7531568986264658 0.4426358333486759 539.3782013826378 0.19038064959589182
0.7646233329677145 0.4259990243838041 539.3782013826378 0.18041305606842978
0.7802200703939924 0.46604437726001985 539.3782013826378 0.14820522106105308
0.7320537704359928 0.45550157820762605 539.3782013826378 0.1718495757755221
0.7384431800226051 0.4448062838058712 539.3782013826378 0.20760497099168035
0.726642193280354 0.4365360737021545 539.3782013826378 0.18926973944347236
0.7370758029830837 0.4323998163991042 539.3782013826378 0.19444673660686854
0.7147667057261963 0.41139297110429346 539.3782013826378 0.1796018698531222
0.7205502398303448 0.42127260465919714 539.3782013826378 0.18148958207991114
0.7349487715274886 0.40414749724686444 539.3782013826378 0.15779418439096124
0.7275027777688343 0.41277268889681507 539.3782013826378 0.162410906781383
0.740189974678169 0.42019067426398143 539.3782013826378 0.1697792308606658
0.7047991994544475 0.4228773192232588 539.3782013826378 0.14971843877350188
0.7128931409916652 0.43250551525353675 539.3782013826378 0.19033183943759197
0.7033866938829261 0.40331958846281457 539.3782013826378 0.1644046103608713
0.6602628941287121 0.2044158999243699 539.376984378614 0.13834986752149936
0.6599375826386233 0.22241706849315768 539.3777518341808 0.1421708411444172
0.6561112328057395 0.260541602663077 539.3746656852663 0.09894932959186079
0.6614161109844071 0.30800660392957274 539.3751796668504 0.12013013404239087
0.6665651986063593 0.3314395460102964 539.3756601138841 0.12583867639941126
0.6725085570766789 0.3518079944897735 539.376533698297 0.12615761700235495
0.6816527659352922 0.38153317629676003 539.3759153749697 0.15103050729415798
0.6786721049401648 0.3660621171273178 539.3780031714863 0.1496942888477182
0.6955102917020448 0.41132073295108207 539.3765162771418 0.15786460162854576
0.7208875620298575 0.4520194158145171 539.3781101359157 0.13923506864374
0.7376047009006859 0.46602568806044103 539.3777117580652 0.13887245844618915
0.7940024287264471 0.4702127487682932 539.375052974461 0.14833053519438968
0.886262127391941 0.47020198438086497 539.3750637388484 0.1592458234511223
0.8339486406457622 0.4679691252575088 539.3772965979717 0.1482550292878128
0.7676237178063622 0.4687532393240203 539.3765124839052 0.1472357111401772
0.947774578563507 0.43424129255593313 539.3780365142507 0.15916968660752673
0.964344788255353 0.40620231116561767 539.3766943431376 0.17712732475938742
0.9929607855944718 0.324590588630099 539.3751926287656 0.0981494218074224
0.9993142256057032 0.2884344371755098 539.374833673781 0.111877234474842
0.9985061395212779 0.24208528150362962 539.3777362448388 0.12438651420142763
0.9929634915719473 0.17499329352523943 539.3775988613676 0.107273209368599
0.9869569609153218 0.13446105116437385 539.3750149577077 0.1028165094392637
0.9823557187788461 0.12182841531511623 539.3755965897827 0.10543997026587451
0.9746169822446056 0.10517064148854088 539.3763830511118 0.10093787298108824
0.9691078972510961 0.09205889875547539 539.3753624729753 0.11168702557322628
0.933248163057553 0.0508837633288885 539.3771328635173 0.0902606490910161
0.8588133336131056 0.015920510212094657 539.3775667650655 0.09917604165926656
0.8117209852078668 0.012772848022204462 539.3764647687735 0.1027505375045503
0.7902089467781577 0.017775890557251497 539.3777995499679 0.10963904616212812
0.6818840283897444 0.11193883334623336 539.3780611412292 0.09348234449936897
0.6646985865610238 0.1733825248126153 539.3774601398252 0.12282391373150787
0.6622708076274011 0.19265674144323633 539.3779574521418 0.15657241810405026
0.7552768188950317 0.4681620245328264 539.3771036986964 0.1716253097729228
0.9275789552123683 0.3738149871527762 539.3594983797082 0.1990468040883347
0.9026089297072527 0.3776853678826729 539.3594983797082 0.14784788797993023
0.9023501342063424 0.3644113384287859 539.359498379708 0.19616951232067154
0.9115936236930483 0.35735939039964426 539.3594983797082 0.21377600146595968
0.9018499910657894 0.3887149354441241 539.3594983797082 0.17230809317698975
0.9117158804077894 0.34424391760665096 539.3594983797082 0.22458697978550662
0.9488200147811066 0.3803828843392736 539.359498379708 0.24698735608505626
0.9419732013236221 0.3435231310729685 539.3594983797082 0.20676702479339568
0.9467171471622262 0.3963284497450658 539.3594983797082 0.2737077511621685
0.9490074423188939 0.3638194646811384 539.3594983797082 0.23834522864273855
0.9439593760099375 0.3541486142068238 539.3594983797082 0.22363554867661714
0.9227638022271218 0.32159130693534554 539.3594983797082 0.23108789813122796
0.9414414667110473 0.3310763063607664 539.3594983797082 0.2347409087998824
0.9116210339373505 0.3313508357410479 539.3594983797082 0.21575885159696487
0.9125868571840565 0.31523504946410397 539.3594983797082 0.1775616184038954
0.9300043736589749 0.33221667375430164 539.3594983797082 0.1865297319697188
0.9326271981254848 0.3151068058878105 539.3594983797082 0.1634204768922281
0.8905195836714732 0.35847123816386817 539.3594983797082 0.24900347698753406
0.8989139823962204 0.34025475456847476 539.3594983797082 0.23937062929659358
0.8656501098610212 0.3167750149396386 539.3594983797082 0.23093968889788313
0.8846849641035792 0.33589410176358747 539.3594983797082 0.1731706109004645
0.8827845431405515 0.27855039346216803 539.3594983797082 0.1915156691044773
0.9446674422304537 0.30404065936733726 539.3594983797082 0.18533876707577784
0.9356124407262525 0.2935875421290553 539.3594983797082 0.14782202632501373
0.9490356658009719 0.2902529343500582 539.3594983797082 0.14572582209315044
0.9489511757319881 0.27844310269443523 539.3594983797082 0.1918687875097683
0.9263764907823948 0.24488130038138384 539.3594983797082 0.24012033335679228
0.9140262742916069 0.253543408067134 539.3594983797082 0.2300062891450052
0.9062043046990653 0.27119810605082967 539.3594983797082 0.2248276971153732
0.8622855461792702 0.2521091504938009 539.3594983797082 0.19001592760081634
0.8796114049695126 0.25421374740663977 539.3594983797082 0.22667394646042502
0.8577690227108783 0.21713002715070767 539.3594983797082 0.20973792382215697
0.9012658551776511 0.23604261664419904 539.3594983797082 0.1829056993954544
0.8890587488330957 0.24245842480639873 539.3594983797082 0.20527139807761002
0.8850874722312793 0.22086628552777335 539.3594983797082 0.22530682709371253
0.8397732806263523 0.2749413401933051 539.3594983797082 0.22559795376010305
0.8057459844435193 0.24657630276831247 539.359498379708 0.24998874565620452
0.8182386275049869 0.2526744111413446 539.3594983797082 0.20260195727230226
0.8261982668095644 0.24580174132578897 539.3594983797082 0.18727254245217392
0.8286130153562602 0.23118725952760205 539.3594983797082 0.2057665307643012
0.844098497878175 0.24422064793004938 539.3594983797082 0.1525339078575218
0.8465370564159109 0.21104688074412134 539.3594983797082 0.2305389668801353
0.83635993406426 0.2188979068737481 539.3594983797082 0.19478292978410522
0.8511210832060923 0.23620931826669586 539.3594983797082 0.1457070590626952
0.8566678688138063 0.2053724179152987 539.3594983797082 0.2396540688073147
0.8847764620446028 0.19944173696279588 539.3594983797082 0.25804975495062094
0.8629811870953813 0.17409393621260233 539.3594983797082 0.1521230787319598
0.8682189996790164 0.1902772166021631 539.3594983797082 0.21737551260724308
0.8841592184579603 0.1883063138571487 539.3594983797082 0.21408095859405196
0.8570943974518865 0.18516491569643556 539.3594983797082 0.21394278802117542
0.8197366512635285 0.18632642978566183 539.3594983797082 0.2053921245516348
0.8099103131658659 0.17984279399645073 539.3594983797082 0.1825334446872795
0.8334824226349064 0.18543784481177786 539.3594983797082 0.21316116853190736
0.8158326109547362 0.16100686498846895 539.3594983797082 0.12090658979653901
0.8243431720275045 0.17576227615406337 539.3594983797082 0.16016210635949224
0.8349163103928193 0.15727033489595593 539.3594983797082 0.09631882678527941
0.8465624305671028 0.18765812338134255 539.3594983797082 0.2401141867943901
0.8105083382646354 0.14627274932678536 539.3594983797082 0.10887637688024543
0.8454816359608956 0.16395390799359896 539.3594983797082 0.10901454027089456
0.851354403916293 0.1743989986648142 539.3594983797082 0.14965953661683495
0.9318859680854835 0.23275864145725988 539.3594983797082 0.1532716820717353
0.9384401126363802 0.2466975074014376 539.3594983797082 0.21504626512061764
0.9095077657816555 0.21798491582824506 539.3594983797082 0.21579373924211534
0.9020173484419227 0.1886435835327233 539.3594983797082 0.23452722901551357
0.9069498367264108 0.17638238774857007 539.3594983797082 0.15709702615040333
0.9030526266981252 0.20581414316586105 539.3594983797082 0.26478742319729925
0.9071540902156031 0.15134674598803458 539.3594983797082 0.0970322818895918
0.8665507120282404 0.15162855983048168 539.3594983797082 0.10637951257099588
0.8757757500620447 0.1583052154481998 539.3594983797082 0.11128016348978914
0.8621521898877994 0.1380566574455501 539.3594983797082 0.09710911881308859
0.8570189164690715 0.10501524465252568 539.3594983797082 0.10437823014844734
0.8603289250701204 0.12551999327366675 539.3594983797082 0.09862780881680841
0.8962374009044735 0.13733571748453735 539.3594983797082 0.10024415399644993
0.8706565213809971 0.13038773426202485 539.3594983797082 0.09967827035278888
0.8115839394368718 0.12532969945196 539.3594983797082 0.1016269715174283
0.823981008387795 0.13858291732703226 539.3594983797082 0.09435702891909467
0.8174461009798285 0.11527933412352356 539.3594983797082 0.09975549021223784
0.8063043838277189 0.08502475178700758 539.3594983797082 0.10553694671628908
0.8483658331700943 0.127004981308218 539.3594983797083 0.09750552396728492
0.8165717204199703 0.08180222830699202 539.3594983797082 0.10763316372774677
0.7976073359394904 0.16021416610310055 539.3594983797082 0.11573162284484755
0.7874053069320782 0.1673330168329785 539.3594983797082 0.12954568314327147
0.7978353226585689 0.18038685268967083 539.3594983797082 0.16478335811396444
0.7720908881450519 0.14701611552507787 539.3594983797082 0.10148254001332363
0.7610483165178383 0.14381954696388016 539.3594983797082 0.1003202852211507
0.7627387887992367 0.11881747724695137 539.3594983797082 0.10690119909460982
0.7851264992082785 0.1261891041718426 539.3594983797082 0.11346526774257118
0.7742521179511586 0.1188231819117451 539.3594983797082 0.09969391947935274
0.7701857688832432 0.12875326710421375 539.3594983797082 0.10360962776790177
0.7883329469446652 0.13924412838435274 539.3594983797082 0.09697723034932289
0.7804143726125425 0.10243104009544456 539.3594983797082 0.09461082502939619
0.7799435100553078 0.08102426675729693 539.3594983797082 0.09472168945026486
0.8041442180551386 0.11395937738044923 539.3594983797082 0.11032018474863876
0.8022147263239293 0.13775824528192834 539.3594983797082 0.11423155367552269
0.7565184652153116 0.18789157810238144 539.3594983797082 0.24125468295146893
0.7662538870426745 0.16694691095986441 539.3594983797082 0.1272718588572893
0.7877218013734353 0.18845632369018545 539.3594983797082 0.21289498149793415
0.7722782277991113 0.20185966526886784 539.3594983797082 0.2723974897333641
0.7753596232434906 0.18399821701090446 539.3594983797082 0.18088982757000954
0.7425264619023073 0.1579199604714139 539.3594983797082 0.10120940794009592
0.7430043227645073 0.1714518256734826 539.3594983797082 0.16353434982759324
0.7230307574698639 0.15096594483841813 539.3594983797082 0.0956226230756878
0.7452541503479521 0.18335751861629918 539.3594983797082 0.18326068903363857
0.7477468082265887 0.1436687028451273 539.3594983797082 0.1010872570563784
0.7276677906240273 0.12545324048760798 539.3594983797082 0.09504735095186544
0.7543099068495411 0.08320974681502917 539.3594983797082 0.10614582951605477
0.7477498340832296 0.10831088660086213 539.359498379708 0.11246012241501309
0.7536287091462727 0.12674259782199868 539.3594983797082 0.10195133880710905
0.7478520159534775 0.09668334911792692 539.3594983797082 0.10767807839044644
0.7830722327130715 0.2479373089095478 539.3594983797082 0.23094719468147815
0.7745347584487035 0.25636217141772266 539.3594983797082 0.2624208220507084
0.7841606790860032 0.26335980080107146 539.3594983797082 0.21140903238908348
0.7594103438442658 0.2562950084204072 539.3594983797082 0.19147947709600316
0.7627467457337135 0.2082290668117661 539.3594983797082 0.27548919683450696
0.799801986571522 0.22743467019379654 539.3594983797082 0.2016246598925175
0.7484748890692313 0.2256851651997604 539.3594983797082 0.18762678835322538
0.7482524257826391 0.24594333215608502 539.3594983797082 0.15436813213714667
0.7163491628662073 0.18712713801345784 539.3594983797082 0.21823321076034805
0.7267784585860526 0.18418864966443882 539.3594983797082 0.19846848550920795
0.7469793449693355 0.19619482445626957 539.3594983797082 0.21977785988882853
0.7088033597387116 0.15567595006554957 539.359498379708 0.09879441479232101
0.7204653144730644 0.16223154601229717 539.3594983797082 0.1172434834765939
0.7745564477451514 0.2974190892007301 539.3594983797082 0.23376576668801785
0.7731121103826666 0.30817020870385325 539.3594983797082 0.2210396060163725
0.7843034634591575 0.2753182390816579 539.3594983797082 0.1538703363514615
0.7891656611846647 0.31499528466259397 539.3594983797082 0.21590466853548332
0.7997566518858116 0.3182116203128089 539.3594983797082 0.1836881526571186
0.7676405301709786 0.27571903786567364 539.3594983797082 0.18446474466928595
0.728919001627339 0.29375106019997266 539.3594983797082 0.21726405335624943
0.7083319989013911 0.2119595987696164 539.3594983797082 0.22153973204159866
0.7398212305597466 0.25293782303986523 539.3594983797082 0.19948596082172515
0.7196376958922469 0.25327694828171704 539.3594983797082 0.21250279996696764
0.7159630838648541 0.22837548440039 539.359498379708 0.23888439057090452
0.7101205342218397 0.25963585013589785 539.3594983797082 0.21277771303255028
0.8311034952976105 0.30929096712458304 539.3594983797082 0.22131466699426955
0.8153483326270767 0.33297780501775553 539.3594983797082 0.18007959506754484
0.8104355718741679 0.3594409470786764 539.3594983797082 0.19216030057523312
0.8214077360381096 0.37799137981075204 539.3594983797082 0.23291900081969524
0.8096479132049635 0.34813594105062795 539.3594983797082 0.1862300052396441
0.8150283405054688 0.3869320864859492 539.3594983797082 0.2401243107435227
0.8301539750778348 0.35537262529218067 539.3594983797082 0.17725140452209087
0.8439708983145462 0.3752756876683581 539.3594983797082 0.24225749134282468
0.8202526899588195 0.34292396057784846 539.3594983797082 0.19521017178207423
0.8378657993207006 0.3468996690228448 539.3594983797082 0.22448702486890323
0.8510029974936064 0.3640989436430528 539.3594983797083 0.23019696139969603
0.7921638865895889 0.35854912286598833 539.3594983797082 0.194039667476412
0.7861395820884103 0.3413803897543466 539.3594983797082 0.2251767656608851
0.7978826857254326 0.3702627283263526 539.3594983797082 0.2011296044169176
0.7659511571990484 0.38439462751273734 539.3594983797082 0.18960927601798036
0.7592356021927315 0.37342173397073636 539.3594983797082 0.1915288193076708
0.7433213818238452 0.3502633295421298 539.3594983797082 0.18555670472715766
0.7526353645586265 0.3450384244714029 539.3594983797082 0.23034929611016666
0.7202247374990256 0.34190668047442707 539.3594983797082 0.15456890803007808
0.7302448934929615 0.3192387525154222 539.3594983797082 0.21902003795182248
0.7384290928168762 0.32823601249331874 539.3594983797082 0.2169739335282091
0.7202443795300089 0.30312342194285463 539.3594983797082 0.20218928863209193
0.8228952848698081 0.420906715379008 539.3594983797082 0.26756733423664697
0.78270357056954 0.4065387134305122 539.3594983797082 0.2526261820422435
0.7902276652799098 0.41603411827871417 539.3594983797082 0.24104614437114313
0.7813469045729711 0.42746927053124095 539.3594983797082 0.25678920577693404
0.8107079964569303 0.4207990228991419 539.3594983797082 0.2592379274525754
0.7965662451905458 0.43268538632861164 539.3594983797082 0.27347437009839504
0.8562696907413072 0.37523092344103837 539.3594983797082 0.23850917384268777
0.8734615137454874 0.3882283022272629 539.3594983797082 0.18686120636616327
0.858879387322464 0.3978876476237105 539.3594983797082 0.23647562129484231
0.8672872021563728 0.45483350703178366 539.3594983797082 0.2319706512680608
0.8475673282807776 0.46674351026819655 539.3594983797082 0.21528492369774768
0.8519342667092965 0.41163794790360986 539.3594983797082 0.27635866629698347
0.8718435867902223 0.4429609352221033 539.3594983797082 0.2844721864388878
0.872225743150199 0.4061775055721233 539.3594983797082 0.25859873186481114
0.8787612805475089 0.43015915721421166 539.3594983797082 0.27621826452177806
0.8837914785666832 0.4088223691137639 539.3594983797082 0.2406153330552359
0.8945429066597381 0.44768680022247515 539.3594983797082 0.20852175494494843
0.9193365080110592 0.43323308134460053 539.3594983797082 0.20523384498329728
0.9293166417815214 0.42304423446921535 539.3594983797082 0.23399973201500293
0.9196422995987258 0.4137878821916615 539.3594983797082 0.27496978202261885
0.9241780486031701 0.40248724451436224 539.3594983797082 0.22207072824905444
0.9439544747459974 0.438748538536355 539.3594983797082 0.2303603151906191
0.9686223074897731 0.3566945980985581 539.3594983797082 0.18804183306057157
0.9804864074030114 0.3264071095274123 539.3594983797082 0.16785556923356013
0.9842931776719657 0.3466974599893962 539.3594983797082 0.13047023258829374
0.9755977861153662 0.3377106905605017 539.3594983797082 0.19367373228365503
0.9534064273962696 0.31228920285931583 539.3594983797082 0.27036160028368916
0.9569668268387364 0.2997490287393727 539.3594983797082 0.18510187726432675
0.9772603051831802 0.31483396135040514 539.3594983797082 0.20407223490317017
0.9794877304121787 0.30215939688398186 539.3594983797082 0.18569129048145294
0.9916435730676838 0.2917963460395037 539.3594983797082 0.1404076257805347
0.9938014190209595 0.24919398652869243 539.3594983797082 0.17295384194133845
0.9497975052853973 0.22775292696049604 539.3594983797082 0.20702299598446636
0.9602114001609003 0.2229099501054112 539.3594983797083 0.2319698512888288
0.9715299662453888 0.2288418432784467 539.3594983797082 0.2355398055024892
0.9651038982597052 0.20664382206393253 539.3594983797082 0.25570998259931593
0.9197430270805143 0.1557312565463627 539.3594983797082 0.10306051563944196
0.9481313793233068 0.17288489347074526 539.3594983797082 0.1739727956618894
0.9707546453479905 0.18475235146612493 539.3594983797082 0.1830621302527564
0.9832944131686141 0.18036242609474767 539.3594983797082 0.19218744840717475
0.9823711336565595 0.15612101998346567 539.3594983797082 0.14331740937355275
0.9178868487161524 0.11585390547517269 539.3594983797082 0.1039133331333794
0.9272997964523086 0.1258787971595479 539.3594983797083 0.107319445465287
0.9102273883108255 0.09137711762103415 539.3594983797082 0.10383376026172549
0.8628614974761134 0.08881462612302954 539.3594983797082 0.10456944873552146
0.8854834779043973 0.09590492474463759 539.3594983797082 0.10476273605809291
0.8684584501786731 0.09878498905317912 539.3594983797082 0.10523981894982305
0.8767041230818438 0.06460136101471131 539.3594983797082 0.09955436288729701
0.8877685725301498 0.05818156941693213 539.3594983797082 0.10042217665444134
0.8777128326533165 0.02651322094796225 539.3594983797082 0.13957643829356006
0.8681660777955098 0.04941651773054913 539.3594983797082 0.09574100905879161
0.8513747210864856 0.021004053633900913 539.3594983797082 0.12293007585138171
0.8548688247149032 0.047784253326926686 539.3594983797082 0.10074985234380689
0.8328431354603683 0.07355896708013189 539.3594983797082 0.10781571400400045
0.8216808155860297 0.0717354505364143 539.3594983797082 0.10778200315581536
0.8482115604158196 0.0754871033317396 539.3594983797082 0.10366699706366053
0.8397451573384573 0.06498973302858459 539.3594983797082 0.10535410570013072
0.8974683814573275 0.03192552784829116 539.359498379708 0.12508615273859922
0.892764431223672 0.042963280104916686 539.3594983797082 0.10555677722356677
0.9023731893154684 0.05069510582465045 539.3594983797082 0.10187274520835779
0.9061127304183054 0.03895341272221854 539.3594983797082 0.12397530340347908
0.9143841948797482 0.06604885068703426 539.3594983797082 0.09089443932056548
0.9475849854651075 0.12248234369718168 539.3594983797082 0.10251027673299193
0.9475917993916834 0.10964339144677249 539.3594983797082 0.1055433561257788
0.9250876434923982 0.10477418251874103 539.3594983797082 0.10539944284148191
0.9471519282211069 0.07071804156306989 539.3594983797082 0.12194157504358426
0.9158370569409138 0.07678884403973016 539.3594983797082 0.09349013304690323
0.9373313436857907 0.10452602089962422 539.3594983797082 0.09735030951979717
0.9581216287144896 0.09285440041413441 539.3594983797082 0.13809347245251707
0.9673799182617326 0.14756369521258592 539.3594983797082 0.10706892221325448
0.9583742477469511 0.12950738195318157 539.3594983797082 0.10742428254937525
0.9507763555191295 0.14017208246946294 539.3594983797082 0.10269957814303482
0.8161317853310781 0.021889793438383973 539.3594983797082 0.12054037332426802
0.7939264931854083 0.018618209528900233 539.3594983797082 0.1314793981606516
0.8031800630603699 0.04973418556364402 539.3594983797082 0.10223061990988196
0.7934400355475143 0.05552256409552073 539.3594983797082 0.10527771699275336
0.7730978717566434 0.05461330654550203 539.3594983797082 0.10566237118350727
0.7631131877172868 0.05800723032046763 539.3594983797082 0.10780511865450827
0.7721364259927425 0.0420406722951405 539.3594983797082 0.1290584970193208
0.7588692629616096 0.047413883787240096 539.3594983797082 0.14105415718597544
0.7664848740382209 0.032430829598630376 539.3594983797082 0.134785939038008
0.7474690074004157 0.0464854396316252 539.3594983797082 0.12504522248092795
0.7309542395724605 0.05898632287950356 539.3594983797082 0.1255093817425557
0.7352393704895038 0.045012584853337825 539.3594983797083 0.11239627164205558
0.7170322790719403 0.11943568364578395 539.3594983797082 0.09729641961881297
0.7269973364003411 0.08484657448486814 539.3594983797082 0.10129178808678578
0.725695101130098 0.11201630870315704 539.3594983797082 0.1080984620548388
0.7131395901403016 0.0695655013286259 539.3594983797082 0.11940766104214535
0.7130026906175196 0.09765999584786225 539.3594983797082 0.10270539731142658
0.6727856058406021 0.15259361260848214 539.3594983797082 0.10254473928866177
0.6789760950935478 0.13485574234611117 539.3594983797082 0.13014739832921046
0.6797349259550982 0.119025836727018 539.359498379708 0.1126196235814771
0.6990892792168576 0.08151489575374084 539.3594983797082 0.09002048421681129
0.6993588157796183 0.09737680243098332 539.3594983797082 0.12710450654804997
0.6991009962702067 0.11541192593664801 539.3594983797082 0.11638617810109363
0.6894969388438721 0.1224512486181638 539.3594983797082 0.14210336059476558
0.7027480711372491 0.13806979481296758 539.3594983797082 0.10287414856873478
0.6704422441987351 0.17153396643019153 539.3594983797082 0.1516447639507094
0.6904691864403458 0.23533759532733284 539.3594983797082 0.24643982315869808
0.6791896762630864 0.23545501634338506 539.3594983797083 0.23989293564576175
0.6802277964726153 0.21798030261961182 539.3594983797082 0.23845041551530402
0.6823858259986587 0.20607782801984675 539.3594983797082 0.2656291999939796
0.6813373233304993 0.2548534318046355 539.3594983797082 0.20961062134295685
0.6836937984201644 0.3040531797265935 539.3594983797082 0.18869758350361562
0.7044083665079812 0.31781021774769475 539.3594983797082 0.18626080966250114
0.6933240665802315 0.3100571381880506 539.3594983797082 0.2024171571947281
0.6691370791004044 0.3128221041530182 539.3594983797082 0.1456876184187043
0.6766600000143115 0.28129795523868845 539.3594983797082 0.19201289326895615
0.6978579459573441 0.33921808165758865 539.3594983797082 0.1971759934789536
0.7289365869504406 0.3698558157022036 539.3594983797082 0.20195975874536284
0.739886868460294 0.38527259307461914 539.3594983797082 0.2325680284258614
0.7285884949914776 0.3925214155556771 539.3594983797082 0.2694020536832579
0.7015115525388388 0.3910299490843343 539.3594983797082 0.25445263110639443
0.7110714404496683 0.4077620656223643 539.3594983797082 0.27618483052170995
0.7179872650768184 0.41797931952844547 539.3594983797082 0.23513135740037994
0.7157774618914122 0.42888452372174474 539.3594983797082 0.22919778286564021
0.773486171521457 0.4573413079017174 539.3594983797082 0.22511868036026142
0.6557573954074039 0.2317812482215671 539.3714267227128 0.1401472411094707
0.6566708249555331 0.2130998114295502 539.37224967068 0.13703925515374957
0.6598423064831118 0.18117707537040312 539.3706052538781 0.12965834239716512
0.6644834705460848 0.15449517543957864 539.3679009009844 0.09656474946426984
0.6680499710165353 0.13992153409214134 539.3708071016962 0.09659017083058513
0.6736993815761093 0.12192049044134956 539.3717308994947 0.10188987034324011
0.6826103925298823 0.10058974807051285 539.3741448094598 0.0930575706072414
0.6905748259692364 0.08611807697468177 539.3716478499036 0.0982240115016314
0.7021810363484655 0.06968719570037148 539.3683032016658 0.0961475976863201
0.7107984723995955 0.05962123081530894 539.3699210197694 0.09530880858201729
0.7239014618335788 0.047396117766276294 539.3696821705466 0.09288011326083102
0.7351494115867125 0.03861931588682206 539.3728524186199 0.1105456692514135
0.7421211678893339 0.0340672006303083 539.3645157062964 0.10895996068251709
0.7609715605329134 0.02395017981072222 539.3720661299558 0.1268546974529718
0.7724223940263173 0.01935905221847547 539.3699075791459 0.12204899902493689
0.7842347690538995 0.015657552941356453 539.3695851099128 0.10594320488998239
0.8214965217198437 0.009773856982546117 539.3708657911459 0.10371376045842548
0.8374949949628459 0.009847990523991407 539.3699154179634 0.1076449080530493
0.8489256775077286 0.010865378195371197 539.3734586071706 0.10200546055391804
0.8689545413770604 0.01445590569842468 539.3658564873864 0.11145806420189754
0.8917102665070294 0.021889280720894383 539.3694403335111 0.09819044064345919
0.9069167246598562 0.02906842405549353 539.3717903435642 0.10003103233122701
0.9171110150232656 0.03508675641873117 539.3642722284637 0.10997937098234993
0.9271480471276934 0.04202557506656307 539.3714107839265 0.08201609967436668
0.9478003919941635 0.060740848176314866 539.3671280609518 0.11074439690398163
0.9597432875348912 0.07535499625482107 539.3693539520287 0.1193746743413699
0.9683779658417131 0.08833727932792901 539.3655253341014 0.11142144229655862
0.985671857225148 0.12698091938826706 539.3643661211927 0.12032126056555587
0.9906297760907512 0.14405057447100572 539.3720929008545 0.11077841773431268
0.9938151567347716 0.15797559646014248 539.3702735687523 0.10155758869503557
0.998270448029847 0.18526178224750786 539.3672751219563 0.14040299499914602
0.999552993392333 0.1966424675314255 539.3717456306924 0.13403360884527982
1.000565202418387 0.20790095323895202 539.3734712560195 0.13717095665316947
1.0013842977859266 0.2207348336464577 539.3728755236622 0.12842075793657154
1.0018386324971367 0.23202036517739663 539.3714289408729 0.13280887094664304
1.0021306720023324 0.25163840598789516 539.3680638806842 0.15376340658507573
1.0017287084876534 0.26592897615435274 539.3696023074501 0.14266345761977942
1.0010449534089265 0.27669145424122865 539.3662761151597 0.12762425854885162
0.9982413558150198 0.3016055651107634 539.3688550496863 0.10379592784864704
0.995936924172876 0.31507665545583013 539.36828334909 0.09069579462094207
0.9933359414968634 0.3273374127611325 539.3646708159474 0.10538100458239368
0.9913176619007706 0.3367846975709876 539.3704395473555 0.11600858923046567
0.9882180388514521 0.34907513780988264 539.3715162409153 0.11175055456342678
0.9826219636256517 0.3678160123741159 539.365149404092 0.13413090399270172
0.9760236547813941 0.38609489176683714 539.3686812288701 0.1631880988267431
0.9695208233088158 0.4014110787877222 539.3688869696346 0.1613969831132245
0.9629197566961007 0.41517810998521876 539.3692737446124 0.1581577595775128
0.9565902410733468 0.4272534482640277 539.3737589025565 0.15341004631288316
0.9530079110492502 0.4333634809095426 539.3647812129617 0.19677586043463713
0.9381136087830294 0.4572228201585855 539.3682658476868 0.1558175198457162
0.9443635548883439 0.4476039654973187 539.368349522986 0.1507957260874915
0.9280297452701446 0.46707983316412205 539.3702251624712 0.14825516239662642
0.9148349504957283 0.4709359451635512 539.3710079130356 0.1404061664678261
0.8917577135953406 0.4710643405914254 539.3641449318301 0.17860058738644946
0.901222541833808 0.4710643405914255 539.3723646712206 0.1682673574168935
0.8749085069590185 0.47106434059142543 539.3684340753638 0.18294912991501888
0.8416246926325557 0.4710643405914255 539.3703756743101 0.15831873154707599
0.8552834531775303 0.47106434059142543 539.3672903457297 0.17856436309503607
0.8075449828693417 0.47106434059142543 539.3721838028372 0.16648947366392383
0.7843475287054562 0.47106434059142543 539.3663564587176 0.18481928769146208
0.7345495471679653 0.46930726074675233 539.3653503023723 0.18248334911678132
0.7248414918052153 0.4637643927057511 539.3729304394349 0.13421193208801815
0.7133163244724183 0.4477475758443744 539.3690855241475 0.16146926557981012
0.6938245664387371 0.4135613359459058 539.3636780901189 0.16959800132010647
0.6981869603685362 0.42193540523348927 539.3696858590381 0.17255304348857908
0.689039459180279 0.4035576984753271 539.3718632073762 0.14255440519130383
0.6831693425708714 0.3902575954307008 539.3668498300799 0.15669526494208422
0.6772942322823854 0.3750206551992753 539.3677531971847 0.16148820476228226
0.671619149107356 0.3574698530616352 539.364600105795 0.17225465410820254
0.6679073521292062 0.34358564487570653 539.3684012956753 0.11985347132903698
0.6629399246769786 0.32144032322385907 539.3740274901496 0.10903076439931483
0.6589948126884024 0.29918133852011564 539.3658008054209 0.13218306256146706
0.6574007862957294 0.28603766273744 539.3654820934139 0.10329384292836616
0.6562321297409065 0.27243150225443785 539.3689840774739 0.10244085021765853
0.6554362793935119 0.2504028914161107 539.3735038045608 0.11982570458424724
0.7098310825054701 0.4397229117850038 539.3622498180928 0.17656687882279357
0.7046520417742805 0.4269850433493775 539.3602077858548 0.23313473234496304
0.6632533448433279 0.32277916981099763 539.36347126592 0.11046765263096223
0.6563285309573719 0.24431080037056963 539.362667281221 0.12244504419098112
0.6599698679092416 0.22046339528490236 539.360036440884 0.13722394524484327
0.6857049873202108 0.09718109555904653 539.3623077124495 0.11132622362212734
0.8281343158377752 0.013416401669117896 539.3596520507178 0.10646365382923506
1.0006326219664492 0.2155044611410023 539.3630933450796 0.14975474514634762
1.0013949085257954 0.23975181391058029 539.3628525689754 0.13799524266370886
0.9828061171908707 0.3585552806821826 539.3608232185338 0.13604939717989728
0.9708090172863452 0.3883402960611774 539.3595228281996 0.1893635614059105
0.9555126252071444 0.42319492962044614 539.3606953965124 0.22372248257232155
0.7941763969138149 0.46991820334512946 539.362352242462 0.20832964431537007
0.8052110971664443 0.46879201876385074 539.3612260578807 0.20861214494871935
0.8291985536850647 0.4708679300443307 539.3633019691612 0.19490507386850137
0.8264017125777625 0.4355793714026549 538.9883980421064 0.04987861858749862
0.8241234522793623 0.43606363785330937 538.978256704435 0.13603304370257197
0.8044615379400185 0.4299221644967629 539.0018390056662 0.0037012804814731794
0.8149688015802351 0.43353000421532534 538.9974861797198 0.010160331098587178
0.8057777322355888 0.4322553353146675 538.980317782705 0.13926886195648813
0.7951534119997429 0.4245479975382983 539.0111976464025 0.005318473326335209
0.8037251823225152 0.42349587427503005 539.0379067566769 0.0056821836362505145
0.7969562090567063 0.42358429452827967 539.0232784792133 0.004504167388030799
0.7798559677585826 0.41481597129959347 539.0160275495897 0.003101157196781722
0.7850777474961027 0.4200367377337886 539.0042081754992 0.005321542945951467
0.7876702673055507 0.41862417268527063 539.023696841663 0.003907041708996697
0.7853671944884488 0.4140726340255786 539.0374721372938 0.004397072860386941
0.7970193145788583 0.4182171373486383 539.0466580389641 0.029009823962830986
0.7797438261883253 0.4083668809729967 539.0450399422874 0.004882055926860393
0.7879985070357759 0.4096150636444414 539.0580878715887 0.04715229158373915
0.7749916634310132 0.40876361031268993 539.0266834239582 0.0036329342079176007
0.766159624879435 0.3994884737874228 539.0310226260228 0.004139713748275604
0.7621092477835499 0.38862654499456556 539.0521440593641 0.002731714232160801
0.7700401009109765 0.40002316391055665 539.0444254294968 0.0034379876247501995
0.7769993533956644 0.40219939934871185 539.0565587838621 0.010258686030590818
0.7530758466546349 0.37490192851455106 539.0544229786915 0.005042016254914444
0.7585131499675427 0.3889156256223774 539.0370826152073 0.002352202869239241
0.7501449202504886 0.36461869882472486 539.064458600677 0.0049839474512733475
0.7471080692727439 0.36322634489551064 539.0537322759562 0.002797034748378051
0.7595314762160859 0.38002932658627625 539.0654536725114 0.0056592605128644976
0.745620003337196 0.34789922499201237 539.0712112525446 0.0035384716105965382
0.7434489161592217 0.35307914818425445 539.0482055677087 0.0026681593497667965
0.7429804280213055 0.34468140197329944 539.0600899014057 0.0026846059992802884
0.7410494945673547 0.34287197556669163 539.0495265491792 0.002493718392986717
0.7495691440096695 0.37325650396528487 539.0407217230671 0.003677084767935504
0.7446392022924565 0.36477198571665514 539.0333462282861 0.0032724890334632304
0.7381596376246397 0.3424554057177239 539.0242824077931 0.0019532580866352574
0.7379180482773886 0.3242016164458302 539.0412667598455 0.0008699328535542326
0.7385160236939329 0.3376120311731508 539.0384608083575 0.0018780680197782622
0.739394870450133 0.3152761596598822 539.0640297701839 0.000795115586471305
0.7486923142828527 0.3753668298136347 539.0280288138815 0.004345214501369643
0.7548069349877468 0.38588671476164726 539.0275669957889 0.004220168361251303
0.758379347948997 0.3949709241495188 539.0102859161764 0.0040431384193331055
0.749842648333803 0.38098353794802625 539.0154568272392 0.004445274163622807
0.7446455673655327 0.3703248537020458 539.0151712442932 0.0036327170211837905
0.7405776293450335 0.3547578570399878 539.0166087127459 0.002646784008279766
0.7508523320123172 0.3849337483815506 539.0041790064378 0.004233653928901475
0.7562327307593535 0.3937650526770017 538.9992858507486 0.008194571984421986
0.7659260559733232 0.40589651134612625 538.9949437304472 0.0360415355535559
0.7644639378199843 0.40262681026487995 539.0056021214691 0.0037095504141196833
0.770051765304349 0.4061537258676045 539.0179981025367 0.002924157811649684
0.7710260831229157 0.41169964836207434 538.9833367553371 0.1073801139347467
0.7598182896202396 0.4000345234038527 538.9848782251065 0.11234914308947326
0.7680059801044483 0.41022563890556746 538.9613824981288 0.23645331006426273
0.7730702854387561 0.41415013759221486 538.9726689751865 0.18417209857787914
0.7807908737936955 0.41857785391399166 538.9944036308144 0.04355587808386736
0.7809653141208248 0.4196952733957798 538.9829795880787 0.12626570157096062
0.79176489045066 0.4257541778435593 538.9888417995896 0.07355239432169217
0.7908898313789696 0.42604780650728924 538.9773183533016 0.14188217711081413
0.7998526544419955 0.43118064446601506 538.9626947411014 0.1888933109182651
0.7592973514198098 0.40042336755544083 538.9722213617301 0.1969785025156795
0.7500748483007802 0.3857123685143327 538.9924297368964 0.03958534473242679
0.7524034911054636 0.3909454640340556 538.9780224879787 0.16214103684008502
0.7511342025459455 0.39055216270944126 538.9587432091284 0.2458468781534577
0.7469440232394908 0.38133021146443236 538.9824804873322 0.13116351269350776
0.7474710717259807 0.38405337584111465 538.9692017759558 0.14701168522172672
0.7389427394692023 0.35727787260698085 538.989490684577 0.07166256002649003
0.7406719647758233 0.3657958258231717 538.9827550092845 0.12546873830220567
0.7424583755619522 0.36986563737283007 538.9925395321335 0.06809019546824166
0.7423073138528802 0.36610340590949964 539.0032958410985 0.0029933622539521755
0.7423989722000008 0.3744366364966637 538.970178064955 0.17312610340209775
0.735723332370526 0.34622686514793166 538.989044744974 0.061488979776254477
0.7360750312161674 0.3543048114604818 538.9742739351384 0.13422030643058916
0.7286406695797266 0.3282466481900122 538.9589609986639 0.16269877916986988
0.7287565009212322 0.31708943225384784 538.9666828957211 0.11198371788469665
0.7315247531136433 0.33603712335907054 538.9664077232148 0.1784910364447139
0.7322572146390243 0.3279203147921372 538.9774612346437 0.09195745542815058
0.7336621337502996 0.342476354264061 538.9786961855816 0.12464821212689647
0.7344287047568717 0.3289180250887971 538.9921053704604 0.04291129666007391
0.7324454320395858 0.31779267721145094 538.9843772888444 0.0877131454176021
0.7291961315598645 0.3064131976774671 538.9694926769803 0.12014504594609156
0.731562184560931 0.3035975934956453 538.9798770650666 0.12486559429562313
0.7333353498062378 0.2962639479850287 538.9892741833997 0.08814639822571405
0.728412255383956 0.29084847492602156 538.9686348406156 0.14964037551184123
0.7311869601354833 0.25589205283017924 538.9795165154187 0.18240664811639878
0.7312049991066831 0.2808554902223509 538.9789144841046 0.13309015336436658
0.733463989061545 0.25838348946876777 538.9898801898298 0.0715906914743268
0.7334265606574693 0.28413138685748185 538.9900187792737 0.09056784846695282
0.7280680269352398 0.27794161798829387 538.968639841339 0.1475265225596413
0.7350459590665431 0.30791992303597937 539.0089649541219 0.0006185234139721741
0.7348274836226376 0.2668247626064465 538.9989713593349 0.037819246944694115
0.7354550009163795 0.2541309656081469 539.0053301529574 0.0005679584128266334
0.7350965254688544 0.294243462586942 539.0066985116152 0.0008060019411209812
0.7366650196448473 0.25991779774258367 539.019686319629 0.00023957882762127517
0.7349419493078612 0.28042129815216493 539.0014452254231 0.0049848943346707765
0.7343706650306884 0.3149954571038621 539.000311093 0.007666962227809942
0.7358907110007339 0.31956541479788614 539.0152898835453 0.0007675584934266783
0.7355963388776527 0.3266625406025563 539.0057717424721 0.0011413929879806478
0.7371580371045916 0.33021013811752975 539.0250145149803 0.0010544629097758856
0.7360868809592218 0.307827568999432 539.0233075638428 0.00027718779266555784
0.7367726049262459 0.2706208255042318 539.0240747314504 0.00013301143744960537
0.737812212092955 0.26031766801042955 539.0400571571104 0.00018481037802366344
0.7366733452181491 0.30890405373842617 539.0341965959775 0.0003824822486680601
0.7373554467059806 0.2890985509550047 539.0405068978066 7.337046074352563e-05
0.7365604173539474 0.29585936095858284 539.0282406971065 0.0001597595985185447
0.7372257697972169 0.27861761866392887 539.0350210706454 2.5997714580019897e-05
0.7373923416554995 0.34732481218649314 539.0023183105037 0.00454673140981555
0.7376875521577683 0.24754764919781258 539.0389067770058 0.0002300857352250643
0.7364540219362856 0.23291482143429743 539.0353336412876 9.831720135991202e-05
0.7356021743805716 0.21716723405028232 539.039297202331 0.05590196825809199
0.7388429427018548 0.25417112715727475 539.0544037935767 0.0002218817232029485
0.7382260422127804 0.2733871632700432 539.0500450452391 6.901461788543223e-05
0.7363256939885289 0.21118571179840664 539.0538246345296 0.0991767476610289
0.7355390296412755 0.19427601245075873 539.0583301165032 0.2070054944845964
0.7375904723990087 0.23724891880587295 539.0474884404729 0.00016870272759287447
0.7346982977846441 0.19568182220652935 539.047414216662 0.23097606751162855
0.7381091303027746 0.22964207938410702 539.0603893440386 0.00014196995929177848
0.7374508817209839 0.21853880393192868 539.0614718018714 0.03962165901411497
0.7387887676497413 0.28973197679299556 539.0614853663626 0.00011075718087305587
0.7373783909245828 0.30570723895991303 539.0454682776287 0.00042495161952545797
0.7394156050852146 0.26200328792913974 539.0644235876211 0.00013741754604286094
0.7385950145467822 0.301590500773515 539.0612434475223 0.0003403459473760299
0.7379963785195434 0.2942489967726302 539.0515830045387 0.0001499603715000884
0.739456625003893 0.2738643716121677 539.0672793046479 2.4802443420738825e-05
0.740879757334719 0.252506672734957 539.0817130188177 0.00017595277682738947
0.7403266482752809 0.2640131607677835 539.0767242397449 0.00010603370646403292
0.7370281678428998 0.2054984895520806 539.0667638036291 0.15516658529646313
0.7376564355287409 0.18977635086994366 539.0841587317809 0.1873411592808788
0.7370810697772235 0.1965293864223006 539.0735272498528 0.18656122957828647
0.7391130037538608 0.21077272782828688 539.0848912282929 0.08930810579405478
0.7405764332392114 0.23265836437161427 539.0854630262669 0.00015269569167085224
0.7393869669309998 0.22131986033118312 539.0804263412832 0.016507054585759177
0.7403027272054941 0.24513360181660449 539.0736118831475 0.00022058939346166474
0.7362105927025766 0.17435451291683596 539.0629091897937 0.20052835861719256
0.7349695022295026 0.1798083532729246 539.0494925368022 0.2118896024662534
0.7377188482827834 0.16567248950441857 539.0766394742493 0.15791417642930095
0.7373874734117258 0.1764163246116044 539.0764385015033 0.18194256681856164
0.739271757204808 0.20161915385051682 539.0928158844764 0.16942512567883275
0.738934154948194 0.18859738829062556 539.09752473411 0.218175914761967
0.7408773203407593 0.2227345680687458 539.0951022530592 0.010180093960324002
0.7403965398255054 0.2009064925477796 539.1037938844912 0.1449692845139623
0.7396446243684968 0.16827707393327762 539.0981446323246 0.1924470250182567
0.7386295085878043 0.17784380136423178 539.0912824372872 0.20875368744403353
0.7408906937731627 0.16169811063426812 539.1083794948883 0.19791519229779292
0.7406094332446618 0.1780126811495425 539.11206354321 0.20857332099030582
0.7396752950390436 0.1591409927810607 539.0879538016853 0.19463157988873253
0.7424449154525651 0.14653934618158487 539.0837977598198 0.15748602585836435
0.7394811686172462 0.15323504125140297 539.0730531029618 0.1537330816047738
0.7453289416054467 0.14358830486431667 539.1059789654333 0.16624149955511688
0.7440479190007301 0.14510419378473746 539.095665177541 0.14947483794233193
0.7371041331564362 0.16031228638585965 539.0610271816588 0.16176541545016856
0.7396859469675333 0.1487630433351998 539.0623420321756 0.143180484980004
0.7479639257872692 0.1318611285151147 539.0818003395135 0.12930108684052224
0.7483937705901194 0.1336860636063653 539.0998237183214 0.14766740220128133
0.7438091464253563 0.15436974959699334 539.1219837517124 0.2018591975429252
0.7487283216370824 0.13886435098411976 539.1302076361785 0.16370842517490242
0.7503890465549617 0.13952426141961694 539.1494984696568 0.18455947938788053
0.7489690923051552 0.1354074626799243 539.119937308411 0.15381090197472905
0.7529186865736974 0.13118489333344419 539.1423061470889 0.16297267712109823
0.756764005829772 0.12054128727037498 539.106169268872 0.1182909510286866
0.7588259445103044 0.11872566244271522 539.1167640595557 0.11885792888794867
0.7521720966472127 0.1256776046983164 539.093720955566 0.12717824431608818
0.7593957134283151 0.12004569567268908 539.1360971210224 0.12674333343335006
0.7595715062379548 0.12162856485685634 539.1566414081233 0.16497203700682114
0.7490084335636348 0.12774733182700027 539.0684170648256 0.11338297963532565
0.7548818672087387 0.12079570380203039 539.0836249642202 0.12073238517497677
0.7594680932488045 0.11534364674992717 539.0927586489348 0.11682493187282693
0.7639818174546752 0.11310820654835124 539.1245610629696 0.11584338565934559
0.7681557673717154 0.109718907054526 539.1363004355211 0.11137653989726605
0.7656911519324434 0.1132168317613786 539.1503512481928 0.11872179228903292
0.7682664424668433 0.11160474368596535 539.1644396255515 0.17983237194750318
0.7772432942598062 0.10272133125786811 539.1552597323806 0.10206357362406901
