x y z curv
0.12962916987488166 0.13687879721384116 494.40303479436375 0.06484833279558254
0.13509192503233397 0.15723790397390325 494.40303479436375 -2.918957011337359e-07
0.11493225283031698 0.12992575844720838 494.40303479436375 0.1715616204007087
0.09185385017038664 0.09435715505124594 494.4030347943638 0.2448909874950822
0.09110508098659649 0.08162410946321037 494.40303479436375 0.22873479155477355
0.10294985504493985 0.07726179795035965 494.40303479436375 0.19678348704064152
0.11458032464490284 0.09774596366522022 494.40303479436375 0.18213498584986057
0.1064723820146095 0.1093410353960048 494.40303479436375 0.23984052057675928
0.10797666757157354 0.08715583285933502 494.40303479436375 0.2030102037483528
0.0928829196785631 0.11228664695236812 494.40303479436375 0.21225595513216955
0.11651669199543294 0.11373077709751034 494.40303479436375 0.2047629814446346
0.13011030185401806 0.06500475441146675 494.40303479436375 0.1894058625264091
0.13286608507298714 0.11000160895520654 494.40303479436375 0.23262196427549287
0.12342422799901409 0.08945030244474024 494.40303479436375 0.1811939141188625
0.11480596770540816 0.0759493253619222 494.40303479436375 0.21383253623580276
0.1450635752318133 0.19477295772500638 494.40303479436375 -1.7838030583331952e-07
0.14586962610424759 0.22384293675735983 494.40303479436375 -1.0045826185856274e-07
0.14100814675065754 0.17826661570338873 494.40303479436375 -2.065797438139717e-07
0.16092790887137365 0.2171316283400509 494.40303479436375 -3.790228336885116e-08
0.14758250787644167 0.20626537701538616 494.40303479436375 -2.3767960674372303e-07
0.10646023766490428 0.18836475457212037 494.40303479436375 -1.3710677470568738e-07
0.12856021669744333 0.1732418924815423 494.4030347943637 -2.822105550080433e-07
0.11877532139578295 0.1953390693989513 494.40303479436375 -6.640021939534871e-08
0.11719765880578376 0.17394748644204178 494.4030347943638 -1.4149865755538777e-07
0.13216566111064385 0.18863421824224993 494.4030347943637 -2.904737938495621e-07
0.10511663026029287 0.1748009873611702 494.40303479436375 -1.7468419223604157e-07
0.13454194172976186 0.20272968358031912 494.40303479436375 -3.54169193031737e-08
0.10234388077838069 0.13485469777182535 494.4030347943637 0.17393201778306522
0.11044746639451367 0.15029043465795505 494.40303479436375 -2.8065671774592698e-21
0.09358104226295402 0.17012948272978562 494.4030347943638 -1.4613269505639406e-07
0.0958901889410059 0.1253298130468327 494.40303479436375 0.17532222057514904
0.09282733333566816 0.15040519543397438 494.4030347943638 -1.4515772163967394e-07
0.10844858566559906 0.16249648946382803 494.40303479436375 -3.480809587121034e-08
0.19454259546008956 0.26057378246760693 494.40303479436375 -2.5693792190491833e-07
0.19228820966927618 0.2721590378555999 494.40303479436375 -1.7162908348330124e-07
0.20541767045168713 0.2747445567305881 494.40303479436375 -2.3559132396143516e-07
0.17774315421741396 0.26706279903111746 494.40303479436375 -1.0166998335845718e-07
0.1674012993386138 0.2585679535258826 494.40303479436375 -3.725095550227783e-08
0.17678079798608753 0.24321697586378424 494.40303479436375 -2.397814267057106e-07
0.16070202311679901 0.22943695864081923 494.40303479436375 -3.5790444637825875e-08
0.14878989441870455 0.2403429645905018 494.40303479436375 -1.2725135562411828e-07
0.15898405041134372 0.24531271269362337 494.40303479436375 -1.0576606537638767e-07
0.1787465228220764 0.25528226192738257 494.40303479436375 -3.905263206219768e-08
0.17176479228896724 0.23048009147404394 494.4030347943638 -1.7813936461752077e-07
0.14040481381893508 0.2819803558310779 494.4030347943637 -7.218740163943617e-08
0.16187748899874663 0.2779546930808587 494.40303479436375 -1.0238168324502753e-07
0.1399168124033596 0.24982161170442202 494.40303479436375 -1.304370234035926e-07
0.1735160780194836 0.2812779601242893 494.40303479436375 -1.3187977449132206e-07
0.14635664015265085 0.2668447939121099 494.40303479436375 -1.4036436800660202e-07
0.12627783075099605 0.2555673360855439 494.40303479436375 3.772913685231445e-08
0.11477820231923011 0.255558857404806 494.40303479436375 -6.685471385476456e-08
0.12647579997044722 0.24261034358188116 494.40303479436375 3.678367610493696e-08
0.13334064721864267 0.27255033642253657 494.40303479436375 -9.913458646437341e-08
0.11465823740471814 0.2328756512527379 494.40303479436375 -3.445298949385633e-08
0.11024158231271508 0.2448945147034518 494.40303479436375 -1.0923326071943981e-20
0.10226268314705447 0.22286490705869705 494.4030347943637 -5.558841415480335e-22
0.1002561733641926 0.20112137613273018 494.40303479436375 -2.567949696204579e-07
0.11441398124943815 0.21224341965300203 494.40303479436375 -1.7341790800087356e-07
0.12499779886203777 0.21931625802767762 494.40303479436375 -1.6429040893939514e-07
0.07369816801409004 0.18728330069165447 494.40303479436375 0.01817501559086986
0.07295904004937295 0.1999065918891939 494.4030347943638 0.027648652354773835
0.08399953270274331 0.17714758086087248 494.40303479436375 0.0072960081614630405
0.05460269752807287 0.17415526977324977 494.4030347943637 0.08961866956151009
0.08354990039788629 0.2051359583093325 494.40303479436375 -6.557677015219923e-08
0.06809422345284681 0.17367248092469062 494.40303479436375 0.04507307381850084
0.09032340387069115 0.21400820442871868 494.40303479436375 -1.4951112347297602e-22
0.047143815175464704 0.12859590694649978 494.40303479436375 0.2229284792982416
0.059000810126225975 0.13554878704334924 494.40303479436375 0.10761121904003364
0.0473445695501733 0.15749183791362434 494.40303479436375 0.17562910609647062
0.058334263184805696 0.15106455162621252 494.4030347943638 0.10538025461200215
0.07313663744093622 0.1638458951204108 494.40303479436375 0.048132916956860505
0.08302857542626726 0.1415182905699941 494.4030347943637 0.06746932006279244
0.07278897934168643 0.1345505538715839 494.40303479436375 0.14880856081271027
0.06608461385234699 0.11920420838457421 494.40303479436375 0.14825077486790825
0.07914774103523402 0.11921377365300947 494.40303479436375 0.1712623608120099
0.08455887537495291 0.15967961880435066 494.40303479436375 0.002681788543522579
0.12098683530102791 0.2777270515459682 494.4030347943638 -2.3662950670459705e-21
0.1032414806169292 0.27819060501581033 494.40303479436375 -1.7563569601196686e-07
0.11209745928171183 0.2697475078717303 494.40303479436375 -7.100965884227335e-08
0.09465159154808676 0.23465404326111386 494.4030347943638 -1.3629713848892197e-07
0.09558195780677833 0.26051279463152677 494.4030347943638 -1.7622053469360776e-07
0.07958816246455597 0.2592769887613952 494.40303479436375 0.01747418650628432
0.06064437817691841 0.24311193708035123 494.40303479436375 0.10123290389811643
0.08067095623858599 0.22962673007366674 494.40303479436375 0.004339946454728882
0.07770216745841674 0.24179255183286497 494.40303479436375 0.017602335370818404
0.06833152303613152 0.23424181875954025 494.40303479436375 0.07145986373656059
0.08973979614566793 0.2483660195779939 494.40303479436375 -3.933375291890594e-08
0.052696517244793246 0.18676589047904907 494.4030347943637 0.08551752000108165
0.06223270053143844 0.19590585185427328 494.40303479436375 0.10049774402983686
0.05378805014745752 0.21066759552074493 494.40303479436375 0.12321407653951195
0.050217842194308235 0.22315736483324203 494.40303479436375 0.12215390459492909
0.06488601383491008 0.21408717065195693 494.40303479436375 0.08629265380512803
0.14390846589239437 0.29548428708888924 494.40303479436375 -1.8911190676136e-07
0.13559106762089015 0.32573562303117803 494.40303479436375 -1.4136174494702282e-07
0.15094742010096546 0.33434839066419264 494.40303479436386 -2.660804591521219e-07
0.15665889578253805 0.31748349545707044 494.40303479436375 -3.0391544654954146e-07
0.1625108084548564 0.32785353108829685 494.40303479436375 -1.499925469985012e-07
0.1397843952342878 0.31432385416970327 494.40303479436375 -1.4019645229317017e-07
0.15001932359139725 0.305604063470975 494.4030347943638 -2.855403044718496e-07
0.1693929510748255 0.31159038220901947 494.40303479436375 -1.482266993898328e-07
0.16279101346866837 0.29216024959905607 494.40303479436375 -6.849091196873612e-08
0.17739136940138278 0.3259007698396479 494.40303479436375 -1.7297181973075213e-07
0.15220821843851606 0.28737385731007836 494.40303479436375 2.1038459219379734e-07
0.11882842268639443 0.3109196983836955 494.40303479436375 -6.95352372040768e-08
0.09992145369729113 0.29123570037493496 494.40303479436375 -1.3497177935034955e-07
0.10641442403903645 0.30153496941278773 494.40303479436375 -4.847040175069828e-22
0.12331796841520667 0.289466050884933 494.4030347943638 -1.8334515502254522e-07
0.1280728940135636 0.30206441116704785 494.40303479436375 -7.395957741709207e-08
0.11888106123205888 0.323506934854955 494.40303479436375 0.005100699369979991
0.10474847287185522 0.3299351251922379 494.40303479436375 0.06322169103826752
0.10619388036195501 0.3140086565455452 494.40303479436375 0.013634925420685005
0.08336221785386197 0.28860916298363104 494.40303479436375 0.043149017045490325
0.08421360186379488 0.3194933253130486 494.4030347943638 0.10064085343624164
0.06990348962961634 0.2929806426308248 494.40303479436375 0.12552851660449674
0.08440913323762149 0.3075036075223516 494.40303479436375 0.04483453542212252
0.05705472638025991 0.28475886765205777 494.40303479436375 0.13575113608267286
0.07297030440522911 0.31053372296922777 494.40303479436375 0.11014897536220908
0.0785781930575741 0.2702231605820411 494.40303479436375 0.03610877379994063
0.050998438950197254 0.23680136151000963 494.4030347943637 0.1582505215661887
0.0507573889333865 0.2635726318863912 494.4030347943638 0.13956458074331346
0.05362804900826245 0.25251269795717135 494.40303479436375 0.18056368941819195
0.06511980630791084 0.26043080254636103 494.40303479436375 0.07925287191307724
0.1691542254980916 0.3943329668432338 494.40303479436375 0.06215929394860271
0.15228363484129281 0.39016809006698894 494.40303479436375 0.0710894833683311
0.1463356020692381 0.36724490288203404 494.40303479436375 0.13817623683731453
0.13770147657075366 0.3592900382204816 494.4030347943638 0.10785682654178498
0.17406691556913648 0.3497579824009303 494.40303479436375 0.04128176448382513
0.16117263514246472 0.34285736639500997 494.40303479436375 0.02489135034339212
0.15110649229296402 0.3541271593003553 494.40303479436375 0.07814332758022188
0.16352747283153563 0.35573415496343197 494.40303479436375 0.07163313088567337
0.16955363602784893 0.37183644149240247 494.40303479436375 0.10139524259541649
0.13217916701364738 0.345435135776713 494.40303479436375 0.07673061607548837
0.1300721177885606 0.370017907743927 494.4030347943638 0.10535493711695605
0.11222005954245853 0.3422387044563163 494.40303479436375 0.0945746421939448
0.12428264687544827 0.35962792427897494 494.40303479436375 0.09464494505421729
0.13053345641128147 0.38205152830701133 494.40303479436375 0.07625916643818358
0.1878351271707364 0.3612001289488641 494.40303479436375 0.08284841708110235
0.18594112496468482 0.3768597999731602 494.4030347943638 0.10324418632011426
0.2210148447860095 0.37360967358941544 494.40303479436375 0.0933826083665804
0.21932627855231893 0.34490244293063255 494.4030347943638 0.046846518675453044
0.21420262166035664 0.3588270437182163 494.40303479436375 0.07770760487746334
0.2015293141998173 0.3634896395707464 494.40303479436375 0.08487668269466271
0.20878916767872424 0.3744074889427218 494.40303479436375 0.11109976695185396
0.1989977287175382 0.3399934636170324 494.4030347943638 0.018370507073127366
0.19943931584963373 0.3515911820684462 494.40303479436375 0.07192143674660831
0.18334886756123203 0.3167729032420554 494.4030347943638 -1.4367429574963202e-07
0.18122396071792535 0.29677396064462613 494.4030347943637 0.0
0.19581925136601253 0.31125523825890733 494.40303479436375 -9.978073848687971e-08
0.19721282586216043 0.3239046317204598 494.40303479436375 -2.0754253664476908e-07
0.1870430044633587 0.3364632103176835 494.40303479436375 -3.533143159360418e-08
0.18627075484519995 0.42909284246844154 494.40303479436375 0.024358501906011985
0.1989253463879384 0.42350373787334544 494.40303479436375 0.01239573019615106
0.1733349044155562 0.4288068003105247 494.4030347943638 0.03532007340772606
0.15000279719240428 0.40539199137549004 494.4030347943637 0.021312195761744757
0.17190471613877295 0.4131194780328509 494.40303479436375 0.01319136938447732
0.09139625402767422 0.3435843196086011 494.40303479436375 0.08823386468126837
0.10313810170993314 0.38257573295908454 494.40303479436375 0.036835387506776195
0.10906506398438948 0.417516415653104 494.40303479436375 0.017564444745282758
0.11865360267976947 0.39893138582369236 494.40303479436375 0.018199187242539747
0.15665191035127315 0.43910772029869904 494.4030347943637 0.07626890929072312
0.12470253154295145 0.42150886782656616 494.40303479436375 0.013657158280029408
0.1279082463980486 0.44550474458010647 494.40303479436375 0.11709160532608044
0.1346604554847558 0.41430494956866204 494.40303479436375 0.011125367701002406
0.24695167659074607 0.41416715039171814 494.4030362756443 0.011105227805407005
0.21800889582767802 0.40801518951490084 494.4030349495667 0.010005186674141303
0.2712242970092521 0.44888358318187127 494.403038305241 0.20163942625540782
0.2827219679372742 0.4415113046371347 494.4030385273252 0.16832874198607023
0.22537750860161396 0.4183623203178995 494.40303555974646 0.010165935845667032
0.32225734649847776 0.4461820088999486 494.4030402228558 0.21677779095880648
0.2269231874636495 0.43652514071083315 494.40303618416465 0.08935126018831714
0.2700188207794245 0.42515214356637265 494.40303752130785 0.06483717346958966
0.28101690250104666 0.4282489981666479 494.4030380487743 0.08651936842746999
0.245447065709062 0.39063768623553363 494.40303479436375 0.03138478231075345
0.23876762538576188 0.3598861913309447 494.40303479436375 0.10286801604339617
0.23238792913357872 0.3499097372393133 494.40303479436375 0.08722725267530465
0.24148353579889184 0.40332955895245803 494.4030356612094 0.011442630219228466
0.2693297654117987 0.410799916547119 494.40303645645287 0.013090639090369166
0.29869112322698294 0.42319090257874187 494.403037775513 0.11649736249733912
0.2545431267572378 0.3980100398708388 494.40303509492963 0.011534521312741283
0.2862142884614073 0.40778091934807664 494.40303613507103 0.010253079704631435
0.30136879552625173 0.40515852465224655 494.4030358559087 0.15427441591605354
0.2748792720692395 0.39752615349595044 494.4030350434184 0.01105763769034351
0.32898739962391005 0.42510066496211085 494.4030357454092 0.15882777678190352
0.2744503461147809 0.3655507137463894 494.40303479436375 0.05896181848318163
0.29851596996051233 0.3884312245067123 494.40303479436375 0.07263392626876644
0.27857014694540516 0.3779583827500728 494.40303479436375 0.02008015699024079
0.26831207500007087 0.3500344150287763 494.4030347943637 0.07756556804641439
0.251419458600313 0.36718384387261 494.40303479436375 0.07876066370135312
0.25119583413681434 0.35572551512135153 494.40303479436375 0.11129477107208265
0.2668657225446426 0.3846409413704975 494.40303479436375 0.017202094325812597
0.297697242702104 0.3719935644120523 494.40303479436375 0.011447524134764749
0.306104455174341 0.36070317520555095 494.4030347943637 0.14398070311631897
0.27498830423611487 0.3148280775584684 494.40303479436375 0.08574650926872723
0.2977450609106456 0.3302365646453306 494.40303479436375 0.09207968715857531
0.27986649668394836 0.33650854769679095 494.40303479436375 0.13557025229430578
0.2906965293927432 0.31201919644585874 494.40303479436375 0.12162890288924481
0.2284842786348695 0.3345073369258497 494.40303479436375 0.024397478779001936
0.2435209386155568 0.33471114947413394 494.40303479436375 0.048925734058590534
0.2511858773777251 0.32243114032962106 494.40303479436375 0.04163697042477691
0.22443708299237317 0.2866031938961406 494.40303479436375 -2.9425879043981e-07
0.23374500863055878 0.32055987633595084 494.40303479436375 -1.664881185082911e-07
0.2334814211705223 0.30926084443777735 494.40303479436375 -1.6617498625427817e-07
0.26643293547166275 0.29509079118014986 494.4030347943637 0.01758430708803567
0.25303865881380844 0.2937855691805599 494.4030347943637 -1.773763578618188e-07
0.2605466150595676 0.31475849480322243 494.40303479436375 0.041954388881781726
0.2637604463915549 0.3313827937281064 494.40303479436375 0.07312346138968172
0.2534326675810049 0.3058469933961021 494.40303479436375 0.003981917656362566
0.23876072322121855 0.2922043098274907 494.40303479436375 -1.7774762772109946e-07
0.30566992291179 0.29747945806775455 494.40303479436375 0.10530435914621132
0.29407651378260413 0.2892378657219872 494.40303479436375 0.11152734407072804
0.280594118180054 0.2920220724022475 494.40303479436375 0.059542321753634476
0.3444093999657333 0.2977311747022365 494.40303479436375 0.19590241081913926
0.32353624307825285 0.28363507670535365 494.40303479436375 0.1611673800974693
0.35333179214233135 0.2866757483030617 494.40303479436375 0.12236691096047216
0.3238206654089703 0.32841975455250344 494.40303479436375 0.18107473028630935
0.32433123998884017 0.3146959334907772 494.40303479436375 0.22044781169613042
0.33698312443218503 0.31948752975605993 494.40303479436375 0.23481596005065047
0.34184657576746086 0.3417490384243854 494.4030347943637 0.1697380377187643
0.32334876060442586 0.3419607398443318 494.40303479436375 0.22645581522208236
0.34367337171900014 0.3660178247806788 494.40303479436375 0.1840727065815974
0.31346464220249287 0.3726373685775569 494.40303479436375 0.1589976904919657
0.33619921376271694 0.37930848361046066 494.4030347943638 0.206878813879162
0.31769310688490815 0.3599802201341372 494.40303479436375 0.21794464786865458
0.32125858217962794 0.40475279041141116 494.40303479436375 0.2457783802741671
0.22062142040161634 0.3116825857500972 494.4030347943637 -2.94563734821914e-07
0.2073431558409946 0.3083124990265231 494.40303479436375 -2.38050110477944e-07
0.20617538924702533 0.2940674068458856 494.40303479436375 -3.498975412962401e-08
0.19489463907753052 0.2988810970514797 494.40303479436375 -9.866552974153022e-08
0.21536945631787274 0.3252769023120974 494.40303479436375 -2.5914533328065097e-07
0.09754465398097606 0.4341330997951763 494.40303479436375 0.12065339345233168
0.09318085215768153 0.44457990141014936 494.4030347943638 0.19598915334818837
0.05793075585464603 0.41725602515601096 494.4030347943638 0.15500188370293122
0.07891340371189681 0.45040902014786843 494.40303479436375 0.1963274991922741
0.08080166882672675 0.3831174138582315 494.40303479436375 0.006027415210057144
0.048717250149453384 0.38212068548105754 494.40303479436375 0.14225771157318473
0.067528612607962 0.3536709316465474 494.40303479436375 0.058165675084773646
0.05687772704757553 0.3481913921451576 494.40303479436375 0.09001089415799063
0.08091816512264685 0.33290747437087337 494.40303479436375 0.12611193845134216
0.054670553047468734 0.2976862683186502 494.40303479436375 0.16489231070276283
0.06478494236231866 0.3216154569754707 494.40303479436375 0.09409796013735153
0.06060125192812625 0.3321304075047097 494.4030347943638 0.05698285854008685
0.030550276954564273 0.3056831773942532 494.40303479436375 0.218819405501762
0.039044346118659146 0.29448784433082664 494.40303479436375 0.18189534513814581
0.015950883574832292 0.2701387903695074 494.40303479436375 0.23596257545927066
0.026823866641476124 0.27824168201892857 494.40303479436375 0.28003819533038843
0.04526008968783468 0.2828996864690533 494.40303479436375 0.19029478552562304
0.02903022958793039 0.2381677825268305 494.40303479436375 0.22006096808546227
0.019057192274382264 0.25535093522505325 494.40303479436375 0.2892274988940173
0.034526797295617265 0.26248690036154565 494.40303479436375 0.23143981005434006
0.03890848656753359 0.23110542340188361 494.40303479436375 0.18635582193589648
0.02547766000572111 0.33131087232633116 494.4030347943638 0.2533404982291516
0.01135073795165755 0.3409566650831981 494.40303479436375 0.1601410222927817
0.03160284814583957 0.3549177241229242 494.40303479436375 0.268004435378569
0.03134699271290437 0.368278095202707 494.4030347943638 0.21964511655011185
0.03316600503652083 0.3903889443080041 494.40303479436375 0.25542393725028895
0.03888116212921054 0.4341481427990396 494.4030347943638 0.23625926382594878
0.057619401273361556 0.44708809507409264 494.40303479436375 0.20531881967374677
0.046945400970652716 0.4140635985273549 494.40303479436375 0.23936515881908418
0.059136515666367864 0.4345507621599376 494.40303479436375 0.1278358937902558
0.03339258737793603 0.40961336848175534 494.4030347943637 0.21154755735024183
0.0036472763292404596 0.24849339986934557 494.4030347943638 0.1325700026488756
0.013232219745032425 0.22485830964778544 494.40303479436375 0.28329888230548816
0.02513704604412448 0.22450739875632658 494.40303479436375 0.20856276785138803
0.0445121355095446 0.2043120394959426 494.40303479436375 0.15099828075139768
0.015426423912334675 0.18927129058946926 494.40303479436375 0.25912037917838887
0.035083558341268445 0.19094787610606848 494.40303479436375 0.2148344980114711
0.039537865085077555 0.2187979306210693 494.40303479436375 0.20218580016534818
0.024206061585059037 0.19724757572624269 494.40303479436375 0.21569734711016111
0.013517458250363231 0.2109817754319625 494.40303479436375 0.2465193600135907
0.015857666415366737 0.16755752494829526 494.40303479436375 0.2830545647418001
0.003303417894367583 0.18409025283355063 494.40303479436375 0.11799151701843513
0.025269528053385653 0.15863872125800316 494.40303479436375 0.2261479416739534
0.03902907716243845 0.14537380105971054 494.40303479436375 0.20517004058430813
0.0263400279443438 0.14602278986426695 494.40303479436375 0.2637416326639487
0.08296962856266679 0.10699918815535157 494.4030347943638 0.18187255384655815
0.06482250548005702 0.09837122747360882 494.40303479436375 0.17381426366810476
0.07722093151890742 0.096601922129251 494.4030347943638 0.2040798340032987
0.054332204006041496 0.0773938470805298 494.40303479436375 0.275375569046942
0.04953309804611432 0.10959811839426431 494.40303479436375 0.2132004578739872
0.04264638113755186 0.09929978048118926 494.40303479436375 0.23628611086943316
0.03941341024754613 0.08449345261956058 494.40303479436375 0.2805976470115484
0.03970606093782884 0.07143314341821118 494.4030347943637 0.15133766059587203
0.032433161137173205 0.11346336921064154 494.40303479436375 0.28033068515595144
0.06711015719872013 0.06606969273231211 494.4030347943637 0.2805033457374664
0.08991845374910375 0.0684965684955192 494.40303479436375 0.1590601883045163
0.06444840775305957 0.050797168692438596 494.4030347943637 0.18678648840485798
0.10960299793983559 0.03132290349567138 494.40303479436363 0.2679349208767435
0.12153152012002416 0.055440142293070815 494.40303479436375 0.140631382389499
0.10447517484036871 0.04363171699912621 494.40303479436375 0.23100655570819545
0.09326868188458483 0.03258318610994022 494.40303479436375 0.23257286793310683
0.09163153639192755 0.053205545485518174 494.40303479436375 0.2176744692678794
0.07972390469669663 0.05238764773823236 494.40303479436375 0.22328950363084477
0.14212076962351905 0.04208794573242285 494.40303479436375 0.13320908913096885
0.15173148985658402 0.011861438761525353 494.40303479436375 0.19684157277088793
0.23487680477446538 0.09801650732838765 494.40303479436375 0.18848308162877447
0.24638673415648915 0.09538296184914218 494.40303479436375 0.1869023157730064
0.24653258469265615 0.10771826404368812 494.40303479436375 0.23596694682966685
0.342667769566915 0.10499684529408476 494.4051201940002 0.16462094105499905
0.22392075249627263 0.00495110722693346 494.4051410780831 0.1095247139058462
0.3572619777505348 0.16633222004480885 494.40496575282714 0.1074844957567414
0.35881244765999387 0.2361833225087692 494.4046105791781 0.10726257522649844
0.15278197483419534 0.41185702044809736 494.45281203632425 3.305413801760999e-05
0.15163018639620668 0.3829814590827351 494.45357664085225 2.7645681922046907e-05
0.15347348228022792 0.3699451670364224 494.4539869956418 2.7499757520167933e-05
0.1454467846948488 0.39616722026870566 494.4530424940398 2.4235865329572836e-05
0.14037662055820632 0.3667706793949778 494.4536618343682 2.5736608870298017e-05
0.12996587274364146 0.4049040592479503 494.4523561328594 3.6079447174255976e-05
0.1410745823978205 0.3789014958167426 494.45337230951463 2.939709000530564e-05
0.16427931903199808 0.39497683691159524 494.4534296963918 2.959244094955952e-05
0.1488394715569692 0.331036596677714 494.4546586297943 3.370087298568016e-05
0.15425677690018993 0.3535448095606001 494.4543705227342 3.5853184992642065e-05
0.14245804310055077 0.350327264315893 494.45406573108903 2.6763565530118633e-05
0.17506015235592162 0.3600725025707101 494.4544717130737 2.9944706124867626e-05
0.16641061944863833 0.35237292476866466 494.4545366190326 1.8828317652638066e-05
0.1732228412124908 0.3383794247069385 494.4549041322701 3.2723749510888804e-05
0.15730463870147574 0.3216343978189864 494.4550572611441 4.2131733086158266e-05
0.15891665454978524 0.3426565772016011 494.4546488118741 4.220411576905651e-05
0.16673669123311868 0.3271534281182218 494.4550585773247 2.4539523548412055e-05
0.11852391758779837 0.3436171962482639 494.45320923938425 3.285659485579637e-05
0.12239578542433122 0.36408681966325396 494.4530148266281 2.5648110865813714e-05
0.11343968671470528 0.35631689822173973 494.45271466137547 7.074536663105685e-05
0.13371328370274396 0.3276315761771053 494.454209825732 1.0341974486200333e-05
0.12972295687422555 0.3754114713880634 494.4531032266456 1.786029532196897e-05
0.10952371201901234 0.3726097839909899 494.4521661598604 0.0002186417979381371
0.14335793083603723 0.3032025256680968 494.4548905230467 3.593826167140595e-05
0.13632659236400102 0.3141018009724815 494.45452518018135 1.8614487425154348e-05
0.152006667484899 0.29385671032612665 494.45529322909863 3.295471536566054e-05
0.17811333889945663 0.282402727694922 494.45580016663075 4.063795210907254e-05
0.17812937593850633 0.3160804702932866 494.4554034439656 2.974520334630384e-05
0.17436461617829951 0.2978369219819563 494.4555730952999 4.290021990496343e-05
0.16012693089131502 0.30715844205923865 494.45529164808084 3.0036173906628967e-05
0.16348644796536277 0.29491888231227575 494.4554746367778 3.207334125373191e-05
0.16461201091713284 0.27863900774418143 494.455675941615 2.58903240902222e-05
0.1853201076569887 0.34188824635562426 494.45483642949773 3.8003192321872724e-05
0.1930630905056388 0.33322627280551465 494.4549239688854 3.712146246884929e-05
0.1922109774692765 0.31072357756061386 494.45533419234 3.9860996218226356e-05
0.20314189882323683 0.30750557217887037 494.4552395323788 1.851476327880176e-05
0.20502983209719028 0.29216054626154087 494.4553931440136 2.338307693254302e-05
0.19115767509153064 0.28935194605237957 494.45559471423417 4.0841533038801016e-05
0.16706380345211397 0.25839125053372425 494.45581249667794 3.695662772086577e-05
0.17534271636016324 0.27031579483062834 494.45590234152877 3.906041657574618e-05
0.1938873372701625 0.25029458913074876 494.4558037813692 4.2354367801755315e-05
0.1867144594691832 0.2637183008855514 494.45587826622364 3.066161332217796e-05
0.19622890603045162 0.238937091142503 494.4557876849456 3.357325168934595e-05
0.18159657637835774 0.24069556961663885 494.4559705787479 4.2657080154978346e-05
0.18189323105197636 0.22705951047928968 494.45598328308733 3.307639484225702e-05
0.18140908713328635 0.25340052988909423 494.45595761767896 5.523201989409011e-05
0.13992451777672574 0.28821751965539033 494.45493726359473 3.382818376666885e-05
0.14287137488520746 0.27723106288912414 494.45515995917424 2.9735924165713604e-05
0.14571052774133914 0.26543246331042564 494.4553369539925 4.008961522574071e-05
0.15407828610004454 0.2574669033661327 494.45564496097404 2.272412754238051e-05
0.13510244811085742 0.26028790606165997 494.45496441556713 2.593788071746323e-05
0.15771239090435227 0.244142812725407 494.45571134762827 4.085764721903927e-05
0.17041225834404858 0.2278020108609935 494.45589121323064 3.6535436096338994e-05
0.16996603862192092 0.21181605219430222 494.45580598222307 4.208332919356155e-05
0.16826282020700525 0.19694393361469165 494.45564969176803 3.656153071818009e-05
0.1791830871829707 0.20532022162223298 494.45586371514486 4.8630124190908574e-05
0.2009609818131282 0.2067416109993926 494.4556191966838 3.548107917732046e-05
0.19891407364417962 0.21843811769926713 494.455748440281 2.9433436223221903e-05
0.19110338938180632 0.20070820500442335 494.4556905235779 2.6884990792051043e-05
0.1832218872544086 0.18031979269885395 494.4556022934438 2.865309023352208e-05
0.1911008230907043 0.18856925785698764 494.4555807527596 4.745564634050003e-05
0.20835490916387497 0.2426143264099706 494.45555820658774 2.670653978715725e-05
0.20602136860782283 0.2659100858465334 494.4556144149326 3.582897105309937e-05
0.2296591720940221 0.1828273177159584 494.45450192722114 3.229705197485915e-05
0.22514420709197122 0.2085150824197778 494.45487506813845 3.932895235260913e-05
0.2164218667891576 0.22066809926354825 494.45528772149424 2.841162258173368e-05
0.21696714560661973 0.19690877595463824 494.45507195653556 3.5840043927555565e-05
0.20567788423490893 0.17367026053891088 494.45525764249294 4.1151091231221186e-05
0.20758650805839857 0.18800272267442195 494.4553181859028 4.458512366746417e-05
0.19488348839013847 0.1669655348044602 494.4552847115443 3.6640862307720496e-05
0.22516827040310342 0.15730992041218858 494.4543142580458 1.6753786402433255e-05
0.2161663963973226 0.16621013922937422 494.4547746039731 3.6054970944322566e-05
0.21735739800291182 0.14434412586242087 494.45436255532445 3.473410709889372e-05
0.2265297311272836 0.1270524164807715 494.45375732788926 3.0358397457643735e-05
0.20529297384314166 0.15043469506095292 494.4548600282323 4.3248378679078834e-05
0.21522285862178991 0.13044469359408245 494.45418204122547 3.697135555208916e-05
0.15844098024797915 0.20997073252194098 494.4556442849621 3.388333384872662e-05
0.15432707057793296 0.1828689759333073 494.45535456095064 1.9809776783237288e-05
0.1700884591184112 0.18403059344187334 494.4555574518224 5.117730106366813e-05
0.17000230901705266 0.15928262822647188 494.4552061283132 4.457505834234225e-05
0.1781209065250242 0.13404445845582943 494.45484130932556 3.892405846669219e-05
0.17005747366987486 0.14631789285222316 494.45496842698367 2.739879318538391e-05
0.17350603884095125 0.1703545537457573 494.45545252262923 3.7041326212113474e-05
0.18274576702741194 0.16171624823130476 494.4553363234865 3.345530915379604e-05
0.19747557780052 0.13432833072109435 494.454665528442 2.3025414665016934e-05
0.1436532126573725 0.19639391443870602 494.45509237017205 2.9922216612987525e-05
0.13131659449660188 0.21965234756523389 494.4548555455226 5.034376659094144e-05
0.14734840935992316 0.21958029184531028 494.4554297101662 2.3146799664920478e-05
0.13050994065092672 0.20777929310655782 494.45472928350523 3.192452380403893e-05
0.1406913372630358 0.176637244458183 494.45482590693916 3.0211428337835666e-05
0.1308847250291156 0.19051709236554115 494.45460031955747 3.2538737057341e-05
0.1458354132555989 0.16385360536470753 494.4548095982217 2.8354589206360822e-05
0.15740516071261165 0.16200809895124765 494.45510462869765 2.5343098405219416e-05
0.15504991139112267 0.14034946226897996 494.4546895569811 2.7269639312373185e-05
0.16139024044708833 0.12863185167926505 494.45455145599533 3.017753322732184e-05
0.16958968688777712 0.10204025183265084 494.4540122219374 3.193008887523515e-05
0.1619759341099154 0.11183121965969683 494.45416851499755 2.2776611809517487e-05
0.17674478815142466 0.11778541030823288 494.45448382499546 4.550173670395631e-05
0.17557076987475104 0.08902662041955647 494.4537227182698 0.00016764487020884367
0.18871550631520312 0.12085091004970658 494.4544924797275 2.691534352028906e-05
0.19158648767854758 0.10690097185329171 494.4541140316626 4.2604745198036966e-05
0.19205029082387048 0.09047149225574322 494.4537014384232 0.0001675633464655876
0.20333652758838594 0.12173576112172277 494.4543484241499 2.6066266748617143e-05
0.15595517413670912 0.08966435945253037 494.45352720914116 0.0002730098534963115
0.1510288750776658 0.10502867402139118 494.4538189551087 1.706731111905187e-05
0.14011785993018483 0.130318254525095 494.45403804260934 3.5434451776502025e-05
0.14149445213075731 0.14219888612739037 494.4542806510017 2.823498847904025e-05
0.13109536512230474 0.16801965958288975 494.4543768713523 2.568957959994095e-05
0.14037205056964042 0.11299052693632411 494.45368315856234 4.753079848917692e-05
0.12868016051783243 0.10610215590399617 494.4531313928877 0.00020551927633824174
0.12930766059428414 0.1227528543229594 494.45354536177285 2.961682601559357e-05
0.12717087390706883 0.1459242585098398 494.45382018442024 2.2249276524323096e-05
0.11657328220169771 0.15335372158980015 494.4533598631347 8.807089315568347e-06
0.11402426844464233 0.17244521844702848 494.45353796728864 3.763217098854099e-05
0.11673677490913906 0.11173054868781404 494.45270020624423 0.00016897320641988492
0.10635586004903155 0.11714928875337102 494.45224725631016 0.0004716679485592997
0.11665556813204267 0.13643184321698815 494.4530954632366 6.163917125943946e-05
0.10808807451732544 0.14549124942052824 494.4527814662924 5.676238259854915e-05
0.10345481645092904 0.16325647211920746 494.4528119550798 4.668084837092721e-05
0.10031006170709963 0.13660273232572495 494.45221960479324 0.00014712259198965344
0.0889038625952813 0.15015606221054809 494.4516703992733 0.00048343980880925503
0.09881025391997256 0.1741976753169862 494.4526397545696 0.00019154948496180247
0.08656211795159859 0.18299481997172867 494.45182208756 0.0004082699638175188
0.09788468382884145 0.2092614370512889 494.4528235634578 0.00010512770468941505
0.10045425680335679 0.18900547668216403 494.45286411256643 7.790817793897398e-05
0.10207386741420518 0.24724909173120002 494.4531884221991 6.529529489190726e-05
0.09473955486965337 0.2578747302201179 494.45264445109086 0.00011498222861086666
0.08530909797585995 0.23989774920048842 494.45197522515446 0.0003337869112615889
0.09539442380987366 0.23050568260234539 494.45271824969495 0.00014986468105370758
0.08412013011255398 0.2654005441327286 494.45184894030314 0.0005650529447268151
0.09668719391936864 0.27335170673569503 494.45275081128005 0.00018208150108846668
0.1094846342370394 0.2727490456738545 494.45358910582064 3.528637607844506e-05
0.11515799313253279 0.2877919215225232 494.4537710564452 4.229542012235818e-05
0.10443994895067515 0.2988444770579658 494.4530591933787 0.00010756854857741171
0.12168027841421951 0.26822370771376236 494.4543032974416 2.2588917333397216e-05
0.12692009870068477 0.24117837210984333 494.4546305260064 1.6896772319418033e-05
0.12381743205809248 0.2548673490888028 494.4544393091735 1.723549888507813e-05
0.10771712056812377 0.26142714428086855 494.4535174597948 2.696104444071599e-05
0.11784122337398341 0.22779570400658228 494.454127258883 1.7858432752232853e-05
0.1141107785624824 0.243376692205526 494.45389952032053 3.0282525276358555e-05
0.09803765753488397 0.2892161960299472 494.452718715262 0.0001975818680135167
0.08699014848015915 0.3051247644841971 494.45180491322236 0.0005962739307148246
0.09389011844982753 0.3201808544574317 494.45213208975974 0.0002924075055408971
0.09895469037887134 0.3495460969661209 494.45202494119764 0.00022231681189376564
0.09849541491040842 0.36982150259023405 494.4516526800844 0.00047360639978631766
0.121105978537413 0.33040234043405525 494.453579904546 3.57470040644546e-05
0.10892017203372334 0.33100647804713407 494.4529076963236 7.294389252190969e-05
0.09577267633042733 0.3833307747589926 494.45122182022783 0.0004943238198187951
0.10576546327279131 0.39022556547432347 494.45157146406916 0.00032298408078559486
0.11653373666893879 0.3993829508891865 494.45184978553 8.49056523758668e-05
0.11339923434252859 0.3082493831806024 494.4534693488275 4.0258677798147686e-05
0.1270214225582411 0.2810531318101639 494.45450056379616 2.977268794287902e-05
0.12544225370235068 0.3037090216132494 494.4541723879498 3.082705761998491e-05
0.1478190471307193 0.2340592821890549 494.45544907889956 3.497410521626221e-05
0.13953781245894753 0.242285132684946 494.4551431600916 3.0767913240375505e-05
0.10676201311382674 0.21930398465065357 494.453483691602 2.7619673045790325e-05
0.1201067477159883 0.2162328747455456 494.45421989324734 2.0864714719253008e-05
0.11158301861140038 0.18460145285795582 494.4534964099969 2.2008475907279165e-05
0.10397636804794183 0.40321470525686137 494.45119047329626 0.0005172796739374878
0.11342981318751338 0.41352566011973113 494.4513922733057 0.00024782080525990503
0.10428331474564029 0.4269117671521489 494.45066403919463 0.003393519214976922
0.11923119667335322 0.42500613664772 494.4513684542073 0.0018996124297699752
0.11298229584777555 0.44637984422843235 494.4505093200074 0.0741672179614702
0.12749289929912586 0.44612111303327134 494.45106487589095 0.05505474840514123
0.14065572618697705 0.42834595720757973 494.4519775659923 0.023546792478852288
0.14468251991100825 0.4469112118227164 494.4515141452561 0.06722625956915282
0.13310391082473122 0.416259569265936 494.4521433202615 1.8065676127829476e-05
0.1517445304246981 0.4285957470423617 494.45226773351715 0.015969087341468992
0.1657960717593242 0.41313763009812265 494.4529313088718 2.5811819438497994e-05
0.17735937613456712 0.4084771852495211 494.45317558163674 1.9061862468691682e-05
0.17269469080065045 0.3803478679259882 494.45392581445935 2.4305158807688484e-05
0.16409256873559663 0.4536574677875604 494.45161452799067 0.06945465220793108
0.16369893049393522 0.43935712725444026 494.4520695282713 0.052762048710141146
0.17329847749680688 0.4239926872103303 494.45266004046346 0.005138253237504829
0.18172946357299533 0.387926687768901 494.45375845115956 3.19063411527176e-05
0.1807496697021159 0.3704399661882658 494.4542638856732 2.7562949579865407e-05
0.1893645460817625 0.37933780187339994 494.45391685306015 3.0251355954246668e-05
0.18882108763927075 0.3540938062180685 494.45454214690585 3.4792234271190177e-05
0.20142008995113336 0.3633783709909104 494.4542136934904 3.467052095920461e-05
0.19894673410674135 0.3859364067122192 494.4536296514285 2.5868861108262912e-05
0.18837067492929352 0.4148238132132709 494.4529357475706 2.1041111081174116e-05
0.2027093358516047 0.40559897103082126 494.453050751276 2.2934424296735632e-05
0.1774216448280772 0.4341301837920831 494.45236154482996 0.029891279020303363
0.18426552722074574 0.44454592166078827 494.45200382282746 0.032626786213684054
0.2000493008635499 0.4237185367428051 494.4525345401889 0.00017171938806587783
0.18826606143416086 0.4269322139879661 494.4525451325135 0.011549082196698451
0.19421104615610976 0.43801177983355766 494.4521288197567 0.04087723173420674
0.20593407622630272 0.37398622510995966 494.4538762419648 2.6027614975964355e-05
0.21930446317042113 0.37675798445525815 494.45338017918175 2.684809575639415e-05
0.21142892449314304 0.3924150397169636 494.4531955070009 2.9711279712908703e-05
0.21719354729297324 0.3633141650660519 494.453793700514 2.4247799054312907e-05
0.22344547388072014 0.3491718638671768 494.4538654327357 3.2471534643260695e-05
0.22295947912280903 0.33545051047119523 494.454140651866 3.060889785475415e-05
0.20969595593616988 0.3321229435497077 494.45465540894304 4.581546617327262e-05
0.20853089861723229 0.34987638037627194 494.4543338333532 3.9172608033596464e-05
0.2098050878960174 0.31867342485784167 494.45492543467856 2.743018929407662e-05
0.2273373264738973 0.29289120750529796 494.4546076885056 3.299586322329918e-05
0.21606405058912992 0.3034992329403777 494.4548790912987 3.5781041142679096e-05
0.22850969370811494 0.3104399657150262 494.45437990232364 2.1598235363722268e-05
0.21020088293412476 0.2796987553927097 494.4553567823755 3.749927172008116e-05
0.2221293118084432 0.28276964702334184 494.45489586797146 2.7289300096758793e-05
0.23123522361382962 0.3269599550447984 494.45400594341106 2.5762774953229058e-05
0.2479975269390379 0.3252937322255327 494.45312658462313 8.553424466275156e-05
0.235615613452947 0.34981645313502185 494.45333485390057 2.4129391786070138e-05
0.24764307632139326 0.2936165534352543 494.45351001286673 4.8579048925978845e-05
0.24276678612507552 0.31494858994858693 494.45357600399296 3.4610447147744317e-05
0.246210649263869 0.2822196534354221 494.453702825693 7.306206379220695e-05
0.23344703235912104 0.28070488730537274 494.45444398833587 1.832370849765917e-05
0.22011747343846294 0.41458565670804615 494.45236755105464 1.8410984247467042e-05
0.21745276607909853 0.40203987906745453 494.452763101725 2.2314962572250463e-05
0.2287281962588124 0.3980484920953765 494.4525546962312 1.5367788102709358e-05
0.2469884464981938 0.34382405043291225 494.45285247184245 4.0833684833025534e-05
0.2502180544836216 0.3633858131356509 494.45236804780404 0.00022208796067629623
0.23832213741755562 0.3678283548331052 494.45287247564386 2.426010883555722e-05
0.23618507887790524 0.38276843563834234 494.4525956708482 3.205275350161428e-05
0.23679367402739432 0.4092429393176744 494.4519027951508 1.7573754711483066e-05
0.2423735850227475 0.3976744293992194 494.451918155854 1.3192489260465134e-05
0.24854079186297207 0.38755785082662847 494.4518727041354 0.00023285145707013726
0.26187155463646683 0.35782979483433075 494.45180734855904 0.0005011198457681955
0.2571204170972976 0.3385943792357935 494.4524207356633 0.0002910229577182774
0.2596750534985621 0.37167255750143074 494.4517020286677 0.00024813207865383304
0.2508659371903703 0.41123612587443575 494.45122836109044 0.0001877574831672097
0.2452536789473329 0.42348930587805467 494.45119124641815 0.00013651631129291207
0.2485491592177391 0.4471481072339806 494.4504051313413 0.07344074353917085
0.23691331848451874 0.43546879764832036 494.45121357883403 0.020458759704616913
0.2311091727310187 0.4232689460746498 494.4517922493045 2.0254399919818354e-05
0.22828507147628432 0.45296062078753424 494.4509679741819 0.0714826295992382
0.22432855314702288 0.4354658734600191 494.45160923222375 0.03111754852252458
0.21752629118275268 0.449486206017385 494.451360584354 0.07937129155176305
0.21048939562851146 0.4344885463176074 494.45201863426144 0.037525977121308646
0.20491536452349887 0.44450265477981676 494.4517979689909 0.07319984712451348
0.19499706621247517 0.45100103627118737 494.4517035407298 0.07210190015507428
0.265489842821618 0.32838862099121646 494.4520398551944 0.0003804837604268068
0.2579143484516594 0.28276341847487674 494.4530266306245 5.679776391002852e-05
0.2608300376428003 0.29924385615587434 494.4526709453813 0.00027268419819080446
0.2703647749139786 0.28828062388816356 494.45209939467213 0.00032851626751578453
0.24584854346903368 0.2561829953306851 494.453860104045 3.777371340118026e-05
0.24269947219966007 0.2673318119452146 494.45402832112336 2.49813635343849e-05
0.2592210477268775 0.27081386150499626 494.45303268993183 5.4328633240515904e-05
0.2737283727305557 0.27470859950883647 494.4519372674248 0.00034529702308638106
0.2596152046010247 0.22586494065269866 494.4530515850787 9.274766765021436e-05
0.2703300538534903 0.24929928593643058 494.4522493182145 0.0002942867801136428
0.25618195582661896 0.2370124247334111 494.45329083258986 7.88603873416488e-05
0.26285217878838063 0.25771255081923367 494.4527855682959 0.0001511750719171232
0.21915619012261256 0.2523318537085537 494.4551603390844 3.1598280790212314e-05
0.22776255237015514 0.2346150975455531 494.4548726472875 1.999793423774571e-05
0.2176000611247889 0.2662729731676848 494.45520060201045 3.0993065407899216e-05
0.23213362488420547 0.2613222241945255 494.4546348614924 2.4553882340564107e-05
0.24717180927266655 0.22481435950517198 494.45381676138345 2.9883082110156295e-05
0.2398182970626576 0.24115125706826207 494.454218462236 1.759277725371305e-05
0.25001815070956035 0.20595738350203338 494.453547127834 3.5087832484642526e-05
0.2353014736505462 0.2187500334708366 494.45447857974443 2.6416353431706315e-05
0.24637368013203526 0.18912482819817944 494.45363249640735 2.976906111291848e-05
0.23368749487467233 0.1958553642916116 494.4543872752597 1.6296503382448393e-05
0.25303852824345807 0.17274807789448005 494.45312768502305 3.177048058621319e-05
0.24020937545615326 0.1664008404633105 494.45372906026057 1.7435359009010866e-05
0.27351668883862834 0.15168338749525287 494.451482942806 0.0007954403983000371
0.2639443443690833 0.21081486760910592 494.45266838414057 0.0001263274389510287
0.2582716821922759 0.18595376740789565 494.4529002714246 1.780868622668115e-05
0.2599699122773208 0.19884946191031166 494.4528699520225 0.00012022448246956809
0.27221848365903445 0.163590287048535 494.45170770906594 0.00056393323136779
0.27861197970114415 0.19600985536014395 494.451502551202 0.0006706558637744537
0.269862268890156 0.17463838007097965 494.45198145854386 0.0003884878277560012
0.25249342323158785 0.1341460585310682 494.45254858012834 0.00012089652659914766
0.25346329457867495 0.156730803928594 494.45284939428535 0.00010529631425552564
0.25345959377490024 0.11284057316133192 494.4521648312265 0.0005426760763702944
0.24029830608277045 0.14365872940955823 494.45334511778225 2.1193420870474053e-05
0.24356085585424087 0.12758815631151244 494.45292099824576 0.00011187396167047075
0.2637567545856798 0.1464156801346405 494.4520849157052 0.00027005565180657215
0.2628156708875266 0.12336177348196162 494.4518011394771 0.0007572480312956778
0.2721299721310413 0.22038473136342338 494.4521030053446 0.0002766438194204777
0.23639884319077648 0.11793688289558862 494.45314344514225 6.369322326759328e-05
0.2159696816697602 0.1161982008095805 494.4538594782952 3.6435528717930425e-05
0.22659616140213734 0.09729281117840229 494.45307568511396 0.00029294899525857105
0.23146829349769787 0.10728291501859208 494.45313279377615 6.386828848722997e-05
0.21301806532404924 0.0975469144408828 494.4535087901685 6.823688025485757e-05
0.2005603544108659 0.1001932262963957 494.45383992422694 9.80858715694155e-05
0.20490512114920106 0.08801633145920688 494.45345551411265 0.00040339865928516234
0.08915624591534414 0.45129835020767106 494.4485016315758 0.04351714844751671
0.052649834760466745 0.457733332860157 494.43767322182316 0.09329426596184826
0.04023371716010272 0.4592433712672035 494.4299786532735 0.0825924530685977
0.07264737814845307 0.4600869074439326 494.4445133906793 0.06884335463921622
0.0912132965197454 0.4561420841606829 494.4043450746587 0.21822412852745648
0.15926594280498965 0.4559315714043596 494.4042880755221 0.1653554190142823
0.13572338830796984 0.4548669872367155 494.4039214716038 0.17217748221108933
0.24427224775554768 0.45502220461635734 494.4038732422679 0.19521727672221664
0.3054278379762534 0.45590056308806703 494.4041626481303 0.23070013021314845
0.06170724176307162 0.4587427210375417 494.40684923725195 0.22067813458186047
0.2836549071328469 0.45998367545661023 494.4080665279587 0.23761311996658058
0.18118451178111536 0.4588596058496601 494.4069844773503 0.21090590099388468
0.20982077758840395 0.45698695262650807 494.4049778020175 0.16405600479728374
0.19400577968845825 0.4572922148681571 494.40534646305036 0.18224369385357378
0.11146107531538631 0.45134318544978036 494.4030353818393 0.1548968762309985
0.026448466048602785 0.45862645652510614 494.4072168111211 0.12050601986729195
0.0833356448548165 0.4613350256873235 494.4336254101637 0.08640396337796309
0.11644431640981293 0.4613350257873776 494.4324992170752 0.05621138082107394
0.06968755391988678 0.461335013735483 494.43042253208216 0.10180438563594904
0.09361654341660434 0.4613350115299092 494.42365933240757 0.11950029912137194
0.10648600845803288 0.4613350143432626 494.42305197374844 0.1284243409350258
0.12882565926235123 0.4613350143432627 494.4218479167972 0.1553629378846648
0.14981139573670182 0.4613350168510763 494.41813168479007 0.13368186531249054
0.16660688377031996 0.46133502186187747 494.41984449802294 0.18250915508749863
0.11392442661144284 0.46133502565421614 494.413791858625 0.20150747253032855
