x y z curv
0.3353505007081816 30.823125506456726 920.1794061555095 0.021302159688375122
0.34556332947347423 30.82318033206426 920.184189921501 0.061452907270502316
0.31805720793484504 30.82274555830058 920.1462676109787 -6.86228523136578e-11
0.34147446161096406 30.822972631775066 920.1660759519282 0.049548328468995845
0.2917349242073354 30.822696314041604 920.1419665003034 -2.9158305160851756e-10
0.27825488907886614 30.82278897717155 920.1500439685856 3.3566037637862374e-10
0.3019398087184703 30.82263667112684 920.1367677993485 -3.5608174012369103e-10
0.3538709139964459 30.822940930875717 920.163314547137 0.09821243067284884
0.3156968136794017 30.82261442393083 920.1348311687623 1.49616831607542e-10
0.3022696711302006 30.822964560809822 920.1653621828107 3.4853013153391426e-10
0.3535814954856428 30.822327824283224 920.1098472416771 0.08693363126793205
0.26470246976934697 30.822729915412594 920.1448899348766 5.100374228513328e-10
0.34313602012435324 30.822550044589565 920.1292237804076 0.06044915725883988
0.3483597227577544 30.822697192423817 920.1420574347989 0.08618328152677956
0.3270248160315245 30.82284876048395 920.1552698414154 0.008881474331526827
0.27885029793387267 30.822646896010397 920.137653636915 2.749648899047594e-10
0.33694729830838455 30.82243370052629 920.1190761884887 0.03807958672958676
0.290643959365241 30.822839299131466 920.1544355355127 5.725941421220208e-10
0.34048841604701074 30.822780999346616 920.1493639988946 0.0752855344523126
0.3269075837480978 30.822567089409702 920.1307061014245 0.021955298974679214
0.2710735268271706 30.823190864661107 920.1850955634992 3.1750986114724245e-11
0.2778481843770224 30.8235806901151 920.2190986146148 1.8653520220465184e-10
0.2696658296263468 30.823465382745276 920.2090397096415 2.162263066732932e-10
0.316691739541761 30.82347519008504 920.2099032377635 2.389884885617648e-10
0.28106152272113355 30.823936043130267 920.2500942505792 0.06468704867994997
0.2636935616369712 30.823310095393587 920.19549399711 2.1432259571521005e-10
0.3279108570633131 30.823416911440958 920.2048219110553 0.0016177742833327058
0.30707321127006826 30.82373524521698 920.2325844625657 3.8414353506147297e-10
0.2813531779988811 30.82372125851286 920.2313600656622 3.665974274491345e-11
0.2955004896425279 30.823719155462122 920.2311790670385 -4.2672315290373293e-10
0.28919128201651756 30.822983910352026 920.1670474344514 2.834136336381939e-10
0.3080438897912049 30.823566592588442 920.2178741814815 1.3494852348735718e-10
0.28869996129889924 30.823123516676848 920.1792242820031 -2.1883967397321286e-10
0.2647494273198879 30.822905431157594 920.1601980062404 1.477396067224684e-10
0.31787613489964034 30.823681545748258 920.2279024752208 1.462377363691212e-10
0.27347974193981867 30.824029136487276 920.2582128598267 0.08516431992013782
0.2773304809774535 30.82291744790612 920.161248314146 2.3698470707514186e-10
0.2821156085245981 30.823458062704717 920.2084033753001 3.0497159055946606e-11
0.2646645258444474 30.82304792790902 920.1726270364967 1.0699823825732633e-10
0.35494540225276 30.823354860550776 920.1994142801934 0.07023550908603036
0.3082296490681775 30.82311380324503 920.1783804073807 3.939283039810743e-10
0.2814569040185342 30.82322528272169 920.1880994105262 -1.019267505199565e-10
0.32444082643550515 30.82324916886642 920.190190243134 1.7862620014883512e-06
0.259737678382431 30.823182831990202 920.1843929746693 -3.9407377744358203e-10
0.30238334674548584 30.823259467199364 920.1910846994471 2.611530986151333e-10
0.343824409085204 30.823386989834113 920.2022147887994 0.0454492727440943
0.30578997104913264 30.82341389023971 920.2045545819753 3.1064785933041894e-10
0.27292921878271703 30.823819021986683 920.2398858731272 0.009032171251241412
0.25045953261671206 30.822829320213913 920.1535568932278 4.6316221531616826e-10
0.29500963837354977 30.823406679724965 920.2039238000385 -3.5055984639102394e-10
0.35514694645068945 30.823614781942254 920.2220809748217 0.053331161729476384
0.3437532568203143 30.823755035959003 920.2343120041467 0.031878896017297965
0.31687149113016744 30.823926289325094 920.2492466497574 0.04929473561520807
0.32493203102428897 30.82406325474421 920.2611904804154 0.11548848766678664
0.3038028968975807 30.823901817561243 920.2471128821439 0.053346232544856355
0.36253997652122466 30.82409145264638 920.2636486567735 0.14550466617722588
0.35759739974363064 30.823488136357327 920.2110368544814 0.07898009600689969
0.28998299971767444 30.82416311173982 920.2698992130471 0.10750956703121571
0.3519093723422787 30.824083966433925 920.262996053654 0.144469506199705
0.3053437655648701 30.82406990844268 920.2617711339727 0.11863804408048495
0.3575723329888143 30.82390979994529 920.2478078265902 0.07806996237744976
0.3283514188916604 30.823871438807675 920.2444631899018 0.025612284555767462
0.3416463444211267 30.823969451799304 920.253010080256 0.058803464850301114
0.33998602214252527 30.824173337633315 920.2707898826043 0.09267065222099444
0.33660021660248574 30.8235761213894 920.2187099983757 0.011539550524530522
0.296313582128452 30.823999990329057 920.2556741523699 0.10107769390176932
0.18364843878480858 30.821780852213372 920.0621048627422 -3.119408288559306e-10
0.17002849905944412 30.821787293737145 920.062666716359 1.1634693133546268e-10
0.15648530777822958 30.822278578698004 920.1055184144884 -1.8721839774689113e-10
0.148907233140312 30.82150807464611 920.0383121906677 2.24016022433001e-10
0.15470901455893848 30.82214243698907 920.0936436292234 -6.494636985761982e-11
0.21950883606323288 30.821410885702775 920.0298350102265 -1.5500772018341452e-11
0.168253635990984 30.821654173680884 920.0510554908578 3.6269446372303766e-10
0.182107570241435 30.821633825136036 920.0492806152346 -5.106370433921499e-10
0.22377746757131167 30.82115243531663 920.0072920080773 -4.1477428376343185e-10
0.20106963596583427 30.821565973470385 920.0433623410645 -1.3930099261128262e-10
0.15601447910348845 30.82128682223759 920.019013734221 4.752988826495686e-10
0.16063104721666804 30.82191604214551 920.0738966305012 -4.0357636898368245e-10
0.19847797759323546 30.821295572504866 920.0197769650164 2.2260908043955143e-10
0.13417767599080632 30.821894252468738 920.0719960540014 1.2198676688497872e-11
0.14199474607420326 30.821206564187975 920.0120133291836 2.5007537383480175e-10
0.1449371786157314 30.82178292950529 920.0622860518547 -3.74844231928225e-10
0.1401143407864047 30.821618600749897 920.0479526877567 -4.073298801511222e-11
0.136735097405969 30.822339352973184 920.1108193723876 3.018681527054695e-10
0.19683150709661734 30.821717603690175 920.0565880917457 -2.6040703889446735e-10
0.17882331699974208 30.821187507522115 920.0103511360417 -2.822722502181844e-10
0.207990838759331 30.821457206943897 920.0338753208398 1.314000940923894e-10
0.13800077999409419 30.822079286632857 920.0881354207155 -6.765170566988858e-11
0.19166542384085183 30.82149195797038 920.036906434379 -4.86200315299993e-10
0.16808902171161788 30.821158087509392 920.0077850133132 2.0571341276041154e-10
0.13620481081480096 30.821397592875847 920.0286755605134 2.672742188757232e-10
0.21023868886288963 30.821249531771386 920.0157611213215 1.1006826596052766e-11
0.14656653418594814 30.821974450583017 920.0789912312557 -8.961775950191746e-11
0.18044572071756687 30.82144850264531 920.0331160996035 5.059876346179404e-10
0.14406984367407752 30.822216766328886 920.1001269101819 6.946760734018814e-11
0.1584339940031154 30.82170042464767 920.0550896718827 -4.0169010160423446e-10
0.16643307075901184 30.821440552948175 920.0324226975068 6.766501482710517e-10
0.18147031620980283 30.82132641778577 920.0224674049268 1.287659995625006e-10
0.17246007941291835 30.8220419161009 920.0848758241843 -4.977941799809308e-10
0.3332883695324985 30.821355965814675 920.0250842419647 0.07397626515627131
0.269990231321811 30.82131764624441 920.0217041451441 3.2760194401494997e-10
0.3489310419808849 30.821754816507003 920.0598435000809 0.07837647499131131
0.2963812577153407 30.821205776953306 920.0119751217118 -2.7206582922397023e-10
0.3038863438691832 30.821348375158742 920.024403604625 -3.5670260757311186e-11
0.29529858701492223 30.821502551236016 920.0378302102505 1.2553457064303278e-11
0.3173336777602259 30.821422333770073 920.0308559197254 0.025768895579519634
0.2856984478614003 30.821328809816226 920.022687067459 1.8162073115255349e-10
0.3102804732189126 30.821211156576496 920.0124529417694 0.009815798684693608
0.320646561892615 30.82155670947786 920.042565281358 0.02527837636981671
0.33285188203195065 30.821684289326186 920.0536884115231 0.04844334618234369
0.3303599465038195 30.82149435538836 920.0371392019549 0.07221903062843442
0.3199883800783063 30.821267366398416 920.0173564760803 0.04667319219120877
0.3416143061010323 30.821603726260246 920.0466752906925 0.059771128322325486
0.2860170259878337 30.820203813984016 919.9245555611994 2.897558491492978e-10
0.27290778337306876 30.820654002350885 919.9638208054281 -4.5890900687185703e-10
0.2682711518462868 30.82018114155932 919.9225760851373 1.6991335737231147e-11
0.26393191060459964 30.820318439444524 919.9345511132141 1.4195122942018065e-10
0.2752885482676778 30.8203825422639 919.940143569085 1.8079192746660466e-11
0.24354453753525002 30.820049308681057 919.9110745772131 1.6672344361909035e-10
0.30451645411295475 30.82047351869801 919.9480819539571 0.020082577518490595
0.25407439113031255 30.81996202270807 919.903462397014 0.022275696632679122
0.2597461376610696 30.820836971949188 919.9797784888333 3.701636676548063e-10
0.2667373839536791 30.820049855217896 919.9111247633808 4.279651865272931e-10
0.24166859163547738 30.819670199644445 919.8780074420094 0.08435589746868986
0.24182845073380843 30.82069557923772 919.967443884556 -2.189440935517645e-10
0.2647259484283872 30.819870096265042 919.8954454754711 0.037091636774002526
0.2940656792623157 30.820731890041827 919.9706166788094 -1.2416853521072673e-10
0.24347657879326545 30.82043331282229 919.9445684660348 -4.186015989193978e-10
0.29307756731740914 30.82040701603897 919.9422801685562 1.8551065791571026e-10
0.24251632144767407 30.8210606526532 919.999286665453 -5.070909251326783e-10
0.2406456995988182 30.82027461594805 919.9307261816028 3.431360241501185e-11
0.2824487796878712 30.820560297433254 919.9556486399811 5.345040663611709e-10
0.24614379816085802 30.81987675844677 919.8960245536631 0.04964445029018249
0.30448502647846615 30.82067335842215 919.9655125203187 0.009558694506265552
0.31215610742806815 30.820322281736814 919.934891479372 0.05673080742034924
0.2975306462828362 30.82021508500448 919.9255398994497 0.004951529188424464
0.27192411344424194 30.820877287964027 919.9832962833524 -3.567674554118497e-10
0.2785291992322628 30.820113825044267 919.9167056664401 6.046681127870142e-10
0.3133893391621507 30.82056721091289 919.9562550087851 0.043779375942510176
0.3234611661165237 30.82034761287541 919.937102157131 0.0607976861481477
0.25239946250184986 30.820539579567402 919.9538383113595 1.1530227161892142e-10
0.24375026770203592 30.82085249629408 919.9811308297772 2.040821492618661e-10
0.2548865743363099 30.82011906860121 919.9171604593723 5.002875730789932e-10
0.26549323131100677 30.82046666326154 919.9474797711139 3.5124392623424677e-10
0.20977893540741446 30.82040539068995 919.9421323993674 1.8261853683922348e-10
0.211121721227453 30.820176412351053 919.9221601815095 4.6237906808426744e-10
0.2247977251219877 30.8206361460486 919.9622596145309 1.596014741308254e-10
0.15438957616960697 30.82112310373378 920.0047336102054 -1.7075662244783273e-10
0.176673937594659 30.82092015745296 919.9870319911206 4.4381292030915056e-10
0.18869323343974256 30.82109678433546 920.0024379487044 -3.5612061014441534e-11
0.18293673768397642 30.82060379065714 919.9594374745407 2.2388757955219131e-10
0.16778844225685194 30.82067577622965 919.9657162847708 -2.0884387502987373e-10
0.20416331980794467 30.820841252644883 919.9801496631912 -5.610338545711227e-10
0.23191190566596978 30.820784537788867 919.9752028133469 1.5326538287524421e-10
0.2286948564395147 30.81998151746287 919.9051608304587 0.01527126222893271
0.23179856534889853 30.819820855883002 919.8911474172687 0.06907361516673338
0.2332482858155241 30.820504867779718 919.9508091070345 5.369656659215888e-10
0.17753102765692566 30.820779888485845 919.9747972863734 3.166264522696192e-10
0.2120084400333459 30.820578733004353 919.957251866492 -1.0442445924740875e-10
0.22000876831233301 30.820786758029044 919.9753964697459 -3.329691149279078e-10
0.1901607710366724 30.820512718735355 919.9514938923165 6.423165477054404e-10
0.21688477577163462 30.820062371836276 919.9122132056659 4.2203164536237815e-11
0.22901243838812535 30.82091693339211 919.9867507782948 4.3615643754052246e-10
0.1658351871847838 30.8209746533293 919.9917852945109 1.9040101776248916e-10
0.19641204821871625 30.820700778535866 919.9678970653162 1.2040113791712937e-10
0.22145794798203666 30.820455309848235 919.9464865068751 -5.620822404824977e-10
0.1983961076691765 30.82098206029218 919.9924313533347 3.26009040543514e-10
0.2084326507015858 30.821115929936646 920.0041078888385 -8.852598896081212e-11
0.15210134532791672 30.820991825760718 919.9932831285116 -2.8428199995649874e-11
0.15545310781932134 30.820836072809932 919.9796978615377 5.178806756014269e-10
0.22462505901395946 30.820244639121164 919.928111137059 -3.9441810560295915e-10
0.2135087435793792 30.820934792971514 919.988308547525 -1.1043816901309108e-10
0.22959803694749792 30.82010508832657 919.9159390735995 -7.322348795463306e-11
0.34005819689564987 30.820872440310083 919.9829058720279 0.09160701878993889
0.32885386739876465 30.820713989131306 919.9690709032022 0.09345124998071985
0.27681703578934574 30.821177223548055 920.0094743388078 7.259472724599982e-13
0.2899795583197861 30.820990919606313 919.9932208907679 -8.394405119333229e-11
0.3117445281449261 30.821019772903455 919.9957502544352 0.010256747746703213
0.2834747869510757 30.820841921361456 919.980213351937 5.463189287555458e-11
0.3332038817185673 30.82117674331773 920.0094612230022 0.08882977850736103
0.32343268976811096 30.820828295472538 919.9790445234378 0.060442899900872045
0.3268892703611317 30.820996151119374 919.993696335255 0.06776271857585008
0.3404705995495739 30.820998528053913 919.993910724696 0.07259031758105662
0.2569165833767158 30.82108120284733 920.001083714196 -4.76506949295262e-10
0.2700661092971947 30.821028086426526 919.9964545534324 -4.864201239290623e-10
0.30508573303712133 30.82080394392773 919.9769098077658 0.0003449298258701446
0.3244802972773166 30.82059322019215 919.9585282402854 0.08233420386226285
0.3536826907541749 30.821887509367514 920.0894942422224 0.07848391607136325
0.36376525375339686 30.822997674541757 920.1862066981462 0.07827535251857524
0.33725504096743253 30.82029777600658 919.954217786758 0.08022099884965182
0.34713360215794736 30.82138163006709 920.035480171124 0.07653440945226994
0.3360573273883516 30.81982252383515 919.9408271505463 0.07492384380160884
0.3305774526223344 30.818695941759657 919.8965823164758 0.07691714023792487
0.3462473919538626 30.819419303717545 920.0115822757169 0.08164880927396476
0.3581297085715481 30.82155332821022 920.1200294238805 0.0758342984877128
0.3605668678135546 30.82230859571535 920.1497072540178 0.07188653923594628
0.37036073489239857 30.82338565003465 920.2538145526903 0.0893606491369673
0.36827264884477684 30.823566410624696 920.2370849778713 0.0514528728255264
0.36432618872789013 30.820352103421094 920.1728434157109 0.0572818076995956
0.34107530072563536 30.81795827127038 919.9687294445788 0.0984261951746039
0.33513133844525805 30.818232696088202 919.9256528827447 0.08915975429698933
0.25449174545828707 30.81970968129339 919.8814568147318 0.05903153143914563
0.30560572346145354 30.819711235064926 919.8816312590415 0.07243701882374519
0.2805146648261012 30.819950297598645 919.9024452231424 0.024055055452925137
0.323319044891744 30.8196895000437 919.8797506878187 0.09311461551791143
0.32095698065969036 30.820186859872898 919.9230913561123 0.06465119935134604
0.31933655831415064 30.819884553496276 919.8967455987845 0.07839439536808955
0.31038746817708524 30.820099314742375 919.9154541539233 0.040264280286679006
0.30412756261419216 30.819861174516788 919.8946966186675 0.060383309275252615
0.29159726032740474 30.819845752711036 919.8933431132361 0.048268011561438603
0.2960450141891606 30.820017688404523 919.9083298637543 0.0065600003635811165
0.2672959336426431 30.819720481782543 919.8824078042551 0.04912922147412045
0.27800256783386124 30.819664173599076 919.8775089996342 0.08811683103760629
0.29672799749086437 30.819602078294317 919.8721120004817 0.06291832862289125
0.14583278769739919 30.81986099947057 919.8946488675219 0.048046279514213024
0.09837316809486246 30.81991353809027 919.8992314521989 0.016735770801977433
0.1898927850081462 30.82012488572593 919.9176658654993 6.226308221651797e-10
0.0972822376375068 30.81967158990108 919.8781279625964 0.07569376247095429
0.13406166672689168 30.819864106942305 919.8949199109242 0.04570076654849497
0.21432659635927362 30.819609172710663 919.8726837385076 0.07839201290764004
0.08755007520889695 30.81980264156599 919.8895587049573 0.04803189553853606
0.11025015615334474 30.820643098218284 919.9628660041037 -1.407963263864392e-10
0.15146658210210417 30.82009670866129 919.9152081719195 3.084581452676186e-11
0.20532889328248005 30.81978450907242 919.8879771328043 0.05579284352021853
0.12367449456901242 30.81994162206737 919.901681026217 0.0334774136243652
0.1912814970814518 30.820001843354262 919.9069337190267 0.011950503581701752
0.15250949004738665 30.81975046287375 919.8850075145244 0.07847690317827025
0.11162948628913026 30.820344839830582 919.9368509601545 -9.438293222645911e-11
0.12943563183779813 30.820488272743066 919.9493616346151 2.3818961794951723e-11
0.12691157874130912 30.82031161388675 919.9339528879927 4.2508363311284317e-10
0.10979069650987383 30.819842411472077 919.8930275627813 0.04550168985973767
0.165373263446787 30.82000448905803 919.9071644853763 0.010483844710146876
0.14212689573766935 30.820203522920778 919.9245248507967 1.714229124093203e-10
0.18309908536079697 30.82033701759931 919.9361686812256 1.8613414887295438e-10
0.18650157381910606 30.819602900875 919.8721366887175 0.09976902479798773
0.12895762662350618 30.820690297575677 919.9669828822235 1.574496031006352e-10
0.11897625188163453 30.819736046648853 919.883750085161 0.07999905575482989
0.13986285314465938 30.821028484392198 919.9964806107232 2.117273346676102e-10
0.146199398803403 30.8206456708565 919.963090398248 2.533418382509401e-10
0.13028588558858073 30.820095990525083 919.915145533523 2.3271736510367894e-10
0.08842574465730038 30.820242384408942 919.9279144725363 1.3656231775040523e-10
0.1800813143720905 30.819746793229985 919.8846874368974 0.09399275579927446
0.14181328902573062 30.820327241717173 919.9353159971963 1.8016380498565133e-10
0.145527437550785 30.82051950212847 919.9520855610168 5.173642674211251e-10
0.1721987612410834 30.819618428567175 919.873491063165 0.08682388341659915
0.17491296529700953 30.820204629083058 919.9246213342108 1.1064980529842615e-10
0.15042708793035225 30.819597882521872 919.8716989715477 0.07558392552310786
0.19433313433261348 30.81973031224814 919.8832499134955 0.08385779547987501
0.184727301549905 30.819883796245 919.896637275106 0.04749558977100198
0.08290330629205628 30.82001968057584 919.908489536742 0.0010056325818532284
0.11294268617128608 30.819975744689895 919.9046573096022 0.01912363971709132
0.20190755483882056 30.82008075926246 919.913817015348 4.2241609484150217e-10
0.11647965192477146 30.820494813085098 919.9499321038533 1.2590861411694446e-10
0.1762068250316632 30.82046605630693 919.9474238470949 -3.772909380763142e-10
0.15410619264254705 30.820318183246286 919.9345258887522 3.621128471486239e-10
0.17842321743268183 30.820029844056876 919.9093760290838 5.130446017113091e-11
0.1428914873755452 30.820853701151137 919.9812354612933 5.458877016722047e-10
0.12767658805768228 30.820878086961223 919.9833624689109 4.117297166472711e-10
0.07302943667490283 30.81979872148836 919.8892167831461 0.06797170950993923
0.11678065817608188 30.8201061500859 919.9160316825125 -3.4158047640881883e-10
0.2169544369316291 30.819739894545208 919.8840857121774 0.06882468296908988
0.09635749145489036 30.820332406813158 919.9357665126834 8.816899452158832e-11
0.10095859290536167 30.82015875731011 919.9206202515049 1.444635916888123e-10
0.16366908819952236 30.820250107327837 919.9285880910322 -3.5922215471674225e-12
0.20993439606241293 30.819940731762834 919.9016033721493 0.03515880227883061
0.15829861118302213 30.820551735479278 919.9548970564265 2.3447147837706346e-10
0.054153091172978916 30.820186098373956 919.9230281766786 0.08133679558195722
0.0700327267032953 30.819966522181012 919.9038537520502 0.04281145630690146
0.07811956440164744 30.820469210821734 919.9477153121991 2.9589820547942975e-05
0.10035842569011559 30.820553141587865 919.9550218809334 -7.281092568295505e-10
0.08913045271977242 30.820429258097136 919.9442199516343 -5.31931683646426e-10
0.056982497634108245 30.820020507963797 919.9085753652308 0.06618297043275764
0.05737033036222817 30.819758331385447 919.885695741525 0.08317822646016747
0.07139698575529653 30.820096181719347 919.9151676341171 0.04749566426472003
0.08805687389616249 30.82063343339647 919.9620385377443 -2.0956005472368795e-10
0.10708224431926827 30.820804588666572 919.9769594828423 -9.877975883691146e-11
0.065593440424049 30.82037314683559 919.9393421414 0.042991037538671624
0.11718892603276271 30.820935719406787 919.9883947540256 -7.761217858482107e-11
0.07455771339311923 30.820224210451762 919.9263377629513 0.013676837558418052
0.07172994206564612 30.821330612961745 920.0228633235449 -2.953568484910425e-10
0.055126191424700044 30.82115162422479 920.007260494032 0.03148538413878333
0.0488015134919359 30.821025142320924 919.9962321488324 0.04820297000419247
0.06965488136161793 30.821000427653868 919.9940663851983 0.00609225089667123
0.08934166208665803 30.821131964187014 920.0055290400303 2.306139569624224e-10
0.05154291646231249 30.821289044301906 920.0192476913649 0.03685368258999439
0.10589648351993604 30.821105327959817 920.0031977874099 -9.792920429006838e-11
0.07678511630868046 30.821120216473226 920.0045105815069 -2.14293708657989e-10
0.04346022847361169 30.821184541182497 920.0101371427623 0.04331936744140198
0.039906029193968684 30.821334356724332 920.0232054279526 0.077439254881102
0.09880290632146135 30.821251640843514 920.0159623123892 1.236549929015916e-10
0.06588061762529923 30.821205331566745 920.0119394510327 0.0048825131686734856
0.07182714925410366 30.820868055497996 919.982517413101 0.0016755872991969407
0.083044417610886 30.820849199476676 919.9808660755443 -6.074189578320447e-10
0.0925461107510648 30.820786396587337 919.9753816229352 -4.1818387616365896e-10
0.04690702172971119 30.82085414402679 919.9813176670872 0.055360644101901085
0.06692646465945352 30.82064731031182 919.9632615914752 0.008394685908597101
0.0616125942913571 30.820538740681805 919.9537925789178 0.035055466485951224
0.05618788131060822 30.82069254556243 919.9672140751968 0.045928368478258534
0.04664540889923635 30.82050106168895 919.9505137064682 0.09262532660526948
0.05198142417409228 30.820371657727534 919.9392210791824 0.09976031210862456
0.09264897097693897 30.821006015350342 919.9945418550508 -5.119427589526676e-11
0.05760820994353665 30.820848465069815 919.9808162302002 0.04754899025943557
0.37334349458217647 30.648058065830234 920.2699748531321 0.10252876566828814
0.3728475118393575 30.708785305001065 920.2703742915879 0.12679877770954312
0.37274152494497487 30.636227197148514 920.2706237977599 0.13753814938926934
0.3730029391738127 30.577583598564388 920.2700952324757 0.1203945724397205
0.37141378310940365 30.50040894341185 920.2714155827525 0.12650151028541778
0.37165882282429824 30.405411280800134 920.2713706854947 0.08773540866010018
0.2814523349001375 30.24919595663352 920.2701820434559 0.13938470335973233
0.27088304553034637 30.243509399564587 920.2702524635044 0.11605400202135695
0.2409603081150723 30.23189498177435 920.2704708070772 0.1925364540298787
0.2189938518888682 30.226250982739646 920.2700034226355 0.12299504732144097
0.054245419992675625 30.281020015168615 920.2699968720568 0.09624931634301145
0.024775421454641365 30.323019706443056 920.2706478500783 0.07889817641846662
0.0027512038840949316 30.42994676586268 920.2703452909083 0.12752795394648586
0.02092227825291067 30.337868083260688 920.2715847789227 0.10628911151310187
0.03362915331623502 30.31053047674537 920.2715847789227 0.08427211447952497
0.033650779837129004 30.33060802455682 920.2715847789227 0.17865989217363512
0.04162222754678416 30.3018415380676 920.2715847789227 0.11890685442431424
0.04052720690290399 30.319702010412943 920.2715847789227 0.18690705449776301
0.02287976081207746 30.40377161527048 920.2715847789227 0.21665778403234345
0.03402839447678565 30.375050116966573 920.2715847789227 0.24134037884596232
0.011376506598468082 30.45352884646117 920.2715847789227 0.2022256041936308
0.0657000923583774 30.307804874722592 920.2715847789228 0.23631201380258296
0.014090299249237038 30.44245262961441 920.2715847789227 0.1884308306733488
0.04983513174319259 30.34020255259158 920.2715847789227 0.18266288828244512
0.05385598393287919 30.29268141921805 920.2715847789226 0.14806635538717663
0.0170002806078907 30.392021595739756 920.2715847789226 0.17798708989713247
0.07859637089963803 30.261795403304305 920.2715847789227 0.1362993329931178
0.06795111344213511 30.28159640046412 920.2715847789227 0.16202147852720608
0.051597874248976466 30.312048925977326 920.2715847789227 0.22657299659811164
0.0607823537762282 30.608548017205404 920.2715847789227 0.06558254652648578
0.0656230916908163 30.621075274853872 920.2715847789227 0.04760793321269477
0.03657936712048067 30.561466137321286 920.2715847789228 0.09485632705796446
0.03017641372040552 30.552963756207614 920.2715847789227 0.16173164100993917
0.10944543412479583 30.43198500621275 920.2715847789227 0.06431629606297229
0.093731845025561 30.560734044373774 920.2715847789227 0.07368384643401113
0.10096393411152932 30.329261731103955 920.2715847789227 0.05932822991746241
0.06158949777219614 30.51845213548768 920.2715847789227 0.010004909301601602
0.1317583422792593 30.607005882290842 920.2715847789227 0.0725652198492657
0.1350805988758121 30.61977499047194 920.2715847789227 0.03754060832946899
0.115905881895475 30.330756710326867 920.2715847789227 0.01086819267612099
0.08349161490576512 30.357678812795324 920.2715847789227 0.009793152443462218
0.08467147224394285 30.307084907255067 920.2715847789227 0.10630482813236948
0.060523160067677856 30.385888135567733 920.2715847789227 0.06063985177003245
0.11180698308855921 30.342115061471105 920.2715847789227 0.0542054348155975
0.024549224092946277 30.500025014396453 920.2715847789227 0.20159464613041633
0.09645595812632962 30.422975750486597 920.2715847789227 0.0646971355082929
0.08197085867432342 30.563915083120715 920.2715847789227 0.07467248438845392
0.12365105361181807 30.53323464563531 920.2715847789227 0.07202722495962847
0.0772922981169432 30.42939790908492 920.2715847789227 0.06988795520791828
0.14463904331151145 30.598441515612592 920.2715847789227 0.07532327063493288
0.08341806091065236 30.374190333579385 920.2715847789226 0.06328367017448468
0.06498394324633985 30.34267256394513 920.2715847789227 0.10856346489611228
0.0950381698367605 30.502720701655974 920.2715847789227 0.008826087544850635
0.04642328715604891 30.431557108432074 920.2715847789226 0.07455733279345701
0.07331115277994493 30.54817978802127 920.2715847789226 0.0644448744226354
0.0064309228820763325 30.484993903341877 920.2715847789227 0.1599994054165671
0.036068058830539505 30.447994158823636 920.2715847789227 0.14199231005115162
0.03212581976360481 30.484765542932028 920.2715847789227 0.1261886781992745
0.1617981296122499 30.58056865089731 920.2715847789228 0.06048850030903986
0.04083306621450296 30.502733595768227 920.2715847789227 0.0688010711734344
0.07184089541735648 30.53452170489261 920.2715847789227 0.06527802522329948
0.05864549183921395 30.44942067831623 920.2715847789227 0.0983117057368757
0.14376709235191523 30.506965411539 920.2715847789227 0.059159582534706906
0.15642906335228182 30.606168014561163 920.2715847789228 0.05678042157089913
0.09231946817964339 30.351509542480734 920.2715847789227 0.0589456292867176
0.09957623535851753 30.307978209355067 920.2715847789227 0.11207980876948455
0.05527745416467778 30.507834444837673 920.2715847789227 0.07037127095060594
0.11082673568552442 30.39758207167622 920.2715847789227 0.05914075989096449
0.1368580212721481 30.528495650262542 920.2715847789227 0.07123098722720105
0.10625454296274442 30.414387712268507 920.2715847789227 0.00915957148454377
0.11050914826535257 30.3540813153623 920.2715847789227 0.05891970013544213
0.15605976905226523 30.570848280071782 920.2715847789227 0.009169848587844222
0.08008260855220396 30.5159431552012 920.2715847789227 0.06836888686243675
0.13618737834605726 30.415599141695793 920.2715847789227 0.010425664594337365
0.045932989433256764 30.418154081560264 920.2715847789227 0.06759142671984748
0.04300186577103905 30.46933753735484 920.2715847789227 0.0633766330604674
0.0820629187253894 30.346027062208087 920.2715847789227 0.06017182552666215
0.0982187834310742 30.438342079371154 920.2715847789227 0.008490384987258372
0.15258768882716872 30.55912901551783 920.2715847789226 0.009911681796136345
0.098842379733335 30.29162197895336 920.2715847789227 0.027156769690805143
0.0652894114855995 30.47577630874987 920.2715847789227 0.010677005653269058
0.06187643846972994 30.543890300786224 920.2715847789226 0.0102548648265709
0.10150518422607831 30.38452021501991 920.2715847789227 0.06555520869515734
0.12475923724600874 30.414624589961978 920.2715847789226 0.06966757119750093
0.15495252655988725 30.634969380014184 920.2715847789227 0.1047746922063962
0.13540401330725096 30.435018023305183 920.2715847789227 0.11572412636773201
0.08424869283527872 30.50497701324536 920.2715847789227 0.06363481744647612
0.0523407034856096 30.461458145855854 920.2715847789226 0.06393299725197002
0.0702292799065127 30.438334984187804 920.2715847789227 0.06675110753315852
0.047266849406873826 30.520869629278177 920.2715847789228 0.06100194363013915
0.17636225721918802 30.669732174153246 920.2715847789227 0.1520276269685864
0.029179971021239894 30.472561380782338 920.2715847789227 0.1644067042760618
0.03611350760783146 30.409940692180292 920.2715847789227 0.14877052876024824
0.08454401191058497 30.451795571801146 920.2715847789227 0.06812257328941332
0.08593866910109094 30.549655484751703 920.2715847789227 0.010201766746192427
0.1257980395261374 30.562996469111603 920.2715847789228 0.08240567597712456
0.14215770305334977 30.568837579822173 920.2715847789228 0.07371745255233238
0.056205823562428134 30.4038360506232 920.2715847789227 0.05948666921701612
0.10136026470859402 30.48726519291421 920.2715847789227 0.007744083608698474
0.07509232925958718 30.33263816063353 920.2715847789227 0.010114951607154957
0.16867831725523516 30.643581152460236 920.2715847789226 0.14944208109511603
0.04781096575007698 30.482011679378644 920.2715847789227 0.06257891788457906
0.14902993460763914 30.517716995169906 920.2715847789227 0.06843669932567939
0.08692340627167239 30.438595514697255 920.2715847789227 0.06945039961089781
0.07382024487848458 30.468248826146848 920.2715847789227 0.06576071558632147
0.09590701214043507 30.31933201163319 920.2715847789226 0.0541158590724354
0.1212487527282304 30.43632259057977 920.2715847789227 0.06726057262475925
0.09218981642197091 30.47562320382952 920.2715847789227 0.06068873857520496
0.06466918547961456 30.37286222205504 920.2715847789227 0.12299695223797788
0.02519973789374582 30.449312076458448 920.2715847789227 0.2779043225523129
0.13549014457094666 30.589058368925134 920.2715847789227 0.06589984481422004
0.07878377389502653 30.494091982188838 920.2715847789227 0.010682810972405794
0.10983020243537796 30.44615757232256 920.2715847789227 0.0063463383170990284
0.03841827126632106 30.513469256969145 920.2715847789228 0.08342856442030619
0.08738599454566197 30.41176469695909 920.2715847789227 0.07197307367792827
0.08502215476615377 30.389916201298345 920.2715847789227 0.06891301629228376
0.0993338127593921 30.27746768969517 920.2715847789227 0.17061194995481832
0.13058070140366335 30.543098546143614 920.2715847789227 0.010628247647528734
0.08913984868693102 30.286667103235157 920.2715847789227 0.17070619482277924
0.10721981838322879 30.563111372137804 920.2715847789226 0.010185613308693848
0.13293998724758627 30.40500773918339 920.2715847789227 0.10979765085046936
0.07749672435145077 30.47918188381287 920.2715847789227 0.0717903158809876
0.12528218589550916 30.388107933040764 920.2715847789227 0.010105594627902796
0.06816225927341962 30.359230145182984 920.2715847789228 0.06571501639311829
0.07170098575891554 30.41296149283805 920.2715847789227 0.1365250502341774
0.11398685970722144 30.551290518177467 920.2715847789228 0.01051234065396716
0.05729640330422506 30.532891650475577 920.2715847789227 0.10755786146906512
0.13119728014936746 30.49561996938462 920.2715847789227 0.05606337105117338
0.06698616167530255 30.48727906583247 920.2715847789227 0.060218809462879344
0.06053008489552422 30.430806124473015 920.2715847789227 0.05690894518799047
0.16184571813837104 30.622615942530018 920.2715847789227 0.05865194501609209
0.07325682895776396 30.318957561753486 920.2715847789227 0.06809381705798992
0.17188577521842402 30.605504163641225 920.2715847789227 0.062351000663732885
0.11924576183506416 30.51542855474591 920.2715847789227 0.06007340516490017
0.0616343053917786 30.32504541328562 920.2715847789227 0.14467767348623137
0.07683214845678484 30.290919943510666 920.2715847789228 0.24923114445780722
0.054653179868794505 30.35190002979724 920.2715847789227 0.06972954911855987
0.08039864433178207 30.279301927431504 920.2715847789227 0.25316178689457813
0.09021036705629021 30.262389668555166 920.2715847789227 0.2092020175948438
0.1114889239154343 30.602779388877288 920.2715847789227 0.01107619141808483
0.13636108811305822 30.678856147736056 920.2715847789227 0.10357600530155542
0.11546779366284335 30.674460279232935 920.2715847789226 0.13850233951996566
0.12734692745230808 30.652437425257865 920.2715847789227 0.13830205805496518
0.11933692033464763 30.662176470372053 920.2715847789228 0.12415899811686466
0.11165595043654643 30.645544554613146 920.2715847789227 0.13860910875023247
0.03989096556988923 30.53318005197193 920.2715847789227 0.08614152677978239
0.09718033358224988 30.619624117409835 920.2715847789227 0.08181827573060417
0.15322223884564684 30.646356170968218 920.2715847789227 0.10769560585662326
0.050463120725927665 30.54584092905944 920.2715847789227 0.06165968612611122
0.027801269481265593 30.529002803478463 920.2715847789228 0.1952834473527343
0.07140282276762894 30.594327656322164 920.2715847789227 0.01125067955141613
0.1653097363274599 30.664290163803578 920.2715847789227 0.11597083363911814
0.09406924539795532 30.651956427554033 920.2715847789227 0.0952109744199225
0.10631867536564119 30.664416987465756 920.2715847789227 0.11656425684707247
0.08963098073661441 30.666122723460287 920.2715847789227 0.11968614408999598
0.08875144957946823 30.598701657131755 920.2715847789227 0.059832677655236456
0.12359101528101872 30.6392195634441 920.2715847789227 0.12505371263114698
0.05956909043664745 30.56637462436289 920.2715847789228 0.0647321240429019
0.02143052898124532 30.51690317396057 920.2715847789226 0.24008415496906305
0.12289637927958141 30.61432075926114 920.2715847789227 0.023427590818073274
0.07231003880520426 30.608432919716304 920.2715847789227 0.06480512029777039
0.06570987188676708 30.57706699418383 920.2715847789226 0.07425684237658871
0.13675147118765577 30.662049258480664 920.2715847789227 0.14284336502454295
0.14005236526846454 30.64635344632525 920.2715847789227 0.11532396578114909
0.16162653495187362 30.683519460679282 920.2715847789227 0.09988395153847841
0.08393546229652496 30.647568811034418 920.2715847789226 0.1109910199010985
0.15362664164737516 30.675330588768276 920.2715847789227 0.1319101885809833
0.06032745701155574 30.597656446655762 920.2715847789227 0.07892531024704312
0.10113717911772903 30.59104340022138 920.2715847789227 0.010592064603734455
0.15506622202602158 30.658459275887147 920.2715847789227 0.12174444387397765
0.012949210896970218 30.58841478801887 920.2715847789227 0.17091248878346282
0.07079407392860436 30.64461788195144 920.2715847789227 0.15436407232245616
0.0664043473418166 30.632239019245965 920.2715847789226 0.11418248276575682
0.01248489143704462 30.573610355303508 920.2715847789227 0.17191961943713205
0.05271248355715678 30.61862877294585 920.2715847789226 0.07510840551231227
0.0431855717724585 30.607600233010146 920.2715847789227 0.014455051166541335
0.08030010800058983 30.660457633119677 920.2715847789227 0.11374390655151417
0.038521186042928354 30.577338182507454 920.2715847789227 0.06195907328652966
0.03098161830564934 30.587961988635 920.2715847789227 0.14257634226606133
0.05349971953950804 30.66545272208781 920.2715847789227 0.10770207313297706
0.09154444531096456 30.68029760455629 920.2715847789227 0.11806539156092151
0.0409925016011649 30.65123214059723 920.2715847789227 0.1332633425152406
0.033386868796374786 30.643768102833178 920.2715847789227 0.15069298553901223
0.06312962629796301 30.658761461133825 920.2715847789227 0.09635612187999273
0.028408279479527152 30.61835428104493 920.2715847789227 0.1840368824551088
0.059026220137130186 30.647278887377745 920.2715847789227 0.14797750129774623
0.0515512163176619 30.681567971474987 920.2715847789226 0.09377797821233984
0.017415367092320687 30.61078925653217 920.2715847789228 0.1954223870629765
0.06767548148679182 30.6769273572489 920.2715847789227 0.09845912333092942
0.013269484718254813 30.659865948050328 920.271584766173 0.1482566591687466
0.0046024680578928895 30.652171105808915 920.2715845959916 0.14188395128174322
0.007557455175957347 30.62872459029787 920.27158473856 0.12762022039364965
0.02015157707959843 30.64549018047413 920.2715848562812 0.19194288605983875
0.024291526033709054 30.655244580221925 920.2715848631062 0.18559588923981182
0.03949130901497321 30.66438019837024 920.2715847957089 0.10199041561547
0.034219122230472236 30.68315070425561 920.2715848951204 0.13186338920586835
0.02757365658987389 30.672463441422916 920.271584901391 0.15627639754691114
0.021554183400737847 30.631298519418237 920.2715847979567 0.24423305583842791
0.004608541097379631 30.675233612882923 920.2715845407228 0.15354962761605134
0.14286900126323038 30.36975526003124 920.2715847789227 0.06999006758665215
0.1569130361051734 30.42539981641928 920.2715847789227 0.00818293454665356
0.17201273037184553 30.560426560922625 920.2715847789227 0.009722986144932267
0.15487708828079977 30.409677131865244 920.2715847789227 0.06932083301706171
0.1492732283425549 30.293353645367958 920.2715847789228 0.07858306153726603
0.16649970264356828 30.534421100182023 920.2715847789227 0.010421152417167777
0.13570398194218858 30.261481566741267 920.2715847789227 0.17913976287566655
0.13737435438342502 30.275427775585285 920.2715847789227 0.060597564954156864
0.18487063751745136 30.658393607985538 920.2715847789226 0.11735399285628886
0.15047151504654238 30.39673192116589 920.2715847789227 0.06074081435202181
0.14724256595391633 30.339990144637795 920.2715847789227 0.05815692900676226
0.14729534832151692 30.32400534439788 920.2715847789227 0.10832689100670317
0.17902537323121 30.593034972669656 920.2715847789227 0.010853118548916546
0.15773767063850072 30.367718274893218 920.2715847789226 0.06823706204710586
0.14383533367261578 30.30328686674372 920.2715847789227 0.08284487386231021
0.1503094979943554 30.351776245040377 920.2715847789227 0.010577992638301524
0.14693112206056957 30.43821724941833 920.2715847789228 0.0093698860165318
0.1111863243925087 30.26143148793581 920.2715847789228 0.2624987598552485
0.15465941807402195 30.50499271855299 920.2715847789226 0.009811829857958077
0.12832601571184205 30.364925215427192 920.2715847789227 0.05481373249445373
0.11841358518343777 30.286798122467637 920.2715847789227 0.09678015987577213
0.15673230786601444 30.492715777636118 920.2715847789227 0.07639897696778938
0.13216911917406982 30.327129081603516 920.2715847789227 0.05460580710251924
0.13113296933909063 30.309219813357352 920.2715847789227 0.06199978397757783
0.15583189074492904 30.46109407454826 920.2715847789226 0.05730041262707234
0.1625701483141102 30.515284217887675 920.2715847789227 0.009590585241209678
0.11183283768518523 30.276568208019096 920.2715847789227 0.14475578246739965
0.1503150411354484 30.483132089024565 920.2715847789227 0.07129126878417133
0.13577957765467974 30.39212440593623 920.2715847789227 0.061034841690366146
0.12460458086023543 30.34004956477332 920.2715847789227 0.0734696840672449
0.16131220951594186 30.385761588761127 920.2715847789227 0.060108546984926806
0.1484466147486806 30.25887220012108 920.2715847789227 0.18173394463596085
0.16482439120043185 30.39827785826746 920.2715847789227 0.1144003188183248
0.16540625488641786 30.266752792040666 920.2715847789227 0.06401911151544162
0.15068854264913056 30.273363518237655 920.2715847789227 0.010321693184276587
0.16680709257253198 30.32086708760469 920.2715847789226 0.11436325736192614
0.16815442915203116 30.36367388994919 920.2715847789227 0.06098545247308452
0.17320137198266405 30.432311170099016 920.2715847789227 0.06387935386585766
0.15971251924918656 30.24824673875925 920.2715847789227 0.19634377541207002
0.16873077617702564 30.469749972523946 920.2715847789227 0.07014795111361945
0.17181263786773332 30.45523805042004 920.2715847789227 0.08223378776451488
0.15605244097728024 30.235185893054147 920.2715847789227 0.21684693523134815
0.18462331046700775 30.625186733716138 920.2715847789227 0.056459772364029596
0.166202821043262 30.444576844667232 920.2715847789227 0.010160372751400921
0.18095446345018978 30.575954569986692 920.2715847789227 0.010054855191145119
0.16754584210691217 30.308955073723144 920.2715847789227 0.09906649621309908
0.1825126403405472 30.233627780554695 920.2715847789227 0.18705393377047916
0.1873349461441918 30.333567803722364 920.2715847789227 0.010504241931804447
0.17219043034584666 30.25591645387419 920.2715847789227 0.10196882619660075
0.17539378670113048 30.393457292143296 920.2715847789227 0.06354557195679014
0.18393678802458338 30.405316137687695 920.2715847789226 0.008546178086435974
0.17379142690906274 30.27622956356035 920.2715847789227 0.06686783207549793
0.1800762702824258 30.265731559977596 920.2715847789227 0.0641729020740651
0.1844157448459856 30.525467908077218 920.2715847789227 0.057459517706170554
0.17961100740592656 30.377963762735167 920.2715847789227 0.009598935285838365
0.18765758620278936 30.368423297186645 920.2715847789226 0.10280496624721994
0.17082316102854211 30.297073271971794 920.2715847789227 0.10093603866811436
0.20196227938758218 30.336669942006033 920.2715847789227 0.06718600633914454
0.19400925148301468 30.472310094934294 920.2715847789227 0.009692847299063969
0.1919116111691782 30.38499946785497 920.2715847789227 0.06940880159534422
0.20732396994526048 30.26812741063017 920.2715847789227 0.1117863179580922
0.19523441826009946 30.502619845072914 920.2715847789227 0.009398777596520592
0.19683479764535858 30.24512990938772 920.2715847789226 0.19426792666089684
0.18930516684188184 30.4272508952535 920.2715847789227 0.0612018700019339
0.1951797637832742 30.45823516317124 920.2715847789226 0.06563785401246064
0.19086156935813212 30.262446098996516 920.2715847789227 0.07517746140331434
0.20614676750760885 30.283614676142015 920.2715847789227 0.06321699937156286
0.20473684708007744 30.296596277604024 920.2715847789227 0.06653500488458819
0.1908433805907107 30.32069300032625 920.2715847789227 0.12674011552271558
0.19139662023444345 30.58932372777222 920.2715847789227 0.05656572751480213
0.20664512990168513 30.229010757689746 920.2715847789227 0.21309891150000618
0.2326349594725465 30.258170322153212 920.2715847789227 0.14847699658279231
0.22176972908497655 30.40610805663608 920.2715847789227 0.009438629798144896
0.24413782134229353 30.243640170097848 920.2715847789228 0.20149462368566845
0.20531201611453945 30.524955938701506 920.2715847789226 0.009490778907703666
0.20777223994007565 30.481217405954006 920.2715847789227 0.0711127246356972
0.22953609559900034 30.34343213052842 920.2715847789227 0.05652358393579226
0.23038786894923854 30.281974706590194 920.2715847789227 0.06631431464531047
0.23782146640182394 30.30986123170098 920.2715847789228 0.07143711052898663
0.2277699065620017 30.38609940470242 920.2715847789228 0.056890333236859186
0.23303944707548657 30.242900450004726 920.2715847789227 0.2502095646857907
0.21816509756740302 30.439545609581323 920.2715847789227 0.07270774488435669
0.1944564158804578 30.617722929208014 920.2715847789226 0.044101022687465734
0.2160904200950982 30.454650971053262 920.2715847789227 0.059837785024258586
0.31854809242460635 30.415386374997944 920.2715847789227 0.06936450192185445
0.23715733378657 30.595293125699232 920.2715847789227 0.0631425252896812
0.253960627104707 30.42094858143095 920.2715847789227 0.010407166732666387
0.31077662940471473 30.366774054360103 920.2715847789228 0.06763635923802616
0.2237221922256391 30.557194207922457 920.2715847789227 0.011765803499267452
0.3349214724068825 30.42567510386397 920.2715847789228 0.07520069452945223
0.20961334073064464 30.641977970896438 920.2715847789227 0.12935810392359365
0.27922442276574483 30.310333104899293 920.2715847789227 0.05773808331586409
0.3063097205853776 30.41555286951487 920.2715847789227 0.0671194886005142
0.3602403611884893 30.462268732232662 920.2715847789227 0.17900912735072155
0.22586244273059725 30.607205114140637 920.2715847789227 0.05915360522430662
0.3076003469818033 30.492882987082076 920.2715847789227 0.00982954590700294
0.2863167801441656 30.460347611088693 920.2715847789227 0.010444881159805897
0.3070879171557267 30.444259978383588 920.2715847789227 0.00949886844765815
0.24067843529771213 30.618202632054366 920.2715847789228 0.025931154636604996
0.3317454705072967 30.437938384367822 920.2715847789227 0.06611217485901773
0.3284784738849516 30.449554699350067 920.2715847789227 0.06552060925939601
0.30952742254286436 30.33558635489131 920.2715847789227 0.058929147671717926
0.2747228673855684 30.346028962773534 920.2715847789227 0.05489410048426824
0.27072813838192233 30.446948813980782 920.2715847789227 0.010339350262346645
0.2835194970696211 30.419148676419354 920.2715847789227 0.06422916119879328
0.27481887273077665 30.408563438985773 920.2715847789227 0.0714599330964177
0.1993687703869121 30.62847011313103 920.2715847789227 0.11378658086455955
0.19597290154944513 30.65580298603944 920.2715847789227 0.1285600489617354
0.1903002427123209 30.672609719399727 920.2715847789227 0.14921820414142944
0.31274330892268953 30.384317722091875 920.2715847789227 0.010520940581687002
0.274716659646003 30.264959304033994 920.2715847789228 0.24003052618446352
0.2940625075284657 30.48175405817955 920.2715847789227 0.05962109970081531
0.23910194486651815 30.566349926137935 920.2715847789227 0.012429749526306513
0.27866688516415 30.377403748002983 920.2715847789228 0.00908742551449041
0.2208166985176716 30.545418128177616 920.2715847789227 0.010063232324458446
0.2979716808301319 30.497244550133946 920.2715847789227 0.05908520375962313
0.34576778407395414 30.440323570612602 920.2715847789226 0.15578045934866913
0.33163787653027216 30.399044657775054 920.2715847789227 0.021307667245373783
0.34083444226031834 30.454548610841893 920.2715847789228 0.1668190922999441
0.28705772955753595 30.283678390974803 920.2715847789227 0.1134546271262484
0.3023470464712975 30.34772942497204 920.2715847789227 0.05960326229164325
