x y z curv
0.13999544977797837 0.3711844128426297 573.3133797168516 2.4727687054418087e-07
0.12720991631406897 0.3479019083451358 573.3123877547986 2.576733138707307e-07
0.13273908325198347 0.3599418564539211 573.3129007224497 9.836131355723181e-08
0.10395737281839575 0.30130680510545743 573.3104025370085 0.029490211283298297
0.10572732133632663 0.3191225511269745 573.3111615919263 0.012708209969801262
0.10026392601856424 0.33034165524786596 573.3116395913402 0.028672278340638114
0.13187447252173343 0.3337047980753787 573.3117828774105 7.192471024907487e-08
0.14490115063117087 0.3561232066142949 573.3127380237091 7.684843991902948e-08
0.14281827317197207 0.3403939365755043 573.3120678690946 1.8696681155964895e-07
0.15435455388910474 0.3269173194006157 573.3114936862554 -1.2727943588959995e-07
0.15641143071265093 0.31473919487778523 573.310974825208 2.4961418338532376e-08
0.13792944192586892 0.25360848622312004 573.3083702911816 -1.9549470473846776e-07
0.1272989230871717 0.23361701562916767 573.3075185350383 0.0009940943937823293
0.14012207790784198 0.22999297099896526 573.3073641290748 -6.802603015528963e-08
0.1487681957791244 0.24809352621602943 573.3081353209204 -7.806818974333537e-09
0.15333272178499746 0.27234052200775644 573.309168387874 -2.059610049833917e-08
0.15893702418408168 0.25952097238360683 573.3086221984331 -5.152937080012216e-08
0.1582779820280254 0.29379512084910697 573.3100824822066 -1.1127491107063212e-07
0.17056425492037033 0.3082918536154176 573.3107001298529 9.44387825701516e-09
0.16450363900851808 0.28421578401950504 573.3096743450806 -1.2839917434119875e-07
0.169631979332119 0.32018666513247074 573.3112069200693 -3.881763411197395e-08
0.1738233493177459 0.29429977820065073 573.3101039836324 -5.577050561873209e-08
0.18256787031101535 0.32541916384892927 573.311429853338 -1.0525799999481212e-07
0.19560352385094307 0.32322701999671316 573.3113364510998 -3.4325453878351464e-07
0.18042158445264458 0.31364577888862755 573.3109282372425 -3.538723535179382e-07
0.1707118694615899 0.2611252863254314 573.3086905517965 4.902087376642808e-08
0.17247495413133698 0.23601525891927172 573.3076207145375 -5.106276037157864e-08
0.15514673508459448 0.23449595152903396 573.3075559829613 -5.5468886753138057e-08
0.17694891411784983 0.27102283976777075 573.3091122458462 9.701618044843212e-08
0.19433774849623547 0.2686030369673407 573.3090091427407 -8.384409647222129e-08
0.17611258470678584 0.25072577188461725 573.3082474696741 1.1522061302863941e-07
0.18404392839311223 0.280942513894849 573.309534881222 -9.166213057478586e-08
0.19475150140918088 0.28553512105337886 573.3097305506902 2.759643469592059e-08
0.19438525656264952 0.3045675405445102 573.3105414458645 -1.4443847647448482e-07
0.13358381220614643 0.20701678368597984 573.3063852103736 0.004478019563073159
0.13483052830103556 0.22071145319511995 573.3069686821636 -1.5716529063741115e-07
0.15821088696615482 0.20633512122015568 573.3063561676267 -2.592661385388554e-08
0.15943883824851524 0.22191406840292707 573.3070199204975 2.787917887207388e-08
0.14770810964310271 0.21747895653526764 573.3068309591896 -7.846524510656186e-08
0.15395318890872856 0.19535401525835216 573.3058883092715 -1.2238595323676565e-07
0.15303355386401418 0.18220066208147723 573.305327900022 1.44134943592221e-07
0.17036641727130689 0.21846520306679038 573.3068729787416 3.135700604157775e-09
0.1688248034729954 0.18280253294445065 573.305353534203 2.948876352996386e-07
0.16672805312175462 0.16344041447717075 573.3045285911787 6.285950820960387e-08
0.1579584967656773 0.12867775761278352 573.3030474922786 0.05443674079083215
0.1532907230588145 0.15034890332152398 573.3039708197781 0.04754123613628838
0.1472136877674465 0.1399213001946953 573.3035265371894 0.055249830998425155
0.13621359815410009 0.14584605508424764 573.3037789736269 0.05676989664869636
0.14457545469076144 0.1673041653499065 573.3046932214946 0.042466647045705026
0.1299041553233472 0.17007981643011272 573.3048114814908 0.06765804603062363
0.1235224766394602 0.2135151261638365 573.3066620768996 0.0271081574654687
0.13939719693156122 0.17833756576584064 573.3051633101205 0.033392064839991305
0.13790717099498148 0.19030681178251707 573.3056732692453 0.015789152046190094
0.13184395260171605 0.15824149756651362 573.3043070946003 0.0647338649262237
0.11878446237083465 0.20236173029482962 573.3061868803657 0.029674465221945254
0.11997637588873805 0.19169756640769053 573.3057325233456 0.037407702285304864
0.09986663543259118 0.2131643632540425 573.3066471380934 0.06000727358228055
0.11265989640132193 0.21321367634924268 573.3066492345303 0.037251464214935054
0.09310041423201046 0.2564170370884158 573.3084899662531 0.06153688725351839
0.0827422416947427 0.2855915149449635 573.3097329747575 0.06509027567986418
0.09220217520029803 0.2932695548811243 573.310060101414 0.044665457062021505
0.09304614456520449 0.30769312534628196 573.3106746303635 0.0503252530990136
0.0862245153279506 0.319267249235754 573.3111677593794 0.053808412541661646
0.07993206261897177 0.33158283203375555 573.3116924754053 0.05728342817411871
0.08100231634147727 0.3489339533817587 573.3124317332226 0.0666412987148664
0.20709395258874883 0.32183134199703445 573.3112769855252 1.3540891666172393e-07
0.21235795723129258 0.3066323465049894 573.3106294172806 -5.180607857566384e-08
0.11601499959307782 0.3005290326480941 573.3103693993555 1.301948412080595e-07
0.11784201320149236 0.3251020444749228 573.3114163532945 -8.893054456994125e-09
0.11658367511455953 0.31286456091690984 573.3108949649638 -1.8715452865827703e-08
0.11881362285570861 0.2854002192805196 573.3097248234744 -8.925667117820925e-08
0.13137706392451287 0.3137390415902639 573.3109322200197 5.544905827761785e-08
0.13790577941691598 0.32344873407468816 573.311345907782 -1.0310987614016274e-07
0.1284547393121055 0.2988929573136848 573.310299690898 -5.564674766962422e-08
0.12184447516841204 0.2582593000395181 573.3085684525357 0.0017253775284050488
0.13597569159763173 0.27235394111807404 573.30916896437 -1.550634088336392e-07
0.14533649347224809 0.28042116114605786 573.309512672716 7.986460496517098e-08
0.14666023855199978 0.30254676788269863 573.3104553553201 -6.856455041557825e-08
0.14041662629699234 0.2931970115710313 573.3100570033203 -1.3835910052273335e-07
0.10292329547502375 0.24707156322617907 573.3080917954297 0.0537978015864692
0.1045915452991582 0.25791558692564925 573.3085538153259 0.05418453511121886
0.09599481276819576 0.2690926681265043 573.3090300254521 0.06087564025240326
0.11211297150088315 0.24024978476562817 573.3078011398172 0.015085836566042513
0.10477017517389131 0.22955402935409797 573.3073454377446 0.044716216717961645
0.11845281833702348 0.2700613173114622 573.3090712943426 2.5361332213780036e-06
0.1884526701301621 0.19316696024468538 573.3057951157139 1.8443940077799944e-07
0.18233352777943362 0.18332926174297123 573.3053759716806 2.3171352991111932e-07
0.17791407039419824 0.1984602911225915 573.3060206452952 7.758390523685154e-08
0.1874052202587464 0.21334110808241646 573.3066546553437 -8.905741238805004e-09
0.18727954915049366 0.22447309343898508 573.3071289452819 -1.0725059241015094e-07
0.19870981824754683 0.2296323344718131 573.3073487566049 2.3449262537603554e-07
0.1877225118862011 0.25052745677604166 573.3082390168986 7.368972635765887e-08
0.1978547501159504 0.24293943040340557 573.3079157186808 1.4535563218640822e-07
0.18838601141844005 0.23801529374120373 573.3077059237714 7.598533204413886e-08
0.21631097980996372 0.22413904340316143 573.3071147093005 0.00014409598155614152
0.20884965898677765 0.20471135768812176 573.3062869751975 -6.076755179682955e-08
0.20143457864838304 0.19498108075271758 573.3058724079573 -3.1544671343206725e-08
0.2006081753033298 0.21401350357381702 573.3066833015275 -2.131324952275276e-07
0.22371376544298271 0.265593183694332 573.3088809033012 -1.5467578286923636e-07
0.21033796457396858 0.23449715145692568 573.307556026456 2.2356042292980984e-07
0.2203557815643749 0.24404346571105617 573.3079627565048 3.1428934357518354e-07
0.21693815814117662 0.27731032693900715 573.309380123641 -5.206787794433923e-08
0.21438195722385414 0.2600693126907918 573.3086455533784 -2.5607789286100373e-07
0.20032911881036713 0.25467881830519906 573.3084158860968 4.234541151681013e-08
0.1892129605195389 0.157468616566104 573.3042741518573 0.019775648410396987
0.1919568244685476 0.1692780727366334 573.304777307111 0.005842437142834877
0.18842735921465018 0.1429441811545792 573.3036553218383 0.05095884989821053
0.1982051102654469 0.13870468280050854 573.303474695975 0.06165224657384692
0.16677568573783969 0.13523740388781202 573.3033269726573 0.06108755423741032
0.1764927563961597 0.15313616210623215 573.3040895649572 0.015808315286855768
0.1794566103049094 0.13030607988493645 573.3031168659218 0.05697266344929887
0.2563120353334823 0.2540168981764391 573.3083876789924 0.05994190240753219
0.2638890364688291 0.33328682938748977 573.311765043588 0.06107790252922105
0.25804076181296565 0.3672293395482815 573.3132111983509 0.03548015902413082
0.26095706875329083 0.3490509632718043 573.312436689254 0.05895790742681727
0.2529299526073707 0.3415640061163922 573.3121177004956 0.04365425278997838
0.27108310721294054 0.37071841313377907 573.313359857012 0.053503169161290685
0.27277300613959876 0.35717952897476546 573.3127830143861 0.055519064435875315
0.27012261343994165 0.4760522725536516 573.3178477135394 0.06394746431769291
0.12674121393252474 0.543741165520629 573.4941102492437 6.914552923871686e-14
0.13951241433145717 0.543741165520629 573.4810203928134 6.81157442391589e-14
0.11151905841465344 0.543741165520629 573.4955953513712 6.174545112977313e-14
0.13620758529297522 0.543741165520629 573.4999306803244 6.936785070862841e-14
0.1256493342817979 0.543741165520629 573.5076775209831 6.365153321258425e-14
0.14834725078562017 0.543741165520629 573.4887148878943 7.381614567445203e-14
0.11105904106599047 0.543741165520629 573.4830180787993 6.687673425172791e-14
0.10523673211022229 0.543741165520629 573.5167365738707 6.7230129462643665e-12
0.10690853779355483 0.543741165520629 573.5339934784372 2.4525981781831603e-11
0.12524547832263924 0.543741165520629 573.5231458796968 5.4102441513587614e-12
0.16203870046729213 0.543741165520629 573.5384845660417 1.5631279093821604e-11
0.16735479955745539 0.543741165520629 573.5250601926343 4.628623375706359e-12
0.14548756482749595 0.543741165520629 573.5126327822882 7.68037412005435e-14
0.15740304841883426 0.543741165520629 573.5214003718686 4.014625863577473e-12
0.16392101796430364 0.543741165520629 573.51009858346 7.058644305630075e-14
0.1380094729003712 0.5437411655206289 573.5458340622331 2.0340294934003582e-11
0.13540307678661828 0.543741165520629 573.5282800788275 2.03699177713261e-11
0.15373447933611148 0.543741165520629 573.4996533555263 7.033963737425189e-14
0.1479835231114835 0.543741165520629 573.5332683115989 1.2683257827898878e-11
0.16490399689948693 0.543741165520629 573.4908595707564 6.741787172350715e-14
0.11638737331177647 0.543741165520629 573.5415610142054 2.2806183007183427e-11
0.16579054469183255 0.543741165520629 573.4657670984386 6.689060685534546e-14
0.17086158529073808 0.543741165520629 573.4198364488828 6.731556975187733e-14
0.1360761977820847 0.5437411655206289 573.468826391481 6.50841817954976e-14
0.15084773522725128 0.543741165520629 573.4477559277093 7.103815078286526e-14
0.16432249528053405 0.543741165520629 573.4087634345947 6.997976454384963e-14
0.11449975559907921 0.543741165520629 573.4713285073427 6.597657357394674e-14
0.1595996671407882 0.543741165520629 573.4413688368574 6.386684861720304e-14
0.14502160701417055 0.543741165520629 573.4344934847152 6.527523865642983e-14
0.15931230008041736 0.543741165520629 573.4562272352787 6.654616135901154e-14
0.12341551864429458 0.543741165520629 573.4573364720676 7.62790376686846e-14
0.1545790291115865 0.543741165520629 573.469209614634 7.015365484897459e-14
0.15731473536248575 0.543741165520629 573.4175741848693 7.316953701329138e-14
0.13906284876502456 0.543741165520629 573.4562239912048 6.40667965529103e-14
0.16107994232454803 0.543741165520629 573.429483846779 7.413412081500427e-14
0.20966589386848106 0.543741165520629 573.4859583449789 6.661814340949413e-14
0.19161885715219318 0.543741165520629 573.4863869157566 6.976376605746593e-14
0.1741716210583787 0.543741165520629 573.5347653296564 1.3222573611064122e-11
0.22166774187064248 0.543741165520629 573.4804045608137 6.189786125345958e-14
0.1944298802687517 0.543741165520629 573.4984438699705 6.794689692445373e-14
0.17523299994028302 0.543741165520629 573.4966968802958 6.313789577649007e-14
0.21021404096911603 0.543741165520629 573.503131232201 7.098298557005323e-14
0.20042772718053795 0.543741165520629 573.4763870379527 7.024138950882207e-14
0.17467350675003043 0.543741165520629 573.484629817463 7.133217064545515e-14
0.18265653729185605 0.543741165520629 573.5210379258983 2.1772441398548326e-12
0.18592766787887977 0.543741165520629 573.506043846236 7.025804635047075e-14
0.17411463803390922 0.543741165520629 573.4427889800138 6.872726670405302e-14
0.21905827403813005 0.543741165520629 573.4165334698738 6.587124612932512e-14
0.1868021748253187 0.543741165520629 573.447108674938 6.500357380943274e-14
0.20607146259590245 0.543741165520629 573.4314761997626 6.697245827847445e-14
0.23934173837464737 0.543741165520629 573.399047198026 1.3689782712738356e-13
0.17844131965321053 0.543741165520629 573.4610422482065 6.914102158008308e-14
0.20056522278100772 0.543741165520629 573.4206430898664 7.108711349901981e-14
0.20503225485840798 0.543741165520629 573.4044484987936 6.893483386222724e-14
0.22537148025920964 0.543741165520629 573.3977774398452 6.054438164914877e-14
0.18408824076000352 0.543741165520629 573.4361677594924 6.228741535946465e-14
0.18010377631989374 0.543741165520629 573.4079016130906 6.317211000258462e-14
0.18916253584078074 0.543741165520629 573.4164390254231 6.510058682521664e-14
0.18936073080237353 0.543741165520629 573.3996223673423 6.669763257880237e-14
0.21236298703496714 0.543741165520629 573.4574017048989 7.391282182894485e-14
0.1875476561290018 0.543741165520629 573.4687971312583 7.232912750604587e-14
0.2316687147718171 0.543741165520629 573.4136129127393 1.428800504065153e-13
0.23371317046679058 0.543741165520629 573.4359245274952 6.683309364032526e-14
0.22143182214420454 0.543741165520629 573.4418774236366 7.036181196787431e-14
0.24252803458828034 0.543741165520629 573.4623145352133 6.877281009349552e-14
0.2304434039868333 0.543741165520629 573.4599549410059 7.127987586493836e-14
0.2236913469094126 0.543741165520629 573.4306277593823 6.559299085218876e-14
0.21222261975990606 0.543741165520629 573.4712833209041 7.050517601373911e-14
0.1977041045988085 0.543741165520629 573.4493738282961 6.04238644728875e-14
0.20917331845594117 0.543741165520629 573.4471623713438 7.052554276182857e-14
0.20099443668540132 0.543741165520629 573.46299414413 7.137626654742484e-14
0.23378498631327346 0.543741165520629 573.4496244547004 7.601764486071129e-14
0.1448594436830946 0.543741165520629 573.4165083161308 6.749286394764225e-14
0.1299172029677142 0.543741165520629 573.4009911152863 6.307348391751156e-14
0.11245819873138521 0.543741165520629 573.4367729142508 1.2286639201358063e-13
0.1159487999347971 0.543741165520629 573.4480246862797 7.092536032520636e-14
0.15382799810604508 0.5437411655206289 573.4028646131094 1.403365542825712e-13
0.1296267705670275 0.543741165520629 573.4249049969549 6.016794212525395e-14
0.12653182898057966 0.543741165520629 573.4371981538919 6.155601032882881e-14
0.1410407910395767 0.543741165520629 573.4054934955439 6.965296492890961e-14
0.10740787552166903 0.543741165520629 573.4560872757595 6.988870300605372e-14
0.1045049686427462 0.543741165520629 573.4170080987024 6.693168242852693e-14
0.1155394663128702 0.5437411655206291 573.4085715717825 6.647020472995835e-14
0.10079405918416663 0.543741165520629 573.5043223149867 3.2472051783449955e-12
0.07185945847802933 0.543741165520629 573.4869700907877 0.04940763542488221
0.052749890173473174 0.543741165520629 573.4854751193867 0.14988654594853942
0.08619653848277894 0.543741165520629 573.5030682479922 0.09452487150765516
0.07508775912442099 0.543741165520629 573.508283163112 0.16834046880951897
0.06324372954809318 0.543741165520629 573.493172569266 0.15089138639149996
0.09360490573067738 0.543741165520629 573.4864713679342 7.128184328686637e-14
0.10329265350211797 0.543741165520629 573.474439602754 7.423177401788898e-14
0.0935914082525487 0.543741165520629 573.5234982720967 0.12024835478922949
0.0798221603911431 0.543741165520629 573.4785650257254 0.0008015250104123842
0.10249284393122045 0.543741165520629 573.442063956627 7.458546036927929e-14
0.08443427372482042 0.543741165520629 573.4663552715026 1.9527439004221577e-05
0.09108128278473324 0.543741165520629 573.4274006644287 6.462048518180971e-14
0.06262552510090265 0.543741165520629 573.4736578020209 0.07110897156582535
0.10202923937819267 0.5437411655206291 573.4019819882645 6.554008623119182e-14
0.07284243082433722 0.543741165520629 573.4476452603401 0.023781062488875737
0.08234248790802295 0.543741165520629 573.4395098034565 0.007917409460445455
0.09546912921135514 0.543741165520629 573.4550243994975 6.838051094008148e-14
0.08134583547674934 0.543741165520629 573.4539124599635 0.0010859136671311997
0.0940846045693695 0.543741165520629 573.4143097797723 6.760800590494116e-14
0.044447080500481906 0.5437393867230013 573.5842577355005 0.07154684936560265
0.05269319096906101 0.5437399853964224 573.5592414646737 0.1901946981669281
0.06175342078239812 0.5437403473426355 573.5483522159236 0.20917456798682452
0.053893558418840984 0.5437408589905326 573.5114786604804 0.2054354955133171
0.06853376791866582 0.5437408932473797 573.5247729470883 0.20709020630490232
0.07765514747953295 0.5437401910523636 573.5736477270668 0.09986015731264429
0.06371012725453243 0.5437406230156979 573.5349200846558 0.19909008056371047
0.08494067831675209 0.5437405322516036 573.5620779086321 0.1279825192585697
0.0515160647922706 0.5437392078714648 573.6016387508859 0.07416579799534931
0.09390492580401275 0.5437408603696238 573.5529867315338 0.1011030223782119
0.07382696529161566 0.5437406717053331 573.5427033388196 0.16605154722520366
0.0802688314032759 0.5437411211457408 573.5241841170957 0.21460320964405824
0.0543734129768052 0.5437394617907255 573.5903631253923 0.06222108810614254
0.08669810903882107 0.5437410769666001 573.533344865798 0.10515156521323431
0.0488773983878142 0.5437396619717589 573.5734203334932 0.13226463183622997
0.04448857013505822 0.5437408877772381 573.500088681439 0.13577286138171688
0.06560175800141305 0.5437401864173561 573.5613801826194 0.1600655754292618
0.051517029468560724 0.5437403071967215 573.5399653851622 0.1989128126095108
0.04491063572801151 0.5437388384703681 573.6126632578492 0.0823519307505199
0.07022904488523485 0.5437396451430745 573.5896537475655 0.06975000709770351
0.1052350880917867 0.5437404548620364 573.5665573459714 0.05309331914220781
0.10208549455038587 0.5437399140048856 573.5819847405924 9.744847879919099e-06
0.15180345679272036 0.5437409289658962 573.5530340203995 1.98822810605045e-11
0.10920284424821697 0.5437408610855063 573.554970238791 2.0888470814311324e-11
0.12229546570426619 0.5437409861674539 573.5514024047266 2.211944803130352e-11
0.12565618196189163 0.5437404389077234 573.5670124263632 1.3817142309095399e-11
0.08279140539817727 0.5437398843585615 573.5828303715366 0.05738471997327087
0.06281664397030505 0.5437392520115778 573.6008674196594 0.06009604729522684
0.09196509639941275 0.5437403171224615 573.5704862258503 0.09087207054755765
0.08600272603205174 0.543741165520629 573.3898469609975 0.019154303899623915
0.05327078215590037 0.543741165520629 573.4658708356823 0.09244374441439845
0.0904141330961428 0.543741165520629 573.4008294160183 4.827568867567904e-06
0.0975323968203181 0.543741165520629 573.3916059511948 3.533982099354963e-06
0.07225096968657173 0.543741165520629 573.4110706823158 0.05274489097127421
0.06222754729552425 0.543741165520629 573.4578250154622 0.059522685103077226
0.08275200945558926 0.543741165520629 573.4195658648957 0.013869242149195358
0.06099867492027174 0.543741165520629 573.4442808842941 0.07005224027602935
0.061514517902842326 0.543741165520629 573.4333472495925 0.0700979910555551
0.07327070594848503 0.543741165520629 573.3995942036969 0.05387309478599259
0.060476134122916796 0.543741165520629 573.4040676886746 0.08141968147965238
0.07076440537700038 0.543741165520629 573.422612811646 0.04504773745350861
0.07093219821185386 0.543741165520629 573.3890514756237 0.049607050823053694
0.0829894838258393 0.543741165520629 573.3710636761737 0.031298870258177
0.07502218366793703 0.543741165520629 573.3630164395456 0.0684545514165989
0.10939771979246271 0.543741165520629 573.3880559100542 7.037742881922491e-14
0.11687130745324069 0.543741165520629 573.3553613326814 0.0030932012849175356
0.08385546291381842 0.543741165520629 573.3561352574997 0.05286290564415709
0.13250543098355733 0.543741165520629 573.366313066274 6.352571225899241e-14
0.10245677083092497 0.543741165520629 573.3400517993216 0.03993219148724072
0.11573491654766915 0.543741165520629 573.3335414971953 0.07625479633363742
0.10738020827547898 0.543741165520629 573.3639200129046 6.889403966341385e-14
0.07518630715849031 0.5437411655206289 573.3406965453368 0.08403695287625744
0.15536429365852056 0.543741165520629 573.336360732388 0.0720919775602988
0.12157235648722822 0.543741165520629 573.3677339150047 6.883652216295093e-14
0.09672021744728104 0.543741165520629 573.3592099387631 0.006379482281418995
0.09746007411945333 0.543741165520629 573.3721949765946 2.4772380596113086e-06
0.14657211138357554 0.543741165520629 573.3448193691321 0.047917281545709324
0.08598736129449294 0.543741165520629 573.3393915320568 0.06245862433236911
0.12955886894503185 0.543741165520629 573.3480885766749 0.03460032670828084
0.16618632313581178 0.543741165520629 573.3325542616642 0.06062187962288001
0.16154442250468853 0.543741165520629 573.3468718338821 0.05721087920971464
0.15369162501231926 0.543741165520629 573.39195905041 7.287479799218458e-14
0.1448408553286859 0.543741165520629 573.379165485797 6.796365026181895e-14
0.16393100558643753 0.543741165520629 573.3824218199528 6.21933010748821e-14
0.1424129920495624 0.543741165520629 573.3614247904437 6.905122469376032e-14
0.15314911766544526 0.543741165520629 573.3569892457122 0.0022369932811890586
0.12125031773776951 0.543741165520629 573.3885278308737 6.585674795415195e-14
0.1725202246615031 0.543741165520629 573.3897800691689 6.564248841978042e-14
0.14185396511518994 0.5437411655206289 573.391781196527 7.974477864813164e-14
0.16913017881391806 0.543741165520629 573.3706058810408 5.929603668757995e-14
0.13322407026627628 0.543741165520629 573.3787228464737 6.709267592564931e-14
0.19188313755647632 0.543741165520629 573.3555524203615 0.011131969519415663
0.19635848068016734 0.543741165520629 573.3690200391086 7.853060352628198e-14
0.2067490938202099 0.543741165520629 573.391895529936 6.277788195823263e-14
0.20826004573350448 0.543741165520629 573.362526477121 9.397027583614027e-08
0.18526212621377702 0.543741165520629 573.3645074585554 7.532953751017276e-14
0.1831856787362065 0.543741165520629 573.3817263494806 6.953054876924704e-14
0.2064869196486046 0.543741165520629 573.3763328572087 6.821898377883765e-14
0.19461231995682193 0.543741165520629 573.3799175878664 7.218557063170984e-14
0.17475365216870992 0.543741165520629 573.3478767051281 0.032844833214742214
0.17455801694907658 0.543741165520629 573.3589912148557 4.094358940629005e-05
0.09540060857249749 0.5437411655206291 573.3273159669125 0.08005330573169314
0.13009101626294214 0.543741165520629 573.3281301851163 0.07982138282708048
0.14861340200040513 0.543741165520629 573.3272901947195 0.08653902518833272
0.2407743844888406 0.543741165520629 573.3514965214189 0.019512096092825847
0.26214975537579865 0.543741165520629 573.3383166904902 0.06372389981342162
0.22113106732637916 0.543741165520629 573.3727388924231 6.892424189841698e-14
0.2382338775011783 0.543741165520629 573.3654391914135 6.729074689184675e-14
0.25115055598216657 0.543741165520629 573.3724158657716 1.3686384729417074e-05
0.21920045542085032 0.543741165520629 573.3408542332959 0.05620097957660584
0.2528339842847755 0.543741165520629 573.3565033148449 0.022948717340178504
0.19539051924554554 0.543741165520629 573.3418671809952 0.06026068425381653
0.23682139245734166 0.543741165520629 573.3781561124302 6.882098141961973e-14
0.22165392040972684 0.543741165520629 573.354928327204 0.0042516344263678835
0.26503791138161364 0.543741165520629 573.3571042977287 0.047907710779576104
0.18838099611803544 0.543741165520629 573.3326768553268 0.06994407303553705
0.24510105953031466 0.543741165520629 573.3892416408106 6.676862927027564e-14
0.2521659482208125 0.543741165520629 573.3416641590417 0.03932042259069008
0.20731090494124865 0.543741165520629 573.3421215018108 0.049642372239918395
0.23723459612995668 0.543741165520629 573.3334332045818 0.07258728755550921
0.27245595410177376 0.543741165520629 573.3286837545338 0.09110367797291624
0.2726229405055099 0.543741165520629 573.369183228114 0.05345395802973705
0.2845870719628396 0.543741165520629 573.3939163387397 0.06139128869958985
0.2548893034742135 0.5437411655206291 573.3995284025281 7.004122330145696e-14
0.27688194637150654 0.543741165520629 573.3788887232922 0.06910981863475074
0.26159920701733796 0.543741165520629 573.389894350476 0.01341534427867617
0.2829126978993374 0.543741165520629 573.4059602932691 0.06686943634452046
0.2617659996824536 0.543741165520629 573.3779890647049 0.035669590757821196
0.2959835459352167 0.543741165520629 573.4656969585417 0.07773087555895637
0.29157102234800747 0.543741165520629 573.4391232188239 0.05857653693105905
0.2952864174150812 0.543741165520629 573.4817958109887 0.11455532790236689
0.26607297171637545 0.543741165520629 573.4760138106142 0.00011435846374204951
0.2547667633029678 0.543741165520629 573.4693625564771 6.269531738455542e-14
0.2827189371187765 0.543741165520629 573.4324569289007 0.06618404782908469
0.2874523283358171 0.543741165520629 573.47441034946 0.07274727108616844
0.2762120437168157 0.543741165520629 573.4449176822409 0.023852481341048525
0.2742050701166115 0.543741165520629 573.4613247561643 0.027712998909279675
0.2871932698636756 0.543741165520629 573.4594411981767 0.050731844204313044
0.24621164882404192 0.5437411655206289 573.438461509288 6.788738737148046e-14
0.24539203380931407 0.543741165520629 573.4201349689657 7.484237686052836e-14
0.2869562856240846 0.543741165520629 573.4192780860241 0.0720696207895247
0.25750384075891114 0.543741165520629 573.4454428433912 6.900537922885872e-14
0.26791982453708685 0.543741165520629 573.4210932938939 0.01974186024345975
0.2463548091939789 0.543741165520629 573.4091676747281 7.715413699811998e-14
0.26156452171721234 0.543741165520629 573.4089549158858 0.009693017686130321
0.2542809483296019 0.5437411655206291 573.4571615554869 6.498623760089985e-14
0.2595422911463176 0.543741165520629 573.4317340463024 6.334752624164649e-14
0.19422393036011487 0.543741165520629 573.5364378874749 6.945166058767161e-12
0.22551506915737113 0.543741165520629 573.5152239207947 6.966274865429146e-14
0.18181854677888415 0.543741165520629 573.5429190433016 1.449738033688015e-11
0.23829902240333356 0.543741165520629 573.5067868125559 7.668971451968278e-14
0.19793562809541362 0.543741165520629 573.5260039605866 1.1120508198596339e-12
0.2347305569255308 0.543741165520629 573.538272949955 1.8030837798698548e-13
0.23138293313767744 0.543741165520629 573.4966017647932 6.778592892895033e-14
0.22352963656848643 0.543741165520629 573.53465331334 1.2565364734772676e-13
0.23622903175511908 0.543741165520629 573.4814095243069 6.867964588384e-14
0.212946780213493 0.543741165520629 573.5150017145119 7.00710798728465e-14
0.21109589800698547 0.543741165520629 573.5277868285937 4.1486484538802015e-13
0.23098761472860452 0.543741165520629 573.5251580588344 7.087131203502561e-14
0.2212040434668294 0.543741165520629 573.5053505376493 7.186470817696376e-14
0.24971096143471025 0.543741165520629 573.5081601810741 6.035952416044086e-14
0.24928310095887132 0.543741165520629 573.5238603523961 0.046452182444096886
0.25965523475913305 0.543741165520629 573.5166193196242 0.0990923669760725
0.2844460544002983 0.543741165520629 573.4961730448732 0.16688976218163873
0.2778435826843858 0.5437411655206291 573.4854520217258 0.1332082904929246
0.27159284189880584 0.543741165520629 573.4962735065033 0.11633360312847053
0.25847964267714707 0.543741165520629 573.4946681404494 6.077035213349535e-14
0.24936339478214914 0.543741165520629 573.5382431102532 0.04765779615171715
0.24566684543623737 0.543741165520629 573.4907278535225 6.325009349471267e-14
0.2730121188652899 0.543741165520629 573.5153379584704 0.1556076240995815
0.29555326950162597 0.543741165520629 573.5276646771181 0.162051643765413
0.2732991100539967 0.543741165520629 573.538453805822 0.1278555319621211
0.29886419445809687 0.543741165520629 573.5406773394204 0.14035405554093466
0.286744460094962 0.543741165520629 573.5349128270075 0.18052018952275029
0.28545834193576236 0.543741165520629 573.5213644420018 0.16482740107981303
0.2937375505278204 0.543741165520629 573.505767253469 0.16618423460280832
0.26859221911094 0.543741165520629 573.5256048131992 0.1263168439262667
0.28249399175124706 0.543741165520629 573.5077064913371 0.1842339855903734
0.2580375127568151 0.543741165520629 573.5612984645473 0.13765894057511852
0.28305654977021155 0.543741165520629 573.5760204013068 0.09727572132117429
0.2942630792199063 0.543741165520629 573.573331397028 0.11356797425663258
0.28990936317096805 0.543741165520629 573.559345275424 0.15377392177741392
0.3050778536448227 0.543741165520629 573.5715917205649 0.14839341991288765
0.2803559324135162 0.543741165520629 573.5495861035006 0.11427031198848754
0.2548873100319519 0.543741165520629 573.5480187850836 0.1467237051621023
0.29953445943978063 0.543741165520629 573.5524258779749 0.15268605599223803
0.2722535110247475 0.543741165520629 573.5618277228976 0.13954664228775238
0.29701172829578365 0.543741165520629 573.5905568257565 0.0780840551054698
0.30533245172729584 0.543741165520629 573.5991993661435 0.09597836483047541
0.305133636987912 0.5437411655206289 573.6127606967955 0.11811037440504188
0.20526481627414392 0.543741165520629 573.5609693396176 1.118156086615273e-11
0.24941138228610965 0.543741165520629 573.5712602820377 0.06363349476558784
0.22898372811644246 0.543741165520629 573.5514080942943 1.446644148769924e-12
0.27221906274485236 0.543741165520629 573.5864139327538 0.011086695255935803
0.2842731569372929 0.543741165520629 573.5954741410767 0.034002670392095445
0.2140147407843028 0.543741165520629 573.5465302745278 5.642441663766416e-12
0.23369232301931891 0.543741165520629 573.5638063225879 8.943480475373954e-12
0.2585694941543541 0.543741165520629 573.583041479131 0.04014249033117847
0.19801360122527537 0.543741165520629 573.5492484372381 1.1359805978280578e-11
0.22220849722655195 0.543741165520629 573.5602151767343 9.366010038762026e-12
0.2671097375875549 0.543741165520629 573.5753948689022 0.09676334343406605
0.24383991947164815 0.543741165520629 573.5565125553088 0.05745916427712504
0.14972238891217174 0.5437406346459331 573.5638248996252 1.1020242759591399e-11
0.07557771140149608 0.5437392310630758 573.6048327921062 0.0645502308560608
0.22150645984251846 0.5437411198271026 573.5737557593461 1.0123547261905918e-11
0.16576008453215885 0.543739936116122 573.6118827485956 0.0676258030037814
0.2360087044800263 0.5437406217713153 573.6096233101383 0.06601363583613494
0.14229776704394076 0.5437398978845621 573.6018002841137 0.04620519198319363
0.19546602389226045 0.5437406730246216 573.5855364605301 0.004098825891513045
0.1751457370851339 0.5437405964464275 573.5792734267962 1.9737713211522296e-12
0.17583014634187963 0.5437409991406187 573.5567550231066 1.5566011563715e-11
0.10719150470002878 0.5437395450140947 573.6035099354071 0.062142789596951034
0.21735299236411512 0.5437404305039717 573.6107448299814 0.07850343144948098
0.14621013700795787 0.5437396971135975 573.6152489071209 0.07749658194340163
0.20249254721387766 0.543740567415427 573.5952057357263 0.034263865320445654
0.181630918703685 0.5437404427588046 573.5913911546916 0.014012434781395584
0.20009843497943958 0.5437401501643035 573.6176581038628 0.05429600491714564
0.1639344875182119 0.5437409614341608 573.5526839545781 1.8319690918103336e-11
0.0829983543268566 0.5437394481598071 573.5963759435584 0.04753927917149026
0.261222143625284 0.543740799000805 573.6127243172746 0.06075054811176843
0.22054043428610473 0.5437407400684005 573.5948241784051 0.018851721290955557
0.14861396905422788 0.5437401239369819 573.5922578437161 0.02004482182017551
0.19084524040884954 0.5437408162856021 573.5749848080432 7.279490091464016e-12
0.09503550661166149 0.5437394127698769 573.6046733036583 0.0722299753217794
0.28705764903652864 0.5437410663554488 573.6110304834926 0.08267658564386152
0.2641125992308242 0.5437410519171627 573.5998665604698 0.03307124489203542
0.13940732345585755 0.5437403533140786 573.5744190091052 8.884310808534759e-12
0.13320109915982337 0.5437396526013573 573.6109829410226 0.05195886672932312
0.16063315567915515 0.5437405445422404 573.5746420798239 5.8223995952636935e-12
0.12216103843872936 0.5437398772417998 573.5924555954319 0.027430200546646476
0.27441996272044783 0.5437410728506391 573.6040608914566 0.06634462195618943
0.24497365848093 0.5437408619573059 573.6006614172225 0.0371009684316647
0.05690809735814386 0.5437388784324761 573.6151136212522 0.06530919842377345
0.23305586211147308 0.5437407918197952 573.5984210987119 0.04046180293403303
0.19273145634595218 0.5437402264583299 573.6094763182202 0.06340312638466047
0.16264066425257268 0.543740381519658 573.5849514262131 0.0044741415156191455
0.1348898851931959 0.5437401397699055 573.584190380963 2.6806320849422237e-05
0.21015246425303777 0.5437407687576827 573.5877688244724 0.012782631618558851
0.16993094034538886 0.5437407777886425 573.5662482407499 1.0389326080318638e-11
0.11306363673126932 0.5437399437708562 573.5839247349732 1.0058939260218037e-06
0.0939660750470733 0.543739630549277 573.5917433384445 0.0390118793051982
0.1818974759542236 0.54374025870489 573.601985936185 0.05163301209712409
0.11936990628917303 0.5437396098323548 573.6061885380398 0.06185702088978293
0.15490864700248055 0.5437399882287319 573.6032547171151 0.0551831870023441
0.08457056056811467 0.5437391270493547 573.615438438286 0.0789894310548659
0.23223507926656545 0.5437410004815011 573.5861389511451 0.0031277445049793543
0.1898972292624262 0.5437410831540719 573.5593296551474 1.2337790577221215e-11
0.27599101335762766 0.5437408426757688 573.6179570006234 0.07498335341401915
0.04951261027060992 0.5100593681335397 573.511807907779 0.11744767296740585
0.057377935109102954 0.5100593681335397 573.5262955080586 0.13346592711559785
0.06499027643856886 0.5100593681335397 573.5173879069303 0.17531192053414607
0.06529035640471086 0.5100593681335397 573.5521538403457 0.17283507752613217
0.06322683841898043 0.5100593681335397 573.5371878973742 0.19386609902202256
0.047115354022001385 0.5100593681335397 573.5301661273361 0.14284926004150378
0.07433333542792547 0.5100593681335397 573.5399081909673 0.17429042546839488
0.04938877821929111 0.5100593681335397 573.5516928394565 0.2104648588997454
0.07521958395875819 0.5100593681335397 573.5145817734784 0.15839709586397235
0.06943298808819207 0.5100593681335397 573.4995662217079 0.16840294381174167
0.05907032917667992 0.5100593681335397 573.506043443482 0.1600168869039463
0.05132919665602925 0.5100593681335397 573.4968706343203 0.1371631704321103
0.0383234702420999 0.5100593681335397 573.5022515464697 0.1374698286218573
0.034556957454113246 0.5100593681335397 573.5192296958598 0.09933877547980993
0.037592747291923106 0.5100593681335397 573.556667242258 0.1706126547559626
0.05667867881965229 0.5100593681335397 573.560499718932 0.15700920439617777
0.07801965219365131 0.5100593681335397 573.5582062428092 0.19744715023793602
0.0909662493474157 0.4995125829179907 573.5661771641525 0.08867350422795667
0.0889748344971191 0.508371434908783 573.5575493311632 0.17321652029181114
0.08881250411061366 0.4946140375625522 573.5570502991602 0.10693957237523938
0.08652475177863608 0.5003546469007053 573.547291097635 0.09780596361861628
0.08726348710486276 0.4832251788590105 573.5509767792722 0.08460877211868993
0.08420986931925442 0.4959450673277081 573.537751181243 0.06516374643935886
0.08413141348737024 0.483914483382904 573.5382257988297 0.06010005913167042
0.08003671312327593 0.4940135670073404 573.5216729341797 0.06336262124887786
0.08099757013233089 0.5058287769983614 573.5245638479184 0.12477868660908263
0.07981056440283324 0.46152000202488813 573.5234991042234 0.005337573550038428
0.07683336241783773 0.45413365414191365 573.5137291608885 0.03208177003517819
0.0773722640740181 0.4716401497457796 573.5142713471923 0.005771857229748165
0.08017302242475648 0.4797494942016818 573.5235685272731 0.03405809822946378
0.07494892806591094 0.480830555144609 573.5058723439354 0.047130951068336174
0.07416239955572629 0.46657145559426516 573.5047531715772 0.017601625335548696
0.07500953602328102 0.5012040603677015 573.5040671380187 0.0726560148536387
0.07046256487435089 0.47843865232404 573.495555328524 0.0262012112296081
0.07297605880067354 0.4904506230339661 573.5001122058454 0.05648356155618867
0.07263725463671786 0.45223656832387266 573.5013214944438 0.028135205317142805
0.06850497951269821 0.4415479354723707 573.4932735634991 0.07498142581898763
0.06857242268458556 0.4658148393941094 573.4930119175651 0.022224226076968417
0.0679073851604296 0.5024861975334594 573.4917709147353 0.06013956558943701
0.0599271041729775 0.44876133001786067 573.4849982000796 0.05065638199165455
0.060568151088896446 0.46141738398753873 573.4857029625038 0.017066251745593602
0.05640475385939618 0.47613625199638726 573.4839261899675 0.030478441688146115
0.06281449181337019 0.491604091490305 573.4874021856845 0.05884470944129166
0.04515262432703157 0.47428339077660325 573.480033170511 0.031083522484990432
0.047760814601537686 0.4596201769338262 573.4805509496908 0.04573454153889853
0.03473849115903834 0.45113024604408586 573.4764987227134 0.08400873657060899
0.04804174825546049 0.4473327412264615 573.4801772319306 0.07338572169672097
0.04797985592190411 0.48560846526217916 573.481086100196 0.0695368391176159
0.040741657984209804 0.49370453834390154 573.4786423223695 0.08455814825341829
0.05231003079808337 0.4964931949625507 573.4826711314822 0.07875240434373003
0.05086081755342234 0.5085291099179504 573.4823146382068 0.10077157804183144
0.04923205377908452 0.43128072434698356 573.4798859310245 0.11477992123003875
0.06042538874941921 0.4330502368014668 573.4846276146964 0.07316869309226587
0.07123934830739755 0.4250903897385326 573.4989278841535 0.06286882262224135
0.07688954619959812 0.4297027546163906 573.5149569074731 0.08330454125967976
0.07587005911202174 0.44162627982102465 573.5111022242677 0.07509396772486425
0.08003021166950272 0.44293429577233806 573.5250668793162 0.0903600113316901
0.08295751117780618 0.4511420336717125 573.5353529477734 0.07227675641133656
0.0853954072699791 0.4639251642862526 573.5440694861286 0.046049150518852146
0.08246159480884493 0.43502154750245214 573.5339289781867 0.08066383632149203
0.09098179867588063 0.4616128766081604 573.566244985481 0.08371921131241733
0.0891054823544003 0.44949317309332093 573.558757559992 0.13689295765049708
0.08506148086052719 0.42836184037174385 573.5436929504552 0.09505219815878511
0.08777569509914418 0.43822809445252403 573.5536534720263 0.12859497127709124
0.09051622995340967 0.4307326733511678 573.5642143190875 0.12851681106825932
0.06819716971049151 0.5097966378712407 573.5694430100888 0.12372509282749145
0.07305744393123337 0.4961102938666997 573.5690177581653 0.09762033363396413
0.05864206911687248 0.501968588626377 573.5702789663337 0.0752410610786954
0.0509213422765843 0.5091616756906394 573.5709544375793 0.18337050587325363
0.03548991775035946 0.5003139642307919 573.5723044998879 0.15650862912796878
0.03343493922787476 0.4695069334092708 573.5724843419379 0.0747156221511345
0.04039257751388753 0.48841010092214926 573.5718755861683 0.11470440720562772
0.03541795299637467 0.4416557520568163 573.5723108102626 0.1337276644030584
0.08297453456484617 0.4389602091435333 573.5681501698416 0.1305954443805993
0.09007215518991211 0.47235869918542256 573.5675292135857 0.09572855850399624
0.08007544380045001 0.48246813368716146 573.5684037952406 0.07836158750762653
0.05294386866302418 0.47762291012889246 573.5707774887188 0.03865409560468766
0.06542179664489599 0.47433573792194184 573.5696858129166 0.05226835871837831
0.07935598633995447 0.4632696076785822 573.568466749055 0.08778729815811452
0.06843492217120783 0.45959274116880333 573.5694222331997 0.071611814829829
0.05302568169645842 0.4650918000790615 573.5707703617398 0.021148921016970895
0.0643775837788189 0.4343296835443409 573.5697771762041 0.06904266165782778
0.0389765258736179 0.4572742539589171 573.571999520261 0.09462470887456864
0.07713109629303422 0.4507407944400974 573.568661406242 0.11297392946108861
0.054379193033471614 0.4529071697311049 573.5706519499972 0.06774927031080312
0.04702718439073965 0.44308509326868095 573.5712951538899 0.10008980293373754
0.27934370513526025 0.5100593681335397 573.5155134189847 0.1977420795125985
0.2907874928827802 0.5100593681335397 573.5150850979405 0.18586703276634642
0.29032179282146026 0.5100593681335397 573.5289996879299 0.1780056000439765
0.2919673323420887 0.5100593681335397 573.5546879335327 0.19483131195889064
0.3060913666906514 0.5100593681335397 573.5304313208312 0.16539902382849705
0.27005162463579346 0.5100593681335397 573.53895611091 0.22984638129403503
0.30104552817519636 0.5100593681335397 573.5425970457452 0.16662805971658254
0.3124604509518968 0.5100593681335397 573.5395466460417 0.08305490680524254
0.3074085286431647 0.5100593681335397 573.5523453477128 0.16664053887276123
0.3081327632720553 0.5100593681335397 573.5651811990363 0.16702142790142857
0.25983461604229835 0.5100593681335397 573.5660969033767 0.12141650055297294
0.27244777963740796 0.5100593681335396 573.5607856214749 0.18064606923611157
0.28662136356007994 0.5100593681335397 573.5027786148776 0.1614866506579752
0.2976004880696395 0.5100593681335397 573.5026439507529 0.15171992755900476
0.3016391503609609 0.4944614493425934 573.571373872063 0.13472223700323027
0.28942863276324626 0.49804324468025607 573.5703056158285 0.091797711936352
0.31248463079945943 0.4976803511341296 573.5723227160149 0.10181143269883679
0.27099139807468187 0.49649296926041186 573.5686925774055 0.08389211215605259
0.29301694329538674 0.5097765489326211 573.5706195415174 0.18379345472200115
0.29294747588350206 0.48700694132827155 573.5706134406714 0.07078647782629637
0.2675872067568304 0.47779675111900105 573.5683947362388 0.08852071350164036
0.27765997108481366 0.4830290131213068 573.5692759763689 0.04954416422386656
0.3125749331787387 0.48278226684630254 573.5723306045335 0.07518318976561303
0.2941223923318945 0.46544149840156585 573.5707162885287 0.028801610197663263
0.30705363168611544 0.4710420406271381 573.5718476001723 0.06857504506626784
0.2844614860900005 0.4741661042952583 573.569871037648 0.04493244713350893
0.268329675635176 0.46219435835726785 573.5684597114099 0.08742334123590892
0.3058127880740965 0.4595172076921033 573.5717390707315 0.09651152330259358
0.2873000264521153 0.45684488068003315 573.570119408077 0.06361612638352415
0.2693008872212614 0.4474621718591561 573.5685446817222 0.1029706615732931
0.2581206569821406 0.4567576553130457 573.5675665347684 0.09308322188678142
0.29557136788379074 0.4344497878514455 573.5708430255439 0.09765666068073488
0.32101318107404536 0.4578770212879067 573.5730689333507 0.09926450770062006
0.280792576660406 0.4420816157026337 573.5695500654986 0.11032154762235823
0.2967547198859562 0.451565738305746 573.5709465863208 0.0717288679354504
0.25675806747182733 0.43770704473097066 573.5674473229449 0.10962519905853102
0.26965403388355974 0.4328094237210315 573.5685755644325 0.10622393939250938
0.29583578389989607 0.509175617582325 573.4827009847237 0.1218939892831432
0.3074167725985454 0.502090550525915 573.4785180423588 0.0864733776284247
0.29975191827759606 0.49245986074655673 573.4811053737508 0.0742796125796476
0.30900693783442146 0.48539150973974177 573.4779609021595 0.08206170600113719
0.2860627865225819 0.49447632653955126 573.4868227456955 0.053327155659817285
0.29951204043988194 0.4788374299349848 573.4811398247788 0.05996640701526004
0.28758956299915617 0.4758374541915404 573.4858708604293 0.03177982729068344
0.28147040640930143 0.5069343277460066 573.4898865643911 0.123778247732627
0.27513692984140564 0.477405239555857 573.5002796457909 0.029490464040518045
0.2748040352746458 0.4930049869401768 573.4998895354759 0.04877824757496462
0.28625196060519137 0.447557182042705 573.4857539298973 0.051261498566200075
0.2917146661553757 0.4607298388651624 573.4834748688306 0.029837305355820444
0.27720983640241836 0.4621393314419223 573.4966993648898 0.015340895061574404
0.2777982130129336 0.44974212854571527 573.4959783422293 0.04555859221171162
0.2726316319557143 0.46923587379906845 573.5073902212762 0.011231068975213324
0.27759963053191683 0.435657311172162 573.4967667235943 0.06242489228162108
0.2727373355191121 0.4345087235204801 573.5088909767446 0.06972661014070249
0.2716050349178313 0.44480882585154824 573.511858170879 0.07332154556240783
0.2683133789675989 0.45017689145072953 573.5228296210715 0.04614854158596336
0.2676327794022013 0.43943990570639285 573.5255472772892 0.07936442084894342
0.2660827493903213 0.4722835965900342 573.5294220459685 0.006597909428800862
0.2647983331370448 0.454523731103855 573.5353023442326 0.05184980101064194
0.26748431339389755 0.4615390901320383 573.5251039357482 0.00032852258034481846
0.26440927972558675 0.4409077057630958 573.5371012963624 0.054962547040788706
0.27157508533573615 0.4565442315713216 573.5114075962372 0.027906332852348493
0.2692399541489049 0.4720039675536985 573.5183716971876 0.005773817097559701
0.26800668964182456 0.5095797430682871 573.519553707949 0.12362165584294686
0.2658887349922137 0.49933277766641837 573.5283843209676 0.07713459954426592
0.26682832752744945 0.48790608502380167 573.5255488109143 0.03381744739652576
0.27083984388862054 0.48287675739813707 573.5116515726897 0.03621329885591043
0.2704482132251508 0.5013141563473371 573.5112864682199 0.04846804939979379
0.26250420112213635 0.4865563022313254 573.5424878707036 0.07621294131274796
0.2595277374344964 0.5052946532178643 573.5543665047372 0.14044652241062872
0.25875310217186814 0.4885182411756288 573.5581018166066 0.12421494560412748
0.2604503955954193 0.4787399298471204 573.551226826511 0.1101870360494532
0.2569872437987835 0.47989373196243423 573.565360463999 0.09925556441763363
0.26097587702222946 0.45241467546018255 573.5497592054876 0.08482792197287228
0.2616620959996943 0.46868278635823685 573.5465905648568 0.06460908234051066
0.25887603972086165 0.4695247945708709 573.5576072769584 0.10198546784866577
0.2611820011059114 0.4306248421070645 573.5493196320388 0.07273313304907555
0.2861867409530406 0.43540319796230265 573.4857451868069 0.08026120393720015
0.2993321504154394 0.43350905041256294 573.479758690142 0.10238973731545675
0.3003368954006763 0.44616246138195315 573.4799591724095 0.09167365371977128
0.3028660483759553 0.45748314357122066 573.4796589569722 0.05316338370301512
0.31697168656489766 0.4335092333089116 573.5724601482549 0.10784877559115613
0.32627470208247455 0.4330184675504487 573.5624680383897 0.06862888985747374
0.3045837660495584 0.4312978765406694 573.5616363048919 0.1014311387349176
