x y z curv
0.3375719694154157 0.05293143166074809 352.16441304674686 0.007005087852151682
0.33869847436194034 0.044764196071280606 352.19247148378406 0.00537898929352939
0.34170703681928655 0.044972489531027234 352.20415238811927 0.07114690014287856
0.3335344982554701 0.04141024439722157 352.18269941222826 0.00404720544891615
0.31294994658101677 0.0556482420134673 352.0787341561274 0.004973917727873998
0.3120112032756087 0.06823786296629183 352.04197537658956 0.007974624871022379
0.312782066749861 0.06179752725361054 352.06098655487966 0.007842179499611362
0.30808079009545275 0.07279237811641193 352.0203470790835 0.011338758917390425
0.3097632027983286 0.0794068125233394 352.00820507369315 0.008609293492441931
0.30436727145116416 0.07806160136505871 351.9982421992946 0.00799571414642049
0.3032718538815609 0.06416845746560276 352.0325870921392 0.006587653560991167
0.3009863773876462 0.05400205556055853 352.0573466927672 0.006337881383387436
0.3009497208836873 0.07163904147387362 352.00739923187353 0.007642992941117737
0.30042281907460044 0.08457492012069986 351.97284931532874 0.01042734624283038
0.297799842694819 0.06366652036046211 352.02315640478344 0.008217119365661179
0.29403647045899906 0.07151335227522027 351.9944415187552 0.008198657193514562
0.2889431893697418 0.08125695417574871 351.95929844503894 0.008306561501537125
0.28649196314231157 0.0719725303926991 351.9810894856325 0.009842694715658644
0.29280262331377077 0.0942711466652049 351.93341119360826 0.012119591141012326
0.2840954973727454 0.08298337644937631 351.94710007427614 0.01335207506199484
0.2840666032165934 0.07515559263043373 351.9687162999742 0.00951543702269849
0.2997684436636342 0.0893882874186469 351.9598264488207 0.010026686419650903
0.30306186586669737 0.1172406580354882 351.9105443721471 0.01072030885297711
0.3043107987371213 0.13028793009638334 351.8946004737027 0.011407403601177412
0.3066651648639338 0.11276602753659665 351.9290158673866 0.010124980519235688
0.3071841148601746 0.10788617703658726 351.9394446411177 0.008318502045208795
0.30851817229791234 0.09974028320860193 351.9594867456386 0.010145682676370345
0.30777842473595907 0.0943653677530355 351.9685564002631 0.008448761441836452
0.3086618085836102 0.08648807248631722 351.9886183526233 0.009296077649911987
0.3128179953372713 0.08690109343365691 351.9993333721783 0.010573082971676953
0.30159963644634014 0.09635574279094167 351.94790694888036 0.008485225877401427
0.29543860975357955 0.14196559659500754 351.8540243329329 0.030001233827494637
0.2941918643478088 0.1332225341225788 351.8629576853268 0.01390409474215486
0.2862984750727121 0.11938157133542213 351.87003592243 0.015966720380386937
0.2858745170479496 0.1315343910928131 351.849468246365 0.019020970214474336
0.2755540481850257 0.12865426041242056 351.8403111820074 0.03822422995939399
0.2730347003692648 0.11989123062992414 351.8523703648937 0.019980974387401422
0.2748724222260535 0.11482255714736368 351.86327984074444 0.013363742800052699
0.2669101685315687 0.10462930372996572 351.87657856496736 0.01115941234095888
0.2614108824716204 0.09343828790523019 351.89894585440845 0.0066676913744082265
0.2559667116787296 0.09984368890242729 351.88176933948245 0.004894093916132323
0.25913249514549175 0.11060416222862877 351.8601376951465 0.014306091790421091
0.25307649502376556 0.11817945167555657 351.84405055263466 0.04122947547334641
0.23829356281375086 0.11656929940912139 351.84549833914934 0.02528581484255698
0.2413190615277627 0.11102558228743327 351.8562519108664 0.011118436200404997
0.2285574971860486 0.11181887642172104 351.8540217966565 0.02749187545150104
0.206620897110185 0.11376627930744772 351.8492490509855 0.03453429309563524
0.2061724732683919 0.10762936965797792 351.8614425409121 0.010445549484139845
0.19509451992376287 0.11875706086661733 351.83989541374353 0.04211863973065124
0.1862870883897319 0.11034468254298238 351.8557101034394 0.017706926514480407
0.17963730315638585 0.11460719160475559 351.8474001500878 0.03627724220343085
0.2190206372779676 0.10180941885949625 351.8744822781019 0.00013742602982754474
0.19427726896688596 0.10579110256053118 351.8650153251816 0.005820956365635568
0.17243756692907733 0.1082013488195589 351.8600460659534 0.010769511049196044
0.17650733833078286 0.12041473266585935 351.8367663637066 0.04138122583964113
0.17719268472902094 0.10330548524967811 351.8703691798569 0.00022570188886122394
0.16052446012632082 0.11114902892677907 351.85437071100216 0.02024872289541335
0.20604274685189508 0.09850048231648863 351.88147725657785 0.00017799215784288516
0.194443299773566 0.09971510222748117 351.8783466641521 0.0001566332167974105
0.1907792172478788 0.09522474308012968 351.8889616964634 0.00015173175724747995
0.1786086689697762 0.09477609400206333 351.89002565057405 0.00015213123740400082
0.16353715663879753 0.10383282104229058 351.8694368525181 0.0002528596143162731
0.1516667321145642 0.10326493958494232 351.8710876510678 0.00019562106517110757
0.14869017191673586 0.10874144338559352 351.8596493728307 0.010186560877515849
0.160918798975033 0.0987908987354656 351.88074507491194 0.00012260353430556306
0.18248396512985307 0.09021274596240689 351.9016669062194 0.00012091315495038455
0.17081345530597541 0.09058010207293785 351.9007931944392 0.00012017300485008546
0.1582562793970188 0.09104209232546381 351.89985404079937 0.00013788474838444457
0.14822391365090845 0.09490210453877644 351.8904916336195 0.00013990100242633363
0.1422531190382642 0.100728031333224 351.877013023033 0.0002086817387932384
0.13258858192023498 0.10354370426267792 351.8714159033915 0.0003632475392691314
0.14353863827905103 0.0911020629533574 351.90037603109926 0.00010336914772782642
0.130607057661848 0.09492705080901048 351.89132780695064 0.00022734978614572787
0.16496892212113787 0.08695666775720226 351.91057629889326 6.968467636968666e-05
0.14527006944207316 0.08645309063796383 351.91272378938174 9.168848784192953e-05
0.1566281310242211 0.08091742754444656 351.92796215159944 3.387058112483605e-05
0.18785743015292689 0.0821113575884884 351.92403928504547 6.002741719246775e-05
0.17556543783793147 0.08276257589104496 351.92211583709246 5.658308881214119e-05
0.1768648630374248 0.0866466568223893 351.91123661685185 7.113380910679531e-05
0.18268315205801966 0.07732357342686684 351.93830080063566 2.9096739619856833e-05
0.1642345114754731 0.07779968449771561 351.93704292839305 4.153532905053536e-05
0.1561674208202231 0.07524919426871785 351.9451027719924 2.5616188626012992e-05
0.1445150251334668 0.08129239845032668 351.9274337979017 5.024080702098965e-05
0.1872492494566376 0.07282059394511398 351.9522885681588 1.5070872121720532e-05
0.18355756780537105 0.06864336420101502 351.96574047076194 7.205651083305466e-06
0.17561836335936334 0.07237749078675224 351.95371549004113 1.0537371649986513e-05
0.16380415128947595 0.07161599010800405 351.95638278030594 1.2911435376284917e-05
0.20563859359458267 0.07216402135151545 351.95470861838425 1.7594603398298166e-05
0.20840760450063997 0.06890205677909156 351.96525518009275 1.066502128231203e-05
0.19675110748404306 0.06831805892358443 351.96689429517585 1.3059788416193449e-05
0.2020152597095196 0.06490159496497151 351.977994773287 8.413716283332107e-06
0.19439766416267587 0.07661782061013757 351.94055045959794 2.6101716797574922e-05
0.20284979071455175 0.06159371581845992 351.98903380263994 7.857954221247993e-06
0.1972402453577288 0.05704111507498463 352.00421934233503 6.0431743446761204e-06
0.18915219881232578 0.06413774540165229 351.98026970048454 5.435362053187345e-06
0.18326336320561082 0.058809880786048964 351.9981740512309 6.315469943507525e-06
0.1790425364822569 0.05559152077950655 352.00898938730677 5.527869011358286e-06
0.16537279818150835 0.061067304694643235 351.9907513999864 9.000856967478957e-06
0.1723721801394175 0.06407144847461832 351.9805208797924 5.919584486692377e-06
0.159206217164819 0.06437943991235787 351.9797446903085 8.72929643329244e-06
0.2089887205954207 0.054598091411165305 352.0127383314731 3.588838186426372e-06
0.1991036074969464 0.05245332779702563 352.0200073480728 5.579014824652172e-06
0.20140667299341602 0.04898234517587643 352.03211074741677 6.337627906693648e-06
0.1851047100638052 0.052443427476785764 352.0199208677397 5.778736797935718e-06
0.22047755716083917 0.05280369604081012 352.0193735283747 5.366271896900807e-06
0.22136611890608232 0.04936043680441569 352.0313311653635 7.0352170589267725e-06
0.21540421738964072 0.060464840685326045 351.9931809681997 7.406077517612202e-06
0.21602268141091902 0.04514738890069805 352.0460629506531 9.870902259991121e-06
0.22375606185072208 0.040577368562069165 352.06292157044777 1.2235527738293489e-05
0.21018030859048054 0.04121669466750777 352.06018362497343 7.366758323647797e-06
0.20327056318816425 0.0454799619927896 352.0445559540661 6.681979508118313e-06
0.19737207126691703 0.04304631779111994 352.0533236804438 6.827128735122322e-06
0.1846216325558332 0.042954643840500586 352.053578719651 1.2027465768136396e-05
0.18673680679479343 0.046630880960947654 352.0401786578378 6.110163880689556e-06
0.22516658849093824 0.035519428770107976 352.0821126777014 9.424786575213632e-06
0.2137199813492613 0.03606576831900796 352.07964852999316 1.168846189977849e-05
0.21163941850967116 0.03305247883781111 352.0912582714315 8.07163116053277e-06
0.22202275274770109 0.03254362737199914 352.0935154143928 9.32338341820844e-06
0.20013284007695314 0.03802381502345589 352.0718298152311 7.473844522026088e-06
0.2327024036067082 0.038840829583093664 352.0695726191778 9.383630018135981e-06
0.24196613454798394 0.03640066159738752 352.0793271176137 8.831235487644864e-05
0.23351095494759747 0.03149516266149648 352.0979224703661 1.0004015395064212e-05
0.2323021528128934 0.042771523091853045 352.0552760438334 8.331065862463743e-06
0.2403024575538943 0.029221687908973476 352.10737010319735 8.812188150690425e-06
0.24713248153424763 0.0251566418387649 352.1241792397741 0.00024164897974279965
0.23514562094973687 0.024472506456850805 352.12661446179123 9.100259890872324e-06
0.22658652314127042 0.02787836153587751 352.1124243923515 1.0213082005494546e-05
0.21650613770272792 0.029403208013964878 352.1058902372636 8.906941189680096e-06
0.22286476778274958 0.02516844805727507 352.12342642479916 7.22727860978807e-06
0.2115650605613766 0.024702967076884186 352.12507142083825 7.762396257446465e-06
0.2064947856193633 0.030165331767901298 352.102571130395 6.443597258273543e-06
0.19745244402223866 0.03222191087276159 352.094285078781 7.634636363363314e-06
0.1921172451048458 0.03540555568634693 352.0818693633586 8.230720744365285e-06
0.24400885468736117 0.02257981190969154 352.13492608283445 9.328761712377985e-06
0.2484919242388768 0.01862443630595547 352.1521336818986 0.00017610865820085915
0.22967055887396695 0.022172078841236086 352.1362690264899 1.1577349987496696e-05
0.22950638833276213 0.019193824471156966 352.149173386023 1.1119612770616144e-05
0.21768285656668493 0.021837236229460887 352.13741780911425 8.91687954123493e-06
0.2025504041682324 0.022444952516416598 352.1345511738418 6.554783780351718e-06
0.20621278440070762 0.020199864141154513 352.14436017827427 7.206018109822106e-06
0.20174020279856647 0.027336029560461078 352.1141277424605 7.5999993889413805e-06
0.1893340977247293 0.026618591789741013 352.1169738963856 6.927519559732204e-06
0.18939622746958215 0.030049359409200036 352.10286062030565 5.486999568037002e-06
0.1823545182272327 0.038253415784946475 352.07081952652163 6.752993447861385e-06
0.17349105405094234 0.03314890786763788 352.090620241537 9.034273579331424e-06
0.17732009543642208 0.023082655608502724 352.1316614925025 4.30131515413476e-06
0.18943361391971283 0.019630457032887835 352.1467056185803 6.910906870605095e-06
0.1767202482896161 0.027225605096761734 352.11447680321686 9.397750274992833e-06
0.17482690727434752 0.029890683954555672 352.1035133694122 8.58355688133109e-06
0.18957821464157398 0.023867896802023707 352.1282895324413 5.850853788336426e-06
0.1635328376317403 0.02795641397066942 352.11159482844806 7.899463789770972e-06
0.17042934907979915 0.03626314160920955 352.0785807300699 1.282806214761179e-05
0.16301646436653688 0.031324094022406414 352.09782498543484 8.554191064266017e-06
0.1582822639947 0.03663392110489129 352.0773174975924 1.38715477343422e-05
0.1554046820422268 0.033450257729376154 352.08968378014316 9.09212465267172e-06
0.17368475616547893 0.045097002529777795 352.0457697187836 7.639964333112037e-06
0.16107234053899183 0.0460645555605618 352.0424419860793 7.647635600610736e-06
0.17123946563376324 0.04117625744628313 352.06009448628674 1.0290456466813154e-05
0.16039232381809626 0.03962714697653405 352.06588978452044 7.560237457964775e-06
0.14721348519795857 0.038201283753997894 352.07153522532053 7.0956487587638614e-06
0.15387918807327583 0.0427672763028895 352.05457480410183 9.530953540153772e-06
0.14270291391438006 0.04610414869489568 352.0428368164925 6.797016126512802e-06
0.16157556526532826 0.024854110828087944 352.1243613757315 7.398291116021605e-06
0.15132858873069488 0.02774052574891876 352.1126642417833 7.281591919839052e-06
0.14066676260625205 0.030207945007681862 352.1028432340767 7.372207634456574e-06
0.13458735165982144 0.034058147443658565 352.08793529377306 8.526759730837678e-06
0.13343979413150114 0.037603585881319776 352.07430438457243 9.325662139192044e-06
0.1219657641273688 0.046291042908839494 352.04302827019615 0.00029520775584793494
0.13312153748816935 0.04251137308528913 352.05622816625066 9.281931151769595e-06
0.14306737529479754 0.04946634585820551 352.0310129512062 5.605101035102447e-06
0.1413709745277205 0.05291573964499609 352.01913500229216 7.667218972352133e-06
0.12842468181931369 0.053023446725046296 352.01934585268253 5.517430743852329e-05
0.1286430072786891 0.04952623513630168 352.0314047777167 4.532345865941802e-05
0.1523631473663758 0.05178799898507906 352.0226264640853 5.862420844460442e-06
0.1363205894693013 0.06365963826407489 351.9831030349027 2.6244472354106507e-05
0.13750603857162963 0.060160309811078116 351.99473214216914 8.354174418424096e-06
0.13416611501674908 0.05618661444320086 352.0081714981327 3.188749611048288e-05
0.12427824872764065 0.06307637240182269 351.9857021164378 7.072435316749233e-05
0.12346735929950335 0.05657896148142048 352.0073736612323 0.00024816901870355066
0.1567904495205156 0.055452651731107507 352.00975401902576 3.439299328174139e-06
0.17139477392402214 0.048798626125771946 352.03263313723653 5.274290047052041e-06
0.16353472033593147 0.05135327068867293 352.02388723202284 7.1419312565468505e-06
0.1662669973012805 0.0571362660171375 352.00393259378046 5.817227152860876e-06
0.14972669505647676 0.06195069316325086 351.98823316477365 9.543429344486182e-06
0.14648801358898744 0.06525363252452683 351.9774085446052 7.7636631735607e-06
0.1338113936339167 0.07378720326634544 351.9507025601566 3.531829081586083e-05
0.13458646569112137 0.06866246341558535 351.96706562992085 2.682600422645018e-05
0.12571914515072585 0.07084561620822397 351.9605763936134 0.00015186666565185646
0.15024097963623326 0.07128034058495107 351.9579121312227 1.1737300762762036e-05
0.15571055085580984 0.06750765603963393 351.9697777196341 7.549851936712656e-06
0.14443374479975118 0.07536754643240104 351.94528059902785 2.544612276897649e-05
0.1336948596021996 0.07876793035345439 351.9354252708701 0.00016226927682402788
0.10776868910014632 0.07920953432437432 351.9361831245756 0.00285027619208385
0.12099307383957728 0.07938278617756811 351.934441609589 0.0012402646438925667
0.11552185081853111 0.0722404217267488 351.95684580631644 0.0008966064638389507
0.11007809667399059 0.06835284570516754 351.9696575018635 0.002927544266780929
0.11815744597170538 0.060221522678833204 351.99556948388056 0.0005698314241556396
0.10417061630899802 0.06445114002646445 351.9827034640021 0.003761825149955998
0.10484437608393188 0.05235103593520446 352.02303022588467 0.004118697238148195
0.11678625827452623 0.05150385884382194 352.0251595005244 0.00043455489144342144
0.10954572699832556 0.05554615079403545 352.01181140755546 0.0018541826990360307
0.11470582506927265 0.04114559439963329 352.0619505649786 0.0004448060163654943
0.10813485968880926 0.045561983132749215 352.0463905546441 0.0005717469367905807
0.10133143985545306 0.049185019474968165 352.0341646384403 0.0030278811943190683
0.10339328478792045 0.0398426967106196 352.0673402602343 0.0017994415997683434
0.10087468384079958 0.036051881648359256 352.0816888349602 0.003272368519705207
0.12242300505894324 0.03427124449341756 352.08757326520316 0.00020543003375823442
0.11265541226788399 0.03645427148555169 352.07957923892434 0.0004627781195366524
0.1046496995200689 0.03176606318122302 352.0980370570745 0.000445213754793852
0.1308387330858653 0.028895970215220747 352.10851582114884 1.5760823106896164e-05
0.11780176484878138 0.029921401585778273 352.10478542512305 0.0003876348283057557
0.12006872805397728 0.026165581850956725 352.12002131795106 6.691229494380476e-05
0.10823974510612305 0.02697002831420084 352.11718886428366 0.0004052843366819206
0.13966104400853588 0.02407990349858187 352.1279619577923 5.939291011232387e-06
0.15311423160235196 0.016895112836221183 352.1588036267935 9.890367765676726e-06
0.14540914788776566 0.021268439913793697 352.1399743046047 1.405911663873837e-05
0.13950700508809408 0.018914144698584663 352.1503180329247 6.785491405210571e-06
0.13425063947593377 0.02133443251266236 352.1399290595041 1.3711547589898257e-05
0.1233092895355209 0.0223016112389479 352.1360861935226 7.302107405271943e-05
0.16889719314291646 0.020968884303830194 352.1409180629463 8.97292394571944e-06
0.1565299413566148 0.021454497287391436 352.1389338698446 6.270773205934905e-06
0.17004685322994814 0.016947001813062332 352.15842538598486 1.9599627761495066e-05
0.15586063079065443 0.014497176308044578 352.16987179666353 2.2340125225919725e-05
0.16946284884329257 0.013973346240795426 352.17219084530177 2.7594062906972888e-05
0.14296551887286646 0.01523422679323842 352.1666869723713 2.7886577151009168e-05
0.12451885020297719 0.015758808425302303 352.1646740980213 2.5536702299771947e-05
0.11809358186672389 0.019214384300809913 352.14956470910977 7.53734166265285e-05
0.1722834113513637 0.011059062094580206 352.18640501838223 3.2884485299926315e-05
0.1552671619791579 0.010520303829108298 352.18919039640775 4.854274315724149e-05
0.14785433797995637 0.012705044971373036 352.178542327422 4.1668339092590204e-05
0.19035217645110566 0.01070534470365071 352.1881475504676 5.070748502374476e-05
0.186649181702238 0.01350087075705475 352.17435644811263 3.287969899695456e-05
0.17166034282504483 0.008954245221125125 352.1973909911675 6.252255256396345e-05
0.14634343089312324 0.008856971546792172 352.19816110265754 6.628289927285464e-05
0.13614482017674773 0.013117782351413212 352.1767339964856 2.4461778788108958e-05
0.18053282739693652 0.007301778287158616 352.2063921806985 0.0001291031518298318
0.17119692252487634 0.0056259691916739785 352.21654222209594 0.0006168870541193594
0.2060187541127732 0.007187457035654762 352.2071829739641 7.879868804647483e-05
0.19487238556053424 0.006656890047250099 352.21030857140903 0.00014725396697402098
0.19807882387598022 0.009274245848730234 352.1957106784159 4.300350429807123e-05
0.19951727066651107 0.004807465139465471 352.221808806301 0.018311872972496902
0.18763465257126907 0.004559875286459284 352.22357545934403 0.029150021439043054
0.17553794585393817 0.003704016486826215 352.22984741283153 0.05340329717430789
0.16305510927553687 0.004229625155609893 352.22606516679366 0.04858857576236655
0.15811844421170157 0.0063688557971356835 352.21214025284763 0.08303039423403578
0.1954453580717498 0.002362497690196952 352.2411620301285 0.08638431336450338
0.18659638259955869 0.001709534535683248 352.24762540217534 0.09868158497576345
0.17536412125225231 0.001983537861123279 352.24490952361674 0.08369307155835555
0.16340559528723458 0.0026214963955127233 352.23864884484954 0.07300493687116828
0.14589339030096976 0.005336801407369564 352.2184988258771 0.08086976616956515
0.13863443733622596 0.003755803899297778 352.2297839647724 0.031710502451804144
0.1492011568740251 0.0030217735217313055 352.2349973685877 0.07297844692827417
0.1260175328400234 0.004926238942457278 352.22148288003154 0.006907481617367161
0.1130486034861875 0.006864594324491276 352.20988423344545 0.08019949969878847
0.12707532049264775 0.008531172874232239 352.20022579373307 7.964699492063469e-05
0.10662423199411783 0.008732906763627611 352.1995725309248 0.10828828074761672
0.12214462024042298 0.013149887936106032 352.17689921517746 3.3404732203369754e-05
0.10704585438664158 0.01286798182863269 352.1786811223316 0.0003199247373814193
0.09602258713645163 0.011871613168826027 352.1838759463206 0.0013892556525974267
0.10998544079248311 0.015512139978104097 352.1662012942062 0.00010623914198573251
0.10298715933353741 0.019689410212521803 352.1479636989267 0.0010948399734261182
0.10228233876156953 0.022521872826719407 352.13581895282374 0.0015500690058142174
0.11299107573301388 0.024065819246965433 352.12882557091143 0.00028430646819824185
0.09547891255088092 0.006060568431942568 352.2149942752919 0.07071383407767731
0.11817160352181066 0.0037007935510666784 352.2305149973144 0.05425454635269249
0.1073396897513899 0.005106636500532908 352.2205843468695 0.0016049449125147587
0.14043124853834518 0.0022627641093507537 352.2424276077378 0.10053641331264343
0.12941882332664204 0.002899433987629473 352.23634597484863 0.054674937305217615
0.1090466204493657 0.0026118897825566276 352.2395742728943 0.09234888941976568
0.10035292881411367 0.001795651560596153 352.24759799576174 0.13425166245542747
0.09533244890286757 0.003268852962118866 352.23405514325486 0.05693949284395825
0.22888878681679448 0.002704191308175731 352.23815009873175 0.10062205247914552
0.22028942831379145 0.0017107744197440563 352.24780081532595 0.1428031006629168
0.21215003813512454 0.0025611871293033757 352.2393177878284 0.09039482208293859
0.22635103186424688 0.00425579116753851 352.2261203750987 0.025472964278720013
0.2248446794718445 0.006072077739025326 352.21412468432584 0.07936583649302174
0.2380744310368114 0.004275982939511562 352.2261601318463 0.029164255401724376
0.24781770688479307 0.0031921264352796352 352.2341926971282 0.09411887459191776
0.2135925851044242 0.010249613310706576 352.1906351695711 4.657101003111864e-05
0.24463567930786023 0.006387083431467445 352.2125761426006 0.08179650607997824
0.23389981123662523 0.008422063078806793 352.2007049837366 0.07939357154357927
0.20471211439161613 0.01167274787320512 352.18346581060797 3.4070170014211996e-05
0.24101688332664167 0.010475029296791737 352.18996747434187 7.674114089493174e-05
0.2325761123969722 0.012049189766538265 352.1820402954081 3.5538055466096476e-05
0.2223428269325503 0.013646288210511366 352.1740284994592 3.1394397966290935e-05
0.20941856186643926 0.01659296543535419 352.16014801118234 1.694682102369267e-05
0.19964602634267897 0.015021691643523225 352.16734884413904 1.6599810730088184e-05
0.18891535935466694 0.016365541557651332 352.16104126140056 1.7015060348057686e-05
0.17912493427277615 0.019182941594913787 352.1486558188724 1.4020676970975386e-05
0.2217447173380998 0.016330009246298034 352.1615855525073 1.4225715365749914e-05
0.24494446257345692 0.012976998885962729 352.17778088887786 4.5767857920795946e-05
0.24320128706681787 0.015483419222045823 352.16598689386933 3.6273204787306765e-05
0.26501217016794876 0.014509981423835411 352.1711596921608 0.0017240454872385783
0.26075853990778014 0.016894377288446814 352.1600973923892 0.0009568866529514416
0.25874045038748006 0.020382974198176737 352.14486678112337 0.0004594380384743185
0.25577011960316504 0.023240415176451097 352.13246548817153 0.00033942985647325205
0.2563540674853781 0.027821068688691247 352.11370212851773 0.0009105194156184425
0.26586869049274386 0.03258255645802995 352.0951519208384 0.0010756602221467437
0.25472582690762835 0.032825615645214794 352.093626225688 0.001291767704517813
0.2646611194657694 0.03619279126143069 352.0811815923586 0.0019646565685820104
0.24439806131141567 0.04723115268181118 352.0396758865901 0.0005014389366735722
0.2300749831752626 0.04713296380717824 352.039388028361 4.372714620607264e-06
0.25171170412700333 0.039200737504019374 352.0690706758263 0.0006954970602422932
0.2640455516348872 0.039274099893047434 352.0695794810901 0.0018557958666198004
0.24971026032808913 0.04301858180741068 352.0551537683692 0.000628040167555988
0.2352381166903188 0.05076305220960349 352.027044442839 4.551248103233141e-05
0.23793396240274423 0.05375925739821039 352.01683475421527 0.00013225388176719505
0.23078155902648326 0.0611222137298075 351.99166343972195 7.095971301804288e-06
0.22335447625553387 0.058351232651256774 352.0005843165008 6.9537223474238145e-06
0.2399273444133631 0.05920625789035109 351.9985166066462 0.0003042313449056292
0.22886386547855425 0.06630320819667361 351.97450383492463 4.0529509944642575e-05
0.22617514249724402 0.07057594814265136 351.96068008184864 1.919028307508978e-05
0.24059186771409036 0.06502780995108344 351.97919852671487 9.6630369545365e-05
0.21410319892900362 0.06472896349516397 351.97889570033885 7.480046326610994e-06
0.23718207922313625 0.06893478051842249 351.9665219211308 0.00022755077677961044
0.21964911271319681 0.07776162951295681 351.9378663469917 3.13418994273835e-05
0.22030275905508567 0.07375427511204187 351.950218417116 1.797589730223371e-05
0.20722968190127541 0.07543544613964193 351.94447129906825 2.709244600195255e-05
0.19982528996669174 0.08033271786209296 351.92947914903294 5.316038134896893e-05
0.23334245981651236 0.07662733618684175 351.9420831671141 3.1557493662725034e-05
0.2163026763429396 0.08234336620181595 351.9241267541006 5.152748257486295e-05
0.1987220438936278 0.08783930120614634 351.9080913177412 8.912911081173157e-05
0.20380087323632623 0.0843537868649445 351.9178869906387 8.081112826559332e-05
0.21576194910435098 0.08611168456413323 351.91346060835275 9.311249511867756e-05
0.2088059996354238 0.0894769211700933 351.9039771893513 6.779521953841824e-05
0.20503575226229942 0.09330373742780695 351.89397923297844 0.00012840912947639042
0.2286816440373957 0.08398774354235367 351.9200078858326 9.139410726274753e-05
0.229786154455127 0.0887294444151925 351.90696678678364 0.0002383603237610622
0.22668005999597385 0.09293926333579358 351.8959183726746 9.123542542554657e-05
0.23803567830110384 0.09280686702620866 351.89692245448657 0.0009520336440982931
0.2254449268907897 0.09761082735853431 351.88447754889995 0.0001633338597256623
0.25110587699094605 0.09563054710387968 351.89096196524804 0.002270109659226111
0.24093616798863826 0.09772624753013938 351.8851336661684 0.0007976577341265151
0.23027947867093715 0.10635124878268733 351.8651946232274 0.0003337376232672694
0.24255288590264357 0.10217974397205812 351.87501356008636 0.0018892612420484053
0.2405096726169809 0.08777145783869136 351.9102670653812 0.00020909041811065595
0.25213065133745893 0.0869851429823934 351.9134367022933 0.0024713311880048315
0.24397065114058955 0.0837772391886284 351.92160734803247 0.000938286845219367
0.24990576227287775 0.07651055303759413 351.94366882853495 0.0014415072897495105
0.24979952396633748 0.0727971890700159 351.95510952357506 0.001759110289941075
0.24885068364995533 0.06904233238483391 351.9669797220748 0.0013916399205006378
0.2610369185002621 0.0629755629450732 351.98752478640716 0.0026529791681590546
0.2532322292361427 0.06539903121783094 351.97897090210745 0.0017574017651310187
0.2526781678371457 0.06000945869817769 351.9967002686644 0.0016606139155254532
0.25244257204777854 0.054522356285619994 352.0150465084977 0.0012521097052010477
0.24688794267913527 0.051550923329823514 352.0249046398511 0.0003991869967625096
0.2613670992477467 0.04937419594943655 352.03334335162054 0.0014362328244585086
0.26068863014130395 0.046239137090514165 352.04423631404717 0.0015487659508759647
0.27071155540206626 0.009354194249025605 352.19657481835105 0.08240310144467647
0.2554577576239995 0.010702381595142212 352.18917139711755 0.0003335375747372298
0.25551667410725 0.008449372902222113 352.2010034886286 0.0001538180010882809
0.26455047025762607 0.007303043200607629 352.2075440806058 0.07819948638156053
0.25793444819513794 0.005690725916749956 352.21698813075 0.09567944587327327
0.2701700925076688 0.005528414457528852 352.21828157345806 0.07962231269663915
0.26113371133235214 0.0027968787461351485 352.237726024665 0.09707794157945061
0.2520471334561784 0.001726773980665887 352.2481155765919 0.11417546092926335
0.2708085822861935 0.0018112582396272983 352.2473912957339 0.12074373694081311
0.13347758928957082 0.08587855015649783 351.9149628341929 0.00010002896152471378
0.12203175112501975 0.08526412340029756 351.9173891590479 0.0004822345000402779
0.11181647798579873 0.08766931952187737 351.91166382966156 0.004324488283535262
0.12220988603846135 0.09024534025709262 351.9038575841628 0.0009482018233236663
0.11801230362403486 0.0953329824408023 351.8913170087985 0.0017937830841742628
0.11853549380819185 0.10101354709785688 351.8779279292598 0.002794926590865655
0.13437060396574246 0.10888583925145373 351.8599698845025 0.010430607540625188
0.11805718897341705 0.11107289556966289 351.85662014585233 0.017689774419314623
0.12106179744181508 0.11583689320851503 351.8472241840286 0.033723573077368195
0.14179104894218855 0.1171730371728853 351.84369939265946 0.021792543143996167
0.13008100953132387 0.11958770084040662 351.8398410444962 0.03467032822305531
0.10815851712836388 0.11540763573301249 351.85017823872886 0.02657341429527311
0.10635981964830026 0.12087008194609083 351.84108606037364 0.025544062917905577
0.09722881808711088 0.11429742878018084 351.8580069491504 0.015113696464482044
0.10249068821498572 0.10620093969140643 351.8706059050294 0.00920184617474251
0.09022387651410177 0.1021751592375891 351.88867186303196 0.009462389052265171
0.08316216419817721 0.09976615083455083 351.90256198790314 0.009099659129534803
0.08178069156773557 0.08628956302859812 351.93739173645207 0.01147913670797422
0.07516928456209751 0.10221875429216382 351.9098694336202 0.007694708242725746
0.07356657516852942 0.0981106717906099 351.92197789827475 0.0051906932221731285
0.0728317466537815 0.08016670287839693 351.9677445499505 0.009526971528005013
0.0738661164786181 0.08470805567973569 351.9540521671299 0.00853942781618054
0.06768183627407322 0.09699752613581603 351.93673371071645 0.01058330940509828
0.06425616971816364 0.09127764909540122 351.95773489880384 0.008379146428891864
0.06065391313320713 0.07286708889661478 352.01165628593424 0.012090639128652509
0.05749690175204804 0.07999071644055103 352.0011311841939 0.008704530924367512
0.058129750148601 0.08980752099228434 351.9764796525518 0.007872608580245292
0.05957489141448965 0.06731368219443819 352.02884097868844 0.008012075949751389
0.055516471136273546 0.08650801234641607 351.9909901726093 0.00725899911085008
0.050316716625084634 0.07796200721722232 352.02542818425746 0.006631339311999704
0.04840064356840015 0.0844643924385651 352.01619759772603 0.01131381449330658
0.04855424755330075 0.0637214831943692 352.0657846493232 0.00855537179869233
0.043623498133555635 0.06274273684032866 352.0826259842324 0.005862219326360668
0.044616190738836166 0.07207065564644634 352.0563636380565 0.007100268810217403
0.04275490943803069 0.0786874336579083 352.0470713367563 0.007938279180161172
0.04231154092675578 0.058852625598082686 352.0969715492391 0.00636908788271261
0.04060541560702845 0.0723027944359178 352.0687389995962 0.009102318222077575
0.03920431541188832 0.05539576841993443 352.11621602993785 0.005275930318148038
0.036262047707255926 0.0538090608241393 352.1300885703673 0.007749315670840703
0.031867244778151116 0.0683269720563626 352.10934407911 0.007167635491510494
0.035074809514955584 0.051120797627122475 352.1416723196262 0.004352837725281594
0.030426084176158996 0.05252593087456338 352.15431104320635 0.005738572483601136
0.03232264231617411 0.07726543422450087 352.08844202543384 0.006756780802239174
0.03128446961058729 0.07385072920771252 352.0997719704726 0.005335693107161136
0.028296580898105758 0.06970068094456378 352.12073791778056 0.005211240858636152
0.02756729679020012 0.052661661487266115 352.1649725233426 0.006234265618826033
0.024305860185157235 0.06916903116735706 352.13908417772586 0.006413306878468224
0.02018159818216727 0.06252615150450756 352.17242320986935 0.005935834605291449
0.021998564477214905 0.06798763297784596 352.15216287036304 0.004684388015259832
0.01950191809587571 0.052958846847729175 352.19896800261137 0.07162173735504555
0.01894417629523696 0.060409036473114144 352.1830287456188 0.005916539869967036
0.01914539259500146 0.06977774897045183 352.16224041804935 0.004513944304235249
0.015656019941563116 0.06268526087175703 352.1944793883789 0.005535283602940476
0.01339207507622727 0.05448781806011431 352.2263862009459 0.03346735702321384
0.013971234044847682 0.05808090115975281 352.2138870912399 0.06416175706275089
0.00953772775506086 0.06874593075459762 352.2162862264102 0.07902300955229478
0.006393318436998778 0.06883042976698184 352.2370183056436 0.0764952954675218
0.007475592397940503 0.0795246686239225 352.212693471251 0.003272208727313916
0.009626312448112163 0.08200442061419182 352.1954233010406 0.0029325126027741517
0.010406681691922605 0.07290185852627425 352.203703597414 0.00622363975327932
0.011735141356064979 0.0810142307231474 352.1835877455878 0.004459059868403079
0.01278683587597599 0.09017030628030726 352.16647109857615 0.0029261600108886855
0.015000891676170464 0.10009997887119101 352.144006397688 0.002253292296274556
0.015630816392619446 0.09019075005312632 352.1493116414652 0.0025919339614543712
0.01803173570402848 0.10007421362042837 352.1254116893513 0.0034328954972021905
0.022701280792367474 0.11282280385897224 352.0884987644114 0.0028176954893808282
0.024876696849403628 0.12236556428344875 352.0708453037089 0.0021820049452039953
0.027932498077401335 0.13086740055242696 352.0498390051976 0.0013762101321054324
0.027257966389336356 0.11877176096870289 352.05879365267185 0.001659997902012416
0.030300337808372994 0.13063365353298995 352.03587815450464 0.00205475649567066
0.03295794513063542 0.13844410202231486 352.0183045645857 0.0015539510101740509
0.023170586087967206 0.12782975462758558 352.0806229160679 0.0013959767213617114
0.02149930133892746 0.12336320669826295 352.09225487983224 0.0010447701870019371
0.016836651811301787 0.11136333867212028 352.1262323989839 0.0016776111476930913
0.01982887301786423 0.12253493899837396 352.10374791994536 0.00106138679334758
0.009888671588126372 0.09698974577993114 352.18045503683834 0.003075176109560052
0.006363036796942903 0.09285981303813826 352.2092563023129 0.0030325511064064592
0.004702906757141472 0.08247400025028553 352.2295369928735 0.03711128352486416
0.002204032155614105 0.08363370744151394 352.2491195784185 0.10694866096914682
0.0037516593921021416 0.09361447280261607 352.2312998177067 0.04231717503242373
0.004910716116777814 0.09645397272000811 352.2209294575522 0.023691669519854394
0.007201130878771005 0.10121899498116872 352.2010337855361 0.00215000720301682
0.0109703557405438 0.10735018888043518 352.17001880069836 0.001834950769368037
0.012475138380508729 0.109061515591225 352.158204793705 0.0012927343509637145
0.03446672583958196 0.14568702203369513 352.00840468271326 0.0007799362923022042
0.036856555617660235 0.14851418204680109 351.9941885497063 0.0006285466329198102
0.04014599505225641 0.1512887027581683 351.9753783621404 0.0008600936138534885
0.0424278657900924 0.15224618791865133 351.96285451612255 0.0010593515652598056
0.04585936961706384 0.15952257434624303 351.94338926734235 0.00032942493903262193
0.05327663066928195 0.17304566119326234 351.9038330901685 0.00020634195614279062
0.05168508272026734 0.16416411768483 351.9128930671973 0.00020898821464898328
0.045673437036733 0.14889770263362367 351.94693954728336 0.001490679156786024
0.057344247267221704 0.1727616028350093 351.88422374603505 0.0007202756960472408
0.05545084576607989 0.1558300582795446 351.89696747311984 0.002661762332769686
0.0615483517646712 0.16713157696080358 351.86543693450943 0.007509668933193686
0.06535412885502237 0.177198494334474 351.8465144920156 0.05768697207710325
0.06385343819282514 0.16274637394406677 351.8556339466604 0.033553807648923316
0.06026292027140746 0.154777245129897 351.8747488449171 0.006028705936822684
0.05712731282338317 0.13971175059022384 351.8974514409214 0.008109878064289457
0.05150331657335098 0.10144956445473381 351.9717465258193 0.0068888516970464775
0.04694530265020433 0.1000219128262029 351.99017071312187 0.010444302453788676
0.04733930658852516 0.0937676514225869 352.000547531721 0.008791232062352067
0.0436222727266804 0.08390713501030349 352.0330355446197 0.007536913145438211
0.03953324419878061 0.09355498242119598 352.0294187380228 0.00688616670713774
0.04101297590079581 0.10327253613156659 352.0079086069352 0.006584870862704426
0.04558051198447874 0.11148568938813327 351.97725191624727 0.004248604667689381
0.03904561532093298 0.10157154498503405 352.0185172610894 0.006207223926026288
0.04080600131453476 0.11312093571098343 351.9959825097643 0.0052916516823909975
0.04733363432552654 0.13112415367195962 351.9485629182653 0.003270672164188242
0.044149787500283956 0.13011493851504463 351.9646742906683 0.0037652301540371576
0.048848343023467966 0.1394183720536415 351.93599817803033 0.0035266057894660727
0.05095968616090521 0.1511993819493465 351.92008424852736 0.0023841006319129006
0.04431422008712952 0.14156710695992775 351.9569331007442 0.002867288256207373
0.04024553659040002 0.1287608902992136 351.98467887346555 0.0024546754911626226
0.04134580925674536 0.14136345403221404 351.97193358255805 0.0009364786989696072
0.03646537072982208 0.12078498653214681 352.00936454683836 0.0038148036508535176
0.03366189709570271 0.1159146795315625 352.02741785928106 0.00400859443073578
0.03053461300431584 0.10436456387458395 352.0543967984157 0.003649752037712135
0.02683108271429274 0.10974878131629012 352.0678202707962 0.003972825999202009
0.029719480384043005 0.11565377604843591 352.0477030702459 0.0036794303497351
0.02455924143453748 0.09952725867853755 352.0898672427867 0.002427311837047738
0.02489849660108791 0.09051438575662549 352.09942228737725 0.005375866504624833
0.027949274005565943 0.09543903340692472 352.07783211438493 0.005860075257330923
0.02314220772171548 0.08365582982055635 352.1183272074801 0.0066454812317978075
0.019263670530230835 0.07850590851204921 352.14597040728216 0.005845145881007912
0.02333855212377366 0.07639111154734919 352.1295610364966 0.005888532115931505
0.015346748803108084 0.0748682927108542 352.1725065063446 0.004265241022913412
0.015684941645872932 0.08242592447239198 352.15887231588886 0.005320369904224646
0.01819851763426328 0.08755804813789421 352.1381614575603 0.005142840242989798
0.020583670517734482 0.09927462117057428 352.1114602779187 0.0035263611985218214
0.03263359113264243 0.12726784385261058 352.0244910889911 0.0014364517710123092
0.03663087721375739 0.1359962710724548 351.99893119733247 0.0018648864820964017
0.03900884809155042 0.14187620753204896 351.98394938316954 0.0011559098682852268
0.030741584447527726 0.09336708710943685 352.06744990038374 0.0048782075536022845
0.03511764474514993 0.08897198602455215 352.0552269962292 0.005580180574567002
0.03492268952637505 0.09624097868951526 352.04437647281236 0.0034647780044940787
0.033338874088506255 0.0813567377511262 352.076238433174 0.005578115351506974
0.034629932573486 0.1061932126955922 352.0326181192404 0.0033322346345929484
0.05437451383784549 0.14829976488688298 351.9048810779125 0.0027228395709113454
0.052159600452746376 0.13755786638658063 351.9212618662225 0.004557514528470485
0.05806070247304302 0.1516865290777487 351.88611766091225 0.004788751062897269
0.05006702216716603 0.11987617240768758 351.94748016602017 0.005667134104493843
0.04700989929397663 0.11631503746529523 351.96486969325406 0.006156842308342165
0.054977785602942156 0.10324185056230852 351.9573063050255 0.01176061885488876
0.056439171128387366 0.11005029633198052 351.9401028056549 0.009594926173616814
0.05718272400425631 0.11563987829644216 351.92793984547865 0.011165994956222593
0.06081302915252766 0.10012250653529357 351.94655002587103 0.014304013686586832
0.06010101667454616 0.11903829077484897 351.9131998255869 0.006964808436512744
0.06374787638745703 0.10540367808713709 351.92805972241365 0.01291250521876333
0.0696971163879533 0.11055780556669687 351.9036437772655 0.013584464513894164
0.07220195718399353 0.12205666409149218 351.87746686168214 0.012750371564092516
0.08041877787403674 0.10968159786978848 351.88562068994247 0.014356940836491671
0.07683403825919331 0.12761169146393408 351.8595589506999 0.023806744162235396
0.08577585192325198 0.12365691923030289 351.85277614395056 0.01747484285419682
0.08818205013740904 0.11404897469300329 351.8668973416504 0.013095730150382652
0.08264984019336648 0.13368422824295678 351.84107349306555 0.0357240058017813
0.07573493972722514 0.1352089467577854 351.85008039567725 0.03405158401154891
0.0708738660931145 0.12908361881592129 351.8690026017313 0.017966839341035507
0.068463961744239 0.1389065928557366 351.8609437678023 0.01879324113867659
0.06442980314527261 0.12192526477897705 351.89619856298293 0.009440639644401472
0.06224509493445139 0.13327139992266998 351.8859183714226 0.010667871973227097
0.06372486778349341 0.1402194371687831 351.87280491637125 0.012267993714716652
0.06505344380886778 0.15127697787163116 351.8573385900846 0.02605878815848326
0.07131101164978085 0.14558624803526837 351.8456213651266 0.04758440114734571
0.06477143392429796 0.1887397001369636 351.8486913475901 0.049409397190458455
0.060679142500425574 0.18496694782738657 351.86749259678555 0.00873292226542057
0.06737777651410592 0.23271460378360914 351.83696965304165 0.05365766382056322
0.06736219404495865 0.30184155247934297 351.83704134583894 0.06370268662696515
0.06517940152422214 0.20330134116912058 351.84665414304646 0.07057199166972473
0.06565200071025792 0.2714890292886294 351.8451706978143 0.050871602610871765
0.06543404015233724 0.22149873224159566 351.8456182564868 0.057319517806980975
0.06531320135003062 0.24226416669411613 351.84648498990606 0.06207587875562813
0.0673440542623829 0.3599941364169723 351.83722879093284 0.061412578742615555
0.06737232372677676 0.3311038798796345 351.83708856461607 0.061750163017458545
0.06416354412580423 0.25388735175173416 351.85190832939384 0.04477442839974777
0.06436106763812455 0.2322481055369553 351.8507512959826 0.04175713563678281
0.06526244604423884 0.3939827193739831 351.84887339224 0.056476194353330275
0.06538003056519034 0.368115929811636 351.84782321250736 0.059217835019105616
0.0644199850616029 0.3784023221493704 351.8535061851869 0.06184392498988694
0.06513984235404092 0.4118160742404855 351.84983689260343 0.046996002798009716
0.06378888403043625 0.3101417671854315 351.85520330478647 0.05189150907214188
0.06398862326785154 0.34879335517646676 351.8551474525447 0.03822438050045999
0.06335424956791519 0.32167018136573877 351.8577165083361 0.0461170956296214
0.06372702544019351 0.27863819256210864 351.85473224505364 0.05075658069403425
0.06482801044831257 0.2918001459405082 351.84942539197516 0.05831436032676361
0.06298364341025946 0.24346040339312788 351.8576580697316 0.04511196570714769
0.0664647176847271 0.38372350839356373 351.84189699252335 0.05326712313713327
0.06578955808478734 0.34194239567513063 351.84512584215065 0.06205491827511545
0.06554345363561837 0.3238349414792949 351.8462620166349 0.059796837589097325
0.06614443828185088 0.4362988536519779 351.8441389862386 0.0568095049276309
0.06718764045757236 0.4160194424472326 351.8382477366508 0.04940651458281112
0.06715502556252291 0.5187579994505634 351.83873371233216 0.08027109133917808
0.06593628257453661 0.4581258047361451 351.8456986972782 0.051266520175406796
0.0659508676124359 0.4948789612921301 351.84618910512984 0.08581324738349493
0.0659069805428904 0.48133418910047937 351.846258978095 0.06950373733448598
0.06442037888356711 0.44919906151194006 351.8545226393583 0.036971322691156105
0.06424247537513922 0.43573074851856786 351.8553545319645 0.040629174228978826
0.0643905856075363 0.4229822503285384 351.8543172210956 0.04047618606205011
0.06531711278311819 0.47090500393284324 351.8496650062482 0.05506870215991616
0.062482255492392655 0.37009583281777647 351.86411506601746 0.011686464419029286
0.06323091844324139 0.4001753761891344 351.86055687181073 0.026350236623254097
0.06210225057513325 0.3881207852514795 351.8668559167763 0.011192967890788887
0.0617985817503774 0.4161585055151524 351.8694289571676 0.005057857060958966
0.06326651824265678 0.4776426983331173 351.86252231105107 0.010780806737317102
0.06233480579182948 0.43827096672271615 351.86689627534554 0.011391226563755692
0.06435965103491197 0.49812366903728594 351.85637624503084 0.0570365218641196
0.06531694676151688 0.5096447257812482 351.85042267661225 0.08157447616706827
0.06176951052584167 0.30880321468172306 351.86576101827876 0.023609560983617408
0.06239552901822988 0.35487600346621867 351.86416733921067 0.020351834148171172
0.061913408554182786 0.3331321871572685 351.86590018010537 0.016165146243096395
0.06127868208148585 0.29516023861165325 351.8678376448514 0.007747099471144086
0.060912825833876416 0.27848410927215356 351.8691460770742 0.001066363316214202
0.061179841276906316 0.21000162064824954 351.86539187885904 0.01539394888915276
0.06244653317959614 0.1942786590821506 351.85906339841375 0.03521564059129949
0.0627053546158924 0.22172717067324474 351.858485948986 0.025075571340706596
0.05998650885050868 0.3982603664503174 351.879616843565 7.125567160427215e-06
0.06252770680539799 0.457040389363638 351.8664047510759 0.009167512032392001
0.06304940059060998 0.5095322536799476 351.865291944932 0.0469116195203192
0.06306271422697418 0.48999226955252456 351.86432057721083 0.03376130702548752
0.060027664793935655 0.4108784391600411 351.87988935489267 6.250480409087223e-06
0.06147802674963599 0.4267702443626362 351.87184834084485 0.006040297844494185
0.06175968087833681 0.4693411919802218 351.87191176637396 0.0013687488806146462
0.059512524115399285 0.3067094983624612 351.87781272118224 1.1083305219077521e-05
0.06024087175066805 0.3666679757493886 351.8767809569226 5.2106444654490625e-06
0.059717411189641606 0.335757955675416 351.8781095058039 8.876498074343845e-06
0.060435985578265114 0.3509223335115642 351.87497180818525 8.456660569780707e-06
0.05995371096498603 0.31899685521147975 351.87602969959164 1.0202494076619444e-05
0.0596478562993094 0.24734087331457322 351.87422334677615 1.1595543047238492e-05
0.06056954129294317 0.26206096615607 351.87025198577066 0.0014865061658139477
0.05988636725185832 0.23488545040086262 351.87263003879207 0.0015236780196909584
0.05886730523673821 0.2134940150971396 351.8768363810327 1.8395575617225735e-05
0.06004978011069556 0.2000869572689368 351.87063944359295 0.004553572829566347
0.05943237137218498 0.3792217119039512 351.8818200666899 6.810329437167459e-06
0.06015078075262365 0.47745035555041393 351.8827086269065 4.446164727704635e-06
0.05918167033282666 0.4405612390604204 351.8866460119019 4.5485230358370485e-06
0.05965771555782194 0.42877409800460065 351.8831053966402 7.918549762399588e-06
0.06140212306309938 0.4861178904896153 351.8748459744569 0.010228009926712852
0.061475266064286875 0.5009860148411993 351.87522441618637 0.04350327262261366
0.06023986094384923 0.45690708789587686 351.8809938834037 4.555947787479087e-06
0.057406482496896026 0.2997096828564701 351.88903112686705 6.1270258476116885e-06
0.05725599966494324 0.32459374497674415 351.8913344407523 9.176216611296418e-06
0.057933223461539486 0.3644657854212474 351.8899654487667 9.179732055260916e-06
0.05833262613061426 0.34602978934980927 351.88667271882684 8.793032276767707e-06
0.05714734024643793 0.282737301878856 351.8894534047363 9.665257701371974e-06
