x y z curv
0.14643874520170327 0.22817819550781807 0.0705821677260988 0.01831773688030055
0.13573242507104127 0.2417719934252433 0.07245708986647689 0.02198669521996827
0.1697559435732622 0.28282677084028285 0.0037708575616128524 0.010595274962819347
0.17178743106514927 0.2511430802235016 0.018315717707824145 0.011514808303704547
0.16858511671398793 0.2631170884397908 0.011593682556037354 0.01037677347280441
0.16450697087424876 0.24521488520242113 0.02502643168436074 0.008620664874277432
0.17514035992821625 0.2347056687303875 0.03293685326698815 0.010858400306436521
0.1438222295658315 0.2997210040866307 0.013195301309785221 0.02387781378119722
0.1360309133359943 0.30054749946904213 0.023520016955047497 0.02300126535106577
0.13189251869267787 0.27643997171851475 0.04382984216925804 0.012289825879174696
0.13318016189515014 0.26332278960209576 0.04534038922579825 0.011745169050497167
0.15158340442437643 0.29328726490486395 0.00848056368355202 0.022246573155943843
0.13111660171475067 0.29787749527875895 0.039316382347171205 0.012405309286139813
0.16669182606482785 0.2300073407258153 0.04213325325787609 0.01280383143374243
0.17500103289885618 0.2232963141082682 0.0510010746677899 0.009728220819463224
0.16295537827283768 0.21754384644568012 0.07800580771985713 0.014893580492072261
0.1676204258236444 0.21861469569832265 0.06804152121228282 0.012328145257261976
0.15230635028658146 0.22191507040763245 0.08128734218995462 0.019724435285544385
0.13154892922877207 0.2596642174800895 0.06295035989316985 0.012349305084306043
0.13144304607227397 0.2550414028600293 0.0751656742255045 0.010896592537110028
0.14312311284692025 0.228649777323508 0.08140081202032319 0.022655580321596057
0.13510398500425885 0.2398656606568424 0.08435442348303114 0.02926601057847585
0.16800147631605664 0.4090179653049607 0.08256781490454473 0.017966038665268587
0.1732553610086691 0.40466615346838214 0.05896174554366844 0.014820847119504418
0.16482143663909368 0.4058540395013841 0.06866932691645067 0.014902396032530288
0.15407141078495962 0.40019767194145583 0.06459728352676096 0.019169301601988264
0.13893817578036635 0.38679207022112905 0.06757044859835139 0.021791421744879094
0.1503182192021097 0.39422968930236785 0.05594187691694102 0.016477170675589427
0.13445456493363267 0.37444019682758967 0.05696819734629352 0.012571401698790664
0.14243745341766093 0.3858055027868307 0.052609137302496396 0.02171317790830118
0.1532916975711371 0.38260841100811016 0.034773198904582234 0.02132442026995165
0.13408587982178197 0.3666327320913632 0.04764815227333001 0.014668288106079282
0.14222125355232004 0.37879850066146425 0.04308149689247971 0.02301076192704091
0.14457926176840363 0.36802396867776893 0.028995391746422607 0.01918884496570554
0.15661884667160028 0.3681041999808299 0.018949264135225317 0.01676892981130583
0.13674879197811002 0.3616312912433185 0.03770102193636 0.018929201728641935
0.14051161306103596 0.35630149784384935 0.026958574184238908 0.021406098460230512
0.1500279403664 0.3446964595197136 0.012795633138707387 0.023251055822769096
0.14009994318132532 0.3431454667848953 0.022001331196394924 0.01955496299628722
0.17117714854405827 0.39341085835797174 0.0384985751518106 0.010271761205589558
0.15894814028775747 0.3935590075697227 0.04274384756359438 0.014648777384500858
0.1669408388539093 0.3995123487037078 0.050427424796111425 0.012424836601434723
0.16604406139402625 0.38072131927077846 0.025479483889406594 0.012657552870704148
0.15663541241086681 0.4060327422785885 0.0854251768440523 0.02026408964945688
0.14090994550049496 0.3934154550856277 0.08055753644791415 0.0293080156128295
0.13498376869692333 0.38474916511161694 0.08324489916323585 0.031010851138168486
0.13143085719758352 0.3705310652053729 0.0776532680465252 0.01163802131805188
0.13119712913997394 0.3571460537183132 0.055414916483313155 0.011063062645274575
0.1737691890639857 0.3677590119992274 0.013741728062781315 0.012304240306378394
0.1602843003172317 0.35790363845305784 0.011325784317497499 0.01440216379314393
0.1691077954269697 0.348340452900086 0.005707558780882821 0.011478615715419721
0.16154260554236952 0.33209845629932144 0.0034490897126147496 0.009060691549738403
0.15380633647233027 0.32297948004804183 0.005863550209163157 0.01653880779031697
0.13215644483184338 0.35324997936234287 0.045432691840599074 0.015573812710902815
0.13313925388715148 0.3400902661256752 0.032808752310612775 0.016249571332377834
0.1307158692667531 0.334376900425263 0.04429563221221787 0.010950756693371144
0.13859106317058215 0.33177494815932895 0.021437391646577438 0.01937066918105295
0.14566025560572285 0.32887082081809227 0.012063157211225892 0.02309779971426246
0.1303528795664201 0.3675722786966178 0.09129350397189076 0.05753573835034781
0.14270814637960855 0.3966348727085125 0.10580170431711151 0.11970268940023984
0.14517167977555534 0.3989070546841721 0.09188042949034472 0.05987692342939165
0.13575044508030415 0.3868331830541985 0.09972370424055763 0.10443562063629054
0.15372361684792973 0.40465507575578435 0.1080486873497562 0.11194437154417974
0.1627305191300906 0.40864358722429805 0.09763404505037433 0.08543600342573576
0.13096089289229762 0.3717624025739588 0.10477729316201743 0.08849566310604612
0.13167781876876056 0.3737331494508367 0.11688268642671804 0.10415809361234646
0.13100720079099873 0.25432000153446965 0.10824378137230228 0.0988998616415448
0.16783645185048032 0.21543409677304415 0.10308570762383283 0.09104414612750215
0.1477429884869491 0.22451508311168644 0.09680060979264837 0.09427164501839144
0.14713068600488666 0.22502250565089288 0.10781640622773159 0.11565632032569229
0.13262481633799614 0.24523161198856502 0.09712500346683241 0.0708877838440276
0.1605691638000862 0.21691258424884707 0.09140496932735888 0.04926201143963132
0.15567635767425633 0.2189967268327079 0.10438978920744042 0.09770398259206592
0.13894754569967904 0.23293324310424635 0.09574939832170215 0.0714142283773612
0.20547258819994524 0.30712525013093733 0.001453491161922818 0.015115914591680688
0.21417269531351876 0.3152025305886342 0.004588218029754229 0.016953790646729784
0.22504412805802548 0.3156295479839609 0.011848317046631019 0.018572626806107988
0.2323874546981693 0.31430710818112556 0.020196502324506455 0.017752240725546667
0.2396937839979072 0.31274513373190393 0.04341266212819397 0.006400632924264096
0.23983021825551987 0.313014434240227 0.05631425399702729 0.0015792666307048802
0.23983021825551987 0.327134728902546 0.05873775535410085 0.002189811988872349
0.23983021825551987 0.2922109730167057 0.05241075215679877 0.0033733087470942395
0.23983021825551987 0.27859433784877385 0.05472191022470559 0.00771743024051549
0.2398302182555199 0.3045660433281507 0.06642964293600134 0.000785329030546059
0.23983021825551987 0.2843991646091726 0.07244931861357284 0.0010505345294799994
0.23983021825551987 0.2716128218679163 0.0693622848541222 0.0062329968089769
0.23983021825551987 0.2946750135177886 0.08779570195597314 0.013931557379292088
0.23983021825551987 0.30643617232380815 0.081392685766004 0.005805704830445216
0.23983021825551987 0.305107977910951 0.09676785541660354 0.06724992779432515
0.23983021825551987 0.31595185359724887 0.1069514032213285 0.06441428959623116
0.23983021825551984 0.3232577093239688 0.09198012025667318 0.03893934812283198
0.23983021825551987 0.3275999032446095 0.10362834890746864 0.059482822734670524
0.23983021825551987 0.33978790100527745 0.10911563435975735 0.05681602446075088
0.23983021825551987 0.3365584498884192 0.09167697105499661 0.03644731431999853
0.23983021825551987 0.3474246799907515 0.09920854286811828 0.05210254033290669
0.23983021825551987 0.36405730063375347 0.09990630872416667 0.0670611467467449
0.23983021825551987 0.35944221193633263 0.11838971853977437 0.0931553707232119
0.23983021825551987 0.3297403375492108 0.07990416208837246 0.0006945814855824079
0.23983021825551987 0.3431246268823446 0.08206893607347038 0.008729829483412528
0.23983021825551987 0.31561661951624176 0.07530228769677086 3.704200538115721e-05
0.23983021825551987 0.3497291250529537 0.07101973896520754 0.001323697481394142
0.23983021825551987 0.3423526309490935 0.061273926608970734 0.004009687366833054
0.23983021825551987 0.33613399643906344 0.04819292072107349 0.006025793809156288
0.23983021825551987 0.3585731188916208 0.07845776303077355 0.005331418923639786
0.23983021825551987 0.3041900854527359 0.11311001420889256 0.060471658799341764
0.23983021825551987 0.2947977086986313 0.10389807722357797 0.066908331335921
0.23983021825551987 0.28200922031208353 0.10851423882558786 0.060229255072843116
0.23983021825551987 0.27755015569526886 0.09029585242040439 0.027879027158312294
0.23983021825551987 0.2640175125666605 0.09033349800924388 0.043556787614199025
0.19564993442383544 0.2158790393626454 0.07416379616660722 0.010777895765939042
0.20565178271827345 0.21587784266061624 0.08921790392585996 0.0382887664500768
0.21622439449616238 0.22509316604362106 0.06405896332303825 0.0230771908213058
0.22240832067177263 0.22627986094057959 0.07454243690387576 0.020217817007013493
0.22818127940760424 0.23459288741819476 0.06411456851583468 0.022772274711625174
0.2348314350540365 0.2415864793760924 0.07625373017073361 0.014036309921129196
0.22327525609266918 0.23482066130469031 0.05311611214703546 0.023978160275019065
0.2136154766457283 0.2272765876811931 0.05393839548965201 0.016958907810620694
0.2128487559957906 0.2337631020035813 0.041289362333401074 0.013581611606091185
0.23446801368485887 0.2562025765950176 0.046758276682614265 0.01573502012727924
0.22784674737380273 0.24314775868897753 0.046910631433227705 0.02063698133643829
0.22401551770523753 0.2511605891526906 0.03247030633182379 0.021567131967277768
0.21299111759565223 0.2483328522345484 0.02550122974106194 0.012648145087807818
0.22994248868097786 0.26299303731594836 0.03151155858336052 0.016131298389750637
0.2240200145646113 0.26472466749047335 0.02225368584732151 0.020824916519514947
0.2187573554397738 0.2715274264783829 0.014930372535514762 0.019563671387363077
0.23258786140688348 0.27662012845065087 0.028192721208675168 0.011970448423987357
0.21790118231235966 0.2875077125584673 0.009283686737376649 0.021399284314090692
0.2362975689313552 0.2879597608158504 0.030288570964288535 0.0160524377078979
0.2059685226730167 0.2402424906950435 0.029968290441532857 0.010730142051445072
0.20236839582137575 0.22261525797896423 0.05587392059538928 0.010827399736271835
0.23634407423831286 0.24238315598341037 0.08723738037728314 0.036008451884470744
0.22926668455954705 0.23127725088938214 0.08387685579452239 0.03220817878027012
0.2206886015152614 0.2226624710399957 0.0897758171476331 0.062452061785172826
0.23707978281905576 0.25343562960804594 0.0596332871430046 0.013247543709331807
0.23944458709651933 0.2603043472404995 0.07368988061665657 0.009191317639196922
0.2388432992243556 0.26399239313834255 0.06040606531905329 0.005544147213863408
0.21191085156762793 0.21917642943988871 0.07460314908867047 0.012913999126824529
0.23848530662079354 0.2523161393498795 0.08184172006316007 0.016145426814176505
0.2045225289428116 0.25927712204699627 0.014342630851891887 0.011407253845015734
0.19528211132240797 0.2676869977899062 0.008011842750634232 0.007250606858613104
0.20752238713289978 0.2720488635685269 0.008589235951685231 0.014267046352829141
0.20181426004943204 0.29099886764094285 0.0024401751409524894 0.010440577801100928
0.2141512762052305 0.2978764371013088 0.005192080380154306 0.015027567698058552
0.2387852398663005 0.28252732926857926 0.04445486047961198 0.009778890698733033
0.22823853764982588 0.30410731675275593 0.015203782925650266 0.018492195640157163
0.2358988157226192 0.30406591480559353 0.026915611421117345 0.02279002872517206
0.2388741286393305 0.2976681157456362 0.040529973994633324 0.009948382895678228
0.20586624794223735 0.3266663534314336 0.0021669205808368796 0.01002152639445918
0.20177400123764072 0.3442933451957225 0.004724779297274471 0.010132334710363315
0.21234175765907498 0.35044332291612884 0.009280980802917753 0.013699114184484128
0.21875420201951534 0.33624651098418806 0.009564662997528893 0.014946242601528223
0.22380273021267538 0.34965369336104385 0.01686292214253952 0.019594101363005368
0.2317147848026277 0.34974538218395684 0.027620838819667225 0.01715226608061584
0.2202863046987341 0.3652408404365937 0.022430197009294998 0.024302899299600098
0.22882785744542938 0.3647301212038826 0.031600132817924176 0.02040926701201536
0.22111235704781063 0.3783776272032342 0.034135192787951296 0.01999920237099481
0.21286849015231185 0.39100253703757903 0.04110293417122901 0.014166158332047185
0.23360224463507034 0.3742761549570648 0.051486921292861004 0.014759160022929171
0.2277371339009893 0.3794006319809934 0.043720583253373496 0.01906248469678344
0.22902483076668587 0.38698377556884445 0.05923723937962849 0.018512622878548428
0.21984792151261595 0.3973323303854372 0.06387539545182472 0.02107292963806901
0.22749047423095808 0.3940687631251254 0.07314220219065434 0.020501438334553652
0.1986715348108466 0.3683213841155466 0.014606091653829182 0.010590561904807245
0.19892433471162857 0.378156557724052 0.021915421069925774 0.011198306195037956
0.20966292838657927 0.3721883173693319 0.020100988328112336 0.01516435285909355
0.20111706744554858 0.38633260142663184 0.03040565085049493 0.01242289087565322
0.23734665951098646 0.32128315827166143 0.030784705007036978 0.014159819447507967
0.23042544808741733 0.3259097640864797 0.018337200110303067 0.017703306414868406
0.23743301565353758 0.3472939904668224 0.03925737669087135 0.011356732956794256
0.23789846586588903 0.3338344715381355 0.03664555553020471 0.008353840541993713
0.23949986241387328 0.348974233976276 0.05307330201715667 0.009159211276804495
0.20422175980173096 0.399512047721539 0.05058085752655177 0.011172061293500679
0.19825088763153556 0.408672080119751 0.0750537436538416 0.008829265449881794
0.2126890003495694 0.4066666107153745 0.08854344369906068 0.049759250447680724
0.19704005043478645 0.4064408750635521 0.06437254555099059 0.009376223287758206
0.21108505721848306 0.40479928298414247 0.06948728445815239 0.016575060840677436
0.22091289521966345 0.40078007826624573 0.08073336398340462 0.02486238150842384
0.23715453917024293 0.3753881998074904 0.06794150970032127 0.014061144833435828
0.2391278277360384 0.3606966477243933 0.062453164444512245 0.00754820469054048
0.2342917739863274 0.38640153744471134 0.08610128254658497 0.027278747092462755
0.23889427129623336 0.36971263317546815 0.08163620341576103 0.016946398758857097
0.21094711704693245 0.3824665774059213 0.028950602927861366 0.015557467613686314
0.19583075466281324 0.21450611509775205 0.11457802519555597 0.08104065528440806
0.233576536083218 0.2372145840685621 0.10421773606437913 0.10764437898221739
0.22608158888198013 0.22704615388247124 0.11110977352100454 0.117785748565385
0.2176582836935653 0.22090953982574107 0.10090970755547486 0.12226256464068685
0.23793600427347164 0.24941923584449593 0.11847688314983758 0.07963168870309056
0.23940068635698508 0.25467345249612217 0.09550125852373886 0.056962516338660486
0.23947585834169624 0.25709004724643936 0.10796273560687837 0.08820093325296498
0.207119289371403 0.21624730923222613 0.1028786976305216 0.10741826624373996
0.22854941025089143 0.22984889148090334 0.09664383722285873 0.0873540614192185
0.23813654262975015 0.37505793762348333 0.10424408642903861 0.08423160632577803
0.20231270024021086 0.4091903808987584 0.11349402218698201 0.11780504952244387
0.20411196267388976 0.4092402899351324 0.1018040887324679 0.11437142404080997
0.2153690455465455 0.4052926469565411 0.1056046097853697 0.10202782887140006
0.2254473441424196 0.3982165105151677 0.10695660992614278 0.11419888394056166
0.23830414663370694 0.3764682760578655 0.09056603455580918 0.04516492234005296
0.22802878395050447 0.39572676134619206 0.09071670736201268 0.0706387407594864
0.20105765503934 0.4100471187193283 0.0910687532493257 0.04528275074640286
0.33884278792051425 0.49531433687142595 0.11850719341144675 0.020410224051680536
0.3581261829049168 0.4727990631411881 0.11851874445777014 0.06663418334384662
0.3612024266486529 0.48405731347585934 0.118455441904454 0.08086626103014621
0.36208594164820584 0.4999155689699172 0.11838187764367261 0.06438336483267068
0.346911405154362 0.48554311592717897 0.11851356340361306 0.04754912230767887
0.04864400551348122 0.5030417575609178 0.11760220608593545 0.00210466127454432
0.06342053184113294 0.5011209761703976 0.1153872024577643 0.01173879871650967
0.05202640339812262 0.5158676523428015 0.11709518410930356 0.004931409983804923
0.05318375055900442 0.5382186669374149 0.11692169758726424 0.084310968706512
0.05860674147495881 0.5277126684103484 0.11610879039324395 0.028259898049213143
0.04792870206203273 0.5270936316442569 0.11770943018617862 0.03558353587506563
0.05593214481159317 0.549379088654403 0.11650971285511941 0.08695126622261036
0.04489303925093643 0.5507846587362368 0.11816447652057317 0.09145243840111653
0.051243165778969924 0.5598072635446453 0.11721259155200522 0.07433733541048923
0.1121858656697595 0.5147715798281376 0.09045845405747925 0.06770022265237781
0.10366488683337358 0.5249039338216018 0.09736427417154057 0.048669092032625746
0.10606194116487475 0.5368999252930964 0.09542158350948989 0.07540657815884635
0.11541222209627763 0.5400612049805987 0.08784365621169204 0.06858751569965608
0.1048499967726332 0.5571573809628483 0.09640380282041303 0.07423480763239311
0.09637875653940599 0.5167758807646003 0.10181982905680362 0.05748961819303398
0.0891158365652162 0.5069753917758233 0.10582391291297302 0.03214922333593569
0.08969848976064498 0.537576334880642 0.10550269331233682 0.07250174268861065
0.09574116905211623 0.5518465528356922 0.10217133420539742 0.09027165408524669
0.10055138523397658 0.5068555241343893 0.09951943813234172 0.06014263467961241
0.08559530468624219 0.5571914958058596 0.10776479962407877 0.06982585273075641
0.12208125922581656 0.513064709586591 0.08300397413932896 0.07613369389046443
0.11930329599519165 0.5266098039077968 0.08492904798045348 0.04449582950004513
0.1267824898447757 0.5380711623240524 0.07974611511618604 0.05749368505610149
0.13056899255143428 0.5269628967982553 0.07712214317533453 0.0663881825130743
0.12128119564785608 0.5521974928469933 0.08355840317855653 0.07822152628784079
0.14963874337544053 0.509835637399934 0.0684000005877859 0.07433283443193806
0.15882832618080295 0.5415468456406846 0.06591116720895242 0.04465327492760588
0.16497666541887973 0.504217865986787 0.06424599042334672 0.0762145510597251
0.1655650347054426 0.526938046128937 0.06408664482667004 0.04662704083379339
0.1596814239757478 0.5157236939522915 0.06568011654632382 0.07535948349637926
0.1705645327499446 0.5426741312929506 0.06358434354099016 0.07091675126798466
0.17400015062937618 0.557930258821643 0.06327955620003789 0.08101332966540281
0.18163039973900796 0.5472333911743386 0.06260264010171515 0.08975689512779404
0.17616123393554986 0.5274467560457883 0.06308783221234615 0.059839290168879566
0.17759503074306623 0.5139877944600592 0.06296063157181608 0.08943004199511571
0.14060675956486263 0.5560418212144664 0.0722506846281583 0.05991320000653131
0.13141111378894937 0.5511488716942748 0.07655306798147338 0.0717403343438138
0.13742381965631278 0.5027539841909231 0.07373988978915451 0.07512336023544178
0.1418409654603677 0.5332580387918138 0.07167323349506047 0.04169426647925953
0.13858599361420162 0.5168063708634094 0.07319614233452902 0.054497429949823546
0.21869618142131678 0.5531753591055178 0.06794905800874551 0.07203563075935085
0.20962967438935703 0.5247010688892262 0.06549355253745895 0.05785619664502704
0.21202762119153207 0.5393514254171132 0.06614299524050056 0.06907312912663978
0.2064404867997482 0.5053952575482709 0.06462981618618598 0.07968452353799924
0.22004492111778487 0.5132480396044731 0.06831434160630646 0.07831068207800666
0.24711052713040077 0.5110023718659078 0.08244393600113407 0.07217546088602565
0.243747185388367 0.5519160297717813 0.08011320640959953 0.06968323439182601
0.25242576936059613 0.5566967955746069 0.08612729419137241 0.07826186250769261
0.22513543148671972 0.5354291249345408 0.07025859841161916 0.06230836139387047
0.2336746382510893 0.5173920554479774 0.07425385403229989 0.06674571787139345
0.2370086285055617 0.5392384213488304 0.07581373411010263 0.050525900053438225
0.1911527124829479 0.5120654432123624 0.06284954261995919 0.06931092334237024
0.19518638563501883 0.5227924211365376 0.06320738952351355 0.0658316643660943
0.19655052287101638 0.5014393177713807 0.06332840604107481 0.07068454365673472
0.2011862580846701 0.5430128852736419 0.06373966807219558 0.08330962426135628
0.18881985014041291 0.5347292584736499 0.06264258611488076 0.0435722295884011
0.18693386216957703 0.5582804357808272 0.06247527396856102 0.09656828860662843
0.25739664709356824 0.5187249578388962 0.09012014447862804 0.05979103891377279
0.2618370151244854 0.5079951494389077 0.09371883525294855 0.06698753757030099
0.2583810221378608 0.5311637179171409 0.09091793001480472 0.047312142352834416
0.26785073069609816 0.544896365375181 0.09859264359411891 0.0724449754426493
0.26638228838223277 0.5197924308044868 0.0974025463385007 0.07193159212596781
0.2536172221001066 0.5428009065390156 0.0870571141708909 0.0637881941605622
0.2783983152833147 0.5529775910249957 0.1044534762207999 0.07538763999006179
0.26958852150591567 0.5339819259965868 0.099596595178265 0.05030331304758346
0.27764398633441384 0.5402651226204667 0.10403761109792373 0.06738181650265941
0.27974106387643805 0.5281121889683512 0.1051937406644974 0.044318342750073375
0.3098981561800577 0.5056418209516746 0.11588468165328716 0.007131065070443213
0.325691647453564 0.5105576898620754 0.11825212934668888 0.0033020361486616606
0.31068996308844343 0.5473920316766034 0.11600337367688185 0.06712932148907827
0.31246583086502316 0.5171681152851524 0.11626957663344425 0.005178893657025937
0.31376971717405466 0.5278667972510079 0.11646502946786302 0.024575678678122513
0.32544318361097735 0.5457502552959725 0.11821488456395916 0.08469294569805581
0.2996213066848904 0.5042623769370193 0.1132230910420424 0.016964348508541328
0.29922222385517816 0.5261957887340112 0.11308832521024613 0.03550941783068049
0.30021506356669647 0.5594402574005536 0.11342359547214424 0.0833329555558918
0.2880000813173561 0.53464151314175 0.10929873134504253 0.04322190642981972
0.2922480566427629 0.5515724667055693 0.11073322518124529 0.09446489798442055
0.2885377159473494 0.5186171512401173 0.10948028532407171 0.02049261858251975
0.2989178040920638 0.5406796478961062 0.11298552600637166 0.09191889889472925
0.014523624246056539 0.5488840445058893 0.1184706716092725 0.09278540317913492
0.01901694676104886 0.5136365983975488 0.11844697088560349 0.061330098382207265
0.029525317514815786 0.5241227755674436 0.11839154286088112 0.027861819007613697
0.0022467464481683414 0.5107796592625204 0.11853542789757254 0.08001775897454232
0.004019653809380864 0.5248345247733174 0.11852607642384268 0.07087990532676353
0.03369463540026897 0.543790647637898 0.11836955114967818 0.0680025779248223
0.020911576252530407 0.5333466598092292 0.11843697736969562 0.06677481115004154
0.03587150195983659 0.5039428921937636 0.11835806893075877 0.010831782508951818
0.349951728083183 0.5071574213737193 0.11833708789593458 0.06926484534916104
0.32687677276571026 0.5262915940306392 0.11831648726181097 0.018085329877846355
0.3378575681973224 0.5071130710922027 0.11832629058952973 0.028010441242140225
0.3543888115414636 0.5260147410215767 0.11834104919213828 0.07122919043608714
0.3402581723513359 0.5226059766056312 0.11832843377755206 0.027921514573395527
0.33605219871649183 0.5371673010767116 0.11832467880932818 0.055144097981840064
0.3345963402728818 0.5581212191495605 0.1183233790621902 0.08147487121108624
0.36751984142622934 0.5571612851989755 0.11835277218525356 0.09657099704566
0.3627057971551734 0.5411784548802492 0.11834847434964267 0.08182695806452828
0.3552152357943822 0.5526502155830982 0.11834178699914293 0.12741058800226765
0.05287921140866654 0.4631717641055547 0.38490985958758 0.08619369805526379
0.09892821128008984 0.46347007121821127 0.3849371388194307 0.09524025031672957
0.3559024392490113 0.4627762494287616 0.3848736910347335 0.09015301791068159
0.21133941229015024 0.46007617359802333 0.3842811582992009 0.11370226464996717
0.13384037461915735 0.45983911624965923 0.38417987611371407 0.11771110274579169
0.1754073892040686 0.45959495683150076 0.3840538028396836 0.12786250763646684
0.07830733681473642 0.4587356938551705 0.38361011691719815 0.12073160173018643
0.25220786502627845 0.4588243113354193 0.3836558751187681 0.11479422611212364
0.032485856837034185 0.458206552577984 0.3833368914412254 0.1466776960714728
0.29469448602794085 0.45870057858142504 0.38359198492145963 0.13094232169574246
0.06325034315894736 0.45816489599907984 0.38330762758183223 0.12769144251190295
0.14647684406919087 0.4568196826096292 0.38221848727640395 0.13857950176948128
0.1115462519625334 0.4568631717066747 0.3822536978450843 0.13606561060950131
0.2221200481451056 0.4565680489676437 0.38200527788182925 0.16333124379030367
0.1864119873136668 0.4565673754100265 0.3820044514531189 0.15519769058195368
0.00876236796514004 0.45551790762982375 0.3807167957544337 0.1604041216590457
0.30732078394543205 0.4558035953950511 0.38106732340843036 0.14019981476907234
0.26535907181940005 0.4552625773279778 0.38038399371381804 0.1517543991849142
0.16480252611959637 0.4548344194739883 0.3795602359714423 0.1845468874506804
0.34273738474445525 0.45491774120023415 0.37972054347593764 0.16388874463670128
0.28437551364512237 0.4549211426068533 0.3797270876395244 0.18885240301223188
0.3612185511162464 0.4541036104037134 0.3777560097169774 0.17282568177515015
0.24145672634013715 0.45400710922121384 0.37742148481112314 0.18907928230522036
0.0030150694932635793 0.4889139207569754 0.38196402111747424 0.06246862986418382
0.003439831796601409 0.5401080341202632 0.3826091966981661 0.08464845964014149
0.0020921395525937262 0.5590759504879723 0.3790705423604786 0.08628406857584399
0.004389769556062357 0.47174890364890604 0.3835687686124122 0.09288994002776108
0.36381224547073937 0.5202525581341875 0.38459661149451113 0.07510110352513427
0.36398582409964986 0.5537017688772055 0.38456358102087623 0.06336695226334711
0.3675803074798873 0.4683369232746188 0.38078361922745385 0.07027509185766735
0.3651138370289856 0.5007268490488479 0.3838940642014685 0.0819571788014456
0.006959451925308667 0.45387148293779433 0.359250747435204 0.15715312385286
0.08808582093830977 0.45333595654613923 0.35632998167793767 0.16044573858003155
0.2905858813716492 0.45354929876852723 0.35744474748543464 0.14812328249271395
0.07081523839569806 0.45338311299699896 0.35657638578132095 0.13592878960583865
0.10386949767754199 0.4533539598848251 0.35642405356939494 0.13311616446935645
0.32818136908950557 0.4534779561536278 0.3570719647009623 0.14733548312786518
0.16147096306156444 0.4531812572538927 0.35552163966523087 0.11264092856555852
0.1879598118409826 0.45326456655975356 0.3559569513657489 0.10254673437030119
0.052539634120766614 0.45215528405668404 0.35312995020393717 0.10381525377493873
0.016136179020083855 0.45183791472353946 0.3526483693025529 0.23742858101511236
0.14563629226723537 0.45280616952940134 0.354117613408644 0.113526020695156
0.11344315058818584 0.451371762520167 0.3519410230821156 0.13098109081790313
0.1255756803038853 0.4511159636099187 0.35155287004744806 0.1455758988153961
0.24019936647291762 0.45082779579995086 0.3511155999675092 0.1467380561009398
0.3177386349613166 0.4510643217899406 0.351474507989061 0.14178302766738538
0.2165285744194641 0.45067959774469013 0.35093169511312716 0.13367285028737033
0.17577188853901185 0.4494998451650036 0.3501593255789982 0.10232944685312843
0.03841626559800747 0.44851494963557 0.34951452656407567 0.1382627459274468
0.3467709171322395 0.45009666955009575 0.35055005917874416 0.20350515087838172
0.22949633246530954 0.44792031293084017 0.34912522521181233 0.1473921851554699
0.30166430655066045 0.4495542880666552 0.3501949686785001 0.1575884558744117
0.25670805034198046 0.44779539162460075 0.3490434407658495 0.15379900139355895
0.0648477239463055 0.4477611244472843 0.34902100646544143 0.10717545830092703
0.1556472384887476 0.44593201666722243 0.3484746498491413 0.11455449726882264
0.025228346073481994 0.44628559077744856 0.348541869968532 0.22721262932962188
0.29138004133102813 0.44500640897946003 0.3482986769555363 0.1833478257440269
0.332361161759853 0.44552665189754864 0.34839758349324546 0.13243036168807046
0.27167578863570974 0.44493178119135235 0.34828448901393827 0.18356109373566465
0.20697839906305307 0.44394570645336395 0.3480970203625336 0.14497232868664792
0.003273739056003178 0.4472337816812862 0.34596006804610285 0.13231062220613135
0.36553601338999975 0.44853670877509083 0.34796080807687313 0.14441141740230826
0.36775275809011926 0.45829653245172225 0.35565031943747855 0.14432345938210855
0.363849842498804 0.258480992329828 0.3464744295424073 0.14984843633759382
0.3643739382637238 0.43335816325473275 0.34738434147950925 0.19503363713513963
0.36150545006604295 0.15990320134295924 0.3473070144281409 0.14592815154711813
0.3623794766576412 0.1469101828301622 0.34664120624776334 0.15867356182609768
0.3603539413398896 0.21032559288295546 0.34785392230334344 0.15088766614208032
0.36513026687436523 0.23266342269780046 0.3443418109393952 0.1449308455383643
0.3639471358501933 0.10538513178957068 0.34348886837187614 0.15677877099742904
0.36374257600408 0.08423835151084327 0.343355159309504 0.14535056067107044
0.36703470920099407 0.3864855080733812 0.3433278962807894 0.10619278085345887
0.3146011527966417 0.005967107937399913 0.3469482827067593 0.13332321972823105
0.3536605632293788 0.03109347967778496 0.34502094728047383 0.11610501647089115
0.25827307935952865 0.0054227467076788174 0.34736273006511265 0.19210524433089637
0.2714132258782741 0.005051389113026528 0.3470937932052128 0.2074122027621893
0.10431786193454665 0.005310764574615198 0.3472816326978723 0.2067807173356751
0.18932998436759202 0.004468242510781864 0.3466714789228946 0.16231631437966812
0.20321287532029225 0.002862607561060643 0.3447528851382915 0.14113619651379408
0.2187855425411503 0.0031435303896964733 0.3452695414803969 0.16625173009983382
0.23984339733514431 0.00252291012157754 0.3441281340728186 0.19442583473609246
0.11644572909924679 0.003082149293765098 0.3451566530666915 0.19201468878601932
0.06941396169044502 0.0021882490815876123 0.34245360203434194 0.13079327896414217
0.05662728441912874 0.004564326667446139 0.3461130120264312 0.11900282387221046
0.02431921751851271 0.023291822981557676 0.3467809678438363 0.1339095391186384
0.011581646862618953 0.03913497545014157 0.3444314948421482 0.11058401945811623
0.006898655931279225 0.2920755260927381 0.34729350409404935 0.155339749801291
0.0069751203076134655 0.23273765846732736 0.3468980256189037 0.13576340560162173
0.007627101383973564 0.11589681824368786 0.3464441556451004 0.2172029294602626
0.003695521440358016 0.4248084067401917 0.3458470201963305 0.13927878033025454
0.00594109809927323 0.18461248413000453 0.3452489470732205 0.17851734758281948
0.006144066389382333 0.17073499468986722 0.345319430787251 0.15701763042549663
0.0049898969754861465 0.25299926217396507 0.3449760409714263 0.11376079860031926
0.004290600860700773 0.30222449995670614 0.3447095626908788 0.13755631137176336
0.0038994868295833037 0.3149781820054431 0.34418922048320255 0.1682790489629235
0.005624775532402863 0.13611158016590863 0.3431040644132928 0.10745250019893211
0.004892375480608233 0.19511980527404038 0.3427153879017172 0.13570211160674447
0.006247796211108545 0.07224509896944878 0.34263727008329825 0.13760857868616608
0.002442901155535176 0.41441825812542227 0.3422780631593415 0.12256875967668862
0.003303361191640233 0.33910824418146035 0.3427603426236957 0.1405863976358771
0.009279757060282086 0.05894617457599308 0.3469135769840825 0.16325892349133653
0.36188091405755296 0.05434121216989287 0.3451949338654592 0.09863955050732372
0.035730448636418055 0.5117762415834474 0.3849553167819977 0.008010802607737176
0.016170936483028295 0.5421264330852122 0.3849553167819976 0.09585008144507615
0.02451362721232575 0.5090765228990503 0.3849553167819977 0.03510765009547545
0.026459390806988947 0.5354680316333982 0.3849553167819977 0.07139804139166142
0.04974853975511781 0.5577791192090207 0.3849553167819977 0.07993293072798699
0.040271570523620445 0.5398898995371282 0.3849553167819977 0.05023054613502508
0.036866461527544254 0.5535643387860781 0.3849553167819977 0.0798907781130714
0.01920844855630787 0.49352541878414696 0.3849553167819977 0.0561211252560209
0.03746399928646818 0.5280795772878951 0.3849553167819977 0.012865499826420261
0.012184599414875421 0.5307867787706433 0.3849553167819977 0.08308682202110605
0.025567339690792376 0.5594910542438558 0.3849553167819977 0.0851644426243042
0.011255630141871071 0.5073413673423608 0.3849553167819977 0.06957517845720704
0.01071638077218286 0.5187221151107994 0.3849553167819977 0.07235577527258964
0.08192692480903412 0.5557231473121927 0.3849553167819977 0.08736411888908996
0.08535334955572603 0.5322846756799807 0.3849553167819977 0.040147555911802885
0.06397432515143504 0.5184423607612231 0.38495531678199774 -1.2463720689572758e-26
0.1197241474898512 0.5580785161474515 0.3849553167819976 0.08098631321159584
0.09181053251809831 0.5417523183505165 0.3849553167819977 0.060555177302154345
0.041287798321633505 0.5011349907520699 0.3849553167819977 8.61675589513201e-08
0.10454873172756335 0.5501822780001552 0.3849553167819977 0.09478058890727264
0.06554300266286504 0.5489027505308604 0.3849553167819977 0.0711823958075645
0.05450091918063163 0.5265477891580458 0.3849553167819977 0.025095616242522958
0.0953371630168092 0.5591835097975717 0.38495531678199774 0.07369710306768637
0.0750086007428293 0.5396369350024393 0.3849553167819977 0.04276084123355434
0.05007703515156814 0.5118322438986973 0.3849553167819977 -1.0528788330336395e-26
0.06764581648410414 0.5295259591938544 0.3849553167819977 0.031536296049841296
0.0564972451226342 0.5393547538099899 0.38495531678199774 0.06904895280274648
0.3360924256183583 0.5138071577978496 0.3849553167819977 0.009396101861183087
0.21676710156610432 0.5084537243083977 0.3849553167819977 0.0
0.07715263998392974 0.5056543278316749 0.3849553167819977 -2.0796029346393192e-27
0.12386465646924497 0.5123823862936487 0.3849553167819977 -1.1496794113178828e-26
0.1489404990583964 0.4930676776695969 0.3849553167819977 0.0003300698439257799
0.05304615087795469 0.4749422629705031 0.3849553167819976 0.059627401501036174
0.1488061330879293 0.53791133357994 0.3849553167819977 0.04974688416363785
0.20123827066086816 0.49468992181463833 0.3849553167819977 2.1905409017490675e-05
0.1238352739702188 0.5341041942075275 0.3849553167819977 0.035858348440450154
0.014860742908166752 0.4680458999731882 0.38495531678199774 0.09871395042508155
0.24137936480778982 0.5035222165260276 0.3849553167819977 -4.054126504535361e-27
0.2015968795663213 0.5349384506511163 0.3849553167819977 0.05162696643096178
0.04525587270207854 0.483912168661202 0.3849553167819977 0.031262519160816286
0.21464614240171226 0.4926579332572799 0.3849553167819977 0.0003994835690131632
0.13962675338629743 0.50456444876643 0.3849553167819977 -9.751256578666327e-27
0.3567301336254309 0.5124821389002965 0.3849553167819976 0.09474619866332294
0.26609789322687777 0.5214551031051063 0.3849553167819977 -1.1090886423458913e-26
0.1585246274374698 0.5443773706370396 0.3849553167819976 0.08085299876602042
0.24530029777345155 0.5142890654913457 0.3849553167819977 -9.494861486230968e-27
0.09415750043156773 0.5188790121771152 0.3849553167819977 -9.574987054976038e-27
0.025284369081243693 0.477630676534734 0.3849553167819977 0.06863589422348099
0.10901605597560099 0.5040303568735114 0.3849553167819977 -1.5054290769612805e-28
0.16134256473224667 0.5270296423142795 0.3849553167819977 0.0056537105631890745
0.2309986912759158 0.5100439840665528 0.3849553167819977 0.0
0.20888011368832027 0.5430605888091019 0.3849553167819977 0.052323654947700665
0.27442052995426564 0.5076403971856891 0.3849553167819977 -3.660329452544974e-27
0.18644612983024816 0.5078520814850407 0.3849553167819977 0.0
0.11771671071733031 0.5251039082455031 0.3849553167819977 0.0081815221265714
0.18388217252410552 0.5445953863250798 0.38495531678199774 0.06430546110932495
0.06184966014162957 0.5060699178006592 0.38495531678199774 -8.977898290771266e-27
0.13887180246927314 0.517841692262776 0.3849553167819977 -1.6307094871075162e-26
0.28025291153352067 0.5192800346972061 0.3849553167819977 -9.31886619981496e-28
0.16939682184126786 0.535072323204571 0.3849553167819977 0.04819754367055134
0.10597060212994959 0.5177361342846323 0.3849553167819977 -1.1560665678803988e-26
0.25918071129640935 0.5088259865187724 0.3849553167819977 0.0
0.2018834445531195 0.5235928171701312 0.3849553167819977 0.01495614465451354
0.11825603220243061 0.4942861256547431 0.3849553167819977 0.0003486183898763826
0.13646231584982224 0.5323023897103993 0.3849553167819977 0.030894758772837705
0.1282933841075776 0.5460967016652871 0.3849553167819977 0.06682989176143814
0.1794301067412405 0.5169289682606085 0.3849553167819977 -2.5566810416255805e-27
0.23530721493182724 0.5285673146066536 0.3849553167819977 0.022165772700258532
0.1569302252504032 0.5148214863404255 0.3849553167819977 -3.8404486546550996e-27
0.09058544186295668 0.5011328490385738 0.3849553167819977 1.4684669212080512e-08
0.2019400056581684 0.5111877829794249 0.3849553167819977 -6.805700238717005e-28
0.14980025044690598 0.5265072492636342 0.3849553167819977 0.01021264943895042
0.21347110948951672 0.5244845678158623 0.3849553167819977 0.005789827960621904
0.10450068394723062 0.5288785552082379 0.3849553167819976 0.02464894070590143
0.13682295300100492 0.49065624324562895 0.3849553167819977 0.0044723363703939
0.1722336816501427 0.49503738776353323 0.3849553167819977 3.422622088699908e-05
0.19144304659213832 0.5175915050784903 0.3849553167819976 -1.5560302748309908e-26
0.08078594715659172 0.5210515230282834 0.3849553167819977 -2.548869709480632e-27
0.09341653135288867 0.4892110036899662 0.3849553167819977 0.00037409886352085005
0.18266950028358736 0.529582849060965 0.3849553167819977 0.01338907810846766
0.05999726838152855 0.4935161358056509 0.3849553167819977 0.0001547529473562115
0.11359509814472454 0.5412152753964984 0.3849553167819976 0.0538473366379592
0.162653923338938 0.5053734617052376 0.3849553167819977 -8.60729263351892e-27
0.035509428655493204 0.47443296246146904 0.3849553167819977 0.04429846689023822
0.11298862089260055 0.4837755088351283 0.38495531678199774 0.03375825875958758
0.06991226699300063 0.47540925709715603 0.3849553167819977 0.05568470164124509
0.30371913137666784 0.5196148049831413 0.3849553167819977 -2.2327405455507226e-27
0.07804005060138482 0.4856716637815046 0.3849553167819977 0.012153140247805307
0.29342467106578285 0.5158559700852237 0.3849553167819977 -6.126196874642678e-28
0.0834370961550972 0.4729693686338393 0.38495531678199774 0.06561111288207233
0.28506593818818815 0.47916713353990437 0.3849553167819977 0.052633381066940495
0.09671949706838362 0.47547057474991333 0.3849553167819976 0.07212145739079638
0.16718787389353162 0.46853896699423747 0.3849553167819977 0.07548732972087312
0.33857862887724827 0.47454677942573326 0.3849553167819977 0.055895465773039874
0.18622711391217844 0.4839653427881617 0.3849553167819977 0.023510654607316932
0.24174818981914648 0.4646112016419429 0.3849553167819977 0.08644483043461072
0.2609510560581502 0.490614783355828 0.38495531678199774 0.0009087941941223274
0.2980734778308865 0.48317776434328763 0.3849553167819977 0.0222305062789017
0.3133626334695274 0.4945214668721902 0.38495531678199774 0.0007132036296579685
0.36103650617335264 0.4781519712566581 0.3849553167819977 0.09380545250820894
0.3248772674369005 0.4875451030572915 0.3849553167819977 0.010716049258308453
0.27431413503062946 0.47810909045728195 0.3849553167819977 0.039610960132876204
0.3410189174021348 0.49896543245262537 0.3849553167819977 0.03870280675843752
0.25321281450544975 0.4809089240914092 0.3849553167819977 0.029884874147888756
0.23756874135521786 0.48824549404773293 0.3849553167819977 0.012295619925228754
0.23245380346685807 0.47528398310768166 0.3849553167819977 0.04653172022788298
0.22339686571913264 0.4863472292921243 0.3849553167819977 0.013794506847063825
0.2806282215267867 0.4947982617025685 0.3849553167819977 0.00010352846794051242
0.12474693159297769 0.46704200427245646 0.3849553167819977 0.1144883419997892
0.2935878810324452 0.49987024461261514 0.3849553167819977 -2.008616776850417e-27
0.34813838044061307 0.48920130998947164 0.38495531678199774 0.07365784801843685
0.2971282441824462 0.47202577266633683 0.3849553167819977 0.06999635286652335
0.28668646994269054 0.46577273849822676 0.3849553167819977 0.07094777091819891
0.19753540842354064 0.4648642118566423 0.3849553167819977 0.07486300156562918
0.1673803416535328 0.48085304385724176 0.3849553167819977 0.028080842847444814
0.3261339427973456 0.46897139720510117 0.3849553167819977 0.07677780014670078
0.18713367461303054 0.47152080782048644 0.3849553167819977 0.05848863011114344
0.32621337257794236 0.5048606132947843 0.3849553167819976 5.110914792157504e-05
0.3149635929088336 0.4812220040987267 0.3849553167819977 0.03488819300770088
0.11178029006435478 0.4724136362440028 0.3849553167819977 0.08638092638355753
0.3522531706840051 0.5011707769323264 0.3849553167819977 0.08238872001746188
0.14319918223216074 0.4699503994712176 0.3849553167819977 0.08230685891012697
0.20203181244283924 0.47622067128139556 0.3849553167819977 0.04629999073921023
0.1546384049699297 0.4747620503914277 0.3849553167819977 0.07597116224959145
0.3130473035182336 0.46742535957135767 0.3849553167819977 0.0920967402624498
0.2743504621435809 0.46451298947651437 0.3849553167819977 0.07883933104786205
0.1270545628923352 0.4785095947047764 0.38495531678199774 0.046445744571511294
0.1315213044436493 0.5590992182913767 0.3849553167819977 0.07623303915584805
0.26214816537600955 0.5388227195230179 0.3849553167819977 0.05149999444446131
0.16397013408526037 0.5553391062887875 0.3849553167819977 0.07746992912199038
0.2744329444175406 0.531848606930931 0.3849553167819977 0.03567952573075629
0.286908709367787 0.5381566095327156 0.38495531678199774 0.0712806614605666
0.3096784823555959 0.5298841117335246 0.3849553167819977 0.02638993652683095
0.21894487041322802 0.5517543029034839 0.3849553167819977 0.09910536147516298
0.2476856477222798 0.5451124965858052 0.3849553167819977 0.05152830714380101
0.23436717633787055 0.5480583688177548 0.3849553167819977 0.09940280606801323
0.22919608040992223 0.5585358349469234 0.3849553167819977 0.07832524405813637
0.2938413751323187 0.5491786204028128 0.3849553167819977 0.07973492569809432
0.2641631814026665 0.5583518712460398 0.3849553167819977 0.06712168844460732
0.27544165309492674 0.548948710691475 0.3849553167819976 0.06931037784524176
0.30147706183911216 0.538303291972909 0.3849553167819977 0.03877784486594062
0.30881885835726064 0.5461056931351933 0.3849553167819976 0.06861908835059248
0.33809589481755853 0.5302731347851417 0.3849553167819977 0.03373082132775579
0.32694620362191695 0.5347598494569723 0.3849553167819977 0.033085558833852884
0.3585113930863257 0.5371547291182082 0.3849553167819977 0.07987973160551129
0.34640824940524184 0.5401164868086026 0.3849553167819977 0.06722733350860957
0.3511187966270486 0.528592894636152 0.3849553167819977 0.07714910203264758
0.3309112642549976 0.5458212130888918 0.3849553167819977 0.05270138375920162
0.0436771145226522 0.45365892350673676 0.37380718313334316 0.15972199592736278
0.12716496654439186 0.45365892350673676 0.3721628360359832 0.1608313136090634
0.2747846943892711 0.45365892350673676 0.37367359712852344 0.17364163194909996
0.15249931529348704 0.4536589235067367 0.37285340064314043 0.19878151874275538
0.13754065600847984 0.45365892350673676 0.3746895297858494 0.17615365548623102
0.17888378530641486 0.45365892350673676 0.3724354942028295 0.20943098104700028
0.19267908492091504 0.45365892350673676 0.37281240417095934 0.20677508734393885
0.2585533007446692 0.45365892350673676 0.3671613709547481 0.18927273766720287
0.015130427652427069 0.45365892350673676 0.36660066084535897 0.23822850252069508
0.1745247353977321 0.4536589235067368 0.3625143189253143 0.14664134006879403
0.3239630897913464 0.45365892350673676 0.37006148102090036 0.14600247535461106
0.246172858801741 0.45365892350673676 0.3615437633694295 0.16710773274870186
0.2302921333064276 0.45365892350673676 0.3691859219562682 0.19517339675740053
0.3466734839807254 0.45365892350673676 0.36262743834761346 0.2094311590792497
0.299772921513092 0.45365892350673676 0.3640845009956285 0.14060485440737044
0.07706419686622143 0.4536589235067367 0.367296113910356 0.1507831287032828
0.06034531869539884 0.45365892350673676 0.36562541915423474 0.1771545270538458
0.16172673317716654 0.45365892350673676 0.3665553753971461 0.17470409592805122
0.3156880975767382 0.45365892350673676 0.3623483906346982 0.16117098631083265
0.2791414002998379 0.4536589235067367 0.36151240709650284 0.16478631594256063
0.11149066988433945 0.4536589235067367 0.368663990232513 0.1747085499832267
0.2193309194129232 0.45365892350673676 0.3618250211701782 0.15514256018502467
0.20693269591693936 0.45365892350673676 0.371072329604868 0.18783593021714
0.09495253413672007 0.45365892350673676 0.366665463579308 0.16436240027769738
0.12041491916840046 0.45365892350673676 0.3610192579426314 0.15831640757389637
0.04706292369244599 0.45365892350673676 0.36217696836065844 0.1197293145336654
0.027062135519108674 0.45365892350673676 0.3605498319689097 0.20333372296051197
0.13449680647083795 0.45365892350673676 0.36099118080334014 0.15330516296353966
0.3581246408069226 0.42375621325784096 0.3480406105518341 0.23988122485440858
0.33372619242669166 0.22146052218979562 0.3480406105518341 0.22133190062316968
0.3461206417289542 0.29275356839056904 0.3480406105518341 0.26102262100012275
0.35777064428319405 0.29990395557402677 0.3480406105518341 0.22524892608131267
0.3594960701985561 0.2707075721357656 0.3480406105518341 0.17473115681328943
0.3570340705711491 0.3803947222510013 0.3480406105518341 0.24677126840999544
0.35806148778828395 0.22277766416880018 0.3480406105518341 0.22293922953274783
0.33895128041250294 0.16907628091147903 0.34804061055183416 0.24035213971554992
0.3343815272700068 0.26220240837481446 0.3480406105518341 0.18407223575991016
0.35171889814764423 0.2826938560220608 0.3480406105518341 0.2770916628832328
0.355980969929942 0.12200406368300906 0.3480406105518341 0.17442988383153488
0.35295664651149433 0.36879456725215537 0.3480406105518341 0.2653463583339025
0.3557253319414736 0.3230060381164215 0.3480406105518341 0.2787907107375448
0.35435685977237297 0.1708001282676384 0.3480406105518341 0.22818363525451857
0.3428884916391531 0.13740523607315472 0.34804061055183405 0.28434952764739774
0.3372527364217404 0.2740696266450866 0.3480406105518341 0.20836268622129545
0.3591536242474509 0.4069188388110379 0.3480406105518341 0.17667033804940915
0.3503303196354455 0.2502207156639671 0.3480406105518341 0.27625518590293385
0.334414043381019 0.24093825820382203 0.3480406105518341 0.16733359179322368
0.3419752219469572 0.3286723121568959 0.3480406105518341 0.2096254181117555
0.34491337969329694 0.11936348872264699 0.3480406105518341 0.27260355924232227
0.3203912701918851 0.21943944344505298 0.3480406105518341 0.195198912650513
0.35228193055560725 0.19417450049344603 0.3480406105518341 0.21081901828298755
0.33011850629582074 0.1828455864793297 0.3480406105518341 0.16439014502690377
0.33486965231157556 0.30081934302378677 0.3480406105518341 0.20233491568295006
0.3181272888447331 0.26284519486864955 0.3480406105518341 0.23410443494853736
0.34083210768806516 0.3400548062658486 0.3480406105518341 0.21586042849809595
