x y z curv
0.3100442397107879 46.92770465093166 885.1992425851274 0.07963951331121696
0.3025878742451647 46.94146867795798 885.2006250101255 0.07648693980631677
0.317175484040613 46.88149378353892 885.2045430126343 0.11545731509611583
0.317728762604808 46.84668921185837 885.2066195250031 0.10903816379352647
0.36428808311156563 46.90721559227627 885.1839113839528 0.15900604136814914
0.3649222701912393 46.974512028341714 885.1810427280012 0.18797174340278536
0.3652164018921085 46.963420936669934 885.1849515390895 0.18343500065232818
0.3644665913113696 46.93375178911823 885.1821634091676 0.17958962923592864
0.3639340870798672 46.921968025552054 885.1790331304677 0.1301499681862626
0.36331324303112683 46.96364793282801 885.168519860802 0.14565466371635608
0.3646284034038155 46.94771069177014 885.1818292507526 0.15992999180863293
0.35922882951465224 46.98538664804411 885.1753773734071 0.22937462648723073
0.35906878023687333 46.98043491206619 885.1610823863273 0.21623130562869247
0.36249880556474623 46.92774405296271 885.1659608858174 0.08255521906912534
0.3629405760938138 46.91084579221271 885.1718591254082 0.0906174661909656
0.3639366903771863 46.896154090390496 885.1822545389691 0.13850090674297288
0.3624376277250176 46.94962138426709 885.1627205281201 0.10474652758683044
0.3583513257009239 46.938504847963436 885.1584715665809 0.1077113286806187
0.35625744321059194 46.95706235889972 885.1574857405924 0.1478466601472701
0.3028633511580844 46.98507791150665 885.1281221560256 0.13648976862087836
0.2495574739799356 46.970214228588695 885.0708632781357 0.012666715605984303
0.27101166623451983 46.97426761954773 885.0913897340923 0.007724222196195955
0.2574221631011718 46.975916950749586 885.0838942730886 0.008184624401978544
0.2878417041104649 46.970276388423656 885.0981280387932 0.014616497205989162
0.28286235767603213 46.97869527778124 885.105585979651 0.07152458809716958
0.29369496601353123 46.98281104262104 885.1186520636821 0.15392428300962951
0.2377484010693639 46.96975292467571 885.0618759074089 0.015256368901668827
0.29437456141097085 46.97435164643524 885.1080882043598 0.011651937573839748
0.324480825992725 46.98155558031101 885.1403688961924 0.20018406476428593
0.33205626084730877 46.984264003012086 885.1497750471154 0.17043872246686279
0.31343830856854527 46.97837151382983 885.1274483242286 0.17343842915193527
0.30448039580217917 46.97470541857871 885.1158460634101 0.0876283451725972
0.3237021662550472 46.97233596581789 885.1301494900758 0.10282194557215506
0.3476981260158896 46.97666232239168 885.1555434898082 0.23065496208343997
0.3366057406107976 46.97402908338558 885.1431494567789 0.18795724214948706
0.3437099163330383 46.93084020335757 885.1396232931925 0.13357228434624627
0.3450402534240562 46.943115947817745 885.14278127607 0.19057597792024034
0.3479188255392777 46.955072273870286 885.1476976756871 0.17462933760979998
0.3355753674914165 46.93965571331884 885.1313211018949 0.1982415999820049
0.3287801099148918 46.94884660954837 885.1246255447127 0.13516444892571097
0.31716284582289034 46.95883180505635 885.1146627950027 0.009498946523616417
0.33784526827150374 46.961749592089916 885.1371953411797 0.1725602665413801
0.3126948359413747 46.949169336884644 885.1075315634316 0.007121047970561231
0.3068174586350537 46.9589968108782 885.1041883238099 0.012171253977210158
0.3596776294998192 46.9107963368599 885.1587969392513 0.0716450715437995
0.3605066646437489 46.88685454802416 885.1610498181994 0.06461832575307731
0.3573677087665245 46.83926828139447 885.1643593485582 0.07590344690554776
0.3622260716575411 46.860413850979434 885.1804818314175 0.11812848466294963
0.3630327585260373 46.875647848874195 885.178222812298 0.07830709521492753
0.35776822572759426 46.82899398699267 885.1707484916307 0.08576394475268433
0.36042135228287814 46.864947589835175 885.1692765859622 0.07520815019675031
0.3593644300191793 46.85084024819626 885.16977223318 0.07792360643742476
0.3585021591743662 46.820952347784235 885.1812250424654 0.09863810336534673
0.36087933837855535 46.82632999125943 885.1931045329891 0.22876533954269232
0.357845284138784 46.80966191739401 885.1851095110383 0.1069992717637528
0.343297890710567 46.821187142153036 885.1435873119387 0.07811734674734121
0.34772390589265034 46.830251705975684 885.1488105111828 0.07130025452756898
0.35144038318055165 46.8618132096108 885.1489642485465 0.07933088894751726
0.3549701678640472 46.816293446933045 885.162450834911 0.044033867521447216
0.3538665281048923 46.84931059251837 885.1549146790323 0.05496523964571755
0.34292698058402493 46.78991961134466 885.1544608882593 0.04899382875404703
0.3357074173062677 46.78191042106738 885.1454503288949 0.06193671890307274
0.3358409911503814 46.771283081566 885.1518451036422 0.05181175158553733
0.3540356914833368 46.80189236973161 885.171542874823 0.06308927226085548
0.34658168610186496 46.812031182231024 885.1506064265615 0.054413698479960554
0.343165836700027 46.80087666416626 885.1496502117499 0.057751206591124274
0.3456866732168561 46.780667389371715 885.1639330689046 0.04674742553233202
0.34915387952526356 46.7932777621251 885.1635634077977 0.049169678078717485
0.35465007909084667 46.89842585295763 885.1486705535827 0.08785724645280205
0.31962028355520417 46.93648370727156 885.112444927015 0.0004147402654839309
0.3394453429088829 46.893068012155545 885.1313491102165 0.1634783680338009
0.3265253400080786 46.93111389780582 885.1197414134857 0.141517994398424
0.33878720400616535 46.91750195448925 885.1324006790285 0.1571165085097204
0.3485195647831908 46.90739696470408 885.1424995045118 0.111176019605381
0.34677635445050314 46.85238507184039 885.1438016265641 0.09949039882727313
0.354806620915736 46.88433367594972 885.150409729066 0.08219970130770815
0.3435017338731063 46.84088122344052 885.1409034642854 0.10197904112059544
0.34749742194480615 46.87654051907239 885.1415534520233 0.10558972422084496
0.3219387654536559 46.827269296883074 885.1195629137401 0.20243016515445858
0.3412371433300324 46.868076512482396 885.1344852871225 0.1312082743017065
0.3367931685411842 46.83479454585129 885.1338671314745 0.11602584818733017
0.3377957501433868 46.85041293515911 885.1330497347499 0.12252059566337328
0.3324956516996411 46.792252277751984 885.1376876987576 0.10246181847309016
0.3354737401355135 46.80431712381541 885.1374669851824 0.09223105974349954
0.31882347800217203 46.790446304588286 885.1252068542893 0.13980548649510346
0.326868727244373 46.81833775123015 885.126085110009 0.1723181857041053
0.3091338052094022 46.799745265809456 885.1137981238412 0.1704243669412995
0.31223644547711094 46.775813275667815 885.1238438951586 0.13850107774098683
0.31739059959134724 46.759634312850515 885.1337345125307 0.10201727699745211
0.32185349591681867 46.77346086857367 885.1329889951745 0.10695954460755705
0.32409407677201263 46.74413343575507 885.1503778885283 0.0457456796861883
0.3268675379256556 46.763430303517765 885.142042127007 0.07404188512324816
0.33368736588551545 46.73189306312959 885.1888829526151 0.15183241368417322
0.3420263366691021 46.74906085486571 885.1892892724617 0.16794101460335945
0.3286938335785116 46.72390868385931 885.1831767434894 0.1276860931353437
0.3391040823776881 46.75550151825031 885.1665285995359 0.05064427497202325
0.3431250783770918 46.75774879838065 885.1794197355941 0.13161263705820306
0.34806268552265573 46.77118608426488 885.1806513412198 0.12222725144760309
0.3520719692511216 46.78082628338386 885.1869434804024 0.1449993172070054
0.3511175292461143 46.772026468479986 885.1972652989 0.20673042237911468
0.32600330280420786 46.713938418990594 885.1995717674293 0.1573723253133134
0.3156210094233511 46.86644052387667 885.1096954335455 0.14810896823299832
0.3154755698071053 46.88856008612753 885.1077139206639 0.15052275096561318
0.317446965463294 46.85149351223771 885.1126877204533 0.16206679939279678
0.32336384770828003 46.86106624428005 885.1175525846736 0.21441910375557424
0.32868178634690276 46.87443631780693 885.1215280084748 0.19720050216517815
0.3295247573523299 46.88588487202768 885.1213811438065 0.1564537974925875
0.31731711817553765 46.83934227462138 885.1135755370071 0.20028722292675305
0.33695579017076444 46.87853511940327 885.1291044486833 0.1550924678094894
0.32495855541751345 46.91433478212814 885.11722128766 0.14663781148360808
0.31063745616184424 46.89726396295661 885.1026512165113 0.00022420602880792064
0.33022777267300674 46.90226587374423 885.1222214448277 0.1802107607808575
0.31563649374394354 46.921991085421084 885.1081060512221 0.0005013472824661147
0.32115159298011925 46.90282798475134 885.1132111682782 0.12263736371409711
0.3063985340339619 46.91379469966797 885.0994477377977 0.00025109809183150394
0.25728528269363804 46.939642850911085 885.0566517806005 0.01586924066030167
0.28131441090367787 46.937831928157024 885.0779815291401 0.004981855920481916
0.29525343728408526 46.92217918144972 885.0898271919621 0.0008089189007873398
0.30723394376501434 46.92893386223761 885.1007384526978 0.00046728628654770453
0.27569956885261027 46.92449872795849 885.0725005189915 0.0022338723063933417
0.29937583568393267 46.934588952674225 885.0939459958394 0.003589214444664044
0.2690749112169306 46.9349016301303 885.0669778147894 0.0054339384570913155
0.3038686550783267 46.94570817491042 885.098679624281 0.010991161886273847
0.2925971628048877 46.94925873224855 885.0889840106413 0.009679395368099569
0.24124840436685052 46.95866459702083 885.051718298252 0.030907422029261705
0.26492634008722216 46.96228359231685 885.0724962658468 0.021439022394255363
0.2854270536272712 46.960374951440514 885.0878707869913 0.01728120352637084
0.2746935275397873 46.95167249843493 885.0750823594723 0.014409294284993254
0.2679171268638802 46.947012723699125 885.0674753551616 0.01245788904762447
0.2473558201409271 46.96266228999579 885.0600400832498 0.02379688849066977
0.271860324311609 46.96687947705971 885.0823730080494 0.014359456645549697
0.22840982414132924 46.966910623704436 885.0517499846255 0.022443028962927353
0.23166207385092033 46.957926651081834 885.0412258312507 0.03231318616955301
0.22274086540041457 46.95426854015413 885.0202812503532 0.03126514262193025
0.22516829929180815 46.9573344920743 885.0313518059968 0.03750468467342782
0.21750210148807503 46.95217371986591 885.0073249804589 0.0190802469959346
0.22210094437042466 46.937861177528596 884.9776162927292 0.01859082845132079
0.23142337295974388 46.928899710475434 884.9716419301641 0.038024570329173904
0.23361970865006668 46.934334560854566 884.9900440504746 0.03572158451145043
0.20570512997719875 46.94392712350599 884.9795841887662 0.010518227443717458
0.20151872712678398 46.94840514566938 884.9901196738874 0.010252376428920193
0.19233919150903603 46.939868173802324 884.9670456099976 0.009400164771952848
0.2089913197799073 46.95152577473634 884.9992713514281 0.013484544386803922
0.21081311654897034 46.95782176826578 885.0154265465454 0.015647084735459067
0.19393354794664946 46.93554627739303 884.9560441655323 0.009224861382946365
0.20491829044477422 46.92815335620238 884.9341380148371 0.011567054098306776
0.20693020173735258 46.93346136186875 884.9512335659614 0.014716506323352571
0.21654701584764421 46.924212908946885 884.9254233486547 0.02536062127287173
0.21699187977783663 46.930364657693445 884.9473516899145 0.034213784744998026
0.2151399457369642 46.935961576663786 884.9636044795038 0.02199718653437967
0.21956978091152463 46.91849495498776 884.9114078047951 0.04551245781066543
0.2270013989252473 46.92141795343049 884.9397003592994 0.03442302524546126
0.22638862236808388 46.9271193048927 884.9536405925792 0.033789022538157916
0.2255386200451768 46.917033272580575 884.920662495829 0.028312074690414208
0.22041880924229817 46.90910617344129 884.8771104851382 0.044437547740374776
0.22310338394216314 46.911400005067534 884.8922306414329 0.0474067957421469
0.22975782114007262 46.910814043498476 884.9037498492761 0.05027256159051267
0.20414497099487589 46.92314343017636 884.9182505553188 0.011236752125911622
0.21245565832616461 46.912705366537324 884.8866269666172 0.03719503682103415
0.2106197790401252 46.91769224369368 884.9019219271407 0.024843026947516982
0.22240847197647248 46.90400765982105 884.8605405856872 0.07599245892520465
0.18361625618581057 46.90554584786447 884.8591442995881 0.05718172898469461
0.19117059350363014 46.910628175574935 884.8755931836213 0.0037588684366350058
0.18861271711353006 46.919751053658736 884.904736184923 0.0038089577085330035
0.19604057561814453 46.903470882491554 884.8527972849904 0.09652637244456762
0.1842853740282931 46.92427314262848 884.9191092700067 0.007527788099244922
0.19395849154632988 46.91458813179673 884.8883358956573 0.0059794298133799195
0.18242212640502076 46.91565083921621 884.8914636140319 0.01026800789107924
0.20972284386574733 46.90171196334548 884.847613370346 0.09590781575084271
0.21018960766546824 46.90835879996105 884.8707851678495 0.06307880444917871
0.21117143064564922 46.90487881908485 884.8591939548885 0.06865284235113173
0.2256834487593654 46.89505368266662 884.8541044760863 0.05904823328422461
0.22926127252746786 46.87774417238346 884.8720181393542 0.040169505518530005
0.22781449730222536 46.88628803906083 884.8642063817425 0.05531825425301156
0.21963449162311308 46.89695979590724 884.843040724605 0.06793518300320477
0.2313925593359114 46.89292642916263 884.8734476697294 0.034609926876308816
0.215589978663874 46.88533160773916 884.8432332515099 0.09452495636222245
0.2197692937062299 46.87621588195189 884.8533589444453 0.0788485884035065
0.20888332952655375 46.889099355347284 884.8345631271594 0.09632009864797478
0.20580642226797663 46.87856089169927 884.8379581903374 0.07891981990834382
0.17722438238478463 46.897216537302604 884.8318825876067 0.18506419339737196
0.19847999970195093 46.8965240722759 884.8291255440834 0.18575756409335972
0.2199113541007451 46.86304627368868 884.8632376676394 0.025087203247977554
0.20849882835185118 46.85633686945989 884.8610736719879 0.027109142413359853
0.21027936974503633 46.869524099547405 884.8482479235103 0.06331764604468508
0.21328299876096027 46.85139154008815 884.870936384624 0.025766289907159613
0.22986149249659713 46.86866287425335 884.8795471017937 0.01556687789542661
0.22490091743338508 46.85602910746369 884.8793847591028 0.02631755566334903
0.19947974036027072 46.86890543649433 884.8426001692206 0.06681564093409778
0.1933894702200893 46.88061452304462 884.8334486162286 0.22162535572137948
0.19444118982311767 46.851150597725194 884.8628099243092 0.016258706384823452
0.18103088860014147 46.852579320825654 884.8632268735523 0.028078186106923017
0.18666148964512147 46.85880235886415 884.8536307173574 0.02893350310166648
0.18879346079187564 46.86526706409799 884.844324326827 0.04928040807368217
0.17901966702499278 46.87962670686788 884.8385223618889 0.09509471382068431
0.16769718915768192 46.86460016076568 884.8570823972228 0.02785366599167032
0.17644328908968693 46.86923041974994 884.8472862214323 0.08094294563217683
0.1703499731295716 46.8897390296612 884.8386649490409 0.08199032749928342
0.17875380046227907 46.84316296448702 884.8792697033846 0.019232880323323123
0.18584017174629108 46.83855142298642 884.8890406690754 0.015523645459724395
0.1923583437085515 46.842045547640446 884.8793152852601 0.026358983259170916
0.20619380424618391 46.83741214487084 884.8973808198981 0.03325724368959466
0.2058520492081198 46.8436998371069 884.87646576047 0.022705709249918417
0.21421289872245733 46.84335578040932 884.8862390461916 0.024704025074215007
0.19490678276543183 46.834757630657776 884.8984641985674 0.02093175602166913
0.16582274178747347 46.84598540803762 884.8893141265003 0.02374258813873382
0.1686356678549127 46.84060421566012 884.8993048981397 0.027346796722395553
0.1740406500487224 46.83274971618323 884.916587759544 0.030183996800231514
0.16976522414553596 46.84750838241362 884.8731318427986 0.02519201032546162
0.16465742302172529 46.8567748175172 884.8678458030173 0.02143255625303633
0.1643736814457658 46.877400630648026 884.8544574226112 0.07963855980302707
0.15657981865047887 46.863718043403196 884.8772261257535 0.019355582952099694
0.16412764621701517 46.897706263493234 884.8450809417179 0.08152849570674153
0.15829404316894216 46.889704783529965 884.8587622345428 0.06001746039781787
0.1531806115569725 46.878668607751955 884.8727517554744 0.041215105435281944
0.1512033837493756 46.89432971244212 884.8742168662 0.059350420533293854
0.1869384519514938 46.82932324935206 884.9171814882699 0.013430113096777739
0.17722489061680435 46.82811698380462 884.935302357966 0.02947721616246898
0.17251960183994067 46.825551626047535 884.9542889439756 0.023710517859842947
0.18242016484438545 46.821421541126945 884.964424767228 0.01240305731229579
0.18411564290074528 46.81267720571255 885.0144220666792 0.021430860012976127
0.18175923159513097 46.81540644294818 884.9994726649506 0.024274076242459898
0.1896798343104936 46.82290853933837 884.9532148231586 0.022960147584620907
0.19848583655265284 46.80848012439363 885.0335564043169 0.027483855992085474
0.1944983073021289 46.81076321746155 885.0217740916111 0.01775472120554324
0.18359425993109404 46.81030804330979 885.0283200102717 0.037468534560782404
0.17993883459056653 46.817419122831225 884.9884778601552 0.020294189235202514
0.18619438358023 46.81885378240827 884.9779310303409 0.013167258652555603
0.20813859357216516 46.81176537103483 885.0269593974142 0.037372132688227595
0.20410779344811764 46.813433329157206 885.0107827155542 0.02138417995378034
0.2092187947076075 46.81663035351917 885.0006173007173 0.0252328510617969
0.21013783565692418 46.8192032332517 884.9872507062884 0.02037900213426591
0.20016286080154394 46.82860779303008 884.922988308264 0.017428546453311006
0.19191645590096018 46.825146744622856 884.9398060801199 0.027954191774456637
0.20138540876140168 46.82120962215993 884.9637528383527 0.013434744270300426
0.1969550424833271 46.81633555594432 884.9892717127925 0.0193313341417239
0.1972463888790192 46.801442643585915 885.0445510416146 0.035017676944824536
0.21003128463462697 46.80720517798378 885.0388330113581 0.035307532348495214
0.2033529199926164 46.77064442488364 885.0658167124795 0.004960284661252303
0.1888965465724021 46.79523537007199 885.0501089882633 0.019838478544827655
0.20833402575428514 46.79039368362905 885.0542939975752 0.012977230801725742
0.16772355288373156 46.760891439487246 885.0741733677554 0.002748199295429527
0.16472449505933046 46.77083771029886 885.0686674529422 0.00443487752583565
0.1848037044565408 46.78522127605335 885.0562505894832 0.008880169125494468
0.18747644936801178 46.77414428466639 885.0632055862937 0.0034538582427317954
0.19939030580684342 46.75515061033375 885.0748996942546 0.001977363103425714
0.19083302135036478 46.76245720399386 885.0705266917146 0.0017714658013611652
0.1796372789204317 46.75534793917317 885.0753983294424 0.001999745845171635
0.2051284662329546 46.669738808061474 885.1410026291805 0.1463772192785666
0.2013624657992444 46.69629270078073 885.1197870182118 0.21591882916391958
0.21915193029089758 46.66533187528674 885.1453096165445 0.12227243575460206
0.19979823132878194 46.707909498310784 885.1105104999033 0.06520563132810278
0.21558294986632962 46.681817829767674 885.1320657210363 0.18992359200203784
0.19513592793483076 46.68551111866954 885.1279461410478 0.19547883416627443
0.1881117629800827 46.74409030050987 885.0824087686269 0.0020267379832285353
0.193850976543255 46.71820097676737 885.1023648383621 0.0012724794632761123
0.18382072759733795 46.724881178744845 885.0974044469054 0.001940958918523635
0.19518364386448406 46.73602339466676 885.0885102042619 0.0012244577663372575
0.18205220666389454 46.683759698202735 885.1297454044012 0.1899001903939246
0.15849709425174902 46.6832900657485 885.1325610578692 0.15759815621509912
0.18469375979167657 46.69693174093925 885.1190770679323 0.18486210356016314
0.1766485379176747 46.71585701442464 885.1049781291038 0.0016140414138584947
0.16123674197683147 46.69600868169244 885.1222403408211 0.23982579857633216
0.1707597935425205 46.72545107302606 885.0980186619645 0.0015011941215813047
0.17525534592070272 46.737957335494016 885.0876832482181 0.0017302621915465729
0.171304361522759 46.68891001757856 885.1267969022372 0.20199616270890106
0.16513699738226506 46.71338112370485 885.1081267883353 0.17108013416610496
0.17461444815881472 46.70441870528913 885.1142153101164 0.19647816681590055
0.15117632650821353 46.70113880654083 885.1205084421658 0.213563444873989
0.16771733033909986 46.74917895095053 885.081611675784 0.0016145708750705604
0.15204590611591934 46.73558915673429 885.0956686749346 0.0021545510011666295
0.14490620350570974 46.754880890716336 885.0848698496037 0.0032747557340780655
0.11553288132129784 46.718208951437944 885.1230289910286 0.1568175004671789
0.10639907018418882 46.72559753738302 885.1239557046516 0.1708509789482943
0.10634195304315894 46.713219064246545 885.1311941084272 0.13412387220988692
0.12419003126214263 46.7533900180184 885.0975945992113 0.10149901834908975
0.09564580010640808 46.72161723126363 885.1324273336438 0.12092659806950283
0.11091063027287039 46.73768862224402 885.1143350967128 0.1757117613548052
0.15161851007493243 46.76330022337777 885.076127033157 0.0038898473177820356
0.12465244542710599 46.732159829920604 885.1096883784462 0.20194231890469255
0.08586006710460313 46.7306115183905 885.1327924692653 0.10589654872806939
0.1364107380618656 46.7361891494899 885.1009068013134 0.12999224570046336
0.12606138341831574 46.69980505650323 885.1305551388477 0.1492546419565185
0.12944667177511793 46.7162361470294 885.1176383556503 0.1867131079849153
0.1373509861310194 46.70207146166078 885.1248052731703 0.18171579222078532
0.1458100006729911 46.74475356075441 885.0913748281912 0.0030005204068614616
0.14272405397824106 46.690818083504304 885.1308315840384 0.17350109532361271
0.14408860349476757 46.71062230040501 885.1162588552263 0.22378641601689744
0.1338246632039402 46.72586249594885 885.1091928790365 0.1951139283864945
0.16125395896201639 46.657341046068446 885.1565643396093 0.08305592040839793
0.1559503908244652 46.66600131375888 885.1488894427744 0.110529138986315
0.1332327267168836 46.660756322015224 885.1614392672286 0.06559651358661843
0.14969163720649284 46.65648286116939 885.1610084419391 0.06336705578816385
0.13886029016254714 46.6682498059881 885.151685075004 0.09279042163195675
0.14128633068617424 46.67959797476381 885.140091846272 0.1326792151641718
0.1286308067788115 46.675972542153175 885.1492148020006 0.0931099822274582
0.12442145284756576 46.68797041678486 885.1406206321392 0.10518654799646619
0.1737585431762955 46.673077530749254 885.1391495179472 0.16723124244978074
0.17744772420365806 46.65965720641862 885.1514364931343 0.09628546989447787
0.15965009594579976 46.67306444129228 885.1411581785464 0.15102730208605195
0.19641482483110156 46.65816272671651 885.1524986430584 0.09435527930235198
0.19313198967260042 46.66838264032037 885.1416783719212 0.1300740261236268
0.18037842922618982 46.6514658642413 885.1593804381259 0.07691040847799642
0.2239432673884111 46.83751833839612 884.9400486129182 0.03327758057016965
0.22456349517822177 46.83489179162191 884.9549460580432 0.02881128707233027
0.22739414800015326 46.83538537501443 884.967437954859 0.016060422302496772
0.22342004772957227 46.82498140368713 884.9930816976275 0.019716632746985874
0.22330649159472063 46.82762188906601 884.9807511134615 0.03913631402738556
0.22239648035192494 46.817216891699864 885.0222972973361 0.03832775279675705
0.2104258455313392 46.83305638483776 884.9177603386572 0.02533988289791912
0.22084612861352865 46.820187237813585 885.0038195014196 0.021261161317109475
0.21708540984127514 46.840491005070255 884.8995114881973 0.028265334341026627
0.20970000967759483 46.827595059675055 884.9415052694586 0.026776173354558352
0.21246350053688823 46.82394416674224 884.9654415035495 0.019924936877257618
0.21639653153788532 46.833072291189644 884.9325041805461 0.03087862436118699
0.2308560924577438 46.83726877037446 884.9794195437397 0.022689146340862082
0.2253129797838886 46.845004653727756 884.9179134931844 0.021107872882537865
0.23095152816143577 46.83440935140853 884.9908123605458 0.027608916462122327
0.22979615791344574 46.855900437982775 884.9026416750459 0.017000677044501273
0.22871208449532482 46.85731973532424 884.8909677262882 0.016867924006317377
0.2923518506027835 46.73551604693488 885.2116088621584 0.08814302834303636
0.24829438093696643 46.687033515144336 885.2114974046397 0.08206877235692804
0.22099710722034308 46.67384120373369 885.212606902973 0.08874941407048553
0.32813816830109227 46.842225042279466 885.2529466537316 0.03913472752256692
0.3229656209010055 46.826992654677724 885.2482807358989 0.0469846171321777
0.3221053348766093 46.90454439914903 885.2515042947051 0.0533707461787329
0.3186026516143448 46.926212521284924 885.2520944771072 0.04939743245874049
0.3203684354722917 46.886046518380596 885.245106503888 0.06241836862491193
0.32375746559982327 46.863392660541756 885.2476140513706 0.04303457381607543
0.32289317491953196 46.805258035727405 885.248000353516 0.04336895237175029
0.31976265721317804 46.78334575442662 885.25019240652 0.04107902950534559
0.3134499898286466 46.744347366764565 885.2539780624704 0.04517087497853815
0.30649395170943744 46.73137238134181 885.2521134973794 0.05928795664970744
0.28962886776995445 46.719815492770046 885.2485663453697 0.05377783818697908
0.2815587137099992 46.70927358260877 885.2469702429628 0.05289015300127353
0.295738018304219 46.72994907508572 885.2468118117304 0.05148677604565958
0.2263577462534297 46.67086873784127 885.2460009610162 0.09039451828290547
0.274101116579276 46.698809895533024 885.2465175296965 0.05522629176158484
0.26261162887832745 46.68086855723978 885.253684113323 0.05196676948444277
0.18423864515749191 46.65959437166893 885.2535267637024 0.05850569938631331
0.15267626735184778 46.672644443238006 885.2474669378903 0.0918241127770901
0.17300622304953833 46.667590823791734 885.2467599456485 0.07324827613984734
0.14159417755077147 46.67691456779694 885.2473457718411 0.08344541790734471
0.1311953007065622 46.677208105194 885.2534814106161 0.052415078688589134
0.10053268728246914 46.696966711742846 885.2537796800716 0.04665307329010109
0.08094946208377218 46.738415925665294 885.2509761992253 0.05620284802662808
0.07660891029026846 46.75123071105397 885.2492685771107 0.05313573083554049
0.06748605038508981 46.756609551740446 885.2530613416404 0.058587515205536005
0.05934490991822396 46.80748287265399 885.2517450247618 0.04912061048219304
0.06203057991800426 46.788418633873256 885.2519397171517 0.05300055403204942
0.06849680960294074 46.7782477207632 885.2477988081077 0.05653560295134566
0.07112902805484639 46.7665969058565 885.2472440951259 0.06249047799182953
0.05560721275814763 46.824786433838966 885.2529133262515 0.057466738809179366
0.06081533709577109 46.88975465112351 885.2491490171022 0.05749666153834885
0.060124564592749424 46.84748441171842 885.2497193052353 0.044816485341281576
0.05864788014524837 46.90242185540439 885.2529478132565 0.06177947761994154
0.06632776612415747 46.92617184415113 885.2505729746806 0.07587482249052369
0.06630755202217604 46.912943975644126 885.2490331833667 0.06069778813714403
0.08264917314579785 46.95521815496958 885.2504718675516 0.07386062939568547
0.10658075067884394 46.97610409870552 885.2495669488078 0.06254511760223139
0.11147210914532699 46.98664481166941 885.2522630551792 0.07077138553801468
0.1547681063104871 47.001808929887474 885.2523194311652 0.05358329362197809
0.16798278129085625 47.00036564081161 885.2504040670896 0.05758178951860583
0.1807271648506005 46.99851387339244 885.2477543471915 0.05708047092271811
0.22523218968228192 47.000664270058074 885.2509165455587 0.07417843949791698
0.2491137344663371 46.997394651984024 885.2525929420867 0.0524656203587427
0.29607571455007875 46.96925118375093 885.2530155137906 0.05593947590054725
0.2986632419907087 46.95789500154803 885.2507423398648 0.06410394494412597
0.06664049000400527 46.92751924794295 884.8163901850244 0.04673052841042063
0.0651768997418695 46.94510582894583 884.9191041746302 9.479949627658031e-05
0.06719265765030219 46.9203749068929 884.8070138430169 0.06993300028740797
0.06433226880040813 46.95767470879911 884.8388630440352 9.484369096839556e-05
0.0653540897931202 46.94198885336702 884.9636261487399 6.58891420178299e-05
0.06602783357457861 46.93461178381846 884.8749062160023 3.2784125793604005e-05
0.0652075050397458 46.94550943402244 884.8724815381491 6.743512701032174e-05
0.065307282574257 46.943151647500336 884.9322959630166 0.00010031772858955338
0.06641598737752158 46.92903828199633 884.9001010224583 8.256227315857429e-05
0.06714608258182736 46.92028868955204 884.8475215403196 0.0001957592223111071
0.06576387188773422 46.93694887035349 884.9415572276198 5.455835748362648e-05
0.0655129917243831 46.94167104562416 884.8607085738811 8.716596136271321e-05
0.06728390628929158 46.91884612441632 884.8255373952475 0.015182630931786293
0.0664567816571385 46.92970681767511 884.8304289645265 0.006594116607760366
0.06522238680571674 46.9458926788454 884.8390298241419 6.212784556223741e-05
0.06557004360810231 46.94035329210586 884.8931567040752 9.37559548010491e-05
0.06626041661257313 46.93276550864509 884.8038979932533 0.06262098097080628
0.06595707391727326 46.93596025353298 884.8511460459647 7.820586765198336e-05
0.06459202796146583 46.95462096741387 884.8167391484985 0.0368550792258062
0.06496162142897421 46.94995855496826 884.8035641915502 0.07283661978722918
0.0644331874142927 46.955950546975885 884.8612735454059 7.925456418134382e-05
0.06641879031274826 46.92924789901506 884.8858763771156 6.160330150788202e-05
0.06570378537857367 46.93997135436226 884.8131338248791 0.067954039932012
0.06534252602904199 46.94310706540489 884.9079758292089 8.922029787047116e-05
0.06733994921918068 46.91852308477276 884.8588534568314 0.0001750022392257135
0.06625637442113569 46.93109895673449 884.9223730090812 0.0001448654160433338
0.06779987198278392 46.914652169085635 884.8973114230239 0.00021599034759265504
0.06745907635216597 46.918810875083025 884.9263626882585 0.00015172583018869564
0.06766891746181466 46.91706941128312 884.945008676613 0.000208087615350612
0.06854390544244135 46.90766640687231 884.9272543118518 0.0003461418710897871
0.06689008655459991 46.92562624176241 884.9691591297111 7.28876664078667e-05
0.0662520865095684 46.93192939954726 884.9574398097079 0.0001276179689212977
0.06885344417500326 46.90606435923824 884.9978751698774 0.007759301113867214
0.06565833364036361 46.93902389919711 885.0013192811326 0.01156454684714642
0.06823619153653136 46.91052853788986 884.9136662056634 0.0002622212028867537
0.06775061373580829 46.91744765181176 884.9993723288655 0.007691146832153541
0.06670601921887473 46.9279264588324 884.9872607239847 0.006074819610948125
0.06867296608813356 46.906639676588526 884.9406997151705 0.00034580159604159414
0.06930712177430878 46.90108062281338 884.9838390068026 0.0019133550719405324
0.06750962366824413 46.917078290024094 884.8722948621053 0.00020412619626010038
0.0670384211366441 46.92275557199998 884.9092174084831 0.00011196380940387528
0.06795158604954774 46.91510834926636 884.9872864017871 0.0018081631973400974
0.0654680179184721 46.94061147101709 884.9847716673315 0.004018531804947226
0.06850131024443937 46.90907399081938 884.9704779660715 0.00020412139938839533
0.06867580216564434 46.90700239670411 884.9581773904192 0.0003280136762626435
0.06743263524752913 46.919769375925796 884.9569729498808 0.0001769259446190547
0.06941335529142857 46.902417608281084 884.8422453423636 0.00019605077673032174
0.07199572835417645 46.88774918008157 884.7977566889638 0.07974513822274847
0.07259193880789722 46.88369552813565 884.8846991075318 0.0007836573035316324
0.07038077297911054 46.89699068625898 884.8156372246485 0.06250221096084037
0.07080143874281085 46.89425957836428 884.8581792027671 0.0005048003013547699
0.07169949818628309 46.88894820009632 884.873342916947 0.0007151362772003854
0.07282417537903305 46.88267843477096 884.8366769002251 0.0005861191955578561
0.07350913012161843 46.87885294872828 884.8153741988231 0.04884418317193716
0.07264499771963948 46.883000705968335 884.9411232340526 0.0005910182779378895
0.07395503258311446 46.87588559933393 884.8710191585857 0.0005708759786499549
0.07418557007577704 46.874657455751816 884.8551905717014 0.0005796871938786932
0.06873831716474861 46.90647136383257 884.8219007476062 0.017651947901947723
0.06854317608033834 46.90771006877263 884.8062785997494 0.08325455589038436
0.07308865759303798 46.880727670729996 884.8974760282232 0.0006489111478917912
0.07000609143400743 46.898218034597036 884.8992254885601 0.00045526660376945784
0.07066095455069409 46.89393005975732 884.9403192811409 0.0004531872087436315
0.07102329826019198 46.89217303655383 884.926897310795 0.0004605478273892986
0.07276134106748404 46.882170717412535 884.9550038498236 0.0006839315317279968
0.07381527531045107 46.87587443895641 884.9856143943413 0.005167104355990011
0.06878719812890947 46.90556831047834 884.8597988328222 0.0002352772372794026
0.0698145018131143 46.89902756276384 884.9133420466097 0.00025805384410572944
0.07037855424920089 46.89494449068266 884.9716300914457 0.0007812985887281924
0.07263886000611638 46.88209265136958 884.9990145679058 0.008413692269348082
0.07303263127441126 46.88039280288422 884.9721179353448 0.001240259227105852
0.06891819860741386 46.90446185099755 884.8826274756793 0.00021746077040824406
0.07057791218037893 46.89407501167215 884.9585346674141 0.0005860428444800072
0.06408403475569846 46.96713504514424 884.9396049938662 4.946573803132588e-05
0.06407849270305602 46.96912347880439 884.9942343645935 0.009236507978703498
0.06444038204909328 46.956671661656074 884.891692425204 6.840267557478935e-05
0.0644099575114558 46.96137390483503 885.0081996277532 0.013000256079395504
0.06461935699084477 46.95496904939482 884.9724808808418 8.577540248178256e-05
0.06430344966990492 46.9605198042472 884.9050098644163 6.885404572021729e-05
0.06455554072552515 46.95729406352891 884.9943776450979 0.01079582679859521
0.06420966565062977 46.961722151704144 884.8718305547553 6.303323868592333e-05
0.06413263011926201 46.96208667235015 884.8261861418978 0.02543741991174013
0.06420757618115677 46.96463845117978 884.9563730401753 3.951821909816111e-05
0.0641891205240189 46.96599630573511 884.9829364260584 0.004781698087222172
0.06456072277413351 46.955548661825475 884.9466575915394 0.00010106530380330072
0.06386162981484227 46.97515436130628 885.013451119016 0.01822739228700905
0.06347723694808921 46.99055884717798 884.9062542494744 5.702467816208949e-06
0.06365982322097095 46.982810608281575 884.9803690555086 9.530257243669092e-06
0.06306984837298817 47.00829967705294 884.8380512328346 1.1270370630906991e-05
0.06393850368297282 46.97015671897964 884.9158882450787 6.280792351904655e-05
0.06388644938185867 46.972142482978875 884.8468681799793 6.140011650130668e-05
0.06369597236509544 46.981024275541245 884.9409106844863 2.4807107773177404e-05
0.06379717521423048 46.976473121008944 884.9269575951187 3.333718778005181e-05
0.06346833441352268 46.99089498492979 884.8937044897286 4.987903145933786e-06
0.06360922124108843 46.98493477513378 884.954855434338 1.0582841597112232e-05
0.06372928594814396 46.979320991531935 884.8923026717777 4.25111185179664e-05
0.06333699537203738 46.9966086370941 884.870459259301 8.299153153475734e-06
0.0633858869117069 46.9942724327197 884.8342133825013 5.048222187201038e-06
0.06376224456019804 46.97792771573393 884.9068305163023 3.502254694758992e-05
0.06341959904136173 46.99269961672866 884.8173874744209 0.0524737629864213
0.06370972439333572 46.97985237150139 884.8202691488387 0.03566506733705489
0.06394507114049168 46.96949106491446 884.8355329891106 7.156386312661335e-05
0.06335911473885461 46.99551343214884 884.8458510437677 6.253081876141479e-06
0.06365707537128013 46.98227968495859 884.840326780706 2.4814794747466852e-05
0.06377418770428588 46.97718846186967 884.8618100405445 4.2566954588645155e-05
0.06352555153452363 46.98851981690645 884.9282795266922 6.069322902861649e-06
0.06383717033910676 46.97449113997526 884.8821003975747 4.985872315733305e-05
0.06343627321723525 46.9918667295386 884.7972726203068 0.09449705740181324
0.06350161538226465 46.98926404298166 884.8603071826094 6.0878633812923e-06
0.06316908958268752 47.00381485426153 884.8196733345885 0.025106230536379278
0.06411295031680116 46.96188318276312 884.7998891710438 0.08047687895620653
0.06382463446337927 46.97470510682871 884.8087841286498 0.08965386732921579
0.06317907548044285 47.00330614909336 884.8055023399552 0.06718185748388107
0.06332906291476192 46.99701882393508 884.8830225520126 6.337162893613509e-06
0.06361304857151964 46.98482398334838 884.9674850743955 9.031982062848178e-06
0.0629137366644973 47.015676188003006 884.8145236892187 0.05659271947452039
0.06305718727790972 47.010293903960616 884.8644837068404 1.4034385806905542e-05
0.06327816488859689 47.00356639451655 884.9687799298508 5.841898082357964e-06
0.06307586906801628 47.01466177692615 884.9596057887009 9.894231108524869e-06
0.062953196336236 47.01980472132851 884.9263270692942 9.890105420452948e-06
0.06363310301262083 46.984546332775366 884.9926970705892 0.001781697897787154
0.06325242800796123 47.00691156327724 885.0014164491316 0.001159394766099366
0.06297316133380602 47.02159071639639 884.9776000226066 1.4627714032801102e-05
0.06354535315325249 46.99018907874396 885.0032263854546 0.003908256010188298
0.06307782435705549 47.016565637162046 884.9948536172444 0.00038211417072923806
0.06300996333609875 47.01538480320646 884.9060622748761 1.4834790315865091e-05
0.0631377215891335 47.00876758047039 884.9186738641426 8.491736886543525e-06
0.06325684543104627 47.005963968143035 884.9892861550097 0.00015043299713501154
0.06324292611795872 47.003561379699626 884.9333047871892 8.291111307752533e-06
0.06324514889132883 47.002076044820896 884.9095695326082 6.904814211954262e-06
0.06302222408374075 47.01154566568532 884.8512569337481 1.3988944478821074e-05
0.0631511925231231 47.00967410871228 884.9480500474525 1.1794383865812764e-05
0.06336602614922543 46.997735726817254 884.9550771395448 4.454172401558695e-06
0.06304182041563536 47.012428141724776 884.8863638695934 1.091054332443772e-05
0.07096003743488273 47.06230187969342 885.0487683057747 0.0015087398943410683
0.06895598693148042 47.12192720124003 885.0440470056633 0.002483811509084081
0.06619493987166165 47.02970613427897 885.0320377340082 0.04234887453474298
0.06904477251402805 47.1361247185762 885.0447877604848 0.002014806374465931
0.0684931616548707 47.071944978742856 885.0409440722533 0.002359999979100766
0.06859352705421674 47.09163148955825 885.0418962637639 0.0020435764241977517
0.0652984545206308 47.00604900629086 885.0283368846464 0.05045859938941391
0.07216065092856234 47.02718443090949 885.0516158632963 0.08767783251280752
0.0697407205768742 47.01526277509321 885.0432655516491 0.06639976530495527
0.070082531990588 47.153219386438494 885.0487469574622 0.0032316997912477355
0.0690047056620975 47.037743583665474 885.0415499814129 0.03301993009982069
0.06794887359293691 47.054709842393244 885.0386064885846 0.003059465027700091
0.07142480172862725 47.0484360793922 885.0498620362562 0.029125789233844124
0.06533721559478539 47.06060370988886 885.029068102066 0.002670724599025974
0.0649659296362846 47.15958713243152 885.0272327565838 0.003437245291850809
0.06717429527057818 47.16648603517241 885.0369035975677 0.005607141386925506
0.06471809694302427 47.1380680623555 885.0261908322359 0.0026163474730496127
0.06592055267541169 47.11698974594688 885.0315085414543 0.0018684943211190227
0.06558599361012288 47.096513394411716 885.030084079252 0.0024121880998654206
0.06806841014696673 47.177761391343196 885.0408013542076 0.007454662684425571
0.06738855268292684 47.1055756770586 885.0379706433454 0.0021768836616124993
0.06556226578646158 47.074755312677794 885.0300255153525 0.0026989152153221005
0.0638385185931014 47.04764185936317 885.0206103580607 0.001818369274669749
0.06348519558669691 46.99620878254355 885.0149521288271 0.021699634126579586
0.0637302506205682 47.01571683308392 885.0195460266386 0.012620080687733392
0.06397858515605478 47.08440938697633 885.0221750757014 0.00193590378562734
0.06326604008560735 47.03255401277553 885.0086157988966 0.0014814685550622612
0.06319794986291996 47.020591683695116 885.0076103068442 0.001704608314868881
0.06373196293424663 47.06707845782609 885.0174564587023 0.002060428697703328
0.0639415500269034 47.1059552195851 885.0204662963522 0.0014904463455420226
0.06379858829638047 47.03515357696185 885.0202473955578 0.0018078546529980044
0.06304545377531527 47.12991976934265 884.8231678141665 0.02461879727707112
0.06291986760073107 47.03379784891069 884.8622422436811 6.943719061511119e-06
0.06294109716967797 47.049309787714776 884.8600514493863 1.9140759566843552e-06
0.06294994680695457 47.05730421967812 884.8499829876962 1.0791893839040176e-14
0.06304719110051207 47.117561386243764 884.9046299720658 3.895558990799921e-09
0.06305851957597212 47.13461452187519 884.8508875342986 -3.1610059739387745e-14
0.06304903412253487 47.13428854004576 884.812298286007 0.0568418476688936
0.06311180387189108 47.170943657322915 884.8609914347171 3.865768668582409e-09
0.06306312678157255 47.1307063360561 884.8939925241473 2.5443918770334853e-09
0.06298505584442551 47.080188657239056 884.862947803002 2.573648687876576e-14
0.06293286320167478 47.03487684594968 884.9113231851028 7.406427198154313e-06
0.06297428868341388 47.066971862098605 884.8961066313916 1.0338725903213793e-14
0.06308495289044175 47.15703206063264 884.8295682064642 0.00721969541105275
0.06311517596980404 47.17716796885759 884.8381156479686 2.423785457807165e-09
0.06299643277328705 47.09044468450701 884.8501325720956 3.303639714405597e-14
0.06308280129647757 47.15326113399506 884.8429628599889 2.0193245242039753e-10
0.06295746490548705 47.0491444899462 884.9309996817733 7.148806270461469e-08
0.06293628159244269 47.0411478656951 884.8883654409145 2.046267462422042e-06
0.0630950388755072 47.15565481043939 884.8809279307764 4.076815921204771e-09
0.06295282074996414 47.04957105692556 884.9085944416801 5.365396262880508e-07
0.0629475294474038 47.06069538666843 884.8193350586496 0.038758982364909364
0.06302040907125099 47.101543779067356 884.88611814062 1.3013994369408154e-16
0.0631435437523776 47.19877296662188 884.8299322741761 0.006772774068399527
0.06298745223235387 47.07219007131661 884.9211082173919 1.1972624417210282e-10
0.06296969390768571 47.07487542305713 884.8291192789496 0.015963348311083234
0.06312261956466751 47.18616323554283 884.8160417668346 0.044943507340213566
0.06293476032007532 47.02774540383687 884.9621547681663 8.506628646861566e-06
0.06291992569396733 47.03741850008784 884.840799948578 4.631566723855215e-06
0.06299020771047091 47.08958254957262 884.8286906697754 0.010402789513059799
0.06315111383857029 47.20947285599352 884.7981869825094 0.07598329992606354
0.06301540719774049 47.11086111002453 884.8089211839869 0.08577411443868059
0.06293162281834849 47.03082099346365 884.9303194124255 7.339687037472701e-06
0.06289864004514129 47.02534582109325 884.8221471353162 0.028357956120473433
0.06311917573648188 47.17801685577254 884.8501256930351 3.649770476952126e-09
0.06293096866924924 47.050611461468044 884.808962771796 0.041346921299941754
0.06292065358679386 47.03109792232854 884.8817763744246 1.07019685523329e-05
0.06297114320295141 47.051369882075825 884.9761307399291 4.760322483297029e-06
0.06292991997224887 47.034693107657326 884.8998441546449 5.58907800618226e-06
0.06291753871045039 47.03843504952796 884.8245077074631 0.03182727419625663
0.06298020725842726 47.07905573304801 884.8490113970033 2.3355851995562023e-14
0.06295478739375883 47.039128982527366 884.9795565186419 8.533043665010468e-06
0.06297897614513735 47.07294169633962 884.8803774138263 1.0874167999151071e-14
0.06307485329766399 47.145199193449145 884.8572894795279 8.637279647929062e-10
0.06304020070740773 47.11479618095534 884.8913178543082 7.700984435232058e-10
0.06297323432554483 47.06092538624439 884.9278233818293 1.1601924600813029e-10
0.06292950004308816 47.02715378641558 884.9432158778583 8.4289084820302e-06
0.06316437519469527 47.215542997567134 884.8185028544001 0.0543998700319194
0.06307890351458366 47.14205759694037 884.8934213402065 3.566137920115364e-09
0.06295746333645916 47.058457744397685 884.8751991396182 -1.3520880635791856e-14
0.06298853900554165 47.09083563965602 884.8140513832286 0.06415528816465875
0.06319408747936685 47.23907958739313 884.8044942886463 0.10349419847315153
0.0629495483994742 47.05900042536258 884.8381185116197 1.103665402220785e-15
0.06303920090288666 47.122109835108276 884.8432299191562 -3.265975081114008e-14
0.06302783399198428 47.117847930549246 884.8201783835805 0.049543881889676275
0.06297031425647745 47.0607584347613 884.9163427755461 3.800412346564854e-14
0.06294258326875421 47.039911984952695 884.9227035902323 5.475265055442398e-06
0.06317552874256792 47.224749960096545 884.8110175982895 0.08127026166403076
0.06297942014771016 47.05918825158038 884.9646692660194 7.785295999469248e-08
0.06290302865510827 47.03021386738091 884.8117411742328 0.05871417510086974
0.06308234438316096 47.15805129537968 884.8123130550093 0.0796935997226909
0.06301705024090698 47.09417921202673 884.9158816763942 1.6211439656343808e-09
0.06298538704898027 47.072766802402526 884.908826257976 -1.9040699012174883e-15
0.06302843663348316 47.111486617659345 884.8608635039105 -1.6930816287729437e-14
0.06313997508564678 47.19378046714271 884.8445883601188 4.214288456510763e-09
0.06300180348824377 47.089822450213674 884.8768154312581 2.585449891885321e-14
0.06299394132852962 47.07112625642545 884.9552166131933 3.6017257802963473e-09
0.06302802514621159 47.12128813316353 884.8003858406356 0.0704619815436661
0.06296370021061583 47.06459117293859 884.8651122645156 1.589434849932569e-14
0.06300902240526836 47.10352022158593 884.8256094853576 0.016206767249922135
0.06295806512697417 47.047440318173315 884.9437744620627 2.9194131244959866e-06
0.0630110365250204 47.09864925557612 884.8633990902913 7.664841873482232e-15
0.0631771160689865 47.2278793962974 884.7990542275294 0.0819131876067221
0.06304309377941447 47.12260696019483 884.8568904353647 -1.1986227307473913e-14
0.06312895023106194 47.192591462319385 884.8045896957387 0.08491466370647635
0.06300315362605645 47.103660334861424 884.7996861208165 0.0868407814274809
0.0630815549611685 47.160302059171414 884.7954550826452 0.07909645176959827
0.06296998505596849 47.07854714155697 884.808367159281 0.089937012550211
0.06295498877431499 47.053342292980375 884.8952681602439 4.954701955233476e-07
0.06298124416554855 47.08847008576288 884.7970437861615 0.07619052336686821
0.06306161380309654 47.14002088795858 884.8317242361994 0.005786163871838308
0.06301387564866667 47.08838316015082 884.9370360121482 3.5672186008715125e-09
0.06310056124516542 47.16532640810033 884.846590704424 1.5820008756625888e-09
0.06305702331518631 47.131325315530916 884.8641972829919 3.589958667875848e-10
0.06294089750254762 47.0276799573183 884.9887780118288 4.4825801308273775e-05
0.06302163190642095 47.11010694455652 884.8400445035963 -1.1808803990589688e-14
0.06309851739021868 47.16072942085931 884.8653946124884 4.104772202627654e-09
0.06305925881053331 47.13066681598029 884.8776970377785 1.000289414666964e-09
0.0629507800196192 47.03997045755061 884.9573873395393 5.962071741562892e-06
0.06300991649503879 47.092780300163824 884.8937716597422 3.4953865746587167e-12
0.06290319796270262 47.02629949365152 884.8359150447243 1.301768960671412e-05
0.06291147028797824 47.02632640855182 884.8711108653397 1.311068226851082e-05
0.06297959800313097 47.062619831369474 884.9448715397493 1.8331844791321566e-09
0.0630034034063652 47.097112624771974 884.8399797317816 -8.816755945688987e-17
0.06307902916328886 47.14552290519307 884.8731984147656 2.9449132065651126e-09
