x y z curv
6.601561266836506 0.45603053467200294 569.0207406275168 1.472344455619123e-07
6.588907458956256 0.43768160231521513 569.0207406275168 2.135075259122803e-07
6.613810249204903 0.46291179586675646 569.0207406275168 1.3964930031364133e-07
6.626174050871384 0.4651696753888371 569.0207406275168 4.228113471060175e-07
6.609873648132704 0.4466229246324644 569.0207406275168 2.0705864324709503e-07
6.616201470647512 0.47458741294011025 569.0207406275168 7.112147797424895e-08
6.633074362211062 0.4913943284335031 569.0207406275168 5.590618206061187e-07
6.624274039790643 0.48203111785564823 569.0207406275168 1.444218509345791e-07
6.637675842146232 0.48018273709443504 569.0207407420448 0.004551997224516707
6.650829773879556 0.4849710641303424 569.0207418691815 0.042588644517121764
6.656128465937754 0.4666785113936284 569.0207420783526 0.05556250293173529
6.663001833116845 0.4769963753607165 569.0207427617333 0.05765568935083439
6.57935399363776 0.4592171890153508 569.0207406275168 1.4239769453569413e-07
6.589508344362657 0.4551319881287864 569.0207406275168 1.3682430528126002e-07
6.592285471189919 0.48020449475820837 569.020740627517 6.716078075246659e-08
6.605343614138199 0.47045354919238375 569.0207406275168 1.4527296635056048e-07
6.595522605393467 0.4915127373926228 569.0207406275168 6.889882097914393e-08
6.6111363163182695 0.48579299795791653 569.0207406275168 1.4069421914593883e-07
6.609847586869956 0.5009791882806163 569.0207406275168 0.00011085333871557271
6.619046910116817 0.49345992510409853 569.0207406275168 3.0347876629110673e-07
6.572999722827704 0.4395899900121797 569.0207406275168 1.2480579049411783e-07
6.563300636901369 0.44660544751536363 569.0207406275168 1.397554949595453e-07
6.5650370153526225 0.4292676776626621 569.0207406275168 1.4138458632319172e-07
6.564599760693652 0.4148953464641462 569.020740627517 0.01103978121543689
6.552094564120628 0.44834068936064914 569.0207406275168 6.849817615742344e-08
6.56048305936242 0.45858466656648944 569.0207406275168 7.567331328148229e-08
6.553621707000467 0.4717654367790187 569.0207406275168 7.575880875759539e-08
6.565536803925209 0.4741611973047899 569.0207406275168 6.89464377231773e-08
6.577525261122428 0.47871680881217693 569.0207406275168 1.2714454050161883e-07
6.586956734461932 0.5038602280777261 569.0207406275168 0.0033103365355637605
6.5760953728436 0.49346938790167494 569.0207406275168 -1.5217836717937004e-10
6.5928876792200555 0.517947542223623 569.0207415502035 0.05568259413407215
6.607385983283084 0.5173175999918445 569.0207415875934 0.04355278738740118
6.601982476203793 0.5275405664575186 569.0207422552297 0.07849604593497964
6.599289901110649 0.5394669142216549 569.020743084768 0.08005047667622689
6.625427850326688 0.5237357317754983 569.0207423114373 0.06095378787075278
6.624449178402288 0.5392221637979449 569.0207434219412 0.07349920493468441
6.62898414839765 0.5050878959949032 569.0207406905007 0.005491817600945998
6.6182213587872525 0.513810916995674 569.0207414519161 0.04213740352652545
6.6339974878374335 0.5298122847177186 569.0207428486444 0.07314328438535525
6.5516989504537095 0.5032905389672153 569.0207406275168 0.002209210417713707
6.558629362008952 0.48750399881791806 569.0207406275168 6.360931013467028e-08
6.564050410093796 0.49880471883665617 569.0207406275168 2.044426124943319e-07
6.547101146761998 0.4895927777924931 569.0207406275168 1.355902533484212e-07
6.5615901707764674 0.518399396347833 569.0207414421179 0.04667429086724496
6.578559496887841 0.5111505853443175 569.0207410776416 0.027426687834618275
6.578970615047928 0.5309572923619075 569.0207422823277 0.08998638487045063
6.526973307059806 0.4735847456711733 569.0207406275168 2.3715204957853732e-07
6.54055460083113 0.46992875943606266 569.0207406275168 6.963582931820522e-08
6.527213824240551 0.48636891853309405 569.0207406275168 2.754697199412967e-07
6.525363136895567 0.5026543423841302 569.020740627517 0.0023887845627486
6.540081546255987 0.5220886357007579 569.0207414867192 0.06021802958077081
6.5307916742682295 0.5160653865128989 569.0207411947035 0.0514763787020233
6.560118184242144 0.5364350349765755 569.020742386191 0.06869643848149701
6.551768746589453 0.5260305849385181 569.0207417646441 0.0682304525033053
6.505546297474161 0.4415355687238397 569.0207406275168 2.0499917493599464e-07
6.495920014822611 0.4583107360360821 569.0207406275168 7.175438481550908e-08
6.494550842180242 0.4460681122302249 569.0207406275168 6.981548307860632e-08
6.513663961580971 0.4835188155696174 569.0207406275168 -1.2985325359265807e-11
6.514475406345262 0.47039473215336297 569.0207406275168 6.514225352371063e-08
6.514277670111826 0.4985861027755597 569.0207406275168 -8.201122256091761e-11
6.501270578625494 0.4737088891141441 569.0207406275168 1.3976070932421103e-07
6.5159129300385015 0.44969247640000426 569.0207406275168 1.2557491401576396e-07
6.490277120218279 0.4774955066713322 569.0207406275168 1.9754149914341106e-07
6.496379445112387 0.4888960634200825 569.0207406275168 -7.821607414102117e-08
6.502066438361801 0.5021980498647717 569.0207406275168 5.610411674440383e-06
6.51591809104183 0.5116111485660743 569.0207409071062 0.03913262972269505
6.497160104957024 0.514553911332466 569.0207410206722 0.033899342322281874
6.534304612275967 0.5342424802997542 569.0207419818073 0.07586669101630035
6.52407055191194 0.526121371262121 569.0207415400786 0.06116875427735421
6.455470622925588 0.43353057655688243 569.0207406275168 0.016686903304713667
6.4711811357208315 0.43733589181725907 569.0207406275167 7.18555243025824e-08
6.477211149328621 0.4510974158973702 569.0207406275168 2.635257741384926e-07
6.4634478955081995 0.44880942375089616 569.0207406275168 4.751362262512661e-05
6.4770293318022105 0.4640328084294728 569.0207406275168 7.51239189560144e-08
6.455195778492238 0.45708964899156235 569.0207406275168 0.00679829506340566
6.462793599144225 0.46447101970533355 569.0207406275168 1.712818285746597e-06
6.467830957893803 0.4748764149071 569.0207406275168 -3.006538208864231e-13
6.480068063033533 0.4880824081532495 569.0207406275168 1.9743697727804335e-07
6.455729044586036 0.4837851748675119 569.0207406275168 0.00047618194506215614
6.467226257503615 0.4880770083562881 569.0207406275168 1.3532272102321272e-07
6.462927003205518 0.5021119141256748 569.0207406275168 0.005773531140978194
6.466678060679694 0.5252933104613738 569.0207410346945 0.06434821682468518
6.471473893958682 0.5141244925602901 569.020740817382 0.052858838533955024
6.482191238225413 0.5056085041077854 569.0207406516859 0.011571894558932538
6.4848282463798235 0.51993036661714 569.0207410013534 0.05498637511212096
6.4868812002002 0.538540915350086 569.0207414812849 0.06440623349082505
6.477610923962503 0.5333725395349793 569.0207412259577 0.06910465726582525
6.518803029185619 0.5396825380620225 569.0207419567527 0.08317467257526312
6.499630983665564 0.5288251766780583 569.0207414246202 0.0602764037946385
6.433955130585466 0.48361463583796266 569.0207406275168 0.05524757783487336
6.452319363317185 0.502631876433455 569.0207406275168 0.005982407470418251
6.4495748055622695 0.4747767749872603 569.0207406275168 0.02247843650628833
6.445184013298639 0.4893308645049535 569.0207406275168 0.015984425978647784
6.449662651612684 0.4450450132064522 569.0207406275168 0.02021431219624493
6.439582182418993 0.4631913292192652 569.0207406275168 0.04955637004039632
6.439523798876796 0.449507011557267 569.0207406275168 0.05030408162431958
6.440742969589076 0.4992221166989732 569.0207406275168 0.03584536476697919
6.430456409697827 0.5058037387553643 569.0207406275168 0.045741662053389025
6.449028196153877 0.5255873318731146 569.020740823539 0.07123238337743983
6.438178855527301 0.5175109858264978 569.0207407068804 0.07226518096215868
6.457489569689579 0.5168123414647188 569.0207408160612 0.05102852492373758
6.431775582135669 0.532796438491412 569.020740725881 0.09512259814595074
6.4252553711517955 0.5163402917065358 569.0207406280148 0.06806973993448498
6.430916901160742 0.43899009712153425 569.0207406275168 0.05137121628737059
6.442703754892398 0.43124977547956467 569.0207406275167 0.03837489698174609
6.437939234767695 0.4022279521713478 569.0207406275168 0.0402289211682548
6.448991196178044 0.39597851436434106 569.0207406275168 0.004247750854188379
6.4392979519199365 0.39109078653209034 569.0207406275168 0.04737975602556773
6.450517946228626 0.42108472610282544 569.0207406275168 0.01589296506135109
6.4457994774335905 0.4091812559813758 569.0207406275168 0.025774548657904763
6.458787858452865 0.370123467797507 569.0207406275168 0.0017538221933692077
6.46730400287902 0.38061905466623974 569.0207406275168 1.544007366195351e-07
6.456384729713842 0.3815319823461941 569.0207406275168 0.00448115574657938
6.472710004437307 0.39282988303236965 569.0207406275167 7.043734941672959e-08
6.466115283746284 0.4016565524701351 569.0207406275168 2.986637518083363e-07
6.477929298542083 0.40739556068510263 569.0207406275168 2.246044127485277e-07
6.472017182096799 0.4184932143919189 569.0207406275168 7.312563661739834e-08
6.457072456880371 0.408796756667429 569.0207406275168 0.003078659395405844
6.435441320391899 0.37836645930140234 569.0207406275168 0.051505235984898395
6.446414590409569 0.3731933584578352 569.0207406275168 0.028695647228474803
6.430528745465322 0.36694194259416935 569.0207406275168 0.056635276757021805
6.447293363570187 0.3614259940690191 569.0207406275168 0.03536622819786612
6.47714480826468 0.36020401262879886 569.0207406275168 0.030729082856245937
6.460322647158537 0.35289179474464916 569.0207406275168 0.0038919935713994593
6.470522959687978 0.36978346781599813 569.0207406275168 0.002415247513442195
6.48343895621719 0.37616348831647795 569.0207406275168 0.021163202744784004
6.484650228705616 0.3915876020476495 569.0207406275168 0.006377116590651965
6.43123231960728 0.3333985302335165 569.020740627517 0.06475585091553827
6.439455719780772 0.35413294059772416 569.0207406275167 0.057156366785406955
6.439495091790352 0.3417804427002086 569.0207406275168 0.0633094867318487
6.457036728746467 0.30532364897448916 569.0207406275168 0.009878337334942672
6.468856991322832 0.30972383710796714 569.0207406275168 0.004309999856363674
6.461920945540217 0.31957034722664235 569.0207406275168 0.0016598941975614948
6.4827274788233 0.3256792752245669 569.0207406275168 0.03597437491814839
6.464038178763248 0.3330680770661943 569.0207406275168 0.0025440353302243557
6.474747839423095 0.3405128426246689 569.0207406275168 0.01539604331585764
6.4445023823209535 0.3016070316435598 569.020740627517 0.047597140873227924
6.448356434552416 0.32331729844393187 569.0207406275168 0.039872222227502245
6.441377937193938 0.31474895010571236 569.020740627517 0.04528167535384675
6.461058860568207 0.2837490364361609 569.0207406275168 0.004708527051382214
6.458818955185482 0.26918082684911654 569.0207406275168 0.004462262263485557
6.465744645466722 0.2966921685542673 569.0207406275168 0.003889344756925216
6.451518501623735 0.27905480464812904 569.0207406275168 0.03274371234397708
6.43795730302983 0.2927594459465562 569.0207406275168 0.057649924912729196
6.449892235457442 0.2922421759414298 569.0207406275168 0.033001643568802926
6.441827064368426 0.23913283275396652 569.0207406275168 0.04130580765833168
6.441676325938383 0.2650183301441874 569.0207406275168 0.0504066853037858
6.433123356869032 0.25579570439967364 569.020740627517 0.048432678317597795
6.492155976696382 0.31313971409875896 569.0207406275168 0.07113492334188039
6.4863762339118205 0.30292154778276315 569.0207406275168 0.05706201763207998
6.501265357395328 0.2948243864641686 569.0207406275168 0.05395367802661231
6.498264574422584 0.2838783912900341 569.0207406275168 0.0629443339847381
6.4856265105102135 0.291188958785457 569.0207406275168 0.059018451156494504
6.4921499223258206 0.3469793795612165 569.0207406275168 0.07627201899680562
6.490387925450255 0.33638692334851744 569.0207406275168 0.05702439049649248
6.495049494526919 0.3708461524816878 569.0207406275168 0.03843103306134678
6.487445889439243 0.36243691822298385 569.0207406275168 0.032080190519230944
6.513716145422595 0.4224911735475556 569.0207406275168 1.4619298980171253e-07
6.508987271156483 0.40141433392481884 569.0207406275168 0.011331355383262956
6.504194033985357 0.41206033334108516 569.0207406275168 0.0021244093942556406
6.4862326708854745 0.42623759379810555 569.0207406275168 1.307861301732444e-07
6.502234650246004 0.4262334376161108 569.0207406275168 7.536312785860164e-08
6.488829633170642 0.4104758218883433 569.0207406275168 1.3620169853080639e-07
6.495430210622744 0.3959893145814333 569.0207406275168 0.008188254240628998
6.509641518601443 0.3903684232330389 569.0207406275168 0.040141704385108015
6.540419356903042 0.44481598843596887 569.0207406275168 6.984652721373257e-08
6.5311648716159105 0.43670573406116225 569.0207406275167 1.3115830658659e-07
6.5432221363416385 0.45677101235076656 569.020740627517 7.093858438025237e-08
6.518250226816749 0.436633628097226 569.0207406275167 6.942979175386226e-08
6.5228797832175065 0.4133940917198001 569.020740627517 0.00914096736292312
6.546734575546758 0.4293925223432639 569.0207406275168 2.4566093908308777e-05
6.554061550893698 0.405955208248915 569.020740627517 0.035895970450718524
6.547652257582472 0.41628969743389654 569.0207406275168 0.014444499197882887
6.535881834445396 0.41973945677364455 569.0207406275168 0.007940973244316502
6.540769679115125 0.4067856003852435 569.0207406275168 0.029588482522579847
6.527984412979056 0.4031828341338257 569.0207406275168 0.037552947553747835
6.5655588912923 0.40098881802942504 569.020740627517 0.036180482442147915
6.5781603096064565 0.3888087230243765 569.0207406275168 0.0321642128152969
6.536410785351896 0.393731493494778 569.0207406275168 0.05486790164333506
6.5978552241003 0.3799733635850706 569.0207406275168 0.029808217063853802
6.60155168448199 0.366308609059788 569.0207406275168 0.03332659659651983
6.605038258037333 0.3932441017224681 569.0207406275168 0.006594905359177347
6.588552574127572 0.37025532946597983 569.0207406275167 0.0538015617902183
6.602612186982238 0.35065126681164976 569.0207406275168 0.05073947202154396
6.591974729443443 0.3186088960454077 569.0207406275168 0.05204939551924973
6.598774979328586 0.2989081968799099 569.020740627517 0.061291776250862254
6.602290372285573 0.2634220499202717 569.0207406275168 0.0495371139717885
6.598413433056984 0.28661943024777004 569.0207406275168 0.05918464909716855
6.6001526356340205 0.25124216565994295 569.0207406275167 0.05041146242912021
6.585994319796006 0.2525141013905836 569.0207406275168 0.05178607553708235
6.59288179714452 0.23243490507700298 569.0207406275168 0.03087940957459749
6.584964025487126 0.23936731974093764 569.0207406275168 0.04724967714526483
6.566113274792215 0.22676027886575917 569.0207406275168 0.04994271773272652
6.52351682495634 0.3911160125750003 569.0207406275168 0.04917865805743942
6.641842898985502 0.5175136593786077 569.0207420250363 0.048857710481528704
6.655707816602562 0.5179541804858979 569.0207431199983 0.05282032665580269
6.660823659856444 0.5080791683399002 569.0207430158301 0.052833555578358386
6.655479968307154 0.49755317109311936 569.0207423369584 0.040594486625258094
6.643626915270319 0.50578924314159 569.0207413435409 0.031141349482349763
6.6530599607375045 0.530315783115492 569.0207437044329 0.08867662141140611
6.652731270924005 0.15438267072231104 569.0207375246379 0.057302822264002524
6.6354392653197545 0.14426273178278312 569.0207406275167 0.020993233814746617
6.614910001530633 0.11509916206927973 569.0207406275167 4.6491532472669e-05
6.6356061618178455 0.12776099049887812 569.0207406275168 0.019002893230481845
6.630813411693245 0.1156327515643003 569.0207406275168 0.026449506593248427
6.641764284530579 0.11943192487793669 569.0207393739659 0.03875217358071609
6.652883500756934 0.13109512932660017 569.0207369367763 0.05337846507222125
6.648215463143565 0.14199134312662645 569.0207381143575 0.055789095181568285
6.647502880267092 0.10211243936166119 569.0207411025954 0.03932739914041645
6.626945442781505 0.1032412508903052 569.020740630066 0.01976570998382094
6.630745958702543 0.09275803252657916 569.0207406289023 0.041708393900067316
6.619890747211377 0.08449418016792114 569.0207406280507 0.03855282816868573
6.614108484630495 0.09564107589516566 569.0207406265419 0.031007952312755473
6.604186261031434 0.10281140547046891 569.0207406275168 0.017668497820136072
6.601089902964537 0.08670656460053576 569.020740627517 0.039488889002519165
6.59441231803325 0.09826902958363828 569.0207406275168 0.015059043914371474
6.582660060754503 0.1017674977323231 569.0207406275168 0.019999748152693692
6.57930818674708 0.08075462735057776 569.020740627517 0.04194353507105711
6.564562683519814 0.09426977696655012 569.020740627517 0.030044631783211366
6.560235772547818 0.1129169439657404 569.0207406275168 7.100497231850002e-07
6.571206894323985 0.10479686270413732 569.0207406275168 0.010790848646059444
6.52972281982625 0.10805556707402113 569.0207406275168 0.0020116703696574606
6.538071200978419 0.10115381824473073 569.0207406275168 0.01830033142787413
6.54342449123095 0.08915939064978066 569.0207406275168 0.03449871231425697
6.545436442945274 0.111469116924219 569.0207406275168 3.0809096667155414e-06
6.54887262161623 0.09864803747498285 569.020740627517 0.021262964147254884
6.523239942310019 0.09151654037565272 569.0207406275168 0.04296166388798643
6.507785826228822 0.08765214742052688 569.0207406275167 0.04527378214752799
6.515703217224753 0.10895243002629396 569.0207406275168 0.000953081234808391
6.5895670211231625 0.34516991264868035 569.0141861218212 0.05421347458309875
6.588556974415238 0.3195995939622041 569.0028172846786 0.03368236821435862
6.589516515840766 0.3338746607218983 569.0188841706297 0.04993988109880415
6.587352618666657 0.3322497546597119 569.002453651402 0.027220531986162637
6.576791732410548 0.32274704191080983 568.9777918854722 0.01608642299784597
6.582667650186114 0.31258378861843306 568.983417505577 0.02143432901077845
6.58469377522934 0.3251835900427943 568.9888037891174 0.01621463206973357
6.566605535834343 0.31663006552287243 568.9695389931128 0.027790344632351745
6.5560906441411015 0.319707901310606 568.9656226688586 0.023788324783524235
6.548789405026563 0.3910264533292043 569.0200363199328 0.058457265857304055
6.5606396908513105 0.3832639504697194 569.0062721936301 0.05524233095667279
6.564642041567764 0.38652500815633895 569.0196764876137 0.049892488640593126
6.5805612755702345 0.362152855211419 569.0008947889855 0.04298317049100712
6.576525380182946 0.37449720639899653 569.0104482198308 0.04729210700203282
6.584765665125549 0.3633156242720832 569.0122110791922 0.053288996424987495
6.584579282553127 0.35113084468870653 568.9989786293289 0.03394289161896851
6.548843481048481 0.3882485199075375 569.009385773878 0.05472887838903021
6.55789229730871 0.3710538680038772 568.9886028017562 0.021700167822660932
6.568015550431416 0.3754543431407597 569.0010744539209 0.03604221394849942
6.5467406115928455 0.3753637291954397 568.9891039954704 0.02555863585538089
6.571121813498798 0.3591700265191394 568.9879736896294 0.02446184231864018
6.559639458676216 0.3621751966202189 568.9824907174228 0.017457267536495354
6.546373324280614 0.3528380358836971 568.9727121137623 0.025174952745855694
6.572262988926595 0.34032743248367625 568.9781395077888 0.019303296463890708
6.555374261280457 0.34064368406165646 568.9700748709768 0.023776032361169524
6.58099491324488 0.3436437223822332 568.9888407571243 0.017638574617946615
6.565750134305543 0.3511314091396718 568.978492402113 0.022610522397568597
6.5475085396563735 0.33166149042666526 568.9661020466181 0.019357679674040874
6.552923753673264 0.24559659977974588 568.9923796176913 0.016827425631940923
6.555587959151323 0.2369799051730499 569.0058748346588 0.047032861315516726
6.556923961681681 0.23224859544821108 569.0195040589126 0.05517165096694573
6.563909410262055 0.24380047087693815 569.0007865461765 0.04965542065571166
6.566741142237212 0.23933691705477628 569.0105234281122 0.05838316351294641
6.580746010350607 0.27126852634944293 568.9920865789048 0.02313141306693129
6.571758389647291 0.25683617653319624 568.9935567938189 0.029053313965854487
6.582890080977237 0.262543312150583 569.0020311022955 0.04030314464747507
6.576128041050405 0.24493554663054387 569.0162038721652 0.062141129355636905
6.576704763202615 0.2503963137339023 569.0060134619957 0.05505156295682252
6.589071962411172 0.2766457854677676 569.0075220086744 0.04150615193701064
6.587490022682545 0.26530324406868705 569.0202306595819 0.05100363742726247
6.586175844954642 0.29618685320005583 568.9912046309496 0.017354467980342438
6.588629563951228 0.3057343325004901 568.9971300060549 0.031415621944717954
6.588399317760097 0.2850375653718767 568.9993401082469 0.03911491548720025
6.589582373702119 0.29909099989978893 569.0071375884506 0.05352155049245382
6.5895217469374545 0.2877568855601883 569.0113911213645 0.058207534063473204
6.589544860200571 0.2768246598499784 569.020193428217 0.05547377549031486
6.547496543341332 0.2695688087067644 568.9729955903226 0.02761723765072063
6.5553546369680795 0.26318891088201724 568.978856489219 0.02479364103677986
6.555323470788495 0.27886903174092437 568.9707740570129 0.020127331907817698
6.563519017805845 0.27142986625289106 568.9775312856843 0.023419785402206263
6.556105992004973 0.29225719591432914 568.9669252098684 0.02634967827685672
6.570148393692021 0.28313117961903594 568.975982078529 0.018226329531271693
6.567336514842216 0.2643016504022695 568.9844182820262 0.02104831147694374
6.553469074797014 0.3055528412061588 568.9644301740736 0.01607680642468889
6.580833760119662 0.286957527291155 568.984159467489 0.016356709166118165
6.572181981673879 0.3064199464562155 568.9724730354258 0.02597244818536301
6.502010105594165 0.31930773959735265 569.0175287449847 0.0596473523477263
6.503640511687058 0.3383942764506303 569.0008071977704 0.040668714012372306
6.5028164553903895 0.33370474543410594 569.0132276068105 0.060014308059078515
6.505252980888468 0.3230921275146901 568.9952351672541 0.018804043019212617
6.50200739126289 0.3018622477068037 569.0114980129608 0.053371677455479806
6.502513274874706 0.2926932930758375 569.0020978879279 0.03100402397827224
6.51526409445162 0.3144513704761676 568.976155449331 0.019427534659801165
6.507431249600716 0.31690180250941696 568.9865866957288 0.018393083901869445
6.507224701366613 0.3338458477626856 568.9895190623793 0.021306714720729376
6.527101610547956 0.31777215067705067 568.9685994199169 0.024824523749552168
6.538680522958106 0.3168495118565834 568.9646003509781 0.019062899631219567
6.520058998389994 0.32984575541946576 568.9741788315862 0.01705134295357099
6.537327687382117 0.3872803288791922 569.0104950665352 0.054513563241323115
6.523500914917463 0.3827556808625201 569.0133818362262 0.059569047002331524
6.515314805939656 0.377973137928171 569.020506639155 0.04927252122056174
6.513926906491008 0.36982882401224226 569.007997889061 0.05491654771871304
6.504271174112336 0.35906204827192534 569.0192753268566 0.06061269678012191
6.509160016584625 0.3559301113814219 568.9981263760756 0.0370196984210725
6.5031864673982005 0.35008104964018627 569.0128059710469 0.07155669387867457
6.541598407685285 0.38174356053989705 568.9972146183004 0.035104189274795625
6.531513200253457 0.3760628232488271 568.9949319800548 0.020496188095443624
6.5219236528543325 0.3708601777113887 568.9971113599205 0.022086889630713636
6.531926725726599 0.3646087472999008 568.9843477036604 0.023462625657648735
6.540419239096031 0.3601413218979746 568.9778586896373 0.026696380826988043
6.520156142768123 0.3463312550572972 568.9800147578867 0.022729273930116704
6.540104278547485 0.3395916652340488 568.9688886965785 0.026602276245486712
6.512621510066177 0.34938235215063373 568.9893910883392 0.014201671358978294
6.530921330654278 0.3470758524992275 568.9740115534858 0.023154378949257755
6.530041098624414 0.3327234591683108 568.9695540898407 0.02413579305354382
6.542999176954852 0.2410122556160415 568.997010810832 0.028946310858724532
6.544806048194994 0.23358955540776044 569.0094681130565 0.041145041030147544
6.533541418538777 0.23303600831299692 569.0180408836818 0.04211296376178862
6.527178335484282 0.24174480255056524 569.0039821828046 0.043703297936072805
6.517065801116825 0.2648553580948319 568.9898258796674 0.015496724780620036
6.510944744968925 0.25828138966451 569.0022824920214 0.036990061371971375
6.5221363420075384 0.2542485544280695 568.9939286217486 0.017315629630824246
6.515034332550103 0.24653557833957768 569.0131617474415 0.04649003698545976
6.5081901745487425 0.26999633012961166 568.9967992357493 0.03735090624434259
6.502835652208644 0.27888935109492824 569.0033475942802 0.04236517253136966
6.504938374695431 0.2669314045740097 569.0087812314682 0.05142467095997488
6.545818254827143 0.2973720578829131 568.9644803989947 0.01951228801803664
6.542615266489291 0.28011971051392676 568.9688167357442 0.023754892925790406
6.540404991673769 0.25532266548321736 568.982923787409 0.01880813050836607
6.537586717399916 0.2648630570500169 568.9773370411108 0.022936046985198376
6.536527635749712 0.290847029292025 568.9670066549777 0.026751054103746494
6.528494998600378 0.26007426189541316 568.9848506999273 0.023045388217680134
6.530368180377037 0.2829647943103841 568.9713299583663 0.016583636930974338
6.52278138812638 0.2761149339688095 568.9787062764069 0.02217348155437377
6.534035236231578 0.30293928208667986 568.9655410076525 0.02485095203217507
6.5252096383849 0.2964979226037772 568.9698146603027 0.021657648781097803
6.513233119334965 0.2847336461792688 568.9824194896319 0.019122809355352516
6.515375464510685 0.29590603033585383 568.9766906834383 0.018644608596925884
6.506889111498449 0.29628149094319045 568.9882776730974 0.01679197348785276
6.668522983119859 0.004407700185494422 569.2989000303644 0.15889231080318228
6.393277412569179 0.018691324516227823 569.2967653707909 0.17174855158192123
6.391305929063481 0.028616761815601396 569.300668733231 0.2122243659458972
6.382704301788332 0.040102538603027045 569.298916600989 0.16434629075633542
6.427761846351865 0.006309023060791379 569.3003813342486 0.18738328548630886
6.716337364923086 0.1833093958823994 569.3180055829777 0.15055657213204116
6.715241333690662 0.13185796868312522 569.3179759391543 0.15635758316799755
6.719242124058565 0.2991544261055106 569.3184051487253 0.147762273344157
6.698432367829325 0.404921621531125 569.3195074306984 0.1698689407276172
6.419052352864008 0.40493526661729157 569.3195086695638 0.15196560009572155
6.380580656619679 0.40253727305405745 569.3191675468013 0.1807796495852684
6.646892842637184 0.4012908561661426 569.3190094118081 0.16139066425494014
6.550823585454369 0.4054397677449463 569.3195866529522 0.17793726287779144
6.620053448640165 0.40093938841733556 569.3189668929219 0.18136910013182403
6.719135930459495 0.3995566452882869 569.3187482724148 0.18541817617063355
6.65612525995488 0.3939564253810544 569.318206392384 0.14319043321417688
6.552035383866068 0.39209621323495325 569.31807905102 0.16498238391306494
6.567727426588426 0.3953257468053941 569.3182935195196 0.16468603441921942
6.631692967840094 0.39327123387347 569.3181600445198 0.16280070448774833
6.506965810926115 0.38954454516697545 569.3179082898495 0.16894835960439555
6.680240788584231 0.389643645691748 569.3178496693342 0.14111024872575922
6.7027019922933375 0.3877691070974391 569.3177493277744 0.16452122499163055
6.405595105008975 0.40681077550188866 569.3197228949919 0.147767271067226
6.584183466518061 0.4074798445536094 569.3196971207891 0.17614721086853258
6.507048589898723 0.4076070412112262 569.3196771181581 0.1725321651306247
6.4681074823815266 0.4082631141267299 569.3189635488463 0.1591170820882681
6.391378630407322 0.40790590864621895 569.3195555707217 0.17567622918232134
6.455964097353233 0.4080753298488019 569.3192709254674 0.15452663143382697
6.6872004966663425 0.4078120069204247 569.31948542692 0.1558569901395217
6.64944916310903 0.4402522749809057 569.3171516699176 0.1455858809895927
6.593703490498789 0.44024753188957133 569.3170322438341 0.13384448977860594
6.617345985147204 0.4403195580990721 569.3177501527239 0.1633199786586969
6.674476948285368 0.4402523757959426 569.320615287483 0.17543138163684902
6.606585276943279 0.44035314812190374 569.3188432115785 0.14337030535361026
6.555414422507184 0.4403018960016908 569.3199738532477 0.1324490161373485
6.545323896603659 0.44029528354809994 569.3182060594935 0.14172300460048495
6.456313903226134 0.4398027580406666 569.3145624509376 0.13816943910480156
6.700511499182429 0.44007524232193473 569.3157186446855 0.17185175111269502
6.392184322053222 0.4400804756689865 569.3157318081861 0.1642801996602613
6.421631873123025 0.44023064253646127 569.316711356956 0.16427455934074356
6.581102729047003 0.4401109397738002 569.315882628642 0.13677594041702482
6.5171555830701005 0.4401735739085363 569.3163162908825 0.1685397208290599
6.468283630957417 0.4401896619446845 569.3164276261557 0.15726841582922346
6.683190370928941 0.43933652269793777 569.3131317683033 0.17036697185590507
6.408673374268601 0.4390513904730105 569.3123921795235 0.16341982844726946
6.627972021632647 0.43899872467220696 569.3123482183096 0.18079449993845412
6.481562019074575 0.43927394754224497 569.3131117898724 0.14245586688237488
6.380138465341089 0.43914936938514704 569.3128086546872 0.1685711154921771
6.443581440331985 0.4391957551817699 569.3128779698404 0.15228919061874896
6.503806018503981 0.43961605397909664 569.3140017352383 0.15662156741894492
6.660023786753436 0.43790424888201485 569.3102798407342 0.17205147531270365
6.491204553858749 0.43761162343959614 569.309781558725 0.13919124639654892
6.566943754580253 0.4382480489111844 569.3108397782671 0.15758729839642105
6.52249636557171 0.43479622183176325 569.3066263275106 0.21202248190701092
6.609415353342907 0.4347629347068833 569.306614577145 0.17007532190789557
6.53841966223778 0.43576652715553577 569.3075263693772 0.1598893984320533
6.686722426929469 0.4326828358820545 569.3051183668875 0.16726566676805274
6.643346554147407 0.4332074743501058 569.3054199516664 0.17896710463916998
6.393702370441505 0.43389157315418925 569.305992848143 0.22750737911194432
6.470016645904596 0.4329651104483452 569.3052929582853 0.15221316893825387
6.620151904189731 0.4296739773622682 569.3036698936403 0.1924672251035517
6.499401343496782 0.43071875378585595 569.3040669973973 0.17226174457649604
6.560391751730883 0.42921120346430675 569.3035454325694 0.18977723947547634
6.482342826848217 0.4269261059065144 569.3029549510177 0.18418110770365
6.603109887302652 0.42598207005532013 569.3028438080679 0.17951867696253818
6.70903121211486 0.42317603998999453 569.302830230048 0.20923290101596595
6.380725322967367 0.4234883562352744 569.3028390384218 0.19927064380003962
6.406237752150984 0.42046501776744405 569.3032295516202 0.1870677481901822
6.43662837460505 0.42029097005921084 569.3032777182807 0.15781092940609975
6.474291570334889 0.41893093616108695 569.3037640967642 0.16990674242475112
6.513497537551858 0.41676509259361677 569.3046721674262 0.20644579670221108
6.461134155651894 0.41653950378155913 569.304801138635 0.1719631638390136
6.579660490191696 0.4135327867098728 569.3069990064241 0.2332730742785604
6.702926997050083 0.4131946463330768 569.3073150094332 0.21868046762988036
6.60881742867002 0.4138709923022741 569.306711021963 0.17976985161681144
6.489060313175971 0.41467791194348624 569.3060960098487 0.18311161263596104
6.63770014629059 0.41069020461752215 569.310514430856 0.16014477442587235
6.65747803697397 0.4107435658451032 569.3104318297429 0.1618188244906435
6.55820408487613 0.41134106261781467 569.309544490932 0.21171290636454396
6.373010466175049 0.41129654253340286 569.3097098280355 0.1685824713707391
6.394962226152803 0.4110512052519161 569.3099923568376 0.20723967316327987
6.668791209184319 0.4094102393307236 569.3131591598602 0.16924542050364644
6.625451137522376 0.4097522136173942 569.3123123776388 0.19046824403517973
6.478510909786059 0.4100316140330568 569.3118064590271 0.18044318123009784
6.425152990412295 0.4104403381579059 569.3109809183638 0.15616033972107393
6.53850024287597 0.4087825956870401 569.3152294487907 0.19062586592404643
6.57188410329567 0.408558892544146 569.3168423332318 0.20684495016990037
6.440907762709218 0.4085042990561461 569.3175284092624 0.14884136771005704
6.432375833082014 0.44029665577773514 569.3201357738803 0.1575150483434962
6.402025233002517 0.44010024643386364 569.3216057430527 0.16655526568983597
6.634929000925115 0.44006924623196686 569.3216568183482 0.14843612444231524
6.709601195023272 0.43975832594559416 569.3230870598131 0.15876601746085509
6.493328476545125 0.43999285314363684 569.3221166335037 0.12989118530131294
6.569372718457538 0.43991800564210437 569.3224215778578 0.12668360775444662
6.378061087729325 0.43965147787541325 569.3230223225173 0.17479087407339425
6.6934830399459555 0.43926321651008093 569.3244650129858 0.14331479829759708
6.528019664101214 0.43935947680399745 569.3242772298863 0.177091439937271
6.4774869345968655 0.43909154817873075 569.3249233159254 0.143088407071434
6.39089179091892 0.4383501880463081 569.3264667827452 0.13847286740555995
6.511006497281983 0.43675069310064524 569.3288463381009 0.14819944464692505
6.626126442720908 0.4366309683180908 569.3289703187528 0.1730413111143613
6.422532695995468 0.43708962317424427 569.3283831474396 0.17626736271895044
6.434768619866216 0.43512879271976423 569.330571310461 0.15469532195381563
6.607036676618321 0.4346806955846726 569.3309486517692 0.18467092812299993
6.447577657354913 0.4331945653261778 569.3320746284672 0.15750927574855758
6.5856027308045295 0.43433449409682756 569.3312069051328 0.17646422769543466
6.468779910455583 0.432168365915421 569.3327101998252 0.16859077192386912
6.654347108324554 0.43108983299200637 569.3332178347387 0.19479754587797427
6.66610869676981 0.43208062446697915 569.3327576481929 0.1953712080130743
6.499054916441337 0.43155485513795405 569.3330234312009 0.18032185299671386
6.677527687570375 0.4299995611879592 569.3337098317813 0.19896295227015576
6.53564421378922 0.43029746129381896 569.3335656406522 0.17508814990874477
6.553528626724338 0.429904183176984 569.3336841382796 0.15619315750060594
6.696375789429478 0.42930566546654386 569.3339262651826 0.19031047310321428
6.641793993781205 0.4288064187335888 569.3340743804193 0.18725325511663576
6.408012769434784 0.42974528712909993 569.3336801188349 0.19828245176866552
6.395283556120491 0.42931146572324563 569.3338727721069 0.1907422275547667
6.487468910201429 0.4278228097323177 569.3342988663625 0.1712278098976521
6.6188838118235775 0.4267562635117557 569.3344940428078 0.18414606467480396
6.5942336114965165 0.4273070364236816 569.3344108993732 0.16297955405029702
6.63058613930492 0.42719440239270823 569.3344438074389 0.18555802783966485
6.605820707746063 0.42326503509423247 569.3346310822058 0.1935877388411868
6.708717231046812 0.4246286546874633 569.3347111220269 0.19728756467676678
6.3845935492408445 0.42381514730123293 569.3345930433424 0.18924584056369484
6.424957815408092 0.4244352980428142 569.33460895158 0.1836274644201195
6.437914862641505 0.4225445171594001 569.3345204495106 0.18714994357083423
6.686447578227067 0.4208942565541407 569.3343140307447 0.17008642613743002
6.659486669448855 0.42138984166077 569.334411190395 0.19075849076858645
6.502300219027945 0.4216635691950926 569.3344014569345 0.1632421970020515
6.520576569487661 0.421425073607553 569.3343689835473 0.18695924068793987
6.449719511449671 0.4210737732324442 569.3343251014641 0.16441011044943182
6.465254174517053 0.4202356879774402 569.3341432187387 0.1894885115612783
6.369418959198407 0.42929351627848833 569.311253358698 0.1580008943346265
6.369546813435349 0.42303959816904396 569.3225904236183 0.16040506260957252
6.370308512244583 0.3857761381055059 569.3235579600642 0.1580470414283304
6.373239543757979 0.24238159666306353 569.3213689148336 0.1568123403621874
6.373845835871643 0.21272160009448407 569.3197063171565 0.13428503652005344
6.374065612442108 0.20197026028662438 569.3202702188296 0.17006890159960938
6.374725059018167 0.1697078669547109 569.3236338355282 0.14693997355435404
6.375159329350259 0.14846282009106207 569.3203386199854 0.127929131496399
6.376091166856215 0.10287501753355696 569.3205703310475 0.1413599795886661
6.371653121704391 0.31999393146885025 569.3217625579889 0.16655355561658072
6.370747890002662 0.36428142188369783 569.319590599986 0.13923823786403108
6.370465075420945 0.4346292475661543 569.3306580284794 0.17264766550922045
6.370077242596949 0.4042365955850042 569.3264900778369 0.1612897828760511
6.369752800962941 0.4158478009665595 569.3307873716271 0.17033602793840408
6.3859128085331225 0.3160477339198935 569.3257405817405 0.1471442368399435
6.395593612774315 0.3080809285382069 569.3257405817405 0.12409194138050529
6.396875102718732 0.31900021629319547 569.3257405817405 0.12360353832334764
6.419128708617697 0.3069002767582677 569.3257405817405 0.14318366701823354
6.408698764905425 0.30884822516056726 569.3257405817405 0.10896047213692373
6.4077588049191405 0.2890698199499094 569.3257405817405 0.10662394256963363
6.3937784081682185 0.28097836759509986 569.3257405817405 0.11770029297021496
6.382418761369729 0.2790028873651901 569.3257405817405 0.13029891149656045
6.413605032108304 0.2792051854294397 569.3257405817405 0.12682031229397817
6.3884918969721305 0.2926840123003107 569.3257405817405 0.1326841262487912
6.406453253553127 0.3267591619908483 569.3257405817405 0.11592383534407191
6.373955535481061 0.3340129791837855 569.3257405817405 0.13994577447024778
6.385910246009553 0.33296583437756894 569.3257405817405 0.15448777043522013
6.403594892609773 0.37255319494618283 569.3257405817405 0.11346089594622545
6.405600172700144 0.35843983510448585 569.3257405817405 0.10964707360316742
6.413780129238471 0.3389828682367298 569.3257405817405 0.12001962469794833
6.39276410611412 0.3449794158249955 569.3257405817405 0.1311985827061105
6.383648306482231 0.3522544643092093 569.3257405817405 0.12280006700794997
6.4156839535408565 0.3517738503205221 569.3257405817405 0.1267215298262933
6.396848600281639 0.38377545830267834 569.3257405817405 0.12079872412189657
6.38948968637466 0.3667424239681758 569.3257405817405 0.13166185717186765
6.378991248853163 0.3769981589821146 569.3257405817405 0.1572327671517428
6.466608303558104 0.2782056951292045 569.3257405817407 0.04704419748125489
6.447421898824443 0.28375229163982685 569.3257405817405 0.09610752390484
6.436704232540973 0.2881660274288288 569.3257405817405 0.10510805440005003
6.4307818059352195 0.29904696869974284 569.3257405817405 0.12546930863859243
6.430456193073791 0.27839233023288457 569.3257405817405 0.11625059865067684
6.424999719169213 0.320615131338312 569.3257405817405 0.13435122015345308
6.44766035198462 0.3036459827773001 569.3257405817405 0.10087541656689136
6.443819509358592 0.31887419445853604 569.3257405817405 0.10970284810834138
6.460396183622753 0.305449463146768 569.3257405817405 0.07584624917234654
6.464921637191704 0.32415089412759435 569.3257405817405 0.0848086710617539
6.465217645292518 0.29494296228333977 569.3257405817405 0.06539519778382204
6.428571139235934 0.3669418959485315 569.3257405817405 0.10915196140273248
6.427825334776054 0.35500748822634803 569.3257405817405 0.11488824411254503
6.438632088051141 0.37244097777658913 569.3257405817407 0.12155988623568144
6.415240451198939 0.36581015525459015 569.3257405817405 0.10960544159815487
6.423300684513415 0.38025026363351966 569.3257405817405 0.12305955154557058
6.447381207590285 0.35705835775447214 569.3257405817405 0.13422203678639216
6.427271225412877 0.33417767290932127 569.3257405817405 0.12044723078903491
6.459683876116617 0.34439859975767173 569.3257405817405 0.10955818371551551
6.448870900106407 0.3431290747626656 569.3257405817405 0.10774045993140205
6.432982115020596 0.3454877750557877 569.3257405817405 0.11538779019779122
6.477911733069245 0.23440817478550205 569.3257405817405 0.0211395115028239
6.476547249742188 0.25552183370957193 569.3257405817405 0.019931498211281633
6.477463996962335 0.26910100100231266 569.3257405817405 0.027501228699246854
6.473476411858285 0.2444782749295222 569.3257405817405 0.02583372631240994
6.509947591558402 0.2297665570984876 569.3257405817405 0.019661421410209906
6.488810393196193 0.2287333621306109 569.3257405817405 0.018161203259389077
6.510530529144369 0.27560209998484075 569.3257405817405 0.01797769811411159
6.503118927639147 0.2659702945720316 569.3257405817404 0.01737590713976463
6.506198553601104 0.24547259852907527 569.3257405817405 0.01837842895666527
6.4978079421881425 0.25606896370189725 569.3257405817405 0.019277820539328312
6.450698244080143 0.2589810542020736 569.3257405817405 0.07099502130991597
6.464415931930938 0.2644238493644982 569.3257405817405 0.04781143782333562
6.452390981260333 0.2716176375401978 569.3257405817405 0.06483570071533389
6.4558929840769155 0.24477182909803913 569.3257405817405 0.05435938706562238
6.460908477569234 0.2339394771291222 569.3257405817405 0.04775054416077996
6.481254517681995 0.3017578233506434 569.3257405817405 0.05664422458663441
6.4910086470221735 0.27968029521994153 569.3257405817405 0.01862649116500384
6.4865500238268 0.292074863068123 569.3257405817405 0.034417124647030915
6.47521763383667 0.2903230578817013 569.3257405817404 0.041750043788170654
6.474543799221041 0.3181212340746795 569.3257405817405 0.07322810563670039
6.491182427963737 0.1778724508955478 569.3257405817405 0.018338768954439734
6.495894606419817 0.19095975917275865 569.3257405817405 0.017583016866513992
6.4812519958407515 0.2106205872104659 569.3257405817405 0.01911823565421831
6.519728864568827 0.16877042435390388 569.3257405817405 0.018347680979607345
6.517260439132059 0.22150712037844822 569.3257405817405 0.019138652631055967
6.499772489423064 0.21471803774967435 569.3257405817405 0.019891970052465565
6.508575778692986 0.1921981299988136 569.3257405817405 0.018336601167781012
6.5136884925107985 0.17899474470038676 569.3257405817405 0.019637258155235836
6.453101759747202 0.22138276236314364 569.3257405817405 0.05927936192566992
6.4624651427575595 0.21216801961054554 569.3257405817404 0.03935979376769902
6.459478722207896 0.18981588544483305 569.3257405817405 0.04409329442679942
6.470209802239652 0.18621963708613337 569.3257405817405 0.03135108821645828
6.444692813853267 0.2109977047319624 569.3257405817405 0.08458731932260714
6.469224282085361 0.20350366006617623 569.3257405817405 0.036822022774241764
6.436313097196196 0.2448810085534932 569.3257405817405 0.1124109386535542
6.433027422281668 0.2583765217014005 569.3257405817405 0.12083421221642644
6.432173137933418 0.22339010973576862 569.3257405817405 0.11591885230785903
6.427289979542334 0.2344796760980835 569.3257405817405 0.126870523762442
6.4483903561163896 0.23688163655610822 569.3257405817405 0.0781839704679588
6.4686850135731095 0.222996315295529 569.3257405817407 0.03099318036051812
6.422011133833152 0.24620459361172772 569.3257405817405 0.12727168570032366
6.521141668281214 0.20765640795115944 569.3257405817405 0.01770567284836977
6.544596830774214 0.1829872560324412 569.3257405817405 0.019326015525363113
6.538480247084161 0.17250251438774003 569.3257405817405 0.020879999849363992
6.528993985474121 0.18318698913290204 569.3257405817405 0.020288822500537942
6.559454041058566 0.20153047815032651 569.3257405817405 0.01697773046054708
6.546834830379261 0.20433517545852925 569.3257405817405 0.01867625636834219
6.531587345475314 0.2162323238656615 569.3257405817405 0.018615767584073035
6.565924582542928 0.1798371791964566 569.3257405817405 0.019475823808339097
6.5614142202596355 0.21465838167295015 569.3257405817405 0.017999290503848138
6.5349380377411945 0.23234394007690684 569.3257405817405 0.019268822555397906
6.55102340587309 0.2246295725671411 569.3257405817405 0.019273814251422296
6.560763702789754 0.23271738588242963 569.3257405817405 0.01954085075682845
6.522999135155062 0.25271777482888674 569.3257405817407 0.01825988126016811
6.542974541749837 0.24053419588716482 569.3257405817405 0.02029048012212862
6.568617503051959 0.2584778506949723 569.3257405817404 0.020703522062344014
6.531631107878659 0.27049662905535904 569.3257405817405 0.019318665898810573
6.557595077888863 0.2680320570717848 569.3257405817405 0.01926361799296145
6.541284482231159 0.25907859728085947 569.3257405817405 0.019043372871560906
6.564376615590537 0.24704442077736036 569.3257405817405 0.018770446463361165
6.555936230233733 0.2537233124098222 569.3257405817405 0.01951043128837512
6.523691188110338 0.3183155250545691 569.3257405817404 0.03495019527289828
6.533753539926579 0.30778923323543556 569.3257405817405 0.019761356545526576
6.551132722857045 0.27799777936242254 569.3257405817405 0.019601029359515205
6.526015671515828 0.28619713383064355 569.3257405817405 0.018559038773471058
6.56205631586343 0.27788239723703845 569.3257405817405 0.020354584404132306
6.518389290529414 0.30106141689291804 569.3257405817405 0.019092497743814024
6.512701623319376 0.31480223008949265 569.3257405817404 0.041459671654746594
6.488979140044331 0.31511677242404257 569.3257405817405 0.06120626645658524
6.489041805089448 0.32629636970577597 569.3257405817405 0.06827491960127954
6.500012909429069 0.31658918423058136 569.3257405817405 0.04881421592306847
6.5724412753265025 0.1957625180975388 569.3257405817405 0.01942358503897142
6.59902929737604 0.17688675799363693 569.3257405817405 0.019412664471104544
6.588832388009427 0.1980237150805967 569.3257405817405 0.019871901910916895
6.589214617346767 0.18179072780381778 569.3257405817405 0.01958881122570012
6.5751179622114035 0.2089397025771029 569.3257405817407 0.021319559900375106
6.58642127229424 0.21731593973941016 569.3257405817405 0.019164205766421936
6.614246096558289 0.1996338148666616 569.3257405817405 0.019371882901385497
6.596882145023635 0.20653831296610192 569.3257405817405 0.019966093515449524
6.603673080810058 0.1930874052844737 569.3257405817405 0.01937931345718785
6.619309336132625 0.21836749689782542 569.3257405817404 0.022387318797415394
6.614614067237024 0.17876080228853555 569.3257405817405 0.019966722550402525
6.598427921911567 0.22075780439005327 569.3257405817407 0.01850463432394686
6.571694803431209 0.23775850543099175 569.3257405817407 0.018685987084824354
6.585418159633105 0.22989421760835113 569.3257405817405 0.01763569218198808
6.610912390701624 0.2294720933171084 569.3257405817405 0.018198324606417578
6.5735900581591356 0.2725829525570855 569.3257405817405 0.020819654242289355
6.575889227982566 0.13968140467117102 569.3257405817405 0.018920176587817267
6.599492047848361 0.11397465699017337 569.3257405817405 0.018958364130703318
6.58606268395253 0.14760282850081624 569.3257405817405 0.020404820566881216
6.5728386411493 0.12761826620561234 569.3257405817405 0.018889886135563017
6.583683590890427 0.11994434923788405 569.3257405817405 0.018558498793736843
6.594762263184835 0.12601081459836444 569.3257405817405 0.01896441204953252
6.572532894860713 0.1498047720487869 569.3257405817404 0.019145078269634363
6.614440776651203 0.1121731572076736 569.3257405817405 0.021714311193282338
6.603361289966459 0.13536971539133807 569.3257405817405 0.0200543802840451
6.6139143273423775 0.1504833809633046 569.3257405817405 0.018446387699251214
6.612464600956715 0.16389064879918713 569.3257405817405 0.01962905361772595
6.582461189366059 0.16032044698508213 569.3257405817405 0.01880466746763733
6.598799883106465 0.1646167821815106 569.3257405817405 0.01972009509945947
6.57262164827648 0.16668401282415624 569.3257405817405 0.018136092304666285
6.542544980266623 0.154641659956875 569.3257405817405 0.01902949964650745
6.5532951087829545 0.14831026758260885 569.3257405817405 0.018706415209081843
6.557041090373441 0.16571298575956156 569.3257405817405 0.018920847238863836
6.626115365085077 0.1525878591647477 569.3257405817405 0.029391089169376088
