x y z curv
0.22507848249622261 37.96895204472773 1005.580401490344 0.25096231128580304
0.05809647886112985 37.92166375459396 1005.5804014903439 0.2327007269700625
0.13307103573616658 37.921017566888146 1005.580401490344 0.2506828152164985
0.0509399212556637 37.79009461992211 1005.5804014903441 0.20662546708978216
0.03235858585288092 37.81196816034649 1005.580401490344 0.2711013773130125
0.016624994054878977 37.849071921184695 1005.580401490344 0.2422140623391838
0.1304706961931738 37.71638615719788 1005.580401490344 0.23936652820568546
0.04855045760981274 37.811634701281726 1005.580401490344 0.2596891907004343
0.08950212152103879 37.77127154064713 1005.580401490344 0.2750259517768501
0.11352667056422945 37.73814905296528 1005.580401490344 0.27120605544566334
0.03929188095075434 37.803059945304604 1005.580401490344 0.22565514226355057
0.14091418291576283 37.7043757904232 1005.580401490344 0.2549000239326487
0.06950396185575483 37.776640344293845 1005.580401490344 0.24436286421767794
0.15112573135823992 37.698137102039915 1005.580401490344 0.24340758350248215
0.09496166448902967 37.753343429857104 1005.580401490344 0.22598063383541916
0.011158701246202888 37.83793616523579 1005.5804014903439 0.2557654343650153
0.067950815889028 37.78861493668188 1005.580401490344 0.23582814666277746
0.03082875192154852 37.82405074220284 1005.5804014903439 0.2529465980206206
0.28861067504365673 37.95759188028835 1005.580401490344 0.23354259887490983
0.3208811691386213 37.93982019160437 1005.580401490344 0.21210100767736403
0.2657030013643533 37.983801049778236 1005.580401490344 0.2491579917588786
0.36128820461556077 37.89833697024595 1005.5804014903439 0.21454860828547068
0.3460755685056197 37.92393573499786 1005.580401490344 0.2865053229362034
0.37122882251458994 37.8721522215905 1005.580401490344 0.18479379736111684
0.234421701100935 38.01865224604984 1005.580401490344 0.23155465186623467
0.2410238694532511 38.0084480356407 1005.580401490344 0.2416543492368593
0.3459256124474761 37.906089739187465 1005.5804014903441 0.2679814099882064
0.32422363675373994 37.917086067415774 1005.5804014903441 0.22493092190171649
0.3364583057158532 37.79561960970649 1005.580401490344 0.26632499432830925
0.3543456245068608 37.81663957030475 1005.580401490344 0.24941845241546076
0.19048164190552663 37.64901379180863 1005.580401490344 0.2223946317444902
0.09843666318182803 37.7393133561074 1005.580401490344 0.25067656302353303
0.15484174445517251 37.67989342028594 1005.580401490344 0.2648914868004346
0.16712735093653416 37.67209357554221 1005.5804014903442 0.27563438694843745
0.18367730487250536 37.65910877282644 1005.580401490344 0.2481466484353996
0.11097728800980852 37.70968114846557 1005.580401490344 0.2647523177817768
0.17598301272795036 37.6458020179482 1005.580401490344 0.17072529023773209
0.11801646594915699 37.71922987976468 1005.580401490344 0.2527170802360837
0.05655233239410277 37.78072266262292 1005.580401490344 0.21413383046088466
0.16223964970314114 37.65959554114251 1005.580401490344 0.2975069899427035
0.07863351292028348 37.75478711816076 1005.580401490344 0.22403340188541895
0.3133117118493598 37.75411500385751 1005.580401490344 0.24096479173209487
0.27779795817634645 37.71188587788897 1005.580401490344 0.2150432927891068
0.2378170859352542 37.66803980903487 1005.580401490344 0.26546691537792494
0.3055810402206147 37.72449677901246 1005.580401490344 0.2659936117130717
0.32708100189683953 37.75049887331896 1005.5804014903439 0.2232317807636434
0.3125449557653552 37.74063283620022 1005.580401490344 0.2526390517937527
0.3404028886710714 37.783942524060045 1005.580401490344 0.2775453706287286
0.2762472009720905 37.689289610907245 1005.580401490344 0.26638776237237216
0.26743440545548747 37.67656696805701 1005.5804014903439 0.24970035133715088
0.29130430515598305 37.69119386475876 1005.580401490344 0.2673389329823169
0.3200676746349965 37.71161973120309 1005.580401490344 0.1948303853793551
0.30003215501113717 37.683314249457595 1005.580401490344 0.13078054816356371
0.2876798877052886 37.67168101204016 1005.580401490344 0.12869339687275785
0.32365288509446105 37.732564972216196 1005.580401490344 0.29116416674009504
0.3100204435157379 37.693221944512864 1005.5804014903441 0.15980684393858222
0.3533791767052991 37.760707565341725 1005.580401490344 0.16652134315745504
0.08923185025495212 37.72883877985393 1005.580401490344 0.24067140049105426
0.1515742043978004 37.651646402853224 1005.580401490344 0.19903618668976766
0.06019669454264105 37.76155438116327 1005.580401490344 0.2392417673825618
0.11898356021953371 37.68653823803382 1005.580401490344 0.24820262652863276
0.055205817116704525 37.75058772413915 1005.580401490344 0.23203948190150192
0.014538190711687118 37.812769132631296 1005.580401490344 0.22867131370379412
0.08812172914036363 37.716094378007256 1005.580401490344 0.21030459773352972
0.03361535651550296 37.79315775288433 1005.5804014903441 0.24040897772904024
0.10730306490402385 37.6964232554993 1005.5804014903441 0.22515867868915904
0.12438959908229347 37.65901391433631 1005.580401490344 0.16849240836802779
0.10480538823695391 37.67962548890681 1005.5804014903439 0.2883062640868589
0.04769297454746834 37.767827981721176 1005.580401490344 0.21622867566167395
0.07709489633853098 37.699735344804196 1005.580401490344 0.29432929770001587
0.01910997786204689 37.790558291359325 1005.580401490344 0.22977774488236832
0.040405897010032416 37.757455705290916 1005.580401490344 0.29470505355089494
0.0914403473644122 37.679629324393176 1005.580401490344 0.24154404603308738
0.05590991758586321 37.73770917162349 1005.580401490344 0.26405011516064897
0.06220387323866912 37.72820656821111 1005.580401490344 0.28601258427195086
0.10819568170744172 37.66881115599381 1005.580401490344 0.21771539071036025
0.07013427579720835 37.71984846803439 1005.580401490344 0.27416862204946335
0.022733001591512782 37.772899723826754 1005.580401490344 0.25634690667461607
0.059030767652709905 37.70913471638322 1005.5804014903439 0.25135359510692895
0.09051135845143707 37.6666933648851 1005.580401490344 0.12712865662976028
0.043696461554772255 37.732645897158385 1005.5804014903439 0.23037509001254175
0.006867738286045817 37.793516758299916 1005.5804014903439 0.11953945167407888
0.06337539181846677 37.68776423411193 1005.5804014903441 0.14885526448936207
0.02661302696342026 37.73418852411067 1005.580401490344 0.12730193326574973
0.27284934031538555 38.04260308481572 1005.5804014686468 0.20931507759148385
0.34038000596905216 38.05908404639993 1005.5804007785931 0.24487186244302658
0.3244656262329668 38.03838903058133 1005.580401269815 0.22994092042649758
0.31234064412831225 38.05346711743087 1005.5804010411432 0.25467105036640647
0.3266375834600524 38.05086365061452 1005.5804010141435 0.23103995300366018
0.3379355064940458 38.039248667598535 1005.5804011796286 0.21174795887648482
0.34118175976178655 38.019971149195406 1005.5804015387565 0.23691726099938334
0.3656708488176765 38.05538819309108 1005.5804007130517 0.20955235088572605
0.32970422500433416 38.02329241121684 1005.5804015363658 0.2455507039233984
0.2354552935285787 38.0580268161909 1005.5804013708834 0.2297600670819418
0.3507356375055416 38.041348920245156 1005.5804010688407 0.21464567793150377
0.3084862743310299 38.04210291113545 1005.5804012842752 0.2090963529874159
0.36521157601254917 38.01050806908226 1005.5804015928162 0.2264623628817405
0.2993578906229151 38.03184032768329 1005.5804015346068 0.21639059989953882
0.30885195471112764 38.06449692664158 1005.580400844552 0.21618537436079188
0.20667682270728652 38.063335485201506 1005.5804014238996 0.22830104572637497
0.2926562598277026 38.048175020974575 1005.5804012518261 0.19966248857967464
0.28202247162204985 37.99298217184497 1005.5804014963858 0.22490172260687774
0.33775766357923837 37.97532489371004 1005.5804015637467 0.2594881343360488
0.3302361969801922 37.95261965594659 1005.5804014909528 0.24287524999136859
0.30532600387742387 37.999464121493176 1005.5804015597553 0.3069140252607258
0.2738689961867792 38.03080687366053 1005.580401576017 0.21279339549200238
0.2987246255749771 38.01049346673689 1005.5804015744723 0.2517691121885105
0.32256697446175653 37.96171771760336 1005.5804014986163 0.26940844698078203
0.2910379139989172 38.02358588008421 1005.5804015922429 0.24776814071598283
0.23828233648842617 38.042001700220865 1005.5804015328063 0.2233992137756495
0.28619217983211775 38.01175201498074 1005.5804015524399 0.25482310590227286
0.3338932841666753 38.00339310664289 1005.5804016272382 0.26947023793420577
0.207642153621291 38.05259824058423 1005.5804014980338 0.2115302154986951
0.24656966586254142 38.02762892153307 1005.5804015129936 0.23233726933844553
0.3526473114088152 38.00443658230968 1005.58040166764 0.23615377115358724
0.25263064856689976 38.03985994843546 1005.5804015562514 0.2555430082528058
0.263451053202041 38.00635115809708 1005.5804014929477 0.24469490033163552
0.35295695691737616 37.99218058500777 1005.580401637143 0.28581724234036204
0.349967100089433 37.94308930469091 1005.5804015064722 0.29092455654759486
0.3144000607384645 37.98277673739754 1005.5804015356491 0.2706452266347976
0.359059562811054 37.96742893805041 1005.5804015865784 0.2687856479623967
0.17667284943782074 38.074137328407254 1005.5840720975114 0.2044905538107543
0.10543483708442163 38.07406359395473 1005.5839996156167 0.22720918962855532
0.2559687937084337 38.073654787868044 1005.5835970392511 0.2146517385913328
0.23948311249278612 38.07379217150681 1005.5837322846364 0.2130831063226187
0.21805870347543854 38.07489247564201 1005.5848035646076 0.2266000392792767
0.0846690140830551 38.07538155575215 1005.5854329878227 0.22725626034444185
0.14280528466168005 38.07590864649413 1005.5861281292994 0.202277508059827
0.19042993137228542 38.07609249801361 1005.5864658026283 0.21821402578592775
0.12945666920133594 38.07647015222841 1005.5872600957696 0.24842980211358
0.029680463824844464 38.07666959207961 1005.5876800852667 0.2516932050316115
0.15391916041197137 38.07623317674248 1005.5867617887154 0.2160938189203617
0.312193513938444 38.0760482326188 1005.5863718171817 0.2279357621002435
0.29077570422731747 38.07642004234425 1005.5871537028395 0.22818383931867386
0.33983942823164265 38.07720127248041 1005.5887973106055 0.2102079739065894
0.2748637200390687 38.077034370097586 1005.5884461527507 0.21607244063967768
0.07848799418327594 38.0778815654443 1005.594985662314 0.26277549307849735
0.3024790151591265 38.07804740661056 1005.5929161229601 0.2268864213273352
0.2317019134026435 38.077990533258905 1005.5934682444106 0.2557185618352328
0.18077418841636037 38.07798793109349 1005.5947382758359 0.21572302160001047
0.09496987120822159 38.07777037808873 1005.5920231994371 0.256119875114458
0.20104731497177122 38.07782232973497 1005.5912090859591 0.22518759353515727
0.3585659764927286 38.07777831442854 1005.5909299308875 0.2285739369093948
0.04996490348250695 38.077840401615106 1005.5947808988575 0.21239973303561863
0.011029662745474868 38.0759456086862 1005.6069903796322 0.20402711431037632
0.01992498811576156 38.077751189303925 1005.5967338793439 0.24972755473294245
0.0896092498997494 38.07677595351619 1005.6022804638137 0.2555199711361973
0.10810612428591464 38.07778890317943 1005.5965369013103 0.24194063654104386
0.169442423709166 38.07738164282726 1005.5988451694338 0.2313477423207528
0.27149089464313025 38.07742538593848 1005.5985951971717 0.25146086377156285
0.13959298079118654 38.077086551979484 1005.6005190825068 0.2360884144449156
0.23806747576260243 38.0765200163049 1005.6037298429044 0.19076165424279498
0.2160900998398781 38.07772476636462 1005.5968985644786 0.24061427733943336
0.32115902610231944 38.07764338773836 1005.5973580544662 0.2375601788543697
0.12785643197802135 38.07736992834916 1005.5989123808412 0.2529506385472332
0.20234446452288443 38.07653858265017 1005.603625232576 0.22331771978520812
0.18010251380051187 38.076183119710706 1005.6056413502358 0.22759685017586198
0.061797362842899266 38.07617250680692 1005.6057019836159 0.2211570325912931
0.039181702647344455 38.07622871350947 1005.6053842782512 0.23357139317660572
0.0239578186658023 38.07559362467501 1005.6089856451655 0.20773412332573252
0.08106696034954869 38.07553091721517 1005.6093387345434 0.22622866507960337
0.27743195060833525 38.07553098300674 1005.609341146371 0.1707613650848756
0.24935558228279564 38.07557825372201 1005.609071082783 0.19880804246821085
0.3409221494710113 38.07654517949549 1005.6035892965235 0.20398586458061357
0.30629012614842144 38.07549039431847 1005.6095732129344 0.2125440307646157
0.35291814187209825 38.07712795414117 1005.6002827726043 0.2577705947682389
0.27525605902898537 37.949016586205694 1005.6121369252976 0.2260793405659747
0.24020834772692945 37.92514210289 1005.612218432729 0.24409799649805128
0.21037329743212385 37.922302677404154 1005.6123720608186 0.2242088175153523
0.2681555972544091 37.91485283717692 1005.6120121336928 0.22413766828711884
0.25753190139101073 37.93433621021521 1005.6121655851504 0.18318508799570282
0.23406120640968867 37.91548685408405 1005.6122063832632 0.21560661411648302
0.22337850367180534 37.92524558940252 1005.6123133098471 0.22132629844735585
0.23314345135683984 37.93404296979871 1005.6123009379303 0.22253701654642277
0.2586716000602902 37.92080553740004 1005.612093999726 0.20851432115571733
0.1922281861327404 37.91330824141424 1005.6124304775998 0.19931007753064459
0.26219754901830306 37.94802115226826 1005.6122053586297 0.2448996623647747
0.2491924308408901 37.9464908659641 1005.6122709154963 0.20128411823962428
0.2717544832461267 37.927181253657665 1005.6120513532796 0.19057566544745033
0.23077445928316537 37.965772155362444 1005.6125087879645 0.2358246674788252
0.253787859989789 37.95830854891639 1005.6123140046652 0.18117621761352862
0.19702752567652287 37.926356052527 1005.6124799261706 0.18895063141214738
0.2120373503977665 37.934660460256474 1005.6124351429177 0.2569207836081187
0.22444070885077172 37.94618595964484 1005.6124272567793 0.24612463649046284
0.23772513704961845 37.94456038991855 1005.6123315720117 0.1722088663336443
0.1971600160475109 37.96281854619548 1005.612706773978 0.22367863485310358
0.2388089946164686 37.95758847493537 1005.6124059512055 0.23283941401980143
0.2027773030064165 37.950286400285506 1005.6125923456848 0.2080832913827874
0.2764666019824357 37.96562724396675 1005.6122136885756 0.2108326707394584
0.215028402128783 37.95823941150122 1005.612563130424 0.22197356755467734
0.14221295773972245 37.913820072970616 1005.6122014636036 0.243717849442433
0.1775852497266468 37.92054646277489 1005.6124428390865 0.19063338871853874
0.18597151315833182 37.94591517805452 1005.6126486632193 0.23540923609911027
0.18430772441008883 37.96031971666102 1005.6127293217694 0.2039046120269888
0.15358211331647376 37.91507889218339 1005.6122734001091 0.24095888654366915
0.1573735274269112 37.93650934643409 1005.6124287151903 0.2808167320270531
0.16987308952132518 37.949095712228086 1005.6125778238107 0.22986389947082794
0.10242600103762216 37.91265097260485 1005.6119699456685 0.1886417557800423
0.12561086823704326 37.92400726907846 1005.6121715805002 0.2395356018912829
0.11297515173310002 37.91939511644864 1005.6120715468187 0.22064395516828406
0.1489179425679633 37.9294028316061 1005.6123366468934 0.21237347460748374
0.16630256202974486 37.923553539573206 1005.6123980535069 0.24784721901909584
0.13797552842178445 37.925135570964855 1005.6122483111625 0.183215329752705
0.1793316415638765 37.93218624530489 1005.6125254340568 0.22204907240347665
0.1691389823676073 37.912505412653175 1005.6123449820554 0.23998768511406002
0.21473854287136754 37.894611896655 1005.6122031547134 0.2017820078306195
0.23850134584986837 37.9038725579998 1005.6121205469464 0.2584845691288155
0.25851602783029537 37.90734712239655 1005.6120273260083 0.24554181692120378
0.2501071960426558 37.895650317957426 1005.612010535009 0.15596386063193318
0.23116112542264738 37.884340252999124 1005.6120549354056 0.24676300260238798
0.2250131733666158 37.90474730763377 1005.612200950364 0.24952119738163622
0.2103143895092796 37.87306686393561 1005.6121101924316 0.24847833300666192
0.1958435267162275 37.88823891925962 1005.6122742552958 0.21824161893775273
0.20503634622616596 37.89952416858583 1005.6122844012507 0.23404594517555816
0.21673422305566925 37.88190072318783 1005.6121224857948 0.2468038856172851
0.2473119229291747 37.91032154690077 1005.6121064006612 0.25575813495469135
0.20011784468277788 37.87841526072562 1005.6121965944373 0.23184540785168334
0.19267281199796968 37.865250196528066 1005.612166374261 0.23967619852465935
0.18285213841376696 37.88879900401574 1005.6122962320308 0.2015080446013188
0.1311888975107066 37.861207995057136 1005.6118956799563 0.25677212084982126
0.17232004520327443 37.892572217412095 1005.6122659087177 0.2222998472932749
0.18426991259213843 37.9003658131231 1005.6123662687019 0.22327147710185782
0.1607851855002126 37.87869693892286 1005.6121343363152 0.19302891940435393
0.1476454547474458 37.85772091837767 1005.611956217015 0.20780434898925063
0.15896464258482543 37.860269022194736 1005.6120248750663 0.1801812020273153
0.1851682112269895 37.876020268329384 1005.6122376325145 0.21377590304227062
0.17234766560084375 37.867063456856336 1005.612126708192 0.19024524272555007
0.1416873685151615 37.870373070235885 1005.6119965122659 0.14800379369108574
0.11083523179687421 37.862332094608625 1005.6118033893476 0.2067698446860619
0.12118260484330105 37.87246061423767 1005.6119087534768 0.18043559073731633
0.16140768739726724 37.89810133913765 1005.612240830334 0.21037029296639834
0.10124197837594301 37.88205983937493 1005.6118366154689 0.22583771262423102
0.12265615512449639 37.910604072916755 1005.6120739702139 0.22748691251702438
0.15200267084185276 37.891196028263806 1005.612159639533 0.15535853466533187
0.11515999061975019 37.88239109390244 1005.6119162854517 0.2343442150027743
0.13290061509890655 37.89465662915806 1005.612066324047 0.20074458052404423
0.1086197016514989 37.89458381000562 1005.6119294021851 0.21774370275093358
0.10222575333554135 37.86852026707605 1005.611786719269 0.2085223666327387
0.14359514726831207 37.901786512273716 1005.6121556900991 0.24334673171127172
0.11908744671632768 37.899582888092496 1005.6120087685277 0.21269646018128943
0.097679763504507 37.893516222129705 1005.61186347463 0.2151176473931749
0.13475011794816413 37.882434347043244 1005.6120266921743 0.1961795486434153
0.14456245649575145 37.95982597307989 1005.612475296542 0.22847850735894912
0.11684534790876686 37.94864237128908 1005.6122423537561 0.23895958828391334
0.10209915707713567 37.924851560578006 1005.6120323408942 0.22101711392345977
0.15573854756247776 37.957488944564325 1005.6125361896942 0.24391283200622163
0.13690978290514963 37.95098235420411 1005.6123832095075 0.23583802941093554
0.10897578046266014 37.93649710954206 1005.6121329358253 0.22855397865229204
0.16705508854439405 37.962770649123485 1005.6126347499176 0.24410987725754163
0.12346711823596707 37.9584166666811 1005.6123322742491 0.21399423168275492
0.13166448589834048 37.93421902171781 1005.6122684556852 0.18355316965629595
0.09666077186956543 37.93685141891176 1005.6120551216009 0.23748782225187004
0.10714872290016106 37.95824494791103 1005.6122260702218 0.1631087177767469
0.139739941536285 37.985446703029545 1005.6125822342627 0.2226688497217829
0.18118094751589492 37.97999728420122 1005.6128195652831 0.22294882652736409
0.13451975114772452 37.97279669698765 1005.6124780157172 0.1947616738651674
0.1878680853750763 38.04272289506097 1005.6132123263612 0.17874306164889278
0.18418646722497706 37.99805450183137 1005.612939611379 0.21772003511005006
0.17230820354621013 37.99622559398584 1005.6128526879991 0.2345457302947232
0.11936783191588668 37.97893880534786 1005.6124143668987 0.2236943369426646
0.1719965769613871 38.02789971999764 1005.6130271917109 0.19828900638839644
0.17276900624827146 38.007850052313806 1005.6129204466364 0.20159202135909154
0.14237506419163276 38.00616333520048 1005.612714708325 0.23393213772257962
0.11693258408785136 37.967957210273894 1005.6123374363787 0.27507678687403314
0.1548165704590544 38.00251854011252 1005.6127747657304 0.23849368664409168
0.15985967519699318 38.0216847985751 1005.6129141547666 0.2394003500854949
0.18301060363654437 38.01734696278069 1005.6130395305157 0.22738505186157107
0.15816905448332613 37.98116594788692 1005.6126774261922 0.24807745894680028
0.1812196942169734 38.03388286261265 1005.6131201145462 0.1673383904222385
0.09832734654676842 37.96695896653228 1005.612211687386 0.240271316260221
0.22504821337465072 37.9987129001245 1005.6127293369116 0.2314161993397106
0.239508370137847 37.993623824595744 1005.61260786505 0.19459797166207318
0.21422148738112717 37.97463909970743 1005.6126648941135 0.26236426355728765
0.25894938419084307 37.9787400492188 1005.6123997368261 0.178099277263265
0.23859824999204762 37.981895774056106 1005.612548367611 0.1999201473627397
0.22866474404975978 37.977030075757156 1005.6125852157701 0.1870850137184722
0.18995847890933393 37.98691585063329 1005.6128895436498 0.22468893990038472
0.2600318367596457 37.966940821072946 1005.612327012195 0.25898332320920575
0.20238580993503816 38.00766147744873 1005.6129251326786 0.21939207384989864
0.2480661637000603 37.971680048268354 1005.6124304719983 0.2155476545229145
0.19867730644930004 37.97530971851942 1005.6127687231069 0.24558146466230327
0.2120790151380893 37.986949506432495 1005.6127472930889 0.24100309146255408
0.20153669940828928 37.99049126708988 1005.6128349144182 0.24195167255971095
0.19887590200033853 38.0257958731436 1005.6130487926383 0.20857565656455565
0.21296103371650657 37.99943117166406 1005.6128111712094 0.20828079430841862
0.20958281950241553 38.01855626793609 1005.6129395041278 0.23254298808764134
0.22497807707413597 38.013989928164314 1005.612814924076 0.24593678975427066
0.08159540251324662 37.94340930032722 1005.6118396416753 0.21466622898387058
0.055376041992257645 37.93085381819474 1005.611310809463 0.22438630647134009
0.08869837322609107 37.917922849066564 1005.6118458163025 0.2184286943909566
0.03305802526027186 37.944783540879456 1005.6109774870994 0.24084912127283623
0.045130061007582524 37.94908946442541 1005.6112139750344 0.20968441800204798
0.07412097966767565 37.95902325290696 1005.611779968556 0.25000623930591964
0.09250860547180745 37.948896528103056 1005.6120609958726 0.2262525430573668
0.08610450682166255 37.96019670822338 1005.6120000071136 0.24382068058982637
0.08367689384554211 37.930696995489086 1005.6118165671613 0.18533574735362507
0.06672907851491697 37.92383674657429 1005.6114806954101 0.23962725822906183
0.05520491284955749 37.94410402498657 1005.6113706264839 0.21911629615976405
0.03241850134288205 37.93191096820528 1005.6109049538634 0.19866446751907554
0.028009299318810778 37.88657760078989 1005.6107955421612 0.2459384272217079
0.08898403092728657 37.88369694341435 1005.6117211672773 0.2393752797397439
0.05352367708048322 37.87243718338301 1005.6111300641562 0.2321302672875663
0.04686098742384867 37.88367480560354 1005.6110735063468 0.2241423803152193
0.0688495383615923 37.88184700841916 1005.6114040824262 0.2276247281856455
0.08914297290200848 37.87127845514794 1005.6116729208989 0.22744726099281087
0.019482718953497027 37.87785747376467 1005.610628866551 0.2164772812757992
0.07481715740000351 37.863974815109465 1005.6114228736775 0.22180432483740264
0.07282864008547871 37.89542138705972 1005.6115206623482 0.2394842476783293
0.09077659635133406 37.90391353811639 1005.611831245129 0.23120007183251973
0.03153886557147948 37.89819021597676 1005.6108698068092 0.23969412415847777
0.045724913233996224 37.90814790487626 1005.6111108676363 0.2557970400627612
0.02706925272047727 37.91721260712501 1005.6108070545617 0.2178759870222672
0.06480212456814358 37.910841381450226 1005.6114286713284 0.21650765941857866
0.04243722156222032 37.926455528697375 1005.6110672796606 0.2789956851335015
0.05284381702615735 37.89777854332287 1005.6112226851405 0.2502963847444898
0.011973720269999615 37.899217408780835 1005.6105461318946 0.18437835920458348
0.009522112403572583 37.910149623659294 1005.6105120087511 0.16037428520393915
0.020543472324789196 37.90623707487366 1005.6106923542361 0.19662756033249998
0.07734296230316834 37.91495595477214 1005.6116389829282 0.25013915918436097
0.017659840366005965 37.92941420646792 1005.6106583638638 0.1830112519187034
0.1095875039288485 37.842443079683335 1005.611730447681 0.2568095939301569
0.13807082541797683 37.851765720219944 1005.6118928501462 0.2209306100775887
0.1532439443152087 37.84714303302856 1005.6119536131062 0.26953518447043573
0.12120216574302048 37.85139881240255 1005.6118105113704 0.230127013049209
0.09762656794765776 37.844500246231476 1005.6116782870838 0.1683500304918107
0.16887465338090046 37.854932389122204 1005.6120499131443 0.16040982120123307
0.03268466994161128 37.838658119472335 1005.6108062679976 0.19162128358697458
0.07517510710521173 37.836405427603424 1005.6113770492537 0.265145339463123
0.08470034277751133 37.84655327288901 1005.6115349981656 0.23408816579255778
0.04648160506656144 37.83683391188221 1005.6109885277732 0.2413495088892398
0.07248784496306303 37.85285661993271 1005.611386870671 0.2375366058779082
0.0897674157793236 37.85623032094357 1005.6116310687166 0.17213734485348361
0.09307398173025994 37.83102330209641 1005.6116050055048 0.20036307418047689
0.011651530931897617 37.87066215285867 1005.6105161640676 0.15593838080253347
0.010329393068435706 37.85883756870904 1005.6105041886706 0.18407825070755404
0.003563096184435522 37.8803644815795 1005.6103958442593 0.11008901124952626
0.0515630433677791 37.859936502157574 1005.6110885607752 0.21064451030584105
0.034840931891877994 37.851795333074456 1005.6108559854817 0.19279625517832782
0.05968817050379499 37.85187749304759 1005.611208458569 0.2621252067168502
0.023633686164211198 37.85290977266583 1005.6106963434472 0.19958303406326533
0.024975962819290154 37.86665190159386 1005.6107075046837 0.1823869779105139
0.10637555278440278 37.831134781271196 1005.6116821896768 0.21708211729238652
0.1341441956360677 37.84132085481837 1005.611845660115 0.25165126686622885
0.13847005150255018 37.83093508175803 1005.6118267830241 0.2272155438821405
0.14974221744768462 37.837044184782826 1005.6119004528687 0.22928809116144855
0.12435496255017124 37.8333500922331 1005.6117718103811 0.21479084211505434
0.18075482445744237 37.8503670307904 1005.6120902305598 0.21891721937199596
0.16890340445230304 37.84316955189682 1005.612009906671 0.2166127194677769
0.1616451816799754 37.82005741100347 1005.6118914389411 0.176914968692349
0.1861282083323077 37.824623021970794 1005.6120192146702 0.19997138329890501
0.11586067671176548 37.82096439289054 1005.6116957875895 0.23211844952703475
0.12319120736952306 37.80313091164192 1005.6116890406572 0.24445182914121963
0.11105615749096194 37.80827041922275 1005.6116485793341 0.236184049601587
0.14564909013485028 37.81832866199055 1005.6118162436038 0.21919103760652273
0.15181443251805532 37.80799458363269 1005.6118204469103 0.1915748252784696
0.1329477556681881 37.8204663620035 1005.6117670298507 0.23647631348571208
0.1794094537094176 37.81397703041767 1005.6119498717916 0.21174294301054908
0.14012989982025287 37.80700423621641 1005.6117689115807 0.22813120543070595
0.09690955854233094 37.81904884533801 1005.6116115475857 0.23163595847931018
0.09619693861777481 37.80114528917915 1005.6115706210251 0.23311840929706137
0.013540708600551631 37.811619959855086 1005.6105719764375 0.1637573640301796
0.035679571169676426 37.80940832730877 1005.6108411035539 0.2505385980182214
0.05796812751825538 37.81710400394601 1005.6111367063147 0.2280916209426922
0.024897851735943128 37.8139099347945 1005.6107185471656 0.19695142335620888
0.0700478382475225 37.80625708070789 1005.611259596182 0.25624242487117466
0.04682550755057496 37.815309305624965 1005.6109940273691 0.2378437410931176
0.07968236474817901 37.81266814746276 1005.6113950391476 0.2580799250201514
0.008769001416152502 37.821871040919234 1005.6105072859626 0.166477754828952
0.019933063672100522 37.83766797432695 1005.6106371226506 0.19154457379154094
0.03208234429524244 37.82253021141625 1005.6108120930174 0.2308048848905215
0.06839550599487666 37.826291233735745 1005.6112840161818 0.18623715756882772
0.05877258368178662 37.83225945116877 1005.6111517023282 0.23645229971276818
0.04436532330027593 37.80160895286126 1005.6109463501779 0.21338074520075664
0.03414540648103486 37.79781143707011 1005.6108274890007 0.20129290881720122
0.06961639681079426 37.795036767489805 1005.61125253725 0.23253111213161268
0.02077972363577629 37.798310142344356 1005.6106677569436 0.18201888228457022
0.013569714056194261 37.7864113018279 1005.610591130097 0.13493219774616716
0.05776295055802659 37.800027978459 1005.611107311539 0.21528367085122507
0.04263276400227786 37.77943083286777 1005.6109256392369 0.20901627869092537
0.05902202491350209 37.78744292026593 1005.6111241793101 0.20597186286262473
0.02808222449419495 37.76918895984052 1005.6107453847535 0.1839475547631728
0.024245123992884813 37.779830816197865 1005.6107148607919 0.14175254536584855
0.08775222046652195 37.78038745614301 1005.6114253603915 0.2704031745510789
0.06956407696111278 37.772013732716076 1005.6112073337126 0.23518682303595137
0.08441821636621591 37.76775774421167 1005.6113557520281 0.22296914467198678
0.08827204120030192 37.791683611904816 1005.6114611329862 0.23953492167934648
0.05526071851582098 37.764600041233884 1005.6110336615362 0.1806738005641996
0.041488045989425404 37.76146717176762 1005.6108771354538 0.23033779661741022
0.10104830460877419 37.79089053586556 1005.611570204472 0.21654132812617385
0.13658487548121115 37.791744854634615 1005.6117227526931 0.1905358796177103
0.10455520430458169 37.77663092224954 1005.6115561227036 0.21802873485829
0.116648042599751 37.794552506748964 1005.6116438461922 0.19246996240442057
0.020694956310639747 37.757453561113024 1005.6106428106099 0.14082711259655192
0.040195969912123014 37.747774221606555 1005.6108280793344 0.22473939829496759
0.06727385313916175 37.759175710429574 1005.6111489887016 0.21846411144834996
0.05503970615108797 37.749661314835464 1005.610992817233 0.22582812315562745
0.09569398213435443 37.76765198996309 1005.6114768613613 0.24783986617709342
0.13447214875313646 37.756024755947145 1005.6116052109808 0.2392951048899785
0.10950912134617996 37.72952336989866 1005.6114312376156 0.2481061561360451
0.11701344895300253 37.738705132628816 1005.6114873557706 0.24057850291917154
0.16211483073653046 37.749813796474356 1005.6116861031305 0.23987550295681637
0.13541263987661084 37.74087656926401 1005.6115610164775 0.22357777766533837
0.14621761474903275 37.73914334903559 1005.611594818494 0.22078185410003923
0.10279218528904041 37.758864186335146 1005.611499056486 0.22345955105927737
0.12273336236294807 37.75848419945629 1005.6115702993792 0.1945550455422249
0.10217667313784173 37.741855319932284 1005.6114289823563 0.20792766083015254
0.06849265148703314 37.727942408308934 1005.6110300245866 0.23326325486804966
0.09209141822648564 37.73129365591127 1005.6112815086675 0.26006070851410235
0.07392336171461669 37.738937334473846 1005.6111326905645 0.25145150159554064
0.08850506355347529 37.7437090277606 1005.6112999164102 0.2249983269324453
0.06034530592055361 37.73704449596358 1005.610988148794 0.23683917945161442
0.08269679404601828 37.757102675587134 1005.6113006290889 0.24606399812494528
0.036561710929071574 37.734457716879405 1005.6107414237259 0.18828168151242752
0.04792922131028532 37.734692841266316 1005.610854761549 0.20150113286592955
0.15302317658482206 37.77326880321051 1005.6117283441497 0.2097917991474937
0.1865203510505112 37.80139894732144 1005.6119415600876 0.23846253354989905
0.16921015872598189 37.76911124086482 1005.6117740810681 0.18967088589018913
0.18460876961984118 37.75405044125894 1005.6117817435911 0.21581387584850614
0.130741478168787 37.768586322921855 1005.6116317999123 0.21688099708012168
0.16579929402833055 37.79543617155667 1005.6118465868279 0.2705240957541672
0.12197500153658158 37.778471551406724 1005.6116316694537 0.22107044194079964
0.17676354076309345 37.79349390833356 1005.6118803873405 0.2342477248825805
0.14624688985675138 37.76493354068869 1005.6116766752958 0.20127157418776226
0.17903505918397958 37.77785581344096 1005.6118382124844 0.24748009013529174
0.13253686898881742 37.78087564696465 1005.6116780285212 0.22228993677237582
0.18252763627630159 37.767543898877605 1005.6118176918114 0.21950015231164222
0.15376767768831873 37.79005780422843 1005.6117852561576 0.22333902546553747
0.11862623380058562 37.70437175430985 1005.6113171208742 0.24998516101723567
0.14516051803454705 37.71888713318619 1005.6114816758602 0.22715543995377796
0.11558083368497382 37.71576070043294 1005.6113722901039 0.25366876037655195
0.1312587872584284 37.72296931652985 1005.611461758961 0.2203385005028793
0.16209879193984955 37.73094591813182 1005.6116025629158 0.24375289523024715
0.17524283501749063 37.74038367792673 1005.6116968257122 0.1998125831850739
0.10132693003907992 37.71857322748584 1005.6112859889108 0.2429589039618799
0.1012436258762471 37.69703183962799 1005.6111143567821 0.2217731290820353
0.10669980672518357 37.707651100581366 1005.6112493940761 0.2516354352966634
0.09438363425128041 37.706683044658874 1005.611127022622 0.2184269044142136
0.07638820377984355 37.7159781206273 1005.6110374756963 0.20134835927119313
0.08329090454442029 37.72447857643391 1005.6111615393999 0.18562504689414888
0.039590917683462366 37.71835393538469 1005.6106975099849 0.1697855414600058
0.05053278221437583 37.71718998310315 1005.610795517395 0.184005308893857
0.07676185757578359 37.70320682113079 1005.6109358792199 0.18741933472560018
0.062180444492777126 37.70983872312732 1005.6108584511411 0.18263577837935202
0.06815770414212081 37.696805249149634 1005.6108053944301 0.17065723161216365
0.07869439114849397 37.68675587484442 1005.6108067803403 0.1493241439326148
0.09387460260514696 37.689216559446095 1005.6109677659249 0.1955165682218443
0.18267230495164846 37.70346232650255 1005.6115215830471 0.2094997900072881
0.18374807969479878 37.716961267745106 1005.6115978226284 0.20549217026316713
0.16679772181210228 37.70912587344604 1005.6114997138711 0.24287547542141474
0.1578690837113909 37.71828751944899 1005.6115195949421 0.2702503472806575
0.18641333940434796 37.731118959281154 1005.6116828529146 0.2531822470261979
0.15336780798675323 37.703817135210635 1005.6114268241911 0.22929316505602143
0.13016041212600804 37.70541223475197 1005.6113588572874 0.23724193434647523
0.17367269635714422 37.728458602210594 1005.6116264983374 0.24976334258118746
0.12619520368923043 37.692121635235594 1005.6112551182159 0.22405584505027323
0.14613871749819168 37.69112374593152 1005.6113109745546 0.22492444467755077
0.11780606021364926 37.67225825156633 1005.6109336349516 0.14109652051887783
0.11047943935942148 37.66139353678033 1005.6107035495639 0.10947574658395705
0.09808638924903691 37.67584525543799 1005.6108277028284 0.18811642107108942
0.11395055959305239 37.69216764031561 1005.6111704967743 0.19922127939390677
0.08660185362561781 37.6727355622006 1005.610705977985 0.16168772134467657
0.2552753323587035 37.70012489011261 1005.6113087057946 0.18611730673142002
0.22441037598259023 37.71015979942098 1005.6114584886423 0.24416905530697375
0.2052005917787581 37.71584398369312 1005.6115486158708 0.22394638402245104
0.23729822866319072 37.70648431616937 1005.6113987832755 0.24594314294249006
0.1951652661535007 37.710920049323434 1005.6115521812958 0.21866325130239517
0.22520179385835778 37.7211315955734 1005.6115165560575 0.23531104607532902
0.20039801471170265 37.72849953176248 1005.6116330858807 0.2770755995385192
0.18971786842941785 37.67198533781153 1005.6112403613157 0.2231841172779547
0.2103949730923565 37.68563361382091 1005.6113175092389 0.25777023253044945
0.22330914026116444 37.67425351618169 1005.6111702015437 0.21701078783432037
0.1983143019601258 37.6804388645376 1005.6112997324033 0.22517360156977487
0.1884057069469085 37.68572129591168 1005.6113788807173 0.2509317503512802
0.22212179406611982 37.68879172640989 1005.6113126168914 0.2413922183931399
0.24256862854786257 37.69334982701017 1005.6112888076854 0.24180134003769918
0.23071618055196455 37.69719187112295 1005.611359851662 0.21506887968429256
0.19937261832319958 37.69881735102668 1005.6114723820581 0.21890483398782482
0.20978754261490523 37.69747869210822 1005.6114279406966 0.24688581226655426
0.16791701172192092 37.688897193639505 1005.6113609947698 0.22333929362429195
0.16952356525007414 37.67259430997014 1005.6112058503859 0.19833937008919467
0.1793385613616721 37.67762816190223 1005.6112827138895 0.216529290178126
0.14072254783113183 37.6762396146354 1005.6111606592715 0.24439641430880332
0.15485358172245695 37.68342765753218 1005.6112707410432 0.2180327931223513
0.16703083631682547 37.66202920523367 1005.611043514818 0.17685111087285388
0.15179070656504806 37.67061723412057 1005.6111285660902 0.1799267015937617
0.14295897597111618 37.66386091441086 1005.6109968781719 0.22028951952504308
0.15381965574742842 37.656280071265996 1005.6109137372343 0.16364722848575847
0.12971057969968294 37.67008643201748 1005.6110274207501 0.18797315069082013
0.13388024079478072 37.65751947692674 1005.6107770537714 0.1459660342646582
0.20066805163283796 37.66504657697136 1005.6111142653638 0.22142862001299854
0.22896758414217966 37.66212291320002 1005.6109841156926 0.1894208159575264
0.2105744559578948 37.67135552843828 1005.611171475882 0.24818044706116668
0.23718455990707565 37.67251594306188 1005.6111030661662 0.18564413127248602
0.18357407305928977 37.66330697361106 1005.6111103992533 0.23287423704447446
0.24973544582147528 37.66876917915111 1005.6109525448801 0.1907354910746374
0.2617485069007707 37.658427057280946 1005.6106700395303 0.14208052722017556
0.2606685077344201 37.67099284349651 1005.610907248049 0.2259884708681957
0.25378549582791177 37.683531841023736 1005.6111326126796 0.21587297585282644
0.2388211224776735 37.65404644693433 1005.6107561707367 0.15004150249412
0.2270470656517417 37.6464142022002 1005.6106207033993 0.12903023797327776
0.2096480904637671 37.65351508692022 1005.6109000698908 0.1580638697688767
0.17384827475234454 37.652344381135535 1005.6109052096037 0.17691747787276962
0.16177154711106587 37.64753498504369 1005.6107227022185 0.15127813663051395
0.18568446731000168 37.65006124986773 1005.6108748976786 0.1527596806537387
0.17656146008529305 37.64080143572674 1005.6105599314924 0.13060655394035997
0.28129018554559737 37.67435816896413 1005.6107754754975 0.14390122749713774
0.26736423570488665 37.684980872581555 1005.6110214801872 0.2058244294793503
0.2858887544040075 37.68816237720084 1005.61091665306 0.18631983473962502
0.2750423834534093 37.69382093548546 1005.6110763776371 0.18828627621461752
0.2910730552274612 37.70889611820462 1005.6110472708947 0.20339137282615688
0.27462447394351697 37.72121620613899 1005.611295466668 0.2498254768124523
0.30262558781602905 37.692321505169 1005.610813592856 0.15573457835206034
0.26672311707874513 37.704393744102035 1005.6112442893074 0.1786415237090774
0.20968942358551815 37.74276884486173 1005.611679455012 0.2208111848008915
0.2518095213723552 37.73297225401474 1005.6114903298941 0.2143232597995441
0.2581361750745655 37.71834072389501 1005.6113938943474 0.23138572654661585
0.19543315221753293 37.74235546472533 1005.6117241903293 0.25193430307866477
0.2219067575133322 37.73756947178589 1005.6116124094403 0.2683690576824592
0.24146027061226993 37.73419321938232 1005.611530667993 0.24991005128032595
0.21226982666734365 37.73198996687615 1005.611615251967 0.22878507545124974
0.2488762948059763 37.710212738381415 1005.6113823233671 0.26087638054832946
0.2377772486321305 37.72221224130314 1005.6114808440243 0.23180365691088747
0.30574851754032195 37.70719512266712 1005.6109037649728 0.16572531134255053
0.31688644400263877 37.698099880578475 1005.610732579496 0.1239401178385796
0.3160802682574352 37.74732536399266 1005.6110302646446 0.17170213728327582
0.2934639765339335 37.7619816452863 1005.6113135692042 0.2083914769218987
0.28949420438078893 37.74945182584687 1005.6113050196966 0.23163274787796112
0.3022919927695777 37.738961147955216 1005.6111362287938 0.2266052144298642
0.2827198233471114 37.76084728788241 1005.6114169118472 0.21860589085092763
0.2846962174274769 37.77265414807444 1005.6114426570263 0.21679815776274547
0.3263272151248494 37.73837923258937 1005.6108930083446 0.21423225667424076
0.2759739821907618 37.74802241502938 1005.6114350564026 0.26020533957680253
0.3380973342698007 37.73430204759655 1005.6107592691543 0.15772417312874065
0.2581390146172922 37.77182674139886 1005.611590629709 0.20331578907111322
0.2737562210302369 37.78320904704041 1005.6115674782325 0.2255385564886429
0.24869025931485048 37.75268032239195 1005.6115693905224 0.23361711319953365
0.22923701906332833 37.76344289029712 1005.6116699315528 0.23147135897623664
0.24621897935327325 37.763536222271554 1005.611609442221 0.23518815767813844
0.2654966710197981 37.74011210058861 1005.6114731281136 0.2604509332096472
0.2624618700190712 37.75834045897325 1005.6115363913075 0.2291363372326264
0.2698282938269843 37.76732238183626 1005.6115358583397 0.24794065782791813
0.23605508189056734 37.75086232369518 1005.6116093697317 0.23618668780570753
0.2180436839825043 37.758072506838765 1005.6116945392957 0.24229279156177883
0.27705877432812365 37.73216433384245 1005.6113572087169 0.23715868637859763
0.3177488487901191 37.72563289249775 1005.6109177297061 0.19405113814261293
0.3301136294807778 37.72355850984956 1005.6107836503559 0.21375485182630713
0.30330155990917385 37.72378403086987 1005.6110490417916 0.18324953174137104
0.2913082940463672 37.73357569330877 1005.611225248641 0.24140085564679412
0.3260805697915605 37.71235563970848 1005.610756903008 0.19227393522860867
0.3148429242342965 37.713236822613425 1005.6108728027853 0.19441413948766803
0.20949311395649373 37.78989934319212 1005.6118284544023 0.26725217996442024
0.19959810563513422 37.76251471943134 1005.611777145579 0.1796780311096374
0.22489114473757973 37.79124439209749 1005.6117750513458 0.2206628832799531
0.22192830824359827 37.78097725832042 1005.6117530129429 0.23704410954222005
0.21938593328655145 37.802189027430046 1005.6118310341608 0.23065117162879198
0.1958404510816097 37.77494032937446 1005.6118313563363 0.2383731685014482
0.1884501088697489 37.78760834557629 1005.6118999730938 0.256107392682134
0.239074156831593 37.7879354611885 1005.6117111784843 0.21831873875294966
0.20046362455047934 37.79517669929863 1005.6118793559615 0.2399999665063243
0.20590895050841357 37.8064713630481 1005.611895402112 0.2384337872709704
0.2083304470899486 37.77553274419904 1005.6117864289772 0.21062568849383545
0.25419796300275577 37.78481314954686 1005.6116443799888 0.25870408262519334
0.23546114965831716 37.774091129828896 1005.611680028602 0.2473867160147123
0.22920566687443833 37.830795854147155 1005.6118654558963 0.25913178298734574
0.19342057948076066 37.84443084461531 1005.6120765334342 0.1852064313425436
0.23918201650558607 37.82618031325659 1005.611803576814 0.22889173950617334
0.19809288857898258 37.832771812986046 1005.6120121693525 0.20475607705199717
0.20866073777810146 37.81912966163483 1005.6119140112355 0.25279795826269835
0.21947246141359658 37.837811167425144 1005.6119351866029 0.2345835740577672
0.2512921940440753 37.8330043803123 1005.6117747601511 0.22261133528682206
0.20835813372312914 37.83805332041062 1005.6119858690056 0.2504482294035435
0.23195831671784406 37.84248315808641 1005.6118966694813 0.20874226903342535
0.27418166984322073 37.822033299666444 1005.6116434994906 0.25134613513457904
0.23285458548950855 37.80513777925395 1005.6117847297248 0.2588554712104285
0.2571175837413791 37.8216629321208 1005.6117131982783 0.21268929904374168
0.24763266925632998 37.81498623511235 1005.6117407880181 0.22462437890376857
0.25604067245368134 37.80555437073609 1005.6116898761027 0.22399594671226328
0.190502743928742 37.81243275880623 1005.6119718733105 0.21661759448793
0.2699148102118613 37.80813166129852 1005.6116371294398 0.22684255086322933
0.22527873981643576 37.81680261253567 1005.6118360597893 0.26418329640023847
0.26578451627864763 37.87435660118863 1005.61184519525 0.2677046239354064
0.2786593915464239 37.89443518820087 1005.6118652016922 0.21269753182256493
0.242849422377573 37.87959550380181 1005.611976534744 0.2112251769659878
0.2656038463051697 37.89165499158838 1005.6119165008192 0.24425986950765
0.26086703614443346 37.858527154084314 1005.6118043241615 0.21081581779185501
0.27001162185918925 37.90333367980399 1005.6119429147943 0.21430605765790847
0.2720644128199971 37.86291634616369 1005.6117684894452 0.23789794628791347
0.2573390493082778 37.88254235471334 1005.6119190357526 0.2234989160854803
0.2275362676333058 37.86253125372311 1005.6119804977233 0.24224275445420315
0.24318623495273867 37.868802316932786 1005.6119309694175 0.23956515800529762
0.2164200204627053 37.84982949342549 1005.6119923275317 0.2073402344064207
0.26376171597566866 37.83861131066609 1005.6117353574452 0.23973488235791632
0.2484502800907532 37.85158441552236 1005.611843200721 0.24871931752710338
0.27488106618793706 37.84040228944235 1005.611686715602 0.19716813165308192
0.20668066435195018 37.854606513772445 1005.6120517277392 0.20050539799639663
0.23786488254764707 37.85658316736284 1005.6119072494771 0.24180264714223007
0.30520589896724026 37.84354582591129 1005.6113395497571 0.2362092067834596
0.34374072881194295 37.84393776292276 1005.6108165418598 0.17069375928163527
0.28583622186104857 37.85133873936141 1005.6116248987048 0.25719474642991275
0.31885008178006663 37.84273120030396 1005.6111516865419 0.21362339715710404
0.28961306070692505 37.84054510109892 1005.6115431927935 0.25785173069330186
0.3337186088328387 37.83840065105103 1005.6109372889939 0.22388927346759865
0.36955276460414743 37.81713686124113 1005.6104813438416 0.13629256274782434
0.30975463339006326 37.824862468283484 1005.611256697424 0.21623303993698703
0.3561737459807015 37.82377869427103 1005.6106497055326 0.18817086230631322
0.34257535959847574 37.82307852883379 1005.6108285816323 0.21488018311994564
0.36140111057059404 37.83797746239483 1005.6105664476056 0.18642328905209782
0.32193876328786164 37.830010740970636 1005.6110917199944 0.21784986567378045
0.31216718778371244 37.809140166186026 1005.6111963282498 0.26990585812274226
0.2988484834607405 37.79917169677599 1005.6113399904083 0.26073615755503243
0.29100187509556397 37.81132107465608 1005.6114644671107 0.23694906080979689
0.3030753976602729 37.81569068500681 1005.611323919628 0.24642418392723894
0.2873793473063391 37.79477857444559 1005.61147296674 0.26175427561154313
0.3559836680939109 37.8081089010899 1005.6106489273956 0.2116914176375757
0.294805593299295 37.82639862817078 1005.6114504749304 0.2327455706169243
0.3355709289990172 37.806416514369914 1005.6108991413128 0.2166623077597162
0.3304168241444637 37.81651687240297 1005.6109855910668 0.1900551407159045
0.28130824663151804 37.8036422917328 1005.611568091172 0.20703273414967216
0.32428550306514653 37.80701361768734 1005.611040863321 0.21091239691590055
0.2952833736597168 37.86202385884432 1005.6115069758661 0.24562782190976495
0.2872617923440838 37.90607943110569 1005.6118104795615 0.24018790954470323
0.31561264567976677 37.89764612160023 1005.6113366838225 0.22449214401177728
0.2908925967939713 37.89295302978024 1005.6117008156725 0.1917842350153125
0.28251942023435217 37.87576686671625 1005.6117607314757 0.22424803355396317
0.30268260384020546 37.88123064699511 1005.6114703752525 0.2475480735557851
0.3277306558985834 37.88421848217574 1005.6110942242221 0.23595436626999453
0.3480895789386418 37.88028541718418 1005.6107626214973 0.19372217056005564
0.3032752266751542 37.894406241066285 1005.6115147665835 0.22547294829474307
