x y z curv
0.13778065914610022 0.14191823604781628 0.2744159293901497 0.02206612154122736
0.13989054635562165 0.14304667365055274 0.22480480453645263 0.008814778082755268
0.13747036558898862 0.14346881374765535 0.2529776699168586 0.007470754493400644
0.14156022612499278 0.142537524098607 0.21160292650912638 0.00825206600660544
0.1414066478488653 0.14339808603661333 0.19808495715178281 0.008132555681930106
0.1474148165718259 0.13723048932735504 0.23744596880959112 0.005760540968151362
0.15080376592514802 0.134218856662626 0.2589765564292984 0.011242824655685019
0.14915397624084292 0.1331021370255165 0.2797164081990677 0.03768149058550904
0.15878383047199604 0.13318836626379243 0.20748869198724426 0.00849342478234013
0.16139802379579749 0.13120384338495839 0.22655128933570529 0.005524890076065906
0.15864748970381232 0.13154378744233 0.2390886845699903 0.007253478346601191
0.15310503759426083 0.13640064335354726 0.1951101331318583 0.0042474484623357895
0.1610462879362557 0.1335652226151717 0.18544719115684247 0.007395498643122689
0.16173760523407354 0.1367555871946728 0.136018882510562 0.035272735424145496
0.16704563560837005 0.13412647920101306 0.14947109514344278 0.013008796585491625
0.16705784867724688 0.13320212086668426 0.16235716281683557 0.007676728860609275
0.17199197988394394 0.1313794956043863 0.1728394678131419 0.009240656979433813
0.169982231274501 0.12949353608526137 0.2100621178160605 0.008233050704044195
0.17519138481073382 0.13483941998521984 0.11370092606429581 0.07158850557421653
0.18276694031333757 0.1304952653232898 0.1642150652013506 0.0067267212356700405
0.18981028036550154 0.1296368976615613 0.17711134307825055 0.008113812427697393
0.18788204869319713 0.1313660189412665 0.15124779540996425 0.01318075898398795
0.19045846466295502 0.1260882120162364 0.24168847957078318 0.008820769077214298
0.18582506540340885 0.12460418851743826 0.2668281236665583 0.0250136497584282
0.19412036240878794 0.1341675295038267 0.1198106314207745 0.055236627582013816
0.1893982225040682 0.13226855349053884 0.1401556864347619 0.020910620620518027
0.19775288295746501 0.13376049192992998 0.13019476297535965 0.050058241576784124
0.20189105760544715 0.13253341893827877 0.16077085295517182 0.010487894782654878
0.20517622690709444 0.13119996039963833 0.19544676456676885 0.008335002655237162
0.2031547216068448 0.13421792530304072 0.14139540369969944 0.020515337757538644
0.21396412275044024 0.1394847230866916 0.12002005070788041 0.0487247130482279
0.18317856242420666 0.1230742755747412 0.27968210833969764 0.03929362505090007
0.19954551596496178 0.12518630161117636 0.27661350555639064 0.03582756336424531
0.19698678160620003 0.12631276657365606 0.2511298661501762 0.01228730645179704
0.2082908493328965 0.12455455205679028 0.28612086595580466 0.028974764974916394
0.17993664919601798 0.12638935846049273 0.2379987601260597 0.007356817763428269
0.18086261183569155 0.12893824811820637 0.18980623828064883 0.006888854590250826
0.18221353404449886 0.12762077367965158 0.2115511661531927 0.00790597215574472
0.1827676110595358 0.12525282546142297 0.2538759773944614 0.011588888534019178
0.17589952440381107 0.12745785724311218 0.2260973542364031 0.009341487271142417
0.17365265562099944 0.13391095474007583 0.1294164839190344 0.059583212970495
0.17556760709576644 0.12891031732613267 0.2000301132836911 0.00885632694495023
0.16262157483902823 0.12747329239228478 0.2771741721623693 0.040091972917494646
0.16254048447772484 0.12883183244264843 0.2633284011565621 0.020874154481513748
0.16084689768759253 0.13013438830006105 0.25043282911404363 0.010392563973945208
0.15239473419455357 0.13941609003128655 0.1578791404431342 0.007207393956073156
0.15163535085481836 0.1408737153256074 0.1448799237899547 0.009745499683040702
0.1527225237862662 0.14132326176457674 0.12997586658413388 0.07294613934242472
0.1463979570682912 0.14130863065132018 0.18231637053290412 0.007666880099304992
0.12647188105237211 0.1527071322184976 0.275699478143055 0.024593804685661545
0.12703492238948327 0.15514085382574438 0.22619904667233506 0.0031896621509203463
0.1292054829862951 0.15140991200721748 0.24972481859892812 0.007505322898112903
0.13047734755762122 0.14907340085996013 0.2659672735924942 0.012120137146482328
0.12228994135471083 0.15995281976161205 0.24701833176996096 0.004029142027321634
0.12721442227198543 0.15996341789809457 0.1600779669795918 0.004563916273513797
0.1193852567094622 0.16839763354960233 0.18637243559083935 0.004251840102809361
0.12108897635888657 0.1668342195432943 0.17434672452603917 0.003989456572893942
0.11714023880942244 0.16551158164056012 0.26910032923981175 0.00913534592886144
0.11654850857982252 0.1674310246875428 0.25486197773890085 0.004110460674006574
0.12282527919769087 0.1666612225733517 0.14751135923768358 0.0062194906679950085
0.1150996790121449 0.1721889021317632 0.22511327712869006 0.003479053681181789
0.11731913197029926 0.1694378613676908 0.21195998696624807 0.004485837862738479
0.11674544749236597 0.16845779912201841 0.23607678296046267 0.0034353895553488195
0.11174335314990859 0.18559630352931183 0.15313457038714887 0.0018116309931753133
0.10937675736654809 0.18713143928284778 0.18568599755181528 0.001980537145720663
0.10632127658657764 0.19112071815165324 0.21812984560582746 0.002200602373460838
0.10685000520301273 0.18849838437615285 0.23227588889417672 0.002132259183494891
0.10599416275767061 0.18918053380912456 0.24897475402754984 0.0020248475765313138
0.10573503769279533 0.18796538549893615 0.2701657817364773 0.006334398808413463
0.1103866441648885 0.17825305116331458 0.26175025065749447 0.00857250965481996
0.10256636478319586 0.19918314907274462 0.24348516044831356 0.0016120572867565973
0.1033672209703527 0.20184772205551937 0.1969016535157307 0.0016817610889681
0.10243723900834324 0.20349925434007038 0.2100338987448908 0.0014372269175994695
0.10288314899794412 0.20007980772916256 0.22641671961965015 0.001664243265844797
0.10211356614692406 0.1966271931597311 0.279389353389507 0.02364273801794795
0.0989790081620941 0.209406139690953 0.2676017923122276 0.009202050073344716
0.09977887333244247 0.20768994405079705 0.25616959510773835 0.0014520047097465478
0.09858362866232681 0.2095546162339049 0.2797951893890597 0.01889698967332346
0.09796668173118289 0.21898358535420806 0.2223310778213595 0.0005360491642322473
0.09930485742132998 0.214999238597741 0.2054554796865384 0.0006926011186689797
0.09860974876978552 0.21339979850023383 0.24362912647361068 0.0006400509994579438
0.09585778323843483 0.22599860073326516 0.2500766832493385 0.000785735300099545
0.09512617340176764 0.22858327097710376 0.2627948211124606 0.002902068629418106
0.09582818446449838 0.22844157250089814 0.2277617161717546 0.000689603979052603
0.095782906871216 0.22404268175852682 0.273056220352999 0.012597479095642112
0.09423394068252373 0.22663188891179817 0.2866621253394563 0.02211042115372304
0.09260144024529739 0.24528928655193538 0.27110261236985833 0.008418571846168782
0.09253776042838527 0.24454474999556736 0.28449082106872847 0.013115131041646242
0.09297245873214519 0.24334120379168356 0.25688249184172807 0.000510001605406923
0.09736609752905324 0.22732548369704247 0.18459593772343957 0.00045161064601966427
0.09764942457107074 0.2240233355012582 0.19660944015412563 0.00036720301893397367
0.09330254151602393 0.24382536490347437 0.22283807284774204 0.00015614402833054734
0.0955153608683154 0.23145044212270674 0.21657327339907004 0.000446547209413075
0.09450662367351248 0.23432424590279957 0.24207099748606764 0.0006076694944321834
0.05891111343097126 0.47743060641901924 0.2922376933549354 0.03607268845949838
0.06595832753587696 0.4544760388744525 0.2780672311209572 0.01778755622515952
0.06090099064327048 0.4639028967695683 0.2825006508325011 0.020488699779300516
0.06955293978073286 0.4632773720399749 0.29845076725089564 0.03235749444241347
0.08544192701504597 0.45506413098177423 0.30634275278163753 0.1469197751515864
0.0862271265610191 0.4232294863080771 0.30504254868736125 0.010314720433064388
0.08557378327241363 0.43568503969184486 0.30401421260328326 0.02171622261792931
0.08482521538788777 0.412608655976803 0.2996144156406345 0.006741326210816633
0.08672802963656943 0.36471872392228377 0.3012019162137661 0.013410553367002075
0.0876273146020417 0.3472784093881356 0.30453294544273957 0.01858308274275769
0.08748956418801858 0.386285672349876 0.3073317709194825 0.007283579668359845
0.0882438377991337 0.32447892286862173 0.3024701989671219 0.02085782261562518
0.08709913784829142 0.3342739431137355 0.2960958959309111 0.01717632937373472
0.08575187233176029 0.35275220632239235 0.28968304143035606 0.004743801174701717
0.08782567944655563 0.3040593019192872 0.3001670435833869 0.016497911625503136
0.08527945365824154 0.31455390340830375 0.30967868807410537 0.02069821305452047
0.0770781710641244 0.308840380201527 0.3174782487277365 0.013158245297977735
0.061786302309216695 0.3008763017216511 0.33428897869518215 0.0018451755083029684
0.08083476553797356 0.3248509105184084 0.3197902132717989 0.014980672483801942
0.08701957305005231 0.3979381254457411 0.30630492499136264 0.007290075705517159
0.08921987931333734 0.4073653838936985 0.31232458824893783 0.00726662779891614
0.0897299999169598 0.3694827110585172 0.31326571066452336 0.024850306857564446
0.0921918729545228 0.38649982853894016 0.3179584347791342 0.021927298981399772
0.09074699592279634 0.41939133920418215 0.31522022286515416 0.008518496004595952
0.09208539669920708 0.43997405529468375 0.3176153479782513 0.012805738491731684
0.09872691340293945 0.3891675132652185 0.326877786063964 0.03069799230241471
0.09754705419889931 0.4025119349624725 0.3253888789332549 0.009752790419342645
0.09780262576294721 0.4297440581721528 0.3260169778164008 0.0023135526816389675
0.09687386455060432 0.46481324968104354 0.32476336713825465 0.2492274484845217
0.10048507050555676 0.4478728098998721 0.3293766523490608 0.13740399059376304
0.10513640369227722 0.4244275074946723 0.3340560892019492 0.002233123460994181
0.11211223201419385 0.4362592071695933 0.34206866530499436 0.059489134275064345
0.1104743467366466 0.44895711964974844 0.3406022113269126 0.16418508997262632
0.10454991280192334 0.45915986502556033 0.3341490971476536 0.2593994710153121
0.11142580294288948 0.46490106181657426 0.34220391869002215 0.20341543372045132
0.09608247823002716 0.47512096280994776 0.3302014677279463 0.16278905992741247
0.10490924454751879 0.4759086790409372 0.33840805526447437 0.1458445552599546
0.1269772244878406 0.47652654797459426 0.3736836525448354 0.1515914206521549
0.119562907160143 0.4765322616252049 0.3901369060551473 0.10808299951362293
0.09021009768153015 0.47595420830609936 0.4033299857470761 0.0802927436892342
0.06451441038535966 0.4702941046701655 0.4033187753701576 0.14544044446471432
0.11396872651236284 0.47602038865034646 0.4033274325896199 0.07456717264356394
0.07257808236311122 0.4789010878774088 0.4028562386733293 0.13243211932148463
0.1252633801850716 0.4514399760425041 0.36143967404283295 0.11688582577164545
0.13152261312682723 0.474449274734989 0.3840278949387129 0.21236471506338078
0.1194194404654011 0.44176795387382833 0.3517142011476808 0.052002578213205315
0.12272059680167051 0.46417284658208957 0.3575470054737548 0.18313217188931272
0.12279082799056307 0.43097368435670524 0.3563133967345993 0.012083161288289986
0.13297142031455492 0.4510460702667392 0.4010563504965648 0.17190176400497217
0.10946001309351225 0.4770358105956513 0.382471696873273 0.09640013910812309
0.08898361080156514 0.47810829229855883 0.37135332117389147 0.029181538841546895
0.10287331439598273 0.477382134140736 0.3690254242742289 0.039234992279520625
0.08421607580724859 0.47835897438403685 0.3615559502427056 0.021930720092234474
0.06891402820626102 0.4791589829570877 0.364027305876968 0.038592494145901685
0.11451234532543617 0.47677916730018305 0.35453248603402576 0.14054304860629369
0.09924005262609809 0.477574134134104 0.35839037251403555 0.0469166316943066
0.1269623084539545 0.4176809097313229 0.3697264460344365 0.025985773866492944
0.12471998994013694 0.41638169245996975 0.3829353107430647 0.05728361147628764
0.12875861275200232 0.4283223087314172 0.38809405103697076 0.10817783856421749
0.12550986449181686 0.42467025925236473 0.4022908439043223 0.0737893632754398
0.11254716001690865 0.43519737771329225 0.4031729129552276 0.07247774246235653
0.1246287777756067 0.4358726484917034 0.4031752551815078 0.09411548156529333
0.08474276155185063 0.42978272730718314 0.40312633699048434 4.213924222819842e-06
0.07200920137881933 0.43146089628236906 0.4031493640787965 0.020687363082812677
0.10074531457986148 0.4313206154579238 0.4031363039904816 0.031361890488947324
0.09954055686884777 0.416549154381471 0.4029380205544286 0.05617302416762871
0.11152190445334728 0.4193312429903707 0.4029805579759277 0.07140684416705916
0.1196517642296364 0.4112689599417478 0.4028561286454847 0.07008766255500855
0.0731808078010977 0.4197522860718401 0.402985648342728 0.016024694233036433
0.10065749728323312 0.4012912915711601 0.4026894173522397 0.06656831340335263
0.09001865044245083 0.40484188353385464 0.4027454999841107 0.05467787097491376
0.08188070363238094 0.4415842478880306 0.40321232554062214 3.859727132859174e-05
0.09373021048829602 0.4411074891000947 0.40321320902687313 0.005290451397997397
0.05505730741125042 0.451229221555576 0.40325251985789157 0.08943370798121728
0.05501628186913238 0.433762508629589 0.40316646893552355 0.06504000621297755
0.06927360748347641 0.44748710543936765 0.4032379639812743 0.05823524704635123
0.10797907447015988 0.44659193423176413 0.40324411138859606 0.0418617714526117
0.07877791130638342 0.4548042501012258 0.4032766000015129 0.03399207198807097
0.11319929950726425 0.39873192811870817 0.40240291230760245 0.0443905116533335
0.13135265749414934 0.43942095140497406 0.39322469387474335 0.18054070279757117
0.12247647397349032 0.4095637785464898 0.3592281117859029 0.03281579736069044
0.11666413326049387 0.39946301030199416 0.37002619004571197 0.023812453596905543
0.10855723912930776 0.38869932174472677 0.3599248975374174 0.03160759447739786
0.09924106091133926 0.3824402728565774 0.36192995486753526 0.014313527816443
0.09759844675904703 0.3883453805535094 0.37674977702150125 0.031292039026968414
0.08841698771496388 0.38100770853445665 0.3783357983639031 0.03344023223419844
0.0830791203042258 0.3722085933628163 0.37127940558345385 0.009815643471913178
0.11875606749389424 0.402455225838719 0.3821170147032007 0.05352888470137352
0.04460424341230323 0.46318092381382103 0.403322870834161 0.11269822596490747
0.043949886175432405 0.46868707236465557 0.41310825217131864 0.10820759281866527
0.04429759059797721 0.4894366574391364 0.4269147451461672 0.11277914672329545
0.04578020800110428 0.49105084386051034 0.40916489952509383 0.08483378189401651
0.04505042735369429 0.4791898666115414 0.4076807996387364 0.10361469190726597
0.043588315969064505 0.4773663676981501 0.42422786339984864 0.11279521089685857
0.048140216435974555 0.5064667747899179 0.3871301370237105 0.13701190519682735
0.04971296725551844 0.5062034643459167 0.36839055819468336 0.11013850400927346
0.05093234459368336 0.5193150838984757 0.35877683810737643 0.09187805193144612
0.04998624560543462 0.5191142654612684 0.3703040303727623 0.09106985064810164
0.053326427120626935 0.5201505073653041 0.3937299184106192 0.0774801753830733
0.0635523639182562 0.5201509985333335 0.40226094054580996 0.08057422655654939
0.06502535043860577 0.520150891927535 0.4143320953199355 0.058964314980974084
0.04992132162433116 0.5201504728351986 0.38300164449514223 0.09103390558288509
0.06883986128517243 0.5201509267340426 0.4301066065816731 0.07980995714167524
0.05299185721311696 0.5201509681789394 0.4195019915838454 0.0681700845383952
0.047621142207346076 0.5201507177771302 0.40807924503995013 0.07760874809777514
0.06493878500713333 0.5201514497142302 0.44463019458163133 0.08850581858473609
0.07856029913951215 0.511816848875841 0.44809805332781333 0.08517538623897038
0.06559596213533064 0.5082553235916576 0.44809470317666894 0.0792644616002351
0.07293122637349772 0.47384045587613577 0.4479619012970478 0.04113271043706748
0.06905949963444397 0.4885091905934338 0.4480190701378316 0.04901149100580464
0.07934675406700008 0.4929051247971182 0.4480275329073363 0.02929236633726292
0.052003026950191315 0.4861359961788859 0.4480306797894621 0.08996021099806233
0.07107478017257687 0.4565172890170922 0.4479168880631268 0.08127580450355365
0.05418928075615394 0.4686954151857696 0.44798961888226074 0.08501908642428627
0.043565147267981066 0.47576433283456565 0.44803441577877257 0.07024633427938216
0.06497075518279499 0.4455815449110567 0.4479195316750024 0.10320076171214096
0.03871578258255122 0.42951158785128374 0.4479799615015103 0.07360392693592224
0.07401945755234826 0.4356303576302285 0.44787571131932413 0.1579588087295538
0.08483041620437705 0.4376144367296213 0.4478439508363704 0.16592148177470137
0.0541080637944861 0.4475560407831577 0.44795733448033986 0.0936903205680468
0.0397699921217698 0.44925015760111253 0.4395209840776734 0.1040472300379939
0.04118733360558064 0.4645610097635595 0.4409372736493665 0.0885398515576698
0.03757398638200721 0.41562306107290875 0.4300815242025423 0.08472324588324054
0.03829343880836992 0.4269780594055572 0.43319989438857753 0.11055177131324442
0.040560077750390416 0.442271212264766 0.4253975766454008 0.09076978009233874
0.04155255946879898 0.4354335559480813 0.4128302939409616 0.12048581308925613
0.039442239716365624 0.42528049569544357 0.42218245995700254 0.1301547770885926
0.038857781626394236 0.4059511475530695 0.4123958756790532 0.06968212263865933
0.03924008097695675 0.39640332530123634 0.403315447239878 0.08329488071566421
0.03765656676206799 0.3788423584404108 0.4032150490956576 0.07361797151323915
0.03502919638750962 0.39154613985049513 0.4299937814031468 0.10893212085948732
0.03212064536308723 0.37530694354675176 0.43836401454915874 0.09025593752343884
0.03627668946850055 0.41749126989281177 0.4433293785915867 0.0845267881987302
0.03250304007699788 0.3873960257440645 0.4457661351077653 0.12475887870416524
0.03451521396255211 0.39884946104809993 0.4400013396866751 0.08939461751356662
0.04182600898746424 0.36545087463015724 0.4478087311351754 0.19373668200200825
0.04601692704895945 0.3812176498443257 0.4478067175433076 0.21268278380940234
0.05370879918632258 0.3438010002593069 0.44766161746451677 0.15824452751987444
0.07619447899098422 0.3372729239890659 0.44748214785230284 0.15591006144702205
0.04832493676842831 0.40577268174269804 0.44785893065832744 0.15552658288584484
0.06420830601188286 0.3684708123965096 0.4476491906668258 0.11062689867177344
0.04543135894525738 0.5194498792043676 0.44398950173045193 0.07536232574530494
0.05053352505373798 0.4955538348893783 0.3568179234064916 0.12639115574642426
0.04401600992425234 0.49459376727081605 0.43725388805210386 0.09354257458820386
0.04431039734603262 0.5044512239063287 0.44469091986136544 0.0937818503596858
0.04549621070288345 0.5058499655839325 0.4274342512207981 0.0847680922976178
0.09299063182134268 0.4538391180194488 0.4478746711090863 0.10956708524941486
0.10845877432316249 0.5127225292119663 0.4481035369192577 0.06682050318893078
0.10525985258802287 0.45139894397701796 0.44786711457969985 0.13530933545169932
0.10362592410331004 0.5017700527277738 0.44806067520509446 0.06583940381002908
0.11468099963917425 0.4827651510969185 0.44798920399818537 0.00564335898207116
0.10505759631788374 0.47287645408789114 0.4479497198539967 0.030375358967445098
0.12921958378968704 0.49169163112216796 0.4480257199479497 0.021947424749236912
0.12889137661328945 0.5074429835624746 0.4480862748210511 0.06416719701147108
0.16546593202225657 0.48762594024459993 0.4480154896183064 0.14962175557499852
0.19321120345764548 0.49590792489766256 0.44805149796469734 0.1677221635831043
0.2111760481418736 0.5015139775555962 0.4480757500864943 0.15310204964950958
0.12141696919054745 0.4654546284547758 0.44792360701488354 0.06351978676456248
0.15259580058805888 0.49648682082912465 0.44804766031006094 0.1148340867229952
0.19412513391484518 0.5092162138073436 0.4481028385495288 0.1382936432265983
0.23065866253847794 0.5086459946541873 0.4481061000542535 0.08577741180443194
0.17967442744488638 0.495622154803686 0.4480483770477579 0.16184323841175946
0.15744216362927568 0.4751849543509806 0.4479664243214574 0.11281985402131432
0.24927115576041692 0.518316227680903 0.44814608596459304 0.09053344018534822
0.14700521759217305 0.4650155575130188 0.4479257386908799 0.11708934599537267
0.13323695314422715 0.47274506491080587 0.4479534222689222 4.6360282179711126e-08
0.150428904401426 0.5106886040224222 0.4481019785949536 0.1286835522370757
0.09241091345696265 0.4686530248842026 0.44793158156990104 0.05867338521925035
0.08875233157513292 0.4843406498732276 0.4479913939344551 0.009771345803456061
0.1488104636101078 0.4845791154638282 0.44800127974116505 0.06756793765715506
0.11814304229704073 0.5001616952521063 0.44805665479107315 0.054393266465709855
0.14060378175640859 0.4988488174224638 0.44805495744269763 0.03050024059538413
0.16400082299225233 0.5080917330941396 0.44809401369676527 0.12637164543895624
0.193372291130319 0.45228142012338135 0.44784466456154914 0.18005634735916654
0.18760322342807456 0.4626478480536649 0.44789873504814326 0.20955819266402986
0.2339127936315359 0.4840456059246008 0.44798785523422313 0.0016649374319884765
0.14335935144998943 0.4049823288895485 0.44762744374296304 0.08811382317643815
0.24383299986542037 0.48964086409372043 0.4480120047598056 0.030115084515877976
0.15832616098228405 0.37872259919501894 0.44749033870623267 0.24398835925892243
0.1586882597061204 0.4103418918852397 0.4476483252478083 0.10184799069279216
0.17102172219179734 0.4754321035401871 0.4479690736860589 0.14834715480102928
0.1862431581320642 0.44140761154952923 0.44779303912295876 0.19194528690216445
0.16548076615725918 0.4336136922238422 0.4477620824248977 0.23134257695705265
0.17977488743081116 0.42994012882434335 0.44773818946745136 0.17063866251785392
0.16468890793541596 0.45287375502095895 0.4478587068699209 0.1936320989906229
0.10924647792161883 0.43662380388526567 0.447798858516458 0.1688707859937183
0.18497639044776862 0.4743855276746581 0.447958449281754 0.16130670256605828
0.1804731005053692 0.4540880760356768 0.4478586823668078 0.20306279525489734
0.19436333600344474 0.48225908720704014 0.4479941984650647 0.1733764496405631
0.15573851583550508 0.42673112417014786 0.4477314263880332 0.1676794027198908
0.1594274472225645 0.3917181590590369 0.44755490340154214 0.14195900866959615
0.1562678370368331 0.4422464831589399 0.44780881340971357 0.18507363577793584
0.1205577608267461 0.4190751309608538 0.44770672910492004 0.11996272232201241
0.13023867377609652 0.4046351915416194 0.44763077609963 0.0781548346476693
0.2004690055657566 0.4653841359484991 0.447907449170763 0.16469072200948975
0.13417201660559236 0.42050500241797295 0.44770862078072216 0.11859649874414509
0.16953634708860676 0.4024926105788931 0.44760488090985295 0.07449996764932616
0.14640398551820738 0.4184074236909411 0.44769340582614625 0.13683629059551403
0.14095383557187108 0.4384857445069471 0.44779592178281946 0.17232678652596053
0.1308135834594062 0.44994637101574353 0.4478571528388883 0.10635626154038216
0.15813074409138805 0.461803116013459 0.4479058954795845 0.133763062487618
0.21793187703034345 0.4888871346078107 0.4480182407148222 0.10966045739125191
0.24283300093833637 0.5080371903383343 0.44810439010629743 0.0940676830641687
0.20898660625667514 0.47673474591699083 0.4479609227183303 0.1877203864125722
0.16955001059971253 0.4197291449500048 0.4476910746317542 0.16161596811097897
0.2216524246914558 0.4773571666190588 0.44795914274628773 0.13837336293718694
0.12269343734519586 0.43572095543922007 0.4477891490076933 0.15247230961974556
0.2090390168900116 0.4557332776208173 0.4478558752365859 0.17963717316701325
0.131475641364692 0.39167001158915266 0.44756546369523376 0.10554429414247636
0.19465607598939327 0.41572103991186066 0.4476617083341552 0.10842297841465069
0.21537664348751173 0.440777813542203 0.4477798133474443 0.15195104566682757
0.19139979628659354 0.4042758495849226 0.44760694777037524 0.070954090740405
0.2101014642356277 0.4300536796992372 0.44772893694207094 0.18166099588550147
0.23622386641553278 0.46977491741464933 0.4479170869612984 0.019377056323819964
0.22519691665609637 0.4533002994290284 0.44783904042945666 0.1378157195021209
0.19752306521058619 0.3904917001804607 0.4475414448109688 0.1361735224650565
0.229727661126087 0.4395177914692283 0.4477737071305471 0.15331919663504426
0.21115034020631918 0.4178083957884643 0.4476708690601479 0.12303858853956948
0.2074666829979831 0.40523948399461185 0.44761131216518424 0.07469031146192462
0.1765498990354319 0.36618092872037133 0.408871195777883 0.04021108773712161
0.17291232165520928 0.36872625997264014 0.42952867056596256 0.1766317899508349
0.16428540537972036 0.3642835117151798 0.40854351415092877 0.036842200212703534
0.18576965840339577 0.37166006223510994 0.44419150221208664 0.2243765457880755
0.1857498744773597 0.3699024030602794 0.43209487951791853 0.18846409372876527
0.18759483417016143 0.36539070229339127 0.4009631683623779 0.06269933922277567
0.15541360727460485 0.3629834841344341 0.4149992018836714 0.04127531664746426
0.15397506632358532 0.3597914691161696 0.3962442285744728 0.06176835409549011
0.14983312480317273 0.3654453486669557 0.443775569262171 0.21413305954336662
0.1428537355575599 0.3562811319541589 0.40138325751387594 0.06671048112462566
0.11883643487997012 0.33877561927345473 0.39621400368596876 0.06176031159852621
0.1530039491588025 0.10043913878238311 0.40620737085161845 0.0011937751025140253
0.137456466051605 0.20416265180606552 0.4018583557297877 3.802080997367561e-14
0.15583526385721294 0.08720676583663764 0.4067621901488947 0.015174003773846033
0.1509542320668804 0.12744255441754412 0.4050751471110815 1.7058627829954042e-14
0.13109020188539683 0.24413363618408337 0.4001824153595448 1.1325184648025153e-14
0.15461202024191903 0.13883467020626378 0.40459748898375747 6.439646853087936e-14
0.15169557527254005 0.3420800310328952 0.39607563522481926 0.05764839616245372
0.1322853445777433 0.31385908713908944 0.39725890453585005 0.029150851420443814
0.11942999086929865 0.2900342888874827 0.39825784955671906 0.010811211239796469
0.14225772705159753 0.28894928951080223 0.39830334668128153 -3.494806977216959e-14
0.12304070042651802 0.32334984233120717 0.39686096592488007 0.0440976262760188
0.151775611555185 0.20211652918047415 0.4019441500863007 5.874386515118492e-14
0.14142426675925057 0.3005069652085977 0.39781874596393996 -1.5483865336380437e-14
0.13932548222484759 0.2157110864837509 0.4013741429873295 1.2913992680679932e-15
0.14090121897171573 0.22750319966560698 0.4008797130194245 -4.551745821594784e-14
0.1194218317512105 0.27736495129040306 0.3987890608695498 5.974013089182592e-13
0.14004891791265925 0.3413251313222945 0.3961072851406797 0.07272161610160903
0.15352644437365284 0.1840862567925296 0.40270013979761354 1.1343665949002187e-15
0.15060191861283467 0.26549728137877626 0.39928666501856963 7.020844805431707e-14
0.12960485411051276 0.2587260624668264 0.39957057078350927 -3.1297333750566476e-14
0.14520477507489368 0.3311596788656649 0.3965335122914979 0.041959684013267065
0.1428799168466498 0.25299366179584293 0.3998109265050953 -8.534090387953131e-15
0.15460694387695678 0.22597480966218345 0.40094379930408824 1.2291055693727273e-13
0.128649773716757 0.30157116501462594 0.3977741228363412 0.0025655935439165044
0.14786953398559738 0.2392757386802286 0.40038610479063286 1.2172914742655818e-13
0.13123735405874745 0.2708878666465278 0.3990606400916014 6.065346543650385e-14
0.14905546243162243 0.1498257833421499 0.4041366427182703 2.3441705453290935e-14
0.18580238556833015 0.06012265684590525 0.40789781197110436 0.06522824043945125
0.17945922846819823 0.15935104885662785 0.40373727245268604 -3.8380621439268245e-14
0.1623817516882926 0.23973523599276725 0.40036684393289595 8.74051465131066e-14
0.15977459154483892 0.1127949913865634 0.40568930599243946 1.0400709950334187e-13
0.1787092281109099 0.0697521423006918 0.40749405466201316 0.04489579175936215
0.17683386914227456 0.17379947044551045 0.4031314648257957 1.58364958350025e-14
0.1622170144531478 0.19411348845006376 0.4022797130316142 -5.2464847321024815e-14
0.18875865788702134 0.08940840847931676 0.4066698944795426 0.00264284046018343
0.16153676262205435 0.14930495787636294 0.40415848457869386 -9.109192197320245e-15
0.17831301610058325 0.1332921706767852 0.40482989166562133 3.671388935541807e-14
0.1552167170055746 0.28201175697641734 0.3985942326607914 -1.5111103540256809e-16
0.16760019435476017 0.20856595061220704 0.4016737401465753 -1.0549626925246315e-14
0.16466314727462855 0.22065742145019648 0.40116675668401786 9.506228465935542e-15
0.1726809864808691 0.11765719257090469 0.4054854460010704 4.6328521213899105e-15
0.1833293678215831 0.0992744653292522 0.40625621885870405 5.011323623446346e-14
0.1551368501527985 0.2992629570102984 0.39787090896966126 -3.520702270920095e-14
0.154910343079732 0.3159356020747626 0.39717184336942213 -2.6594233014120536e-14
0.17054852489367858 0.10447231467731129 0.4060382721741409 9.613798873405006e-14
0.16000614687016773 0.06476642017175137 0.4077030907392969 0.05335763324424893
0.16909387714661867 0.16491526222554892 0.40350396578608805 -4.63493101805647e-14
0.15609534473766432 0.1663319443624396 0.4034445591284044 2.3630304865471212e-14
0.17766450427719233 0.14489357148775253 0.4043434574831503 -5.945646765790491e-14
0.1653124993204236 0.17821710714224379 0.40294623224481774 4.122222667677522e-14
0.17195388181141522 0.08493243491343921 0.40685755835169135 0.007173159655087178
0.16364988265314073 0.12702975280943624 0.40509246027450924 1.9095661911117266e-14
0.1606753570183951 0.2531107470008436 0.39980602273174193 6.005129407209112e-14
0.22767273373720248 0.2864722648253509 0.3984072325374798 1.2117110533482667e-13
0.22144280120240434 0.2726789272202831 0.39898556853702605 -1.8305063614060084e-14
0.16637860924108291 0.3477894346572905 0.3958362511327894 0.05494512214109988
0.19346455738240398 0.29572834371095386 0.39801912240680987 -7.927990736566724e-15
0.2127170256389776 0.2877188841605809 0.39835495730684567 -1.0820891286113153e-14
0.1996908751220876 0.28405840568128776 0.39850843170159345 3.253696603286716e-15
0.2518857587586799 0.22494879403472337 0.40098684916355787 1.2254489416585352e-13
0.25637131417866044 0.20148550592839615 0.40197063910947295 2.145597535406151e-13
0.22436016718861518 0.29714896780914746 0.39795956958167994 1.1709553337379528e-13
0.21323576854895487 0.30733796029058374 0.3975323526510755 1.0398534648761306e-13
0.1856122225254256 0.32827429665838315 0.39665450563412064 0.0014313692878480159
0.2536950080513426 0.21195572833481724 0.40153163389506585 9.441689738814074e-14
0.2429358719938859 0.24949212696697515 0.3999577724301544 4.745554279424199e-14
0.1986768867076632 0.3227097340280413 0.39688782641352716 9.793019508734276e-14
0.2131261299185985 0.344357139789267 0.3959801818101634 0.05235714344948247
0.20172488331237792 0.31151614120903165 0.3973571618490076 7.253637893703889e-14
0.18083123972019682 0.3443112163971664 0.3959820944902312 0.03313770606804866
0.20552901250001873 0.29645219540049855 0.3979887769484576 6.730472135799293e-14
0.21314081007424945 0.32495612866210866 0.39679364346799173 0.0018964847979760625
0.1925551156551561 0.3435954975251889 0.3960121084025129 0.03960540711288929
0.2398940919685451 0.22446210862634802 0.4010072505467061 1.2320339323055646e-13
0.18912115382862926 0.3072450464198268 0.39753623883764977 1.4863220898947073e-13
0.20685791330591796 0.33402213419908494 0.39641351398745 0.02361009650364437
0.2184372078152566 0.2570857084120355 0.3996393727266963 8.696634103711019e-14
0.18900254768184704 0.35595460254762185 0.3954939042062029 0.0666377768553214
0.1761820901152691 0.35850591368509943 0.3953869256263864 0.06815590763541188
0.23847566492288003 0.23575316923663237 0.4005338290485906 8.035297935859237e-14
0.21355410015354015 0.0636876075325555 0.4077483585581839 0.05208052879102286
0.20549880399157378 0.1004247497855681 0.40620800576199123 1.7457397473858299e-13
0.19198363726694376 0.11986307874758294 0.4053929660470583 5.704201264774861e-14
0.21910543202789395 0.09292455811450968 0.40652249369609544 0.016051316523685053
0.19899591490373933 0.10970384533606803 0.4058189377294231 1.1416472058325258e-13
0.18323680147479623 0.1965346368057643 0.40217821006998355 -2.610621493568755e-14
0.20598226477139603 0.08171304753923339 0.40699256563602426 0.030758995836828562
0.1747330101466761 0.2302258106807141 0.4007655706430396 8.73399446026964e-14
0.1722668912980832 0.25048806722251954 0.39991599585906357 1.0595770708612434e-14
0.1705284779665685 0.2733898519259335 0.39895574954374513 8.988982394867337e-14
0.20773801894097071 0.1425633657678135 0.4044411860732004 5.535009731232728e-14
0.18837793326379107 0.18056185830434673 0.4028479348695962 1.2012999633553288e-13
0.20003692433041564 0.1697788340767175 0.40330006608169044 1.5510077488980359e-13
0.16601212146129896 0.30832786831571074 0.397490835549349 -8.067163899926165e-14
0.1894600175907996 0.13950628024606643 0.4045693474450652 5.435219909132417e-14
0.19989538568293846 0.1547484583601456 0.40393027168477935 1.0734588838204401e-13
0.17186872112096666 0.28758764424504996 0.39836045438922885 2.6959230477282935e-14
0.21618765327291928 0.11078453686005385 0.4057736430989327 5.446801403918307e-14
0.21389921785107285 0.12721110018681672 0.4050848945423521 7.957218600083576e-14
0.18258976368716645 0.20925771463939244 0.40164474591658056 8.427898508584639e-14
0.22725236272640398 0.08001033105608896 0.4070639801333642 0.05396906650820472
0.24584713787944285 0.12323696740589747 0.40525152740122805 0.004455974889537166
0.2567525693088769 0.17403015250489254 0.403121812887574 9.484835132873916e-14
0.2347331795049212 0.09513200753011261 0.4064299446411703 0.02042287059937989
0.2438452439195938 0.20196854812437195 0.4019503817781753 1.140567633980408e-13
0.1780932760197857 0.31548905368230806 0.3971905731284542 4.008203036458867e-14
0.18299212427557116 0.2674737450022746 0.39920381225896584 4.5961885445397565e-14
0.22612883068621104 0.13769045850271733 0.4046455070915614 8.663979561858728e-14
0.1662545678809458 0.33603468274707105 0.3963291141074073 0.02990415548432313
0.253685719851864 0.13813184061748116 0.4046269977609448 0.004375762367263246
0.26563052655602576 0.16650607046403182 0.4034372901909713 1.2154791084302297e-05
0.25437427636660315 0.11198480778189752 0.40572331974558323 0.045526367979070524
0.269934613114525 0.13683242837590112 0.4046814794574385 0.03428899953070623
0.2523018130234074 0.15033254145337133 0.4041154332538026 1.1344021458150328e-14
0.23238030688021108 0.20959321935577677 0.4016306870996731 1.5548940969385174e-13
0.16569362101872578 0.32379085257590867 0.3968424871707761 0.0012737571987864727
0.20320535836431203 0.1998517165940649 0.40203914244548433 1.1388632118511919e-14
0.21832041380036699 0.20315402340581973 0.40190067822225917 4.7502536637175976e-14
0.2773526574422102 0.11606205835909694 0.40555236208045464 0.05457652725205277
0.19559414502061068 0.23140971770208627 0.40071594397373256 4.6059334354756954e-14
0.1883822587562424 0.27701297105260414 0.39880384041344197 7.78644373667387e-14
0.24236425425526018 0.1694061170202828 0.40331569596177463 6.915320655197069e-14
0.20553011484049738 0.2630105449185928 0.3993909482061351 -3.7841118735082585e-14
0.23242858247076226 0.17887448758682087 0.4029186964521436 1.4402621229052974e-13
0.22375498832430157 0.149485904842921 0.40415093464058705 7.762440516427737e-15
0.2710702129906776 0.1497269384504045 0.4041408239054933 0.020162347712008286
0.23869491530146175 0.1337391878781129 0.40481117921664067 -3.4470551780867675e-15
0.23807445773090474 0.1567128172593321 0.40384791523643077 6.279941686862543e-14
0.21056829851587244 0.16386043728988894 0.4035482243889953 1.0357423290668376e-13
0.19449979883014903 0.219158782823216 0.401229614980932 -5.664411148457605e-15
0.2636495669481442 0.11767360246300898 0.4054847927328014 0.0410363259945887
0.207191652282791 0.22131937184801442 0.40113902220431963 3.4650173165024877e-14
0.2510988434107533 0.16151740269739984 0.403646461988839 1.1568481469943588e-13
0.24297980257475388 0.07822206231452683 0.40713896297647256 0.054540350973829484
0.2215206959455204 0.23942663267968284 0.4003797993768342 1.4950651238507781e-15
0.2047560161517106 0.18791159699568113 0.40253978099539844 5.824399411504424e-14
0.1872369450127348 0.24426410253969058 0.4001769717220498 -3.767042492107846e-14
0.25741096989629714 0.09705005154712985 0.40634952063265095 0.06168888102424623
0.2169140459137937 0.18358343127223617 0.40272125603791 9.474089858862436e-14
0.18314114434096493 0.2905944497655679 0.3982343814658816 4.912651178968253e-14
0.24164592166496976 0.11020021459554971 0.405798147351378 0.014405237965448951
0.2286620372963265 0.11792038811154323 0.405474448487748 8.10286281669588e-14
0.2442702406865928 0.18338485684202632 0.40272957954006045 1.1736852082004668e-13
0.24603411074384288 0.08987390738932467 0.4066504110942959 0.06638367132302958
0.21670259359840147 0.2267477370048596 0.40091141475007197 4.592259262982142e-16
0.20931768989072405 0.24859546709804575 0.3999953593652215 -2.7688798560858184e-14
0.22507854926658422 0.19199092835385936 0.40236873633239906 7.622123338043101e-14
0.09065778043553654 0.1872789877454542 0.40256626810607415 0.01736752842065362
0.08065655139572607 0.20547987238376597 0.40180312446623445 0.041642514262020855
0.12800052428157005 0.14861534772672635 0.40418739339486565 1.2176635963785517e-12
0.09248039782822437 0.25822691752273796 0.39959149771189645 0.041299806026091936
0.13779102926113018 0.15879738481992092 0.40376047164020784 4.39927031706549e-15
0.10967027175390695 0.23128013281335325 0.400721347621716 2.3318732839055875e-14
0.11014734705511757 0.1889981173416595 0.40249418707609236 1.327753612773357e-13
0.08304938378886613 0.2382907606752774 0.4004273992247865 0.05326726309223411
0.11507273485122632 0.3005162152814864 0.397818353186151 0.024002792291787825
0.13041945541340555 0.12444842117273022 0.4052006866700006 8.291173976471791e-06
0.11750359648138423 0.2437147456713224 0.4001999777644573 1.4331017218338668e-15
0.08069850375707761 0.21959453809806373 0.40121131170882496 0.05367727610853217
0.11329288836221059 0.2163795608477839 0.4013461126256959 -2.9167717478036914e-14
0.10102589291380407 0.24955075821571557 0.3999552798423317 0.0022697089624070747
0.1228822499306326 0.16444596619886503 0.4035236325234962 7.684235084406443e-13
0.10640271583977853 0.3167803922726147 0.39713641363110247 0.07914255489839175
0.10759070053739495 0.1672472305894532 0.40340617834235715 0.002075434460735214
0.14218773620159447 0.12081799898167492 0.40535290650544464 1.829857477611883e-12
0.07728939962163386 0.1939987535236699 0.4022845153970291 0.06340367045112219
0.11861177499755231 0.20051744490436677 0.40201119415449393 -2.7318578659821116e-14
0.0911671135265608 0.22826269636754715 0.4008478652734364 0.029256942444859366
0.09468047842165064 0.21520033503627634 0.40139555608062333 0.023992497759037324
0.09149570193960752 0.2022876731115903 0.40193697007509166 0.030424116371736806
0.09945792579832642 0.1789685088533366 0.40291471765282527 0.013642223325600078
0.1398167568972361 0.10839819376477769 0.4058736555574768 0.00020897717856737058
0.13224390352394233 0.18876200741783944 0.40250408716717617 -5.131675693988789e-14
0.15417227670096995 0.07601459375200288 0.40723146525471227 0.042824023655715894
0.0996138497897672 0.2882015468888167 0.3983346938126504 0.04789854188128981
0.11413076910666056 0.15627362079251064 0.4038662900784922 1.080248222388551e-12
0.10494211118283275 0.19979593534180193 0.4020414461164478 4.42637233294201e-12
0.09075525051353728 0.2715439306203185 0.3990331296506432 0.06693001913013452
0.13613971898125854 0.17785585904237855 0.402961370287825 -1.7591478664109886e-14
0.11282360757996014 0.13726471889539527 0.40466331288231827 0.011448334089967113
0.10201971919002159 0.27730864019230056 0.3987914217066874 0.02100629757822016
0.1027203506248998 0.26521356160804577 0.39929855535570846 0.01724519516309276
0.1267548936937743 0.11199256025516818 0.40572294748381893 0.016166904991438125
0.11922492704661132 0.2652754524906011 0.3992959605286353 -8.682398832367694e-14
0.12541191584339403 0.13752072432561546 0.4046525789956229 1.388307825747303e-12
0.13564309039414246 0.09587385511299236 0.40639878756317227 0.028367196262452585
0.1264428533062612 0.22075101424556962 0.40116282243698287 2.3274097536414578e-15
0.12096566448988534 0.17686505860988905 0.40300291330900667 1.7915667887771824e-14
0.27616774019001233 0.2484790857450801 0.40000026875339584 0.02622613686979001
0.26974806436826515 0.3002231069355488 0.39783070670880727 0.05514054726501792
0.2792250068605273 0.2370221393116677 0.4004806372620658 0.024748846897567536
0.2691978972479506 0.27684775778613385 0.398810820427445 0.0312668605179608
0.2686981155118301 0.22443643567339902 0.4010083524604575 0.0006120218223564165
0.24448108476106606 0.34184334341074396 0.39608562738708475 0.06234297204192263
0.25714916840496216 0.2666796068266038 0.39923714460741694 5.061202629577804e-13
0.24853439340982766 0.3243612438285705 0.3968186306959317 0.060661927920544506
0.2298062839017022 0.31444333786001394 0.3972344437164199 0.0021523034328408026
0.2838645560206961 0.14948301189747384 0.4041510554909704 0.04846426017386925
0.2661517060054288 0.24083557453437937 0.40032075834427827 6.607073060071913e-14
0.24677961491885536 0.28738178786399227 0.39836911848900736 2.5069501973264587e-13
0.27494387335452 0.17649204688019118 0.4030185951480397 0.012093631195101172
0.28276025136428395 0.1640882589707468 0.40353867868984816 0.043045187586615366
0.2376423650402333 0.32901143200711774 0.3966236386211308 0.055656726933890385
0.2383219308650687 0.29444864962127265 0.39807280288152014 4.462065691182263e-14
0.2602505988500303 0.2923150675447332 0.3981622948245708 0.031695622816689806
0.272779078044708 0.19848989344611923 0.40209625660306425 0.00924788285182623
0.26958171161564237 0.21182642064022383 0.4015370719705421 0.0002780400449319021
0.258503006407743 0.24955337600759325 0.399955222688096 6.678057375835977e-14
0.24037539298233457 0.3092509045747588 0.3974521707736288 0.011114671405986813
0.2583153692271465 0.3048685064662171 0.3976359458220664 0.03377710436612616
0.24299673977816105 0.26518734713870074 0.39929969064340665 -4.864324094357262e-14
0.2236275091985554 0.33528732116145366 0.39636047858696954 0.05160707066921684
0.27862949872847126 0.3114230308419653 0.3973610631311561 0.052636161953636997
0.1244263105839449 0.0904267402888802 0.4066273178052411 0.05015508270766326
0.12929195361562124 0.07669334397422145 0.407203177148213 0.05334570946118503
0.10955472517721183 0.11935654399063686 0.4054142988540952 0.05363203570055905
0.14048324021819147 0.08056894492622328 0.40704054385120464 0.04606838210994655
0.094087368408538 0.16026250203787187 0.4036990679524018 0.029207006155284706
0.10010975421008275 0.1510777647908643 0.40408416866913127 0.032667931310005255
0.0968737136998244 0.138337286263697 0.40461847031038783 0.033046211225005374
0.11310198985772923 0.10482766504359976 0.4060235296543175 0.05705552678535375
0.09448707481160351 0.299754751741478 0.397850311767487 0.0658079376191328
0.08569141403340455 0.2921881038578014 0.39816766089028455 0.05835569408636955
0.08455460303456287 0.13994249053904412 0.4045510811600732 0.06169857254462105
0.09533967681476872 0.11032271153671949 0.4057930555435514 0.05827817478372536
0.1118989928645622 0.0908253533849677 0.4066106988860094 0.06464782789390876
0.09436571533488884 0.12362976350405017 0.40523512734792827 0.052780730454851696
0.07532786619435822 0.17178867599742942 0.4032157917338859 0.05443699586170822
0.06476091438635367 0.21208078086955107 0.4015263735843078 0.06266209188222027
0.06973694280704426 0.18168156457453954 0.4028012757477102 0.05937113744742536
0.17845055502821694 0.04958356698614244 0.4330095076228626 0.2018030545572438
0.16268988786583405 0.05227449780044927 0.4312749867517043 0.13912629741959356
0.16791400956735023 0.05571677014574203 0.4104980895501191 0.05886649880445739
0.06609134960263391 0.1712295067318047 0.41714303356468385 0.0991958519971568
0.063395108832147 0.1854931856276178 0.41796790409591394 0.11463722667108382
0.06519529031466373 0.1921637577191267 0.40301096765078065 0.058067254679619255
0.06270268766095935 0.19736522141992954 0.4138032148097397 0.0641833758893371
0.06997065702114545 0.16140395448964254 0.4091504862473504 0.06337336384831291
0.06851183630753896 0.1586333235988296 0.42101064935113675 0.12548528800308972
0.13051538788493455 0.0681318714470514 0.42077546437862134 0.09927517176614793
0.12209800595538275 0.0722475630536704 0.42755186755541036 0.1315018019078007
0.11805215716201109 0.08020779862061002 0.40923801912455215 0.05070620331070272
0.10390044471535292 0.08808483428644232 0.43029634355646973 0.16128580720831154
0.08536368092015748 0.11697024876036585 0.42216392573817174 0.10744628252949155
0.08273220937468291 0.12783189063290065 0.4077379483253177 0.04326207385238925
0.07346568769549132 0.1495489704861386 0.4098175123525414 0.05785596674371042
0.07077014575552405 0.14837386717147025 0.4256041269682048 0.13399585943206022
0.09636932301339612 0.09669382452377216 0.4320084797393233 0.17269732284395234
0.10065612075018339 0.09940878199895029 0.40671004517978737 0.05142252858012975
0.0866930645956479 0.11035396734281802 0.43357227944977417 0.20035079416450502
0.08725575734814042 0.1054403153855605 0.4440911899209907 0.16523605768538988
0.09549557406546602 0.1019131200319839 0.419826569678738 0.13025855914780948
0.06029756592558138 0.20424370730464145 0.4255472643815127 0.11797615067949964
0.06219480635171803 0.2100425271260125 0.4133267147703811 0.08884926959700237
0.11756645461653964 0.3445865440040687 0.4214618233025617 0.08540055756252303
0.12883880636633221 0.35058923342936854 0.411575318410495 0.04355116082083086
0.132559068244274 0.3506180561961498 0.3988552378892549 0.06288056103341497
0.13104625066096562 0.35438431032418516 0.42618062909032395 0.10836073174875428
0.10933804534157818 0.3366582160938464 0.417530436665398 0.062400073567637285
0.07691315145868002 0.28166149787486666 0.402801123366588 0.051936299849977
0.07239612907280513 0.2800530247314323 0.426289820715111 0.1423752856517577
0.0702055359499296 0.2639130206305372 0.40705094937490516 0.05827635764376532
0.06608435718124009 0.2402856641554728 0.4018766575961584 0.05491797344133559
0.06782194354800768 0.2510219527073662 0.4024582764663663 0.04568606961400554
0.06442286129408512 0.22304110091481105 0.40169828740496805 0.07363761775170291
0.06097144025663652 0.2221283441676445 0.42167538905172786 0.11805045767316505
0.05866618189157289 0.224176198829059 0.4358668319040377 0.21365435173466854
0.09233639527600537 0.3140938999226863 0.41072755386777493 0.06346674428882154
0.09355849711078533 0.31274067596090865 0.39911121008476785 0.06718402430103788
0.0908761059711247 0.317589580348797 0.43152157142970216 0.13980974416117486
0.07563265599552323 0.28992014764405794 0.43114249609343097 0.17227456085877235
0.10150400116929996 0.3252093316533445 0.40454358908644217 0.07670341372423034
0.10160857467903694 0.3282133630939864 0.41708252762910014 0.08394678743755947
0.10036791497012108 0.32963986967842385 0.4294921650016152 0.1530472645796582
0.18355896959621193 0.05297868265072082 0.41649656401166224 0.10006833300648958
0.07534456161475414 0.1380131786570694 0.42159110970749447 0.1077280282693932
0.15031457870697348 0.0597491433140066 0.4143822234722794 0.0763332456726042
0.13895616911083206 0.06513133819583558 0.41263851712532634 0.05146308103560793
0.1395840382021812 0.06205727386100789 0.42436226609659594 0.11390661863546633
0.10037124854535562 0.42806178878652446 0.44775981944808413 0.15911642441316406
