x y z curv
0.3467401938271618 0.4009641527779916 816.118888242939 2.8077984291126922e-05
0.3536263064980717 0.3659901434886063 816.1692507337895 2.9993653963790535e-05
0.349020590040398 0.3829655782362097 816.1256523507625 2.56380407217989e-05
0.3561818904623878 0.308380847918504 816.1335622820976 7.931291561400293e-05
0.35531730445134846 0.31059387484479845 816.1220559683774 9.454849699854703e-05
0.3557931237941051 0.32520758880420225 816.152363167424 3.475412943979632e-05
0.3521753334376505 0.3433381386502975 816.1176487650312 4.3646301153068325e-05
0.3538835908136961 0.32550942157626495 816.120005547333 6.899358437180799e-05
0.3567406959678411 0.3103942596345777 816.146214199576 8.20906248366964e-05
0.3545521660912171 0.3259337214707945 816.1321373380202 3.2758161109002794e-05
0.3526238233569783 0.3464414807493284 816.1300554901284 1.8635719775895814e-05
0.35317736408594963 0.36135498519907516 816.1556307476237 1.7660700909428455e-05
0.35440515953069324 0.34738272339565707 816.157539066104 1.3760527088737506e-05
0.3550896644662023 0.352308939008305 816.1731334786126 3.421630107479675e-05
0.3545026135124715 0.33847670258109763 816.1487808407825 9.65041988615851e-06
0.35740874938686323 0.31394316517002224 816.1630543806167 7.623409053170792e-05
0.3530141574203869 0.3508751222168355 816.1412793203151 1.0167060509369694e-05
0.355869442887912 0.3340596734380716 816.1636320914597 3.2549044279691834e-05
0.3555823863405352 0.2799001947530605 816.1080094139736 8.54189906868367e-05
0.3563445817789948 0.265071085050969 816.1091386497756 0.0001093214582122118
0.3536293432814838 0.3000203554840725 816.0978508194434 6.619235909000585e-05
0.35296853257904204 0.2904637344700373 816.087763684714 1.089181565483344e-05
0.35158319783889064 0.307494682159138 816.0816792784843 5.7926039730102604e-05
0.3546407284775686 0.3045845770298067 816.1092003213487 8.090557324295573e-05
0.35438420988939484 0.27933396289157364 816.0965310163162 5.496720431387794e-05
0.35815057454813126 0.2584107104384223 816.1355706377929 0.00010653593117527268
0.3572569551932948 0.2723956631605956 816.1293849460668 6.020741248103196e-05
0.35665742519615623 0.27407080919916416 816.1182122267348 8.60847875472939e-05
0.35665699134947076 0.28590400760157697 816.1289851053111 6.0868704225361e-05
0.3573404367700498 0.2574175700715935 816.1175056224213 0.00016756048169067904
0.35818631026670056 0.26730731948991765 816.1444339139194 3.399164152780892e-05
0.3596367200690064 0.25335272564808203 816.1624410354611 0.00013412933963106552
0.3593739628889264 0.24603500748201257 816.1502076987787 0.0001410068307113114
0.355907875363915 0.2964439359548464 816.1227212338822 8.699701082247132e-05
0.35925615085362955 0.2897874876139618 816.1705130692047 8.360942882259922e-05
0.3567294040154771 0.295768892190191 816.1354895463428 8.104298880471465e-05
0.357423068271798 0.28110892006391025 816.1404047509479 2.6213963909119963e-05
0.3585217702435826 0.3005857291321699 816.1636045226568 8.498504360201084e-05
0.35903794818478296 0.2653746483923849 816.1584884772535 6.462176755273282e-05
0.3597822693239705 0.26835278645264415 816.1705168859176 7.099095034575846e-05
0.35825451989927143 0.2910658795845339 816.1562348590053 5.639830567962836e-05
0.3538189995628602 0.2599701165279181 816.0802996190923 0.00011420299837863015
0.3514779550798922 0.2881692514837522 816.0717794674335 4.7326681780641106e-05
0.3504289768956939 0.297192605599783 816.0658683419929 5.623324047167248e-05
0.3522796186196351 0.2623035873632337 816.065303128364 0.0001736468208228699
0.35308696860811306 0.278251464551513 816.0831200284156 4.319891352288948e-05
0.3513864906341088 0.27390093605066934 816.0625389413365 0.00012093505346523054
0.35023322069611695 0.28752859761339344 816.0581886009738 8.4733624401532e-05
0.3508140303115331 0.2674694073887086 816.0527318200478 0.00013406976536996568
0.3560661588800247 0.25414625927132106 816.1011625855062 0.000150717167724732
0.35627213860118545 0.24014984484745905 816.1049902057368 0.00020382558712699707
0.3541075557943047 0.24420599152237965 816.0842715186207 0.00019211990503549127
0.3568945440583867 0.23084076549782354 816.1120580958398 0.00016490770282979168
0.35786171546755685 0.22348359946455154 816.1338103943648 0.00016277815206804786
0.3592318671123786 0.21342115563045938 816.1674913525172 0.0001567505759149692
0.35741113451597784 0.24641442386502105 816.1162741563401 0.00016789009191877695
0.35848392366755877 0.22573812418286732 816.1468587769436 0.00017021081349528588
0.358743171688137 0.217152037997763 816.1554315675946 0.00018355486326059194
0.35978656923166413 0.23978384400215705 816.1601070359231 0.0002332471497946993
0.35964604559659596 0.22964758713155528 816.1645838411132 0.0002915222263346632
0.35837701857576487 0.23672347009395872 816.1397652895514 0.00026762363717276104
0.36052160123121946 0.23953054233511314 816.1719380591294 0.00024678163228579936
0.35794538444570395 0.24436951276601993 816.1278571747083 0.00020751731168840387
0.343140084110267 0.2976372691311947 816.0112389025808 3.371147818842633e-05
0.34086020044539045 0.303165700650751 815.9975689731629 6.735104763443546e-05
0.3487604088453512 0.2668392402231044 816.0380741486833 0.0001244311510235546
0.34289233114830414 0.2830397074745395 816.0036777723745 6.727317608552445e-05
0.3466977571356472 0.277052716564335 816.0277901706033 6.284546453672851e-05
0.3446563468321102 0.2830062816919982 816.0159512172305 4.3959627392362004e-05
0.3403897407583168 0.31487716631702467 815.9989738385536 4.553990232147826e-05
0.3451690878392989 0.29388552254235345 816.0238716322327 1.5885679773595352e-05
0.3420395683274162 0.31506549740468953 816.0104291923461 2.93567382691387e-05
0.3486272079277501 0.29578096080244665 816.0482377654427 7.842131997595087e-05
0.3444276195651796 0.30570088747655144 816.0232437847051 2.0497832286016114e-05
0.34280555964073917 0.32422630292556215 816.019106430792 2.955890794491273e-05
0.34962305241913116 0.27907587604049355 816.0487762476979 0.00011116236046129396
0.3484273489375599 0.3075663953531325 816.0512955507534 5.9325233681350046e-05
0.3465555081472905 0.31812866280877306 816.042460593351 5.8381658038143996e-05
0.34508989385014954 0.3156492156291611 816.0315074247463 4.4420903478354e-05
0.3467260534707332 0.2962596003796736 816.0354167592112 5.250598144760833e-05
0.34774233720058645 0.254478207694365 816.0309556983547 0.00010728301459318898
0.3463962666188136 0.2617135687707343 816.0224588820428 0.00011507350467675755
0.3501922006512804 0.2565463650179779 816.0469781292129 0.0001634485758103204
0.35163482162804727 0.23880228264815892 816.0579976710262 0.00011102974564123326
0.35300780694348455 0.23797963976191416 816.0725264474271 0.0001186969057395207
0.3528873290779442 0.25071622544814753 816.0719667125074 0.00017124022439504713
0.3515109027799648 0.25057994959921653 816.0573472582339 0.00018511551353926007
0.3542308537419504 0.2105391084084738 816.0965236547405 0.0002324941147853063
0.35321695626390354 0.22625086977046527 816.077702867008 0.00014833832555998604
0.35445983642624757 0.22402176884579852 816.0904566616314 0.0001529000274579043
0.35550036273948526 0.2212892082439335 816.1016588656998 0.00017969243146413467
0.3558286313668004 0.1959999217367498 816.1311004710782 0.00016499466037633712
0.3566640600312998 0.19113707458541082 816.1597918023491 0.0002569923002876695
0.35603301481194793 0.2061182349343056 816.1195463085077 0.00021403999299710448
0.3560436317655224 0.1883278478119464 816.1490301177314 0.00033121854269189683
0.3568326670467464 0.20956619489852035 816.1337005136836 0.00018802439034629648
0.35651837941704706 0.2168559035991679 816.1139383039979 0.00017097686511273837
0.3566916934168074 0.19995086513031157 816.145999987707 0.00023525378310179166
0.3577345275441307 0.2040085862317964 816.1572932400471 0.0002205208831374761
0.3581756634816238 0.2016641758545215 816.1681385162806 0.00021774100801783813
0.35698225075997186 0.18660512175427008 816.1727283798865 0.0002735032667624409
0.3433286000375137 0.25263225636268827 816.0008631803604 0.0001318560462115862
0.3445359634520788 0.2633331926018856 816.0104047000548 0.000114647812480401
0.3455423050288525 0.2526674762148023 816.0160284729468 8.45999129245135e-05
0.34270781537917877 0.2655196185918459 815.9981441951475 0.0001407047068199059
0.34802527376778947 0.24294507141500818 816.0318774728246 0.00012255503951390739
0.3478604205626284 0.2302774836305409 816.033232310127 0.00014631979945779893
0.34936001973239605 0.22070116829899106 816.0451473890142 0.00022756561816689898
0.34456697965003286 0.24333278346708045 816.0091000971972 0.00014261059835312314
0.3500010001610335 0.236176691066058 816.0452456429806 0.00011693271416235948
0.35392643645463145 0.19839046928960238 816.0997229067389 0.00014553942163416007
0.35303322532793446 0.2062896080051742 816.0865134238741 0.00024339080350726215
0.3517741839136124 0.20880806743130628 816.0717124029077 0.00022762798504939716
0.351800892935492 0.22269137581085752 816.0658495210187 0.00018835569363586372
0.35065845855554395 0.2157661061285659 816.0565014626961 0.00025200237165143524
0.35172641049117376 0.17056153541305208 816.11293325473 0.00033271664045418534
0.3544757200472116 0.19350905430316456 816.1101520163521 0.00025795483848405375
0.3527837491082111 0.1835016799422416 816.1069872851967 0.0005578395818746066
0.35187494017201143 0.19166466270024082 816.08924399143 0.00038323208463966323
0.35262211118179043 0.17198306822443604 816.130593865947 0.0004333631636635778
0.3544366624516782 0.18745379505333973 816.1238922189614 0.0004116014083724051
0.3531440240067879 0.17039443414925526 816.149747539326 0.0003593113488330006
0.35515825879861623 0.17697284624151108 816.1642264557585 0.00033825760831637217
0.35447255754919865 0.18299163461271514 816.1368793217259 0.0003401117972105422
0.3430851298187609 0.22033505095876396 816.0032806088602 0.00018151853770413567
0.34427116067534613 0.23201234019497527 816.0095631232434 0.0001626535457832042
0.3479352879587571 0.21225172484769508 816.0376323660233 0.00029155626736655885
0.3447664316262322 0.22121307308376945 816.0146178372347 0.0002012957395687123
0.3428398677515053 0.23891803717089843 815.9987247603765 0.0001572713493959999
0.3491288578130593 0.2071625214255289 816.0479519815378 0.0003613182360455187
0.34381163197923753 0.20996953993068618 816.0140329428199 0.00033826778856342827
0.34722796912531595 0.19705440364735805 816.0428144760396 0.00047246861600596415
0.3461527094921487 0.2138083900257806 816.0257752285784 0.00015286307600036116
0.34470702247535623 0.20048374748245706 816.0254133262099 0.00030443963164899655
0.3499670619710977 0.18152535923891838 816.0827339982424 0.000402418530008665
0.34791101082823783 0.18190308989629952 816.0601821968987 0.0004629267079989844
0.35004793042138665 0.2032908198897347 816.0591008691458 0.0002658037922075393
0.3496345955950444 0.19328622618108332 816.0659157982283 0.0004603643966742536
0.3484235651232249 0.19197487958531062 816.0543593867346 0.00035884535521283977
0.3297132203153998 0.26681596007512054 815.9320347577831 0.00012372945733871567
0.3323885209651414 0.27308734064509177 815.9459500061046 8.074939115316138e-05
0.33559534900419136 0.25616993352757655 815.9601694781626 5.717670421094107e-05
0.3302295497768363 0.2792352217181294 815.9358490573006 8.675844799216024e-05
0.339369296461669 0.2725431790074758 815.9803550576369 0.00013952502858395087
0.3395158181441329 0.26022079905475115 815.9799968201228 0.00011904009762351741
0.3364249260664038 0.2674460550532891 815.9654029049113 8.181639028755476e-05
0.3332008956536142 0.2503303708071715 815.9494167226641 9.683813116655625e-05
0.3363014490260648 0.2460650452370653 815.9645800889909 0.00018214117841810562
0.34025345000726087 0.23422618863381509 815.9845827519216 0.00015694611813970362
0.34143911349268086 0.24424347529665874 815.9891526932196 0.000148428045638993
0.3378026465795889 0.23371647486822847 815.9729629387788 0.00018802801106778048
0.33558367169102077 0.23502606052724231 815.9620308213077 0.00022425909975063446
0.33081113901336917 0.23764631105276737 815.9385305074034 0.0002430464774804956
0.33051757331066367 0.24969353892989837 815.9363408400691 0.00017092132846364087
0.3355417971916095 0.21130637369916905 815.9689592088916 0.0002823515687496066
0.33278186159671025 0.2282978360668986 815.9502228521262 0.0001800932815553575
0.3358248700306259 0.22343160097592088 815.965779906295 0.00029222616390318625
0.3373400954601544 0.20415393326644093 815.9797258932055 0.0005534561185649146
0.3404413257462868 0.21025756275971233 815.9918897901322 0.0003201349180908598
0.3408848768357306 0.2019440009082995 815.9993763043337 0.0005119583460603502
0.34202587965676434 0.17389302770151674 816.0317716831855 0.0008873474590344413
0.34527892810804184 0.18291527510960365 816.0399782339604 0.0004887989324538387
0.34408937293136843 0.17054810969825446 816.0469820031017 0.0007753719605421585
0.3418539575850268 0.1872600775507968 816.0160640180745 0.00042468627800925333
0.3395445726737367 0.18934289396924514 816.0008734357878 0.0006385531617755218
0.34525104233312004 0.14738734131504 816.1003211458674 0.0006281943603997323
0.34537566881885584 0.16156942971971466 816.0737554327111 0.0008892648453300134
0.3439579290526914 0.14769278533454677 816.0869705333897 0.0004361145179359897
0.34306975979884563 0.15539546440136726 816.0631158182575 0.0006705231615389009
0.3417644043345939 0.1545436630471674 816.0519125029307 0.0009970356381930339
0.34749641769959855 0.17437284198483066 816.0682618311461 0.0006600924302802574
0.3461351411734862 0.15913548659561766 816.0856839876541 0.0008151614725761949
0.3496053516850707 0.17169671395228303 816.090554942881 0.0006794356971219272
0.3320193636031953 0.2088280673636646 815.9530503017323 0.0006592894127412783
0.32885498957103754 0.21113503757499444 815.9373234034468 0.00045630597836514064
0.3286544622460072 0.22331274512294386 815.9325335981068 0.0002711513018662149
0.3388261060250934 0.19568953872274983 815.9899498579628 0.0006812071179406228
0.3301190146473833 0.19715893501826925 815.9524489383812 0.0009498980845343644
0.3335124596989934 0.19965036560782876 815.964849386663 0.0008214167998098494
0.33487816013484345 0.19172186647955144 815.9762959657215 0.0006189205199734939
0.33615202680783024 0.18413421430584978 815.9871118405697 0.0005655663641810656
0.3375033686085292 0.1738328386496695 816.004914530327 0.0008039270093012606
0.33872292906302476 0.16716655307791695 816.0195389776001 0.0006800501063048159
0.3405089283788608 0.16106171141002873 816.037044434926 0.0009721973866088304
0.31374808105096086 0.2728621027733649 815.8710931513515 0.00015555221661592446
0.32455388187627354 0.2465565016785551 815.9127750678014 0.0001994674836274983
0.3218843565966707 0.254267770752711 815.902424176194 0.0001648909555270913
0.31856621617321335 0.25639569311272326 815.8898876914757 0.00015099121230155264
0.3222747244876669 0.26822236550703416 815.9032494916443 5.5640315175819074e-05
0.31795625264864086 0.2688505706488411 815.8870449317686 8.669214326579834e-05
0.3281603903303126 0.2423603772861385 815.9264802700868 0.00026402478953523327
0.32702637274920204 0.2579263304609014 815.921519488365 0.00016639843858205262
0.32408128187704444 0.2353323677408608 815.9128238165105 0.00033168335664993814
0.3154192509462494 0.2505262275474342 815.878350168148 0.00027038591624365527
0.3260116687681561 0.2163364250020694 815.9241638675218 0.0005052318091192105
0.3139400526001913 0.23876084247113996 815.8755587100302 0.0004366131651759329
0.31684625358162455 0.22389816202402738 815.8892692678123 0.0006309785578391915
0.32324196845814845 0.2212119332053448 815.9130691612118 0.0006178131275211131
0.3170040393193058 0.2398272474522933 815.8864609377927 0.0002974466293835077
0.32063054206687813 0.22738620280475652 815.9022736158861 0.0004872397875351577
0.3219448718942646 0.209129414103597 815.9136664139664 0.001005540023762511
0.32236091373012865 0.19870601343281513 815.9203656945248 0.0005990094913919526
0.31829647366103914 0.21647996435329142 815.8978334027158 0.000781214065734107
0.3239971497134399 0.188120234206055 815.9316845596654 0.0008463647878759673
0.32995202586356714 0.18706851205651953 815.9586537500261 0.0007858758021382088
0.33185868340233504 0.18183208772831572 815.970646085163 0.0006592004333820416
0.32659166443279164 0.20048377586658966 815.9346495368892 0.0007804301115892166
0.3280505606046065 0.15292971565440133 815.9859282576757 0.001033751184709791
0.3327381799584823 0.16878694567816044 815.9854333684174 0.0009596414763738309
0.327800473808636 0.16058229495218723 815.976364434372 0.0015044907545811088
0.3289569945310875 0.17045816886097584 815.9695126932056 0.0014249435544662367
0.3245327052578484 0.17974041318051998 815.9426163136071 0.0011317144942628388
0.32995384572071224 0.14351188024772357 816.0097950304382 0.0011168009990448196
0.3328195560798425 0.146353035926653 816.0204365774373 0.0009368343397053527
0.3324172577744388 0.1384634804754768 816.0311629918626 0.001163229246503325
0.33170577338871643 0.1577129340945248 815.9959666947288 0.0011957026589564871
0.33549339458360966 0.16173842643009934 816.0090406328211 0.0010143530505355366
0.3338576601873352 0.13542055404785258 816.0435359296555 0.0010497630113280134
0.33713718449156727 0.15415091978340334 816.0293711327002 0.0012746120791433339
0.3369151140186717 0.14602938755851635 816.0414041152192 0.0012303952262756911
0.31489312577753165 0.20918726904233323 815.8900631106526 0.0007859707914314961
0.31644059610390163 0.2006304175412001 815.8994845308317 0.0006872970023752275
0.3121054652595747 0.22542494032866728 815.872690387273 0.0006484066853105142
0.31006341301056295 0.2110370554543376 815.8727587752509 0.0012815640534133128
0.3152869194201366 0.1894473118906954 815.9040210060566 0.0014196734493059158
0.3179698711955635 0.1860996639441045 815.9147732595584 0.0013575071566668969
0.3209687939345221 0.15605070677437016 815.9552624914992 0.0015593582442114447
0.31804628399883134 0.16846891864515895 815.9300508932131 0.0015462914739683379
0.32066403830787565 0.1633056247944769 815.9459860448819 0.001567116112884156
0.3250511884261805 0.1615214991894324 815.9650306357745 0.0019140501195595058
0.3245159153651884 0.17189536071120826 815.951379374779 0.0011200215603334193
0.31191883841166607 0.24829734449992485 815.8671252956613 0.0003759988305791865
0.3055079670705426 0.24548435091606213 815.8490346757984 0.00028100406268164076
0.3019017590570034 0.23814867462666323 815.839821494237 0.011609362612643758
0.3089609868404215 0.23768583273634783 815.8603376548314 0.0004078506937570824
0.2925263590283316 0.24303168617588453 815.8125923003087 0.04617359021823139
0.2923826492809333 0.22881511017348477 815.8175679568546 0.05019789583045309
0.2972253165667761 0.23417492717847477 815.8286530282963 0.029941708654555456
0.2990678482353085 0.2255169328090792 815.8369189736532 0.01574610831565975
0.3045747320017292 0.22126091503386058 815.8534732298126 0.000996310881388444
0.3093985707437849 0.19947470132440978 815.8781296841042 0.0014985554623931335
0.30939306148253964 0.1879492052090722 815.887670214604 0.0018528169803877254
0.3047210210423189 0.1875741365213144 815.873833641742 0.0017331624006435003
0.3114585495040152 0.17641003893167484 815.9034933487205 0.0015269892795910182
0.2912425420897874 0.21569200025048724 815.8217900743575 0.03915612884760427
0.29981228752745526 0.21387985988402503 815.8438008434182 0.002143428927401716
0.2987889301969295 0.19625248720362662 815.85291820456 0.0013579820040561974
0.28725218119480966 0.20344317045612736 815.8201182398278 0.03773970112248866
0.3058995492554912 0.20133468892218884 815.8668336714094 0.0017857228801456853
0.3112889707375012 0.16007385916456865 815.9203917336979 0.0014708270297538613
0.3065218439073428 0.17506185796519957 815.890787134549 0.0016718143888785687
0.31365909879619736 0.1515217087759424 815.9386175720923 0.0014835705488691656
0.30674943667983323 0.14133550851836613 815.9314699316318 0.002005484500653464
0.31299145507970333 0.14352589501770263 815.9485634743774 0.0019128478459795304
0.3223100868944289 0.14807403735774857 815.971413438113 0.0015960925656206795
0.3159428257851004 0.1411598542772961 815.9617795001942 0.0015093450405536377
0.3190582627503854 0.13175397435194386 815.9858434056434 0.0013426088525162053
0.3162331258923605 0.13381323734812486 815.9738114071783 0.001436175494739574
0.2989668743293347 0.1747133781072353 815.8718414027364 0.001904408010352851
0.304761111680692 0.14892735406353114 815.916846132743 0.001944179967512849
0.30334724703076543 0.15709202152077523 815.9036825215364 0.0021892587613091606
0.30026823901627075 0.16629144138646537 815.8850143444025 0.002166848058417573
0.29193288421987473 0.19577751746791183 815.8369545222733 0.009118239736219995
0.2848419176427302 0.18880011570788172 815.8286511539486 0.02693204232211613
0.2997195347725053 0.1868317728310284 815.861635111181 0.002749735050823321
0.29243409392525427 0.18566949844449182 815.8474758390194 0.0031743460113750586
0.29276976607562555 0.16582139263323617 815.8668427999577 0.003104245610448057
0.28644336847121754 0.18090059404908326 815.8394246347882 0.008205019029960113
0.29881267850470283 0.14694039912748647 815.9057977827813 0.0018044176655066762
0.2937905922313973 0.15554567069494926 815.8828562863914 0.0025703050493304396
0.3009135988802515 0.1387518562504484 815.9220526454777 0.0024494939521384103
0.2975768578492898 0.15309936923927503 815.8942887787935 0.0024927349473015817
0.29737991400542474 0.11829830151117185 815.9488144404249 0.0022805735811208053
0.29995418189109446 0.13062988233670766 815.9328454667024 0.0021925666683879673
0.30348953087453756 0.10963581225193013 815.9807238689414 0.002450639455292066
0.3103425181134372 0.12595132427318056 815.9684063067673 0.002201438211452432
0.3063908211147164 0.13474708866555074 815.9421041503065 0.002174754190471896
0.30256320577710194 0.1152139909118983 815.9681056888309 0.0026342559033614315
0.3042323962656946 0.12280839732470607 815.9584618708607 0.0019345190029766354
0.3223723649043684 0.12613189903608332 816.0110391260546 0.0017494658779750422
0.32474990894930517 0.13931485245930542 815.9935607802865 0.0015016331256015039
0.3222845280090093 0.11809599431335209 816.0276706973461 0.0022292388460644513
0.3214428848710539 0.13026360027986572 815.9982087958475 0.0014856132419720591
0.3183346413138919 0.11566147442958406 816.0154843438597 0.0014523040141681074
0.30595434006571476 0.09131309754603253 816.0322082404308 0.0020984503261808718
0.3077250323968156 0.09810135881266419 816.0214640093745 0.0020801965592527204
0.3015077545900018 0.10042932508372121 815.99413090038 0.0015741456555214187
0.3111797936214527 0.0936609498680031 816.043913211975 0.0015725378286752748
0.31598714885317314 0.10779704497802833 816.0252907915024 0.002087983864401883
0.3124156339403111 0.11049118991236952 816.0068466582467 0.002041621803408504
0.31442200941628456 0.11878002766639091 815.9932306182379 0.0008653454561782347
0.28808010283737406 0.10028382915655448 815.9648141942714 0.002056972619479312
0.29541908509956766 0.09820405967495174 815.9837570574331 0.0015988229765236189
0.2888326926004159 0.08614707019606443 815.9983846887196 0.0018798333124026055
0.29138528978004513 0.08368804077979705 816.0118028951183 0.002140720899626148
0.2893029683806624 0.0780848189581681 816.0217429211045 0.0014735918866724458
0.30195295268614997 0.0820024887956597 816.0433614931974 0.001641797787396628
0.2869362667779561 0.06959219735121798 816.0388481089077 0.0015121372813703795
0.29862020216958596 0.08716344957127145 816.0208564358868 0.0021392595582464258
0.31590417371480284 0.09632094381375406 816.0547678686071 0.0010122692070157794
0.3084736070336796 0.08535407558811639 816.058217051886 0.0022266650418476626
0.3084037468916176 0.08155012124713465 816.0718961033917 0.002568233830519152
0.3085575340300167 0.07723277017313877 816.0885816182749 0.001968443069914019
0.2883471117513971 0.06107348096159586 816.0730610812628 0.00151938817443129
0.2863984716674075 0.06493932622987725 816.0508274459567 0.001890788404444263
0.2996760231142959 0.07589454016779669 816.0564202368572 0.001862653066871329
0.2860682254826746 0.05107002500483922 816.1038788154906 0.0017973846951724773
0.29163468909918644 0.05877155389527743 816.0939342879617 0.0020412643816063703
0.30513203815521545 0.06860202644561246 816.1033624166047 0.0008085860703077748
0.2975766262304275 0.0672273805162546 816.082343299735 0.001958402781778439
0.29995120538450265 0.07341556106596062 816.0669999790196 0.00206408048881926
0.27673374944230567 0.060870584816882886 816.0420857281471 0.0024914657539336343
0.2775732624628428 0.0653480213003862 816.0306487953873 0.0033017285969345555
0.26462273569406664 0.0547254781893359 816.0376476409831 0.0013493323762306256
0.2809701045081391 0.07341241505095292 816.0135124639659 0.0022479951489640417
0.27892425397274795 0.07962167121494523 815.9917539267981 0.001588961957475591
0.2729269995688064 0.06632973631286652 816.0192662941703 0.002059191557617414
0.27564368060141 0.05703374755625194 816.0523891210416 0.0025018582660150607
0.2759742773240867 0.053013218552085906 816.0694644889322 0.001839713848443711
0.2638158726404453 0.04146105323675367 816.0851221281008 0.001619327252454517
0.2651646140836047 0.05115326538809302 816.0494269339457 0.0011107525062787663
0.2641211928499638 0.04724420401941544 816.0625507334317 0.001288707296116791
0.2823906205105708 0.05889573252957789 816.0619517288277 0.002126179218713504
0.2726306896262406 0.04278868211828034 816.1019526277162 0.0012213317838272212
0.28096105021933354 0.050431215284332795 816.092165347888 0.00249503898051391
0.27394732248181813 0.04866692959013365 816.0817752861783 0.002013099958472352
0.28326345981896794 0.10948443734737132 815.9359684468743 0.0021947945290149247
0.2796486071902907 0.08729464392119875 815.9750204295251 0.0022330186686478535
0.281193882447366 0.10097728735917239 815.949564367227 0.0019330328201025012
0.2595996759483267 0.0695058952006434 815.9855924070608 0.0011264719096180811
0.27500919877401014 0.08927168842423334 815.9633159781401 0.0027521267199169877
0.26362976638898017 0.07638344071588699 815.9759203299216 0.00261240316951051
0.2726394391593429 0.09864303916567632 815.9387970698943 0.0015627396619813147
0.26735911237233884 0.08837750192335164 815.954294083374 0.0019977498375596484
0.2719907914321162 0.070642249697523 816.0050173871671 0.0015697911278972415
0.26479957682425365 0.05874142886392769 816.0262994312386 0.0018506212455350903
0.2451442195234763 0.04614112105012696 816.0367380623142 0.002193660784223065
0.2531443972148771 0.055334743315699354 816.0187981777667 0.0011078776378822955
0.25514124907887903 0.06321865456913324 815.9975203658455 0.0016331802669553312
0.23978763329864286 0.040219525039402626 816.0482758245087 0.0016272240822514889
0.2534087400052443 0.04441534304794767 816.0534926562805 0.0019057869107390866
0.24646457155712298 0.03965880540027655 816.0615520965432 0.001735914284837481
0.23723891954232545 0.028565544360083656 816.0918097757974 0.001702517783313706
0.23879093198851414 0.03305859735867304 816.0759621193829 0.0020963027870612235
0.2541082456519455 0.03516655336690669 816.0924715575034 0.0020338377278986226
0.25125196719794884 0.0301460959689125 816.1083197439345 0.0016205357761987704
0.24849634934065196 0.03571168415115381 816.0810528064158 0.002253889080160974
0.25392797475395645 0.04029684373874667 816.0712016779487 0.0015761758414193643
0.2632580159711936 0.03284204369547708 816.1231667545694 0.0016404712914004716
0.2809488354672164 0.04543234399364714 816.112996036708 0.00229130087075107
0.2698996528627437 0.03519435483811176 816.1343820791253 0.0017658942219833046
0.26567401914082023 0.03624506589997191 816.1111181947604 0.0014193829304979782
0.23988827882412098 0.01929618891425808 816.1467536377608 0.0017181363092627967
0.23764895898329347 0.023991023593149446 816.1119732848397 0.0008901702721551149
0.24002374810627486 0.017534561512887386 816.1580527269948 0.0014140045495099078
0.250908772173552 0.02757088062252725 816.1226475961394 0.0020232033679240193
0.25336495302604856 0.022795894945494406 816.1582285210523 0.0019628455381961113
0.2575035138569405 0.028611585336649613 816.1324539908035 0.0015780226653978634
0.2603163303180259 0.023488796996529386 816.1709468199233 0.001527749222009827
0.24785445041209386 0.018282151066214888 816.1726137772803 0.0017901081386079022
0.2584042729596038 0.026959007039183972 816.1448553011846 0.0016763459568700015
0.2217601019176536 0.02215167728229253 816.1032289682557 0.0013608688848048831
0.22833961552605317 0.02830126917733484 816.0837369086001 0.0010822085705679918
0.21970014993805626 0.02475262900898504 816.0906366905185 0.0013936792090497273
0.23006979387674587 0.020424024659266293 816.1218190306996 0.0012661619377459883
0.2171341784748746 0.01804216092127612 816.1192236564617 0.0009912320478754576
0.21752545568504475 0.016005787507838907 816.1322741160624 0.0012245324794027683
0.21515940765693897 0.011680798617080388 816.1557282728385 0.001684049752641037
0.21100908536222793 0.012432252127332425 816.1455705251453 0.0008411851606368323
0.23495880421639787 0.01932237195360584 816.135154876117 0.0017352209752303826
0.22459938190270537 0.014683953326603948 816.149862673245 0.0015836318220964608
0.2338856850248044 0.013545316073266202 816.1693193198395 0.001204290948593105
0.2431015823609124 0.04925788007619224 816.0248967038998 0.0021439429694033382
0.245406348251469 0.062079092529447225 815.9892100880003 0.0017220219360496935
0.2422358116782743 0.05611592012649405 816.0032812813066 0.0022560714589417116
0.23470967271082818 0.05604349780846321 815.9944369616818 0.0013807048084270549
0.2307992766410834 0.041163945237487926 816.0366119955281 0.0013826667677560862
0.2191811427612131 0.03946218762536162 816.0341352336878 0.0012600031985953784
0.2328386588569144 0.04858430078671689 816.0152900137468 0.0012919686161639628
0.22427828510869569 0.03664798017597184 816.0461001798017 0.0012415680322020325
0.22973285992081527 0.0344426020601366 816.059624377947 0.0014619401376253457
0.21024196958659525 0.024435877901343675 816.083531508548 0.0013870405040201958
0.21268029857781898 0.02824461236505946 816.0700166547648 0.0013298663693492878
0.21922769709749648 0.03250898459893384 816.0582694260249 0.0013494417358302015
0.20435181920412515 0.020164936911977217 816.0982163322581 0.0009884426134213085
0.20656052301581465 0.03114410483482245 816.0536351702713 0.0007805908046961138
0.2005752866743205 0.025495547802559675 816.0748354842854 0.0012307064863388854
0.19769957162297336 0.0278400258256778 816.0641174106988 0.0012829693619242806
0.18826837591351916 0.024790794686042325 816.0733423502489 0.0008439512847194835
0.19880382145165998 0.02222772945945456 816.0877057269952 0.0014700057905175136
0.1870301004200402 0.019723934158192055 816.0946363984456 0.0008922320628348338
0.184070956823004 0.021985126904873892 816.0835951535918 0.0009440076489976357
0.18782081725931088 0.016180701332698798 816.1111262072593 0.001034695384861372
0.19644826196332582 0.01531247851232587 816.118917135741 0.0009233957471814866
0.19750582676415573 0.011260958095786096 816.1438297223362 0.001270562966854805
0.18197508266808363 0.0101869465969032 816.1422013896531 0.001347054515575489
0.20509541406747597 0.014455593045217641 816.128215981119 0.001227043218083416
0.20748557468650095 0.01743007837417072 816.1112002310479 0.0008611840722900298
0.203834544640335 0.009511662952645477 816.1579350599648 0.0013446320319198055
0.19532660779482058 0.012842608785133576 816.1329535705563 0.0011677123449057895
0.1931151138897236 0.03079586269001302 816.0513874256421 0.001373246528144524
0.18636274379653622 0.028156859171936638 816.0598071933142 0.0007505693459482857
0.2028087443158684 0.03437400182940046 816.0410655058159 0.000990307619830007
0.19001237904321078 0.03391765902633512 816.0399263305941 0.001146364365037007
0.2137701245388107 0.04335478378451075 816.0187414284528 0.0012000933786561528
0.21674887612974864 0.05331738290886881 815.9903758365297 0.0010245757158361222
0.22310792105484184 0.050894465444858726 816.0018471220387 0.0013947663672097023
0.1824565941384499 0.04726181516314956 815.9976106029553 0.0009457489615082488
0.19190096375260335 0.03851123010566442 816.0256893990895 0.0009667006503760046
0.2075913227493516 0.03855566541885082 816.029559106553 0.001163111186625072
0.19098929339136658 0.05009662416873207 815.9911120505265 0.000919675864036717
0.2033529026489563 0.046675942083399945 816.0038897155067 0.0010035285292134977
0.20409813765205242 0.05031316007299695 815.9928828733501 0.0011969422202899756
0.1905973912332175 0.04486435203273792 816.0070721029798 0.0009749272009060838
0.22171120897270896 0.07675454595942056 815.9357842304012 0.0014747260496904971
0.21952174682847958 0.0696719320027831 815.9515961573802 0.001527795412155893
0.20742120392661811 0.057213017059335056 815.9753454401334 0.0010376786407475518
0.20883393925604007 0.07592380274926498 815.9314193846391 0.0011628485928260055
0.22016493597611264 0.06529792246942447 815.9624086222354 0.0011681595409579356
0.2206265069760009 0.058362210343755605 815.9792855561429 0.0012864024880413743
0.20466235283128426 0.0703708485454883 815.9430400589206 0.000897912676727455
0.20640479458942018 0.06500745597462859 815.9562905436499 0.001170621304009679
0.1889853208816633 0.0675480344834722 815.946586708131 0.0012173463029120043
0.1987334725162498 0.061497889774739925 815.9631412070626 0.0011821014589371394
0.19066949567983457 0.0574869369407567 815.9713668277687 0.0009061106164411036
0.18347684245724563 0.060746061465085904 815.9619881439935 0.0013883322999980656
0.228073170170226 0.11043283302599588 815.8714766570356 0.0016776386035487155
0.23224975838908257 0.09152722976722903 815.9106200640974 0.0016298891980550917
0.23226488465448208 0.09992811983892214 815.8946111777799 0.0020839319473747544
0.24266277267888703 0.09870335028520673 815.904788957288 0.0022476973540969183
0.2432635307567655 0.10534386682474169 815.8925107262648 0.002431311072160873
0.24588325692158416 0.11242576078428924 815.8809322929948 0.0014704837016909097
0.24355220615282647 0.08958164956237387 815.9229682588569 0.0016304979394723672
0.23364398224034003 0.08020612986758602 815.9349722072482 0.0016462672143565302
0.23357134134332055 0.07148942826968675 815.955322888051 0.0018114259838878319
0.23669591517037808 0.07703528228518304 815.9452421430734 0.0015077537036465197
0.21939655214324577 0.08070937544913565 815.925336882502 0.0013869974605187154
0.2183131270191942 0.09242823356986785 815.9019295689272 0.0012521884484284077
0.2114773129923061 0.08265488047205574 815.9183024306765 0.0013923921762964597
0.22154142987202252 0.08802850478406907 815.9118654559361 0.0017494286208400228
0.21881394548085945 0.09917352621076436 815.8889139176904 0.00126848416574386
0.21554281103890705 0.10806635463828498 815.870347534967 0.0010643024529066454
0.20592153004542377 0.09202312537319744 815.8978801743607 0.0012572867255685645
0.2052466766972211 0.10682330882014401 815.8688255187096 0.0014580789407102268
0.23480826851706801 0.1260720896686785 815.8502634281649 0.00288661024716688
0.24409365133610691 0.11856064937040066 815.8679061174605 0.0027113197190598596
0.23709149345570196 0.12099681613178928 815.8597198614923 0.0029299527935967417
0.2246254809512939 0.13293716074451414 815.833091365633 0.006841245815667632
0.20599106704730547 0.12909547539035343 815.8328090397526 0.011426506976853625
0.20529499066623702 0.13492507102060033 815.8231384491305 0.029712773099321348
0.20850452337434172 0.12290704395091392 815.8436427413959 0.0021064415772454855
0.2134749608858066 0.11572104096103676 815.856879404314 0.0013238053137309188
0.21644081444518132 0.1419483774174249 815.8148903907062 0.038318660380755015
0.22251492869868683 0.12192561253599873 815.8495589851084 0.0018143826692882494
0.25323905876218594 0.10437453380489495 815.9034114407903 0.004063230183070429
0.2558870892579121 0.12277375010849641 815.8729610098239 0.0026366501206244635
0.2579782911587615 0.11718753037641937 815.8855445011225 0.002533622947732062
0.23494538825676287 0.13877270374906578 815.8299710755704 0.010356628876644108
0.22727471821143116 0.1406825235004892 815.8223453489695 0.02751404896335583
0.24301417074973924 0.13555165040683956 815.8405847851966 0.0036377297747024187
0.24688244470856785 0.13055224876360783 815.8518306833021 0.0027207426581252465
0.2550336508876877 0.12971477426618566 815.8609043236656 0.0033566788875533343
0.2678434750779943 0.12436153755354064 815.8844439088778 0.001331741868405708
0.27288899416033885 0.10964877484332061 815.9171877453507 0.0026881910379151983
0.2640513023126115 0.10790504241774249 815.9095753975555 0.00278479448684314
0.2571060773916206 0.10014644234030029 815.9156026306367 0.0029570493308712126
0.26818454622454996 0.10220910014604041 815.9248296095996 0.0014292217830727263
0.26875849148200176 0.11628822920560404 815.8997818620423 0.0013690803658105855
0.2569486557193303 0.15409798322141546 815.8262214199403 0.025658001000478253
0.2698083179438998 0.13643722912826706 815.8676693234282 0.0027052880029421367
0.2704513432248524 0.14485804142445907 815.8569429030836 0.0024527596252474286
0.26494892794718855 0.15019083411100215 815.8422674460919 0.004501074318086651
0.2457126171195217 0.14718451080262981 815.8255528307861 0.02623984223171562
0.2530172498700461 0.1583540088988435 815.8152954063128 0.034132432132678574
0.2550623085191664 0.14419441782707035 815.8389269437826 0.006215807855060903
0.29008795283996036 0.12097804628819116 815.9260911327381 0.0017494668766113734
0.2853006552451491 0.12463012140050828 815.912228505624 0.002866316243532704
0.28151011460258135 0.139625692361466 815.8810086393677 0.0028418586287714555
0.27753171963294243 0.12242398480555679 815.9033339064397 0.003228763531725539
0.25578272649377987 0.09303570330614785 815.9271623570108 0.002275116278114764
0.2619412444215492 0.08031138001560739 815.964645730438 0.001772081365292568
0.262421212149388 0.09085008573187392 815.9416268093632 0.0017726702645367038
0.25509869642728333 0.08421440086969367 815.9460241096606 0.0025684370681266144
0.28788918959252613 0.1330603503688855 815.9031117458215 0.003156081449444494
0.2845028458481717 0.14810157763889314 815.8741602013471 0.0033613557741871353
0.2851024845465135 0.13649436291650796 815.8922698205499 0.0024056291252333834
0.26292339768047945 0.1641398041619496 815.8202069253163 0.03310449120208215
0.26928930945283513 0.15958841126739695 815.8349820255623 0.015378951418749611
0.2768439649592848 0.16013709382071956 815.8458179358618 0.0036596644930797944
0.27270505454221783 0.16897544303807166 815.8282300670269 0.015019479650995728
0.28000307778439537 0.15238955224605163 815.8604280158229 0.002939072101805494
0.2766481870517346 0.18399542356393161 815.8171415800998 0.03756367160105699
0.28412970848224306 0.17121404824481667 815.8452145020731 0.002622684198224034
0.2886820943225941 0.16909197718023 815.8555656534834 0.00268961852496889
0.24608980957845433 0.07484635776553582 815.9591709866288 0.0017927257139920998
0.25255012009203215 0.0697823166257083 815.9772109915051 0.001858735303859568
0.2411317423258234 0.06720301989421018 815.9724499339825 0.001487762385291991
0.23503146986406348 0.06031747615666594 815.9828629244198 0.0012337469027351188
0.20201240028719147 0.11252891304087875 815.8585837437896 0.0014816105969736712
0.19020222093455952 0.12280727960672763 815.8401544437651 0.0009627955340662341
0.19339392474876116 0.12966877479983185 815.8293721002207 0.021636031525807127
0.19328334287653834 0.13678579450041145 815.8179458628133 0.024688482483681967
0.1848794724535651 0.10836092785536529 815.8638360217427 0.0009613813929199096
0.19146225100687275 0.11496496243997589 815.8531637511296 0.0009268409684007858
0.19012428324887082 0.08939256217230375 815.9001343268818 0.0011115620276982352
0.19314995348796657 0.0949320618948874 815.8897718319811 0.0010698816302663198
0.20115722821311116 0.08665875803948028 815.9073338198248 0.001246741718839009
0.2005555335206345 0.09984372213891544 815.8813701167583 0.0011127112260017173
0.1909810528765704 0.10260821601478098 815.874801437234 0.0011775751048280238
0.19950727244511132 0.07757702698524378 815.9251780258328 0.001177164671187255
0.1862112674647039 0.08375739602162344 815.910905938991 0.0008709513133601828
0.1910172518477037 0.07210472181525554 815.9364480478594 0.0009220919878692468
0.20466270649700133 0.006803386500410702 816.1769659474012 0.0010780789874258617
0.18960122587427752 0.004810156061940862 816.1864866415092 0.0011803644876576007
0.19426904875431214 0.007475589145818489 816.1665563281567 0.0012715925991532062
0.188563056296092 0.00888313410288788 816.1542149520445 0.0011733492015744492
0.22005624559714704 0.008518647737406619 816.1880028443043 0.0014573392047464084
0.22847730239587694 0.00959075374954406 816.1959382843395 0.0008004867497120787
0.22405387109934544 0.010615965933339187 816.1750904605078 0.0014269301987445025
0.19765554140959413 0.0012534266875812888 816.2308570025883 0.10117432297328702
0.20251047224331828 0.005059118478353566 816.1938822724924 0.0010069749461352597
0.18649349122492903 0.0024983876336033776 816.2074791618418 0.0025417976157960116
0.21356614457333145 0.005330382803131366 816.2072394317884 0.005330313468944644
0.21491143131545548 0.003439987952892372 816.2312715173489 0.08503381831127667
0.20913041103320534 0.003324782042230952 816.2214490713602 0.07399682103232105
0.18950901304803983 0.0016426711208217292 816.2194783072596 0.08377730348830573
0.22691470101928862 0.005882038243380145 816.2329345709065 0.10466871647547593
0.23041053805213885 0.008979128240186676 816.2076830182166 0.027773981816894527
0.24474745824498978 0.014428417352345763 816.2016342145893 0.0016727224578490052
0.2563906661813354 0.020887406810594793 816.1808565167363 0.0019427863555392599
0.2385658627345202 0.013084249595734026 816.1892988179579 0.002051349575364143
0.24757843202662777 0.014547830383633373 816.2128439803214 0.02951373455390605
0.23586253380815828 0.009750945292114037 816.2170734839344 0.043771910655275435
0.24500760064857144 0.01245469357661143 816.2247225272586 0.0631729588828527
0.25615845467757 0.01963984344801488 816.193452226819 0.002103257706122781
0.24078486386600018 0.009868399647027471 816.235126801792 0.11012315324070793
0.2695917951872804 0.03151841634946335 816.1562452386275 0.0017418348781114781
0.2841639086821127 0.04362395538549366 816.1363569211292 0.0023320036321140825
0.28342149715010223 0.04122576402656035 816.1483157243841 0.0015191400822416514
0.2705030541097623 0.026858680636019754 816.2016825471754 0.001778829325226656
0.2782472577260018 0.032992314803964314 816.1850378585067 0.001339153612085759
0.2682038125999473 0.027274927237145714 816.1805517148366 0.002152582936556979
0.2647289425316102 0.02153359308761865 816.2236374897764 0.09044977184007888
0.2636647405923886 0.021915665007934314 816.2114699346771 0.024780946773372527
0.25597581789049495 0.01606467798745522 816.2360830013647 0.09372097431872309
0.2899315799853126 0.05112887647533869 816.1216021256673 0.0026253824185333446
0.29474424568271274 0.057021035508823426 816.1117775961533 0.0019357607675542946
0.2926714394327167 0.05078410824300028 816.1398986738827 0.0026092633588798643
0.29719079805065873 0.04995367954437206 816.1695238681014 0.0020152942327079887
0.30259541102045495 0.05968183908632792 816.1393438584338 0.000711426467542063
0.301087100344063 0.06031371757744453 816.1274412707693 0.0007997110758432181
0.28819332794380886 0.042665447397378375 816.1656745695665 0.0020736628291325417
0.2945810538968078 0.04967901825801716 816.1572371778128 0.001972165300825264
0.28556296598243436 0.037689703744109 816.1925131812009 0.0020662439410829205
0.2995643352106148 0.05088142647361416 816.1801589696404 0.0020712279638349083
0.2877025901166498 0.04037969443380233 816.181246988057 0.0025032242098104473
0.29496499973586615 0.04541672076594236 816.1999568261298 0.0021454118628907687
0.2883088124874485 0.038922632233109475 816.2089297037633 0.017296232732687024
0.27977103586400254 0.0324364100138854 816.2030580253067 0.0018511659776820788
0.2823981134892161 0.03302879339944283 816.2212893413505 0.05700088500446291
0.2738180749255764 0.027678323077314514 816.215814188344 0.023537597566369885
0.31732711143670383 0.08312358284310628 816.1085736389557 0.0016617753508178794
0.3137365621706963 0.08583791624738887 816.08240967611 0.0023405457077513864
0.3182100727075358 0.09376079900252252 816.0750131361269 0.0014567453093105496
0.3164416364168564 0.07954581973033403 816.1218780796917 0.0020421714384632173
0.31507062190035534 0.07582114431565559 816.1346942785163 0.0021019776630204247
0.3093678635411919 0.07037933205813741 816.1217532276686 0.0019482697149594119
0.32594966984239243 0.128135640138237 816.0220116541265 0.0014381487189917563
0.3227415047380627 0.1112958547149645 816.0437693189394 0.0012947843808730976
0.326349996443747 0.12104105575927315 816.0384037176644 0.0016795691956583295
0.3285904754907407 0.11944027172148577 816.0512593384776 0.001065190975520822
0.32352950349031795 0.10316859056252321 816.0720956290437 0.0022386663117866857
0.3274984123694539 0.11339087682843477 816.0641771421176 0.0015932929585627126
0.3225006058347084 0.094219795124773 816.0950471077183 0.0014260970515029472
0.3288007714757596 0.11134824881119484 816.0791909260267 0.001836120226568978
0.32839325267987546 0.10616942663401877 816.0930094334112 0.0017373800110931578
0.3343197287997299 0.11755541585611605 816.0920762080343 0.001558411631347947
0.3287988338353186 0.10184143666470113 816.1089254988864 0.0011996422511347557
0.33503599198831885 0.11230984371245487 816.1128957848916 0.0010638559343850683
0.3275235250508465 0.09643047016791567 816.1254353824913 0.001005886091445509
0.32652674795749215 0.09251366952885862 816.139147330072 0.0013828030811716154
0.3094698764088669 0.06479639610201884 816.1588547900051 0.0019406664065606946
0.3177337927689676 0.07584483494435604 816.1542342140403 0.0016253987725785692
0.3215485357831863 0.08413645097412058 816.133181785655 0.0013594174423896786
0.3192211129443645 0.0756019781035084 816.1666301462178 0.00130786064128251
0.3054096940854305 0.05756236813320165 816.1718297205729 0.0019947193243286224
0.3340960626367275 0.129562724890596 816.056507047213 0.0011052703036954848
0.33449864757719566 0.1262587074134991 816.068904287119 0.0014875159187583344
0.34003885333307593 0.14389251714661191 816.066449936219 0.0010206459438002239
0.33526109238322427 0.12472709455889307 816.0794225022809 0.0014602991042649914
0.3379280434785529 0.1418450951830965 816.0545745946747 0.001192254657515683
0.33973681316432514 0.13839933428973394 816.0784223420615 0.0014875214359804853
0.3420952160331301 0.1347605627786751 816.1045129588706 0.001004810349863748
0.338536407573588 0.13080973997288578 816.0893436654437 0.0009196584769493899
0.3384217123844582 0.12373628177875587 816.1066592865933 0.0010081676208148443
0.3403309149207121 0.12601187795483357 816.1168503070217 0.0009489706621674731
0.33810058479360894 0.11834026646796461 816.1265169871646 0.0011211276978573344
0.34031586516641354 0.12298539816040492 816.1359262514586 0.0011481773738018254
0.33752279897730836 0.11399433129454184 816.1440941107178 0.0007319556695764349
0.3336981959881561 0.10596519221195697 816.1354989676926 0.001200141772125936
0.3334491576709471 0.10068325414881245 816.1626461986142 0.000620219838910287
0.32644248651852603 0.08876641321056375 816.1608458158282 0.0012738801040395214
0.3290744054383361 0.09497723666977165 816.1518073823911 0.00146241421618469
0.32007483154584865 0.07440469881456338 816.2001306032596 0.0015562491485519366
0.3271267111551263 0.08695135736684595 816.1921899734273 0.0013328280286427341
0.32622795406747024 0.0857826348618928 816.1799685709997 0.0009985704289867563
0.32270123020249086 0.07849534219035484 816.2150773441949 0.03941902172076668
