x y z curv
0.13012789302138636 0.19276583443636772 0.06616971250203141 0.003108500531859987
0.12429633442697038 0.18624567072162593 0.03750260492180777 0.008816132464465937
0.13842923317355052 0.1735125315638409 0.0557590332367167 0.002111483138668302
0.1318294907964735 0.18275909150128822 0.054570449886619944 0.00358517536967217
0.1419453531017763 0.18902788941971974 0.09844799278761494 0.003143645342946461
0.1251632137208661 0.1777774562410291 0.02264419265252449 0.0805650906448511
0.066647059696936 0.2958748835243549 0.34387426056507325 0.20423369324581128
0.05281924125034436 0.18242364655341958 0.3293992006420669 0.17274655670790992
0.058559652888659566 0.18789546924292477 0.31190374594399356 0.11963727312971574
0.05235460282394252 0.19340079689251632 0.3260302916350039 0.15512141382793856
0.0588097835625132 0.2547331481812626 0.3181456459570975 0.15263258851519074
0.10717619442173475 0.12942218104163816 0.27116338717886357 0.001180424652797708
0.09604205814786529 0.13006127614240803 0.282455259338543 0.0011581501657340772
0.10998474213104309 0.11864249477201619 0.27541438056616785 0.0013094630019065117
0.10846880695147727 0.10163781735312957 0.2900943000560074 0.0016542876048286181
0.10141701471340198 0.11343451406511088 0.28813632147964724 0.0015716036234862335
0.12585842702538916 0.23969560303489743 0.21531183231355108 0.008833361741283961
0.1205787486131741 0.24537958176315944 0.22415603954825009 0.004984755177385288
0.11438816236961115 0.24054804654276762 0.23273380460691026 0.002832861562834978
0.1061352648621771 0.24158794354411264 0.24373781452763738 0.0023769969394212215
0.10289521501620674 0.22610985563262423 0.24661401262857385 0.0012577138479523526
0.09379458704566102 0.2238518099223204 0.2576673547009153 0.0008018479544584357
0.14164120951473683 0.31200576528269997 0.23898026338000508 0.006130263016511025
0.13943626138949247 0.3197758016382994 0.25040441682631415 0.00370125255758889
0.1300418651693084 0.3221736069739042 0.2630152397726994 0.00305455120509539
0.13034851257090796 0.31363734637793395 0.25406220981486083 0.0038713686627971813
0.165549157171085 0.306536221518288 0.20648687553018658 0.009371059013465929
0.15596675166587345 0.31931866571041123 0.23408882532774555 0.004096197485071624
0.14154297660575937 0.33823564815680446 0.27289737010920784 0.001916839431305653
0.12606877577956632 0.3414462483747244 0.2933921731663548 0.09748768213838631
0.11867631722223919 0.3410444736615997 0.30138979810544975 0.15902447560521604
0.12495592490309704 0.33176732932089004 0.2794782000728995 0.002307372134675221
0.10721437448505838 0.3339628995272339 0.3069302185089541 0.14112537026235092
0.1303115597192995 0.3489343412922884 0.3023982126981191 0.14683590467814875
0.13884339331574946 0.3466208688628832 0.2878710660095125 0.05050690512329696
0.16130093991807415 0.3287525983072841 0.24380986461765644 0.004058701299747497
0.1550945434523079 0.3418550276186909 0.26767481044111124 0.0034406175980797975
0.15517788875447514 0.34805719170556154 0.2768653401931861 0.002761529510268638
0.1507625368205685 0.3340015284435358 0.2589836960535342 0.0028228576254227897
0.16918022399621094 0.31713895542372683 0.2213739887616637 0.003932066459674177
0.20610598753992712 0.3597155262789361 0.28045858169196436 0.18974886608773187
0.2045988626502533 0.3069555624307796 0.1289775663761468 0.2430747698193309
0.20458988857481736 0.4022651673457468 0.29966038445739496 0.0708135832547835
0.20460682262050434 0.3797764399136662 0.29992073480208453 0.22000076898136264
0.20457430389031284 0.44159861435148556 0.2860584203406353 0.23069975030105155
0.20457535290663167 0.4094727016722364 0.2889764844896747 0.1557994045406499
0.20457492271958636 0.4208283498601298 0.28768089792620444 0.18996049457877182
0.20457352926647765 0.4162363413257589 0.3232649041486647 0.1493435313140705
0.2045682069846535 0.3960830540358465 0.3240250972272547 0.21616990592235086
0.2045714005073371 0.3796712788423583 0.3258304534871373 0.2680213105588536
0.19799900231849954 0.3890605959362251 0.34154829886825905 0.17883456090690444
0.2039145786161296 0.39941041811432343 0.3425652365696873 0.15271497708632842
0.15505059847388133 0.3740979452426785 0.34502866612583316 0.22454144235047022
0.1614224566554671 0.3833741898320106 0.3457860440278577 0.15762024845989478
0.17334561936739828 0.3839601248046925 0.34417574430502523 0.17250426090730075
0.17045150586100083 0.4031644078702086 0.3480588805209581 0.05459144884820236
0.1856292857609705 0.38994963367982066 0.3434890480756673 0.11089605786284187
0.19259540685463147 0.41079757369459957 0.34624986788677414 0.07728167045706617
0.17524542968082185 0.41562584513110346 0.3496184271176457 0.07933257140436602
0.19308729220659848 0.37842203639077554 0.3387833612178773 0.20012109976443956
0.18141661413108828 0.3760525256754618 0.33101868073608903 0.21637193857988463
0.16903117381617178 0.37335971556642467 0.32981875941668065 0.25836949080567045
0.17800672824581792 0.3689396711432248 0.3076808795547839 0.17919950624395434
0.20457556683529396 0.4315856097121568 0.32366081316904194 0.14853536030270673
0.2045750116464949 0.43018878634209196 0.34565109590206355 0.11894232055502311
0.2021835788132388 0.4641197755990195 0.33331700727404473 0.11552293305615959
0.19531963870001232 0.4745061829749855 0.3281932813437302 0.16258664751963453
0.18880636979732007 0.48524659104734547 0.3214472601751901 0.2365199129440989
0.17387225618033547 0.4851847861971668 0.3206820269729268 0.24780807358817913
0.20134746884183596 0.48351530877793364 0.31984961979103743 0.23268990514007915
0.18688585280311099 0.37389902496104804 0.3206439136079693 0.26354118251510045
0.20457543652899066 0.40777453926866564 0.3328681001885505 0.2275660729246868
0.2045753317122903 0.440679428821391 0.3135749946396932 0.12648207760173394
0.20457539299668973 0.39499990989078543 0.3107528266771386 0.11668149388733663
0.2045753617462319 0.4095421588355306 0.3102079328196391 0.03202099789150949
0.20457439968314814 0.4540575152642904 0.3053807061864445 0.24219986285026665
0.16194244674951294 0.5540876312732164 0.3567558736468979 0.02494548256186721
0.1664131180181803 0.5465144908435231 0.34644880890137975 0.04185777252304405
0.16501347566627048 0.5657702368707985 0.35137139144129015 0.026780617598626103
0.15953584826380635 0.5678532802957896 0.3651726494041677 0.10882735331304773
0.16187237519794412 0.5878759022734411 0.37474887491364506 0.15508754119546542
0.15819181009114155 0.5729503311997295 0.37572617408285547 0.17518364701334552
0.14467459299804547 0.5807908285025113 0.38493792684098577 0.11140451997464018
0.13376011740722893 0.5912058723730337 0.3852209954502605 0.05428058710549298
0.1756505584922281 0.5660253503207332 0.3404446396658529 0.028259172418300196
0.1800830030192177 0.5864001237214824 0.34477636982313703 0.02085554183346847
0.1905361549125975 0.5858198748716568 0.3411958871987031 0.012539634816038338
0.21110725067786373 0.5677516515016534 0.3341056954756148 0.004780456501591813
0.20211731696670046 0.5792635838779896 0.33709949636857106 0.01054384602887853
0.19600739636895143 0.5678804847741883 0.33504913091013255 0.013867292878509458
0.166487863001996 0.5863489997481335 0.36047288209488426 0.06919182063225647
0.15793010926791312 0.5581757444741431 0.3755672407269599 0.20683073792993534
0.16114546199164254 0.5443428675396839 0.37835745287836436 0.252792636796177
0.16181402708442122 0.5435366601414096 0.36666987497142467 0.15180681751320096
0.13914127345352106 0.5484181256976238 0.38507393891538155 0.13886935307221865
0.15251578370269048 0.5408945141942694 0.38470289301053134 0.19760966964894974
0.0661203254872626 0.3882167773248779 0.3881655440055125 0.10454433429570832
0.09415323486435814 0.3939803678124938 0.3862453800192749 0.11615189036660989
0.07540640582391422 0.39984714248432685 0.38674379010975996 0.09275993340611177
0.06928633254484814 0.4159595488638121 0.3870309414968994 0.12165414571379975
0.06792730032553454 0.5049092572408685 0.3876196286858568 0.09599577725425973
0.0760922334227612 0.3461582003590512 0.383493936378672 0.21224873950034404
0.09777493947918439 0.37054971638277656 0.3855850234246273 0.2282293521889018
0.05699008020166305 0.3205475660176571 0.3838918725807347 0.2530728732128812
0.16130887381444808 0.41509487426990255 0.3784838224961227 0.23364223487387817
0.11857516830665758 0.3806515012564561 0.3800122856436332 0.23899140997125354
0.12686898070227481 0.39131079938038205 0.3839500364287015 0.2614671779941394
0.13989246371409675 0.40395793225142435 0.3845544556639889 0.26575824891869165
0.16771905601904005 0.43569688495901426 0.35826089111696563 0.09434165507606987
0.16756300066361315 0.4491796484989038 0.3762857495366914 0.23525452020118198
0.16814515193523485 0.43709603465825786 0.37362668788116593 0.20112014519258892
0.1671432108059555 0.448540455563832 0.3623967258277535 0.09282255967454948
0.1685275702454689 0.42217402534720294 0.3600762975026037 0.16438025722299485
0.16654306160770319 0.4634113692553109 0.3692172894545249 0.13199741686480404
0.1678592980179863 0.42757687736676475 0.3487703535165228 0.10782942337745599
0.1669400151389297 0.44593470626198806 0.3518811162752802 0.07420500787433278
0.16574550689360446 0.4723340665382386 0.36034935860890815 0.061625482897567106
0.1956587183085065 0.44486752933541024 0.34197825719513975 0.1014083121097865
0.1762961895837927 0.451756616635842 0.3397731224823344 0.08690611024643619
0.2027737441713589 0.4533943385563328 0.33825407622546644 0.1229971933039198
0.19207121567794302 0.4567420606352789 0.3371564209602817 0.10129497825207533
0.18482890661701812 0.42374928326485073 0.3485768201904455 0.0819603556502638
0.1657693300885677 0.46395903785774184 0.3804806123108953 0.2567713866240555
0.16712407743867896 0.4273826898496342 0.38149693449237304 0.27253326452947174
0.029980421800761235 0.23069784967082957 0.37842707991587754 0.1511946066852904
0.3558882133106438 0.3419172170286754 0.3867707555629363 0.1289465838697803
0.3330785520878303 0.35388807431380886 0.38339860399804065 0.23899757173902134
0.3405393061185818 0.3647939577374746 0.3865360892293262 0.15519693680436358
0.3529203971818961 0.37039074984798204 0.3873269710066979 0.10236109849322615
0.3385289707733574 0.3967770265100752 0.38664998629819985 0.11649403422268792
0.32684407013584477 0.39184690565691666 0.3863330858326651 0.12440008801914709
0.31759796597710277 0.3858505535983786 0.38607586087771195 0.16411858987193428
0.26613777213413614 0.41503410541729574 0.38475860164143 0.24534860185546498
0.2948456546117593 0.41058150768756785 0.38551662848019375 0.1386518882715456
0.30767284392930305 0.4086191088144454 0.385855309426239 0.11134846431615839
0.33318714493809953 0.35062957724239496 0.3688765762102428 0.12008111514475041
0.36547430996637253 0.3075445885043496 0.3814278429959922 0.23565098554737765
0.3543045122214009 0.3293449134943672 0.3836087168964529 0.23709957169204615
0.35168473018795676 0.3280912491155855 0.3602200196941232 0.03133185893196978
0.3555742023174124 0.32372218519227025 0.3744029562614874 0.23132508748294464
0.3757271775578752 0.2859007784001135 0.38251152574783437 0.22576868701558922
0.378781539915935 0.27403920680292193 0.3724572959899215 0.20073303093543277
0.37485035636198694 0.2853533134496991 0.3689498174250123 0.17540849912655246
0.3708900313936725 0.2933480976345266 0.35956222381427083 0.01654323963880673
0.38698430613977186 0.24760306812522515 0.39190847670480145 0.17311813860296008
0.27585530388745716 0.5239106405846559 0.37496981453782874 0.24320661004282196
0.30078118621470923 0.5000926465001614 0.33889174110766707 0.028423885894484392
0.2894036980151292 0.5149622829971375 0.36121177321149756 0.1768988491698826
0.2812191790939373 0.5090893658191448 0.3530132264283904 0.17188585165088024
0.2582786935684911 0.5261776121232178 0.37912234417961965 0.26907089724726757
0.26804458226078903 0.529728956523962 0.3837854518815398 0.21705620785140234
0.2819022481896003 0.5011668881397419 0.3851756477303571 0.18124609235615738
0.26949885377439364 0.4828307005556145 0.38484638407644545 0.17353881621018566
0.2625750744104159 0.472242012482054 0.3846625743082093 0.2260616743057743
0.26715994332150383 0.4610034171558818 0.3847838075868355 0.16885252006500312
0.28555624094600357 0.5133784172718201 0.38527282814991376 0.20977188995941295
0.25872253775130233 0.45229591711579065 0.38455992594816685 0.23319828519629762
0.28419838816743703 0.48571406108382165 0.38523610179778467 0.13777073852060517
0.260791462027505 0.5062901591292931 0.38461619899909055 0.23660957791274306
0.28019418291681336 0.5243062752967739 0.38513098564161063 0.19391071215451436
0.2703637583493331 0.4994680295753917 0.3848697513802649 0.21052578482980278
0.2725287450340421 0.5115190656950186 0.38492745838917786 0.23326270325268597
0.29948164542828704 0.5271125006880085 0.3856423137444282 0.13747451942781894
0.2776455787697909 0.46467012920395034 0.2959877655740326 0.13310787474810834
0.29278951379407664 0.4625475254928035 0.29320377623946325 0.1426314245725628
0.29823133129599216 0.4720081805514499 0.30286576283163913 0.12248000102281985
0.26597767069120026 0.4620066542870213 0.2940120381420128 0.13888706351478738
0.28258173730194036 0.45722220928858437 0.2889848445154243 0.14214939776828944
0.27126483272567137 0.45077357437386567 0.2846578144861518 0.17340092030298865
0.258212957656563 0.4536225444088623 0.2880719921205334 0.17186028249280702
0.24762464002231752 0.46015454591057514 0.29386570772140214 0.1660152114059379
0.22231989054261836 0.4637904968948116 0.2975856612279232 0.24159972103844365
0.24797986916539813 0.447476808189372 0.2850078589117567 0.164931517316257
0.2211115054020944 0.45170257187416213 0.28978074383802616 0.2396309320705444
0.22873351377116952 0.4367277100444337 0.2807959063622483 0.1517230550981373
0.23763203535939587 0.45136403092093597 0.28845416337515944 0.20501314095661674
0.3007408674942704 0.4878162161574323 0.3219880855385383 0.04067738262177313
0.28438885830705696 0.4888487368239097 0.32385545723271003 0.04504057309937964
0.2508939896735802 0.4706870224482799 0.30329409129555474 0.13521710319343744
0.2664290346736869 0.47056059504288594 0.30256301012625253 0.10833308444561965
0.2854451348113519 0.4781718771894836 0.3101187167017269 0.06484285226138468
0.2526960443588981 0.48312245823495353 0.3176879144972029 0.15188795549432269
0.23188287584776437 0.47563048859729934 0.3092958654728243 0.2199205504371407
0.23548371245559524 0.46653834362303265 0.29950038573137994 0.19474747990546323
0.21449633225118608 0.47919303050546597 0.3144981860185216 0.24146023401384636
0.2457110603177138 0.4717842441331156 0.3302694718669033 0.20422712748023936
0.234846901432483 0.4797937422103521 0.32585348772880873 0.22854494328227445
0.2531507326737552 0.5159344430494063 0.36753404242160387 0.2324851815077152
0.25242042728429537 0.48557792252023835 0.33829440220693097 0.2181018213523028
0.251947094168246 0.4761910687962076 0.3463832124597496 0.1133277908848455
0.25264987350509094 0.4950897319223937 0.3474137009746887 0.18495850939280012
0.25094582303596863 0.47687466531761324 0.37514705700655077 0.21318412195871836
0.24906422583649512 0.4399852951233425 0.3744163944216244 0.23005695384825256
0.25134114983639005 0.4709468626633107 0.35596131485722016 0.05532047830631518
0.2526438504245269 0.5021930842844923 0.3645351293470375 0.1545865545322135
0.25018450502006 0.44592486916859764 0.3521958575468426 0.07075831206975786
0.25027666258633485 0.4624344438391205 0.3730193597353106 0.22006295346162646
0.25178559336790285 0.4855513408594982 0.36446297092004376 0.10403150936297391
0.2508480646066639 0.4577510248721646 0.35078070430530506 0.054233455800727484
0.2498031440334128 0.4498673824891678 0.36819297658290273 0.12413930593942221
0.24847598769807233 0.42681402554245457 0.3784845494858301 0.29304167747015525
0.2684812164223282 0.4049486816867266 0.3788885561880027 0.24275108312281668
0.28865069302536495 0.388922145502138 0.37987053918192243 0.24162730239821145
0.2490367115260184 0.4272602122243775 0.3573433526306594 0.08102372977490971
0.24165374953496394 0.44480442257953373 0.34226064808951717 0.06719868523613445
0.21648289679284857 0.4258047203460971 0.3477584883435332 0.12712989277020784
0.24081295275526718 0.4223738913053872 0.3495265012739073 0.0938116156665583
0.2246006519918166 0.41368841348002094 0.3467797439998621 0.09326224846888714
0.24187691342144257 0.4087585069027494 0.3483056236266941 0.0685676753355519
0.2325771552301455 0.4007806804860561 0.34557127620690403 0.050728754982463625
0.23726182896520112 0.3893363516583612 0.344173932360086 0.12335054489886074
0.26631265362117584 0.3721637061798978 0.34527155065151605 0.23128392667762857
0.25538659850075046 0.40112406104513443 0.3488697708146586 0.04563657824864072
0.259686010795734 0.388269971200939 0.34719393258368847 0.038520255835917734
0.28470377319626117 0.3754862938371609 0.3484973951090175 0.14643053886649215
0.30620054115924505 0.3531050243579006 0.34758585730022407 0.23360639897400926
0.31580457995788225 0.3618905133587028 0.3505613091600538 0.018940518304078023
0.27087545537958624 0.3936434204861667 0.34975455034974906 0.026894374777175715
0.2907057310393965 0.38418056582329974 0.35093015854664455 0.02010137206011365
0.31625489477841173 0.3484455627917216 0.3482060249574272 0.21466427180359277
0.29979913187793794 0.37227170351605776 0.35010640059411074 0.02288413329496383
0.32726721827894906 0.3320252709645051 0.34738969638574024 0.19438358268207775
0.3058023581454486 0.34808974734725273 0.3334432464398589 0.22988078002974338
0.3207249560148152 0.3353790894143003 0.3336572490570878 0.19361209294880125
0.29431967430173 0.35046102909459986 0.31589225295748574 0.1840064227282547
0.3112218265902584 0.33758514534327067 0.31479987067888293 0.17722230851869605
0.3031026692818646 0.34633977999960136 0.321409357693631 0.1908907077075468
0.2821604866209334 0.35885886917588283 0.32021129534670845 0.19702575242251627
0.2717568020188205 0.3623786881551291 0.3159785632085622 0.2109492506591124
0.2681524697094894 0.3588806544170464 0.30282432932433356 0.16608903546089804
0.2872562136074788 0.350956385820559 0.30616695020367235 0.1600017659124553
0.28826431652228185 0.34480834144274547 0.29505367170310426 0.13012319352831864
0.2927233314166713 0.3269013351496201 0.274177323414888 0.003214630590389778
0.2804978681421653 0.3638018466793619 0.3344945751555874 0.22238730330215223
0.27750947572222756 0.39746481690325314 0.377746693090488 0.22713257820104585
0.2525405449691455 0.41728297472082676 0.373767058056548 0.21567874947209134
0.2950504101299392 0.3827464608598422 0.37149570547373467 0.18150044163833748
0.2671017922371657 0.40453460817114084 0.3625509940142829 0.09125071340721004
0.3043411764071606 0.3755753659533641 0.37528513773131444 0.20481331320805826
0.2577727595984902 0.41186380296193625 0.3602073082878018 0.09837374758201604
0.2966486163403094 0.4172859343665951 0.19967340468059924 0.018671102567355612
0.3015455598026322 0.45092680128452106 0.19313178018872373 0.06911915534502343
0.2999833305544132 0.4427666306179199 0.20081896857534554 0.054519165684304274
0.29583191023399164 0.40688912216504947 0.19239682462564403 0.028167789319903526
0.2936947232820829 0.3885400366902407 0.18898584499186064 0.040056383415049794
0.29865535857520353 0.4088579916349393 0.16554674948806 0.0007203885825568848
0.3003767281954125 0.40641068987203466 0.14973302434391028 0.00033076465037160737
0.29603470948491345 0.38791893840331876 0.1653727582733414 0.0463458463911597
0.3011706922574784 0.4192208225743337 0.15489237696541136 7.53803542037381e-05
0.30331827667495637 0.4263611719578805 0.14262686619509699 0.010649390318521936
0.3033101656194048 0.41625100404646087 0.13466685377322424 6.58115453337804e-05
0.30167277948269056 0.3974834332603953 0.13320506488602402 0.008767505036726513
0.2986551857504494 0.39559119139822346 0.15265131399224183 0.015087724311284283
0.30241069897317663 0.38939419373191764 0.1226789888345699 0.01830038058872491
0.30098430258636366 0.37777762199338927 0.125313261174139 0.04532954327545012
0.2978744768364814 0.3836817745012828 0.14980384033421168 0.04026752607994715
0.2977645907481044 0.46281988516439493 0.19305814715146394 0.08599242569633597
0.2890017662453892 0.4633040065316063 0.1840210105554736 0.05983383161809599
0.2762898576865506 0.46375553125446106 0.18607139127489322 0.059437302084594155
0.27412995117574224 0.4638388919737494 0.19814598383227103 0.05222970232217123
0.28695922599200097 0.46338504204737857 0.19933190446481763 0.06859297651474239
0.26433062171480065 0.46409510653905434 0.20573309868758966 0.06252488368211603
0.29217011217785455 0.4627666989938665 0.17183846859724278 0.06955226557482254
0.3018066081004587 0.44619426893579306 0.18151418843144712 0.06642914604495058
0.30374066111060116 0.46174234100590017 0.1818728108967762 0.06455948762172856
0.3037053217897452 0.4529954661546006 0.16874818943868533 0.07230695859880884
0.3020962410758222 0.44081345275537387 0.16997214926783044 0.07597154455824597
0.2998764129122404 0.4333620544928101 0.1844094729262053 0.05070539205120205
0.29730106383723814 0.4116575334390933 0.1817027398042252 0.010802560106099195
0.3051783878450829 0.45277232899439857 0.15201968738013583 0.09645257998619966
0.3052248398710583 0.4408653292976847 0.1393680634898302 0.06320138053666718
0.3071708483652262 0.4501508907726557 0.12861038201408914 0.08949500258173242
0.28266166003647175 0.4633907945625256 0.16491382251594955 0.06122029450074025
0.2987842210553507 0.4621428991440878 0.15097310133738026 0.08740440653266955
0.307438202229527 0.4614402957309395 0.1384377059729993 0.07107426900893485
0.25452573015939545 0.4817968618295548 0.20460547908197507 0.09394854047949755
0.2583003012759518 0.46749826751921153 0.19593886381604655 0.08104771104901709
0.2532427077811724 0.4646144041747338 0.20782683339308564 0.07204913422722356
0.3004870175695739 0.46137121585144564 0.2562577845660872 0.10914731508310117
0.28769683083793757 0.4660331431774135 0.2465246080397676 0.11575868094086618
0.2747128175400647 0.4668197936132953 0.2502242133720491 0.11130225970342114
0.27927909325895733 0.4690400238821053 0.2597179391805767 0.16055955093885352
0.25431690729373074 0.46936518604438443 0.26036719441297684 0.11616553335968939
0.23548165744152078 0.4678475943837832 0.2537224084356946 0.0815391578350297
0.19866962292770113 0.4863300104793816 0.3008487892310658 0.15744235702654022
0.18935682797649436 0.48975717813876374 0.30697667757850833 0.16072940951034237
0.21809223370056993 0.33983186984579855 0.14202274109436724 0.16298119817643572
0.2208468154743421 0.3359694526481598 0.12922789303073937 0.12038971184232156
0.21503676809450611 0.33127906100731097 0.11794014940736636 0.1849433147671576
0.21157513812981926 0.30016156087837714 0.10474952406761717 0.20201030899269604
0.21234647190644143 0.30502940832627334 0.136238937108082 0.23972762480148294
0.2190381326008755 0.29275625862607463 0.11281890000326432 0.17308955219399363
0.2318577747794194 0.2915465006269396 0.10971096921042826 0.07865011966856894
0.23096565644037353 0.29134677167957374 0.12171030913072245 0.05575430969165923
0.2237681687513993 0.2930876778766648 0.1355088378624553 0.08517737836281063
0.23531390051337997 0.29164565969989903 0.1328199245699558 0.026702165293681863
0.21182099354214423 0.29787779494718825 0.15784862847815181 0.18349438887737649
0.21889322776537845 0.29503955907075513 0.14557483601409082 0.10873254722582008
0.23366178816839775 0.29350318820870186 0.14878563170964915 0.03828519916816831
0.24977220764865404 0.2916548037964372 0.16847974682520223 0.019980732148774983
0.25225796523696253 0.2880566601206537 0.15509901807640666 0.02065697722276202
0.25480761691851306 0.29135207369946403 0.17986440515588004 0.02119587579503612
0.24499099952690284 0.28827308309169025 0.11940721666928988 0.015357495357005403
0.2384843991192876 0.29093734030719054 0.09793603681962913 0.08198221934793012
0.2309585879792589 0.2938919820211795 0.09021805081738836 0.11350298670124666
0.2525163898201681 0.28730445909396946 0.1025603891275413 0.020628078261814228
0.2567273655847612 0.28631115060497886 0.08920070348236542 0.03852460146468036
0.26270929776048946 0.28218729913151025 0.10475115233843095 0.015373291760001066
0.26558467646791395 0.2829602319056177 0.08345259848933134 0.01814651797282473
0.2653676963219556 0.27977186598043186 0.11582191238284645 0.025736480975154442
0.27553665681240286 0.27675108335405996 0.0769580331350729 0.012744226237888482
0.2751584724159165 0.2722314947565158 0.10391591931051736 0.015173767642711526
0.2760634595597756 0.27444158296468935 0.09036997629033673 0.01650797627772927
0.26322115367087157 0.2798618408776481 0.14094328851896498 0.025255988763441584
0.25906024417883133 0.28249923318224673 0.12616579731215552 0.025587160915607095
0.253513539922182 0.2861766681518322 0.13991417706265177 0.02280534787719386
0.26714761952761606 0.2750333808687907 0.15084599493393833 0.02283990119712893
0.26830100500193554 0.2740168136887152 0.1682392704085132 0.028029820575899738
0.2637437828467638 0.28510436420308455 0.18447392814957786 0.021149667486553576
0.21380073455816895 0.3110166903031015 0.09351282791299635 0.21234258936687453
0.22407718350390202 0.31674596441118175 0.09335034477455642 0.17438066364612637
0.21257290941968543 0.32000201279004514 0.10243926776461809 0.24517891700243818
0.21532076354610696 0.29964838865781296 0.09319056567764189 0.1765858130913612
0.22309964499878132 0.29282970578141687 0.10135900629032034 0.12910007070675944
0.24046604441027053 0.2941486312061453 0.08298570306662587 0.07798426012609111
0.23808642914377165 0.30870890888373453 0.08108076510416412 0.11724474186735397
0.25326069317986866 0.31112953920617353 0.05948658600248506 0.061321786269351475
0.2450229718226934 0.31948995583654427 0.07392790642946451 0.07282393943133107
0.2529233542322017 0.3259761223139052 0.06623868089430812 0.046655326829845606
0.2613088435664002 0.32254666567408274 0.0521066761780564 0.026166512271092856
0.27301023761706467 0.3282973475117045 0.045851655459201585 0.030756435105368837
0.25002332180733267 0.30124580582932753 0.0659156779427718 0.06018412368023693
0.2611744257798849 0.2934511259129699 0.05371472267125934 0.034577795881108785
0.2568888822193087 0.28980234995295795 0.069019072380057 0.04086191265625972
0.27506218324602183 0.28102783640100415 0.061264385828291495 0.01578144152053764
0.28250328192596047 0.28123735709090314 0.0504283303597805 0.025632920755100062
0.29543410597288955 0.27098149453730036 0.05305163982577332 0.03586508402290455
0.29695079008219966 0.2769555665666611 0.04265658994612425 0.048928701164875466
0.2780006610453992 0.29363264199084504 0.037057863375100156 0.13466432449268034
0.2861934165390684 0.2737352414215122 0.06008226312352004 0.02704616838884876
0.2940191408754808 0.2875809096931069 0.03478282433818374 0.15060967300354658
0.3056454034330248 0.28115348811284757 0.033986692504038886 0.09741606164851291
0.3049211592440481 0.29234476827537037 0.029338978622812657 0.17133747201742736
0.2946478644994558 0.26273639666748505 0.06714517075558653 0.025610474337344497
0.2875739795819516 0.25614471156608976 0.09600495622159341 0.025528993787259726
0.2943514905440716 0.25012467048529635 0.0789254557010097 0.018953936509943366
0.2837023015330241 0.2500384671049777 0.11654520970426424 0.01664006869378932
0.2899923275797759 0.24132216700356907 0.09537728431403135 0.013133560049212699
0.28162062362051654 0.23861425332187902 0.12721576340297286 0.013271211117807704
0.27975068720972535 0.2501516624913145 0.13401782590695163 0.02216438300045423
0.28290402218114047 0.22524635505511006 0.11510156191996959 0.008032604734560514
0.28630234674025157 0.23263478113715036 0.10641471699177982 0.006656347403962812
0.29808934430586453 0.2378740158827527 0.06741413404471153 0.016822850688893422
0.29157112006987346 0.230380037952989 0.08680009600019377 0.010622890619678667
0.29779603923598186 0.22488917258153748 0.06251990380779579 0.00362742038152778
0.3049277333040882 0.22795805761597002 0.03897026056487632 0.008135326669771853
0.3011128696387343 0.22523099239059297 0.05107245557618496 0.001658060487488492
0.29389134935202793 0.21880839129385743 0.07274501917270311 0.0018489975495601754
0.29549777794316545 0.21318148022667294 0.06279341856908326 0.0024194750123884877
0.29965377287947675 0.2129917208082371 0.048248641952837505 0.002081395399943585
0.28470736311826794 0.219230911666919 0.1047645587772165 0.005355610760284883
0.2874627321412228 0.21648878086734977 0.09299913759915412 0.005870009777849938
0.27858930283949557 0.21860928102768182 0.128504097063382 0.0075223898107027835
0.2761175951346744 0.21690810310884207 0.14054570012208 0.007648154139001723
0.2752177781834554 0.22080558022423777 0.15469672154727448 0.011077614251975124
0.2777960705679658 0.2270728058099449 0.1840931037321534 0.012481472067083619
0.27582556970601974 0.22325007066564376 0.17205695575479024 0.012080736843475774
0.2727884500358563 0.21023421048660093 0.17132046987453128 0.009547797400440008
0.28301830368035036 0.23315486492075643 0.19773114718099022 0.007640095800285487
0.27431026300710076 0.20889466509055993 0.18481033584821838 0.01594301683954493
0.2777171349194798 0.2411808815339275 0.17870495115088705 0.01629303267392203
0.2766525005325513 0.2543626276659923 0.17917260777994035 0.01675995205381948
0.27644326714979117 0.26246867951954755 0.1870362060947944 0.021980479507002867
0.2799728961143536 0.25949991151837715 0.1972813497388391 0.012707206062471785
0.2765453315755868 0.25041322962288376 0.1668312675387398 0.014459798970291092
0.2716135862326433 0.2079654972944197 0.1599022624008644 0.011504964732822464
0.2621368890189878 0.18698714143477096 0.15874110360189128 0.008418222218460879
0.2755590421901365 0.2569945469910253 0.15274337150709283 0.026920721708737716
0.27285780577628427 0.26367365341007243 0.1617644902283975 0.020283128262336268
0.252851099570189 0.17448216966733932 0.15163221755093476 0.013059536295074147
0.266140402570647 0.19309888233007258 0.14970609928539103 0.009605701041291442
0.27066441665581253 0.20259139190979208 0.14253817376545147 0.005914040964922464
0.27261236196927124 0.20136928632670087 0.1301251312483704 0.005159848884507165
0.3030484357034896 0.21354714363566177 0.03587006695746266 0.017543896884099356
0.2958333992938046 0.20195858019811758 0.04886938406551276 0.0018549951018846866
0.2901243589872931 0.19305981063059102 0.056303469119299544 0.0018082684864541242
0.28912423036798324 0.19992334130465203 0.06753636360644624 0.0027483869040455067
0.2798440421267102 0.19354241201648675 0.08915246094858181 0.003140799141472206
0.27601476977974376 0.18317383931130074 0.08516255523334555 0.003830188554068113
0.2740278493560222 0.18735517590009398 0.0995979648107719 0.004189672998424885
0.2848140882651811 0.1802923433384935 0.051446199324291605 0.004055604400171278
0.2796996114362982 0.25709854236224444 0.124897343781214 0.0202796459586544
0.27927131666042937 0.2638348840068898 0.11490823477626874 0.02271613754565938
0.28801861279700675 0.2709468662324489 0.21897930345197225 0.006933993173757867
0.278804403851395 0.27263956747325324 0.2043572273942333 0.013587120574022137
0.28691763146371185 0.26024266606717794 0.21186876814313096 0.008743601706698877
0.30269023719343735 0.2459318642699144 0.05463087656574775 0.013472123447650159
0.29911514993888005 0.24955941698418155 0.06592493502089052 0.03146193361197921
0.3132157263821491 0.2815762590893207 0.023038434859869568 0.14259511219221205
0.31582176563997383 0.29653950477243385 0.01493916307268427 0.17326885404988668
0.31554806889318143 0.32064483817767153 0.02204208219611118 0.13785123873486882
0.31625664441514145 0.34874280987567774 0.025533540752391927 0.09729920293064137
0.3180475201941765 0.3403124030828081 0.014751454125479405 0.13258164143402187
0.31956235493335544 0.31695453542636143 0.0023952254707452748 0.11594425423145396
0.3188641576209055 0.35096136370519937 0.011752640272215144 0.11218229874293348
0.31974086317796524 0.3839056266048201 0.011445149943077293 0.07478480405889962
0.31997897076850074 0.37073599719287403 0.008030638944568898 0.07597740244467971
0.3172168215714593 0.36530703356744876 0.02381396610574314 0.06835341227313929
0.3152417789391637 0.33376141291844186 0.0263638167154269 0.12145010772326142
0.3188109547058145 0.33638067085512696 6.9409953150726155e-06 0.09513635769041416
0.3130302091012902 0.427082254757948 7.18290665191634e-06 0.10956218771357734
0.3079467357677758 0.413190712869548 7.06259231834791e-06 0.09530948652318984
0.3107630661242732 0.38548515014098117 7.00335346779571e-06 0.08700289538627617
0.31619916671696463 0.350062571324311 6.953216757013822e-06 0.07483551264194858
0.3020986719535466 0.3486715404392987 7.253410335613031e-06 0.07387277025534383
0.2964446511702143 0.3938612083366557 7.3332671107464995e-06 0.06017027547862338
0.29219374407087434 0.25359525165834806 7.612715418109606e-06 0.05774502734214036
0.29698907875899866 0.3356452111766926 7.393405413488133e-06 0.13181862664755356
0.31479410648508377 0.3062406463176157 6.999760332133216e-06 0.1310273177533578
0.2948990438702268 0.38209516874907534 7.38546870188542e-06 0.05960839998635615
0.2945382932894939 0.28697391074216855 7.513973687417212e-06 0.1382558257228633
0.30086867588832916 0.30961115726436544 7.332347571242712e-06 0.14960886743137428
0.29044290064870065 0.20833738807974253 7.712055050068298e-06 0.1021007595972489
0.3033436007408738 0.36777283052450727 7.199244893463483e-06 0.06396869374657949
0.305045875205637 0.2915713408819785 7.254024715862185e-06 0.17754329091648385
0.3052097744019221 0.25940379938307073 7.290566458293129e-06 0.11097845817926962
0.2940817544291947 0.35804686868937935 7.435519705393038e-06 0.045790383081292664
0.2978303757886775 0.27358922306180267 7.451198383637368e-06 0.12921479577259162
0.30313797231331174 0.4390888968841131 7.11441570483735e-06 0.10034301860928066
0.2987998428121607 0.4247903071429888 7.237352506315024e-06 0.08552067660418365
0.29038827042578164 0.1935756287588247 7.714544238239425e-06 0.10726116981218436
0.30063029677301945 0.2297931298200255 7.392218321388981e-06 0.12508166499984608
0.304858467340149 0.2473329864494902 7.2738331666750505e-06 0.11174495467374626
0.31505104351866203 0.28268701594102813 6.949158205199171e-06 0.12436161807787802
0.3160004689679387 0.26926750283593637 1.7207616392095222e-05 0.13653107728766256
0.31001733223755035 0.21833956052238324 2.3308796986933336e-05 0.11017510113929455
0.3100491657883113 0.20635042526790337 7.790645804249988e-05 0.0805659795258907
0.31300368787330723 0.44806540917079585 8.014308784040919e-06 0.10254490443507226
0.3216069200812924 0.41600852894619583 7.683667196177642e-06 0.09630686759095641
0.32205489494396083 0.43955454116023107 8.853135605896642e-06 0.09288790653400289
0.3142234672304921 0.46304696134004014 8.886396526346993e-06 0.07735344389518838
0.31075398289447237 0.4639621331614072 0.015659959632973217 0.08242786575417713
0.279728697997303 0.1700331313491219 0.04693849175386043 0.003275366308497213
0.2877132652968015 0.1634329570728731 0.0008453157269466646 0.0923569745360063
0.2828061001276876 0.16098164810851506 0.010897562848399486 0.10379561378357016
0.2698799450881756 0.1594304880477147 0.04791156112572483 0.003981677071188071
0.2768332893357046 0.1589035616254888 0.0248351302136104 0.07203756419802439
0.3115327924659988 0.2248909737231834 0.009041882580432347 0.10587565090145099
0.2507656341125898 0.29097830883242987 0.07793971527120429 0.06983730974991613
0.2857861935988048 0.26772776067517057 0.07458391733725822 0.026010676297855334
0.2282892865712169 0.3060156446102784 0.08863845008370744 0.10896910703545032
0.22543855424230863 0.3258085497437275 0.10133828080166386 0.14214670173772484
0.23452273787454186 0.32010707400051097 0.08798149550700676 0.0994413486953099
0.2551068054527988 0.3345641509045744 0.07516979574577523 0.019962256021613257
0.2456946634280699 0.3398248686421754 0.1037214820862346 0.011005287841981022
0.2547670274817182 0.34166435659687167 0.09313148894204246 0.010728267855545561
0.2604512016965503 0.3417132571406949 0.08359241673171747 0.013568744034995627
0.26510092091331766 0.35152308713428987 0.10666605959985742 0.0031471375449483455
0.2705741452818697 0.35040362246417023 0.09572678326211707 0.0031650993947775563
0.2783583838749676 0.34972092794214305 0.08405947604324746 0.008852933810724179
0.28805679204302154 0.3499919098388282 0.07613346488607088 0.02357138882583219
0.3017751935158952 0.344396093462117 0.05445791695064525 0.04580173213044092
0.29455058569518466 0.3477266705318095 0.0657078046296884 0.028010201614477374
0.2594932007577607 0.3524716727761231 0.1183965113666051 0.0025464140386715246
0.24377519763957714 0.3438586820599563 0.1183645005956586 0.003609356893763432
0.24978887014254197 0.3498610847868786 0.12583113451040775 0.0015502302348041823
0.24318375465107367 0.32877739098062564 0.0846491324854832 0.051455185164298596
0.2706481094260588 0.31711232833009495 0.04062931224457293 0.04197668004477185
0.2624422685295154 0.31189072881450774 0.04664319905326038 0.04633849545266173
0.2701012813873208 0.33550094298050825 0.05720140985142233 0.010636468972161875
0.2934691235688245 0.33959677075259576 0.04932646207465416 0.030198865300390388
0.2810213153254685 0.33897919177046015 0.052975383907797914 0.014637984533325057
0.275478094280041 0.3077261522985484 0.03550008540363958 0.21825767994905645
0.28307612677220184 0.31905685196947947 0.035124638180598196 0.14425595207949196
0.2952824041007022 0.3104083935573769 0.029377832072019827 0.18431278004766535
0.3078309250184031 0.3201753851845285 0.02962896446743265 0.14563210051426728
0.22954784028689137 0.33601257893437014 0.11939450890990567 0.05743460700158489
0.22667441106908426 0.3576620025582896 0.18231030097741194 0.08487256726546576
0.24265736497511928 0.360152840142003 0.17015636520901323 0.004654020788441943
0.2430312416126532 0.3731542049416968 0.2001802877950604 0.006056699103404847
0.23019091815976656 0.3641250532769138 0.19385772049077082 0.09022120321925611
0.23863037964266945 0.36477235801687563 0.1857624712155937 0.008359949525683173
0.2486466952127065 0.37053858907718173 0.18773533966532904 0.0015646344514043556
0.2472776642895605 0.3562323527097789 0.15122921496485608 0.0011146499468720295
0.253743214930234 0.3794472816248554 0.20304362537443993 0.0016081504925877519
0.26187144271466023 0.3849501383190167 0.20941740342510612 0.00181099484343035
0.26778811530907315 0.37581519404137426 0.1852388621555713 0.01596726728277812
0.2692890596016721 0.38217092614110376 0.1984155646749618 0.02258984979646796
0.2789568998011339 0.37733818506032407 0.1824649803763857 0.03652350985197064
0.27983741651672256 0.3995853208831799 0.22744950848856574 0.038568739752813434
0.2713516901072942 0.39146375628492314 0.21650168727990102 0.032759835589303336
0.2869610428620281 0.38859488618682925 0.20498916465377753 0.044255836315281495
0.2217360224159019 0.3895696804398736 0.23960896507793178 0.07823792452038057
0.24143450776688813 0.40743026012368305 0.25403206646984167 0.015796899228762953
0.23175079448732339 0.4126645384670462 0.2625070416859915 0.061064880531243204
0.2586691156554003 0.4198472320591399 0.2611176373024063 0.0027672784377466976
0.24677546889050972 0.4164437992076679 0.26151934305473146 0.005348226034629493
0.26759806727941726 0.4301651983764877 0.26807690917529786 0.011547119026641978
0.23138924525903695 0.42322472997788363 0.2713348491360749 0.062193687443633947
0.24847451965358497 0.4254190314397096 0.26919375783369737 0.0015608499243443478
0.2905466177107963 0.3783982256932363 0.1785603585096548 0.03918467384869078
0.29432134602695803 0.36302830184912616 0.12409438011088987 0.04655930489635894
0.2797687067999572 0.3650758292584005 0.14358724054075483 0.025267227389656286
0.2834459908875009 0.36334497986506187 0.133509651246814 0.03399619972270936
0.2913450897678937 0.3600794080027596 0.11378305959193939 0.04136101595200304
0.26814373522178814 0.36637273076033117 0.15765958057032037 0.009164157186472241
0.26847145749592743 0.3581631891147985 0.12636538546842643 0.004851741125067175
0.30368842091284287 0.3602479874393047 0.09195130965136049 0.04444085906779787
0.29315022549182623 0.3742832683279483 0.1611439263876276 0.04366946175963283
0.29623194272521114 0.3719681438983632 0.14587815391484635 0.0447689351801094
0.29303752702817354 0.39694946625845867 0.21125485342373565 0.03900057071508258
0.30766376835303544 0.3658965693341579 0.07916572198669969 0.036528084137691846
0.3058029091257693 0.3844876766604133 0.09709086832980725 0.021064188798182313
0.30664740846533667 0.3727611616879874 0.08777906088526505 0.03248299274912165
0.3093681490680925 0.37959298789285667 0.07374110111628587 0.022126813382916936
0.30408560295365994 0.3719067539642811 0.10299292000144972 0.03939917700909897
0.3056408998589484 0.39432837275103383 0.10394989568055943 0.00445590847142474
0.30463830580668044 0.40093686694195835 0.11398284024119773 6.597294077911016e-05
0.3063365047163907 0.4126499272350653 0.1085617805075724 5.735423912823144e-05
0.30530394859211935 0.4200507100440865 0.1214478436680863 5.3783744080257156e-05
0.3070531847337771 0.43268337079011365 0.1164075523955497 0.04510359906709538
0.30882005285886105 0.42489396653045763 0.09813515673845073 0.0036716564802431574
0.3107635804860007 0.41059233560654246 0.07675731574749647 4.9010451656879296e-05
0.3103949062283481 0.4230820744498939 0.08564864242876567 6.650959133205885e-05
0.3097840440994963 0.3970381516385022 0.07726172991254754 6.554930657753784e-05
0.3135838029711139 0.4151984338589933 0.05828005761104631 7.890057241563654e-05
0.3120221956144097 0.40318894760573054 0.06385628989191874 8.021666627028962e-05
0.31567660157449107 0.4022525472234121 0.04062299716893608 5.148312247413552e-05
0.31671835954444744 0.37674694017142174 0.029052317022461943 0.04735408915975076
0.3109722508963309 0.390907390092832 0.06807111165258768 0.0005037979837664636
0.31591071242290536 0.38581333561271625 0.03592375866422854 0.004792003099089001
0.3136205828092604 0.3809405295452125 0.04941325096044466 0.003319195105788705
0.312963126919002 0.39274748226260847 0.05587461644565389 8.703291738214071e-05
0.31273139372682285 0.4522424645421802 0.07956252353062485 0.07447310580568603
0.31255953746221893 0.46089010494642824 0.08734507580698977 0.10415421441532097
0.31109882697486574 0.4525530878577325 0.09504984564094954 0.0784338922316496
0.3090596390036479 0.46046513726057864 0.1197677762194864 0.06522062052981209
0.30937769457606573 0.4493743160506542 0.10887340786449312 0.0842982446835939
0.3030411731765166 0.46248546771111726 0.09456125347862938 0.08328770131736206
0.3092189730596387 0.461487596764721 0.10578358918824841 0.08690203563937567
0.2955780906246185 0.46372937081226107 0.07896775296350517 0.055711156192701596
0.30631175226642804 0.46248097599744 0.07274475064176845 0.07032323938418457
0.2855339822228252 0.4646559937966987 0.08682973767283048 0.02870017141226347
0.26976668759521716 0.4654716616011124 0.10093694153344798 0.00010564001971477582
0.29680714974448547 0.46298988248612966 0.10396090019523717 0.054807334695270674
0.27294905220905685 0.465658256384294 0.08926230704954413 0.00016009343886472065
0.28428873926220055 0.4643221638343702 0.09795308014321048 0.025762186812139806
0.2725106631810345 0.46645962756639736 0.0702746097551617 0.00012592358535078272
0.2688017063203441 0.46877560884333036 0.02094938993537452 0.04347244284912155
0.258048490306201 0.46703304914890303 0.08752690946014456 0.00011798276795453985
0.2662161252267556 0.46742875195023614 0.05995186492589427 0.00013431865661199844
0.27242642863887545 0.4673449091390124 0.0485190179621612 0.0001451549794229534
0.2622639041790313 0.4689236584204956 0.03150355854613633 0.018397554504832245
0.3041492559008241 0.4084240382878268 0.12256069624154985 6.369699079784388e-05
0.31617119887721007 0.44612857672937767 0.04988768000820111 0.05627734892794949
0.3173879215809763 0.42661282323320926 0.033594773756893695 0.03447775148963076
0.3188406239263673 0.45987864252089355 0.03198225206799799 0.051481403172228234
0.3204249197432574 0.45413999491743773 0.01697179060790617 0.09734642149972103
0.3177309154133132 0.4396686086261671 0.034854521674164696 0.04663803115636942
0.23735347720515595 0.5342341002721247 0.3331197076618534 0.04814198350564488
0.23884803626793868 0.5452504173591595 0.33429414838746196 0.03910894011966648
0.31061750297927615 0.30818406780482505 0.02541861677004399 0.14097693597825922
0.3053641329770984 0.3536783714423949 0.07080209670218018 0.05722669797420605
0.3119563190156785 0.3475823323697268 0.04569583147503879 0.05240434065208019
0.3101599663547061 0.3530587974756991 0.056128795033071506 0.041721367905733754
0.30402034752982365 0.3370803209363179 0.04175786531481926 0.07080837628021681
0.29982871042992637 0.3609352573201495 0.10391053244624326 0.041320118009460206
0.3014163000016589 0.369027214326336 0.11511884696694732 0.04360460125717826
0.26411647560562346 0.46996248066922347 0.0006458786573751532 0.06774718104890746
0.23893319838746757 0.4702623132991949 0.021215819672558048 0.05509470495369724
0.25254997585109984 0.46776032685806324 0.07612859128091824 8.174745366427676e-05
0.2573767396890975 0.46850296553888426 0.04960564446256002 9.167279978960005e-05
0.23376939628069565 0.4709251810341546 0.008461456175699596 0.06131155613193734
0.25387118038725426 0.4699333656789486 0.013278518710385543 0.0642398512670741
0.24804505222254364 0.4694819403325938 0.03273500038072799 0.021495622999764544
0.29763653856861916 0.4640008690388119 0.2300187808023395 0.07481556714537291
0.29777503324043536 0.46379548177387825 0.06500896640308453 0.06159788138778464
0.312943421919678 0.4621814714242469 0.05395808634090392 0.05973233427700198
0.30167725723784256 0.46573591010880994 0.008036439802334623 0.09139985971575718
0.30438118701398875 0.46370766526506746 0.04606148429492696 0.05326905535264427
0.30642524944447946 0.46417419366496293 0.02885423785317723 0.0752775537059371
0.2791720373001774 0.21613713647193936 0.19342265567750033 0.013141349366411722
0.27763651252502325 0.20357821484298927 0.19848430829416375 0.012038596717356258
0.2627175116172142 0.29562504072942786 0.2022907117351132 0.016810843401400932
0.26046332118436816 0.28443352205573585 0.16832172585851649 0.02995805908885983
0.272151999475166 0.26858019701928715 0.13897960047533775 0.026878834768761805
0.26127308958573414 0.18297648545421785 0.1376042847669401 0.006473032152732492
0.2792281709747444 0.23055421214279476 0.13704548918419698 0.010266992814352307
0.24910469190134737 0.16307313024386502 0.11592096187506631 0.01018478440323432
0.25016443600924326 0.16801497564815812 0.13047083196352588 0.009597196461477655
0.24337211585810467 0.16404349551662176 0.14143884480518507 0.011819171822759439
0.2400514845642101 0.15998659975905077 0.1315250357017742 0.013146244698738221
0.23179513613132077 0.1511098705641563 0.11222356997555737 0.014539561245047537
0.2465478099974853 0.14894886085624282 0.0744048743921534 0.006963505010426303
0.23956781302586388 0.15231322858862914 0.1004727126071061 0.0053283303972581336
0.250027741247004 0.15573917142267668 0.09003975036269331 0.005741458113866869
0.2551336981407787 0.15135932606473446 0.06283072369687236 0.004144421082952053
0.22956975441325808 0.14701888994822776 0.09817477785293949 0.00955703218054978
0.22866902400745065 0.14393044376569442 0.08633329365026647 0.008005746123750662
0.24149855419388866 0.1369729643772337 0.03801137192894967 0.008210090094789062
0.23378672246205823 0.1364075625634151 0.047897987209758464 0.005901747601993966
0.23463819113384893 0.14243774067975046 0.07173769457673546 0.0075965919656668865
0.2451694533488048 0.14149065319299586 0.049517363013960994 0.00436033463490422
0.23877349453076152 0.14776842433723408 0.08575625307753755 0.008354145574528446
0.24381994010478422 0.1444094305852869 0.06314301370875913 0.005938668869480548
0.25290875773909904 0.3007830068139724 0.19805423275168987 0.015026678984042037
