x y z curv
0.7054824421497575 0.4439939993846977 563.2664434200798 0.02625537358877217
0.7055723802613547 0.4608893687743775 563.2689981087997 0.03718797324851378
0.7036340724271788 0.3569406278625752 563.2644291575385 0.014292888853526062
0.7053335844646864 0.4203076076299191 563.2631199193778 0.021978260245132823
0.7040234985229852 0.3798401531636151 563.2654209310746 0.018182265983076866
0.7048212431415624 0.4055728606605996 563.2641879783931 0.02450395139518081
0.7047157868756724 0.3929657252359763 563.2629318864625 0.021423787794606512
0.7028730962627134 0.29534243749593425 563.2606503786515 0.012542513072190786
0.7030572752735972 0.2669462220674178 563.255425195497 0.018974152971871574
0.7029122467687128 0.3123062127912855 563.2629361172588 0.013652839527342482
0.7029607960997055 0.25511295151956254 563.254218270319 0.01347718321913636
0.7016786155367294 0.28395334340496065 563.2656605401587 0.004314448822587795
0.7023437381621761 0.33483186955934585 563.2694475681172 0.0016534417120135062
0.7035442353875819 0.3258736476399686 563.2608380068133 0.027552982898532082
0.7043159152859847 0.3055267695654776 563.2531159991033 0.03656077074576254
0.7045060176977408 0.3407716598781003 563.2565881652863 0.020911093744909754
0.7006264909985698 0.3252126985617897 563.2795497444893 7.067405079787478e-06
0.7003755228115204 0.3021515945700154 563.2774734443651 9.734058120113987e-06
0.7013011544224009 0.3155500196815801 563.2732879100884 1.429030410828004e-05
0.7020231716305563 0.35291376381242856 563.2744712157316 9.88553825627714e-06
0.6983060413571215 0.3347535633433915 563.2971707971273 9.906138379609066e-06
0.7001679832007139 0.3391467241244388 563.2850229989414 8.099613174569557e-06
0.7007890223557995 0.26865076469377014 563.2690773744564 2.4271113001451704e-05
0.7042551116378905 0.2809954739813336 563.250244448619 0.03707369555901274
0.7059208244141326 0.327230495012207 563.2463684582168 0.06590200740628123
0.7059881999021445 0.2995766699313739 563.2424306329945 0.05025563908592776
0.7064429640780918 0.3531762630165641 563.2462650195492 0.07173830943035828
0.7062099393204981 0.3978162269198973 563.2533597976894 0.0648423666026166
0.705134818902105 0.3724485723451861 563.2570217398498 0.0512371997747355
0.706696524750284 0.43021631262472304 563.2551211695063 0.06015798271837103
0.7072471442558679 0.3839514549411205 563.244962406455 0.06436248547597556
0.7074462508843665 0.4097147416453316 563.246892722743 0.06591877122755213
0.7073854408126438 0.37268535039419565 563.242721711376 0.05208818179523605
0.7072034460879832 0.3124151480691705 563.2372038682997 0.05654989191173331
0.7022148322830603 0.23078796759968 563.2558210358726 0.014395756892273109
0.7024853081611027 0.24382254094496028 563.2556530102428 0.021829642541151797
0.704662931345319 0.24514214053128275 563.2442985716986 0.03858855378464701
0.7049145150794451 0.20069764175473198 563.2389034971159 0.049313024088471845
0.7040043484532533 0.2192502143691899 563.2450714922317 0.03315107154455636
0.7067343360713296 0.2414781169755067 563.2334671560382 0.0616165267361811
0.7062237315906212 0.23014219427694987 563.2351538717239 0.05355592092981879
0.7063468485251678 0.26222043832934855 563.2371088783591 0.0387641920001895
0.7005034361762988 0.19913647034772172 563.2613955158098 0.0007833322734586228
0.7024791001218487 0.1933919216229923 563.2503616996771 0.008867817055563738
0.7023414788985612 0.20865503968782162 563.2527815500839 0.00803997665863485
0.6995294356758105 0.21396324633521258 563.2684290711192 6.734631782684488e-05
0.6974524962396518 0.19581323497970038 563.2779218527277 0.0006536176981396922
0.6997850251673401 0.22960468980783189 563.2688500531283 3.7492855909026304e-05
0.6979956555356147 0.21912680877841573 563.2785169974126 2.8978562849802095e-05
0.6973993802736569 0.27575886077055933 563.2925430118894 1.1432408564224814e-05
0.6980508520970511 0.3106063832101355 563.29454864564 9.394826815920434e-06
0.6985003356210577 0.2639453995670636 563.2832641312866 1.1161472315771477e-05
0.6995344131414355 0.2516392319343064 563.2743320416492 2.381347225522568e-05
0.6976269687059948 0.25244038575778477 563.2868843889107 1.6653733219620085e-05
0.6969831444641139 0.22772962515265355 563.2866452445213 2.5975073777912878e-05
0.6983944297517315 0.2930418200849955 563.289166408793 9.864354910057685e-06
0.6984336953295336 0.32415014644247897 563.2944847598653 1.0214776460569136e-05
0.6988992527193029 0.2386082062460659 563.2761292356091 2.5968816800507872e-05
0.6996664402375512 0.27723470280924295 563.2780591781499 7.709491541766234e-06
0.6944360027496566 0.21604063492937947 563.3001132011648 4.928759172664952e-06
0.6945080841317188 0.19100681446005552 563.2952988166494 0.00036164179406883375
0.6968054853063572 0.24090426195781126 563.2901575469991 1.644075762277842e-05
0.6957248639383298 0.24879541865046434 563.2980619142054 5.614612917844481e-06
0.6956545765756119 0.20728114507152212 563.291224085033 2.278161741700336e-05
0.6965312313775835 0.2873981247691107 563.2999465377209 6.418665591849476e-06
0.6955043226672425 0.2685882682314136 563.3030218853811 6.670294832786674e-06
0.6935750939492179 0.26867824469506557 563.3174541366685 1.0603171559114091e-05
0.6963950349430277 0.3232348196503594 563.3080772620118 9.260002869117664e-06
0.6956479042697146 0.30020473950654114 563.3087240376883 8.998238205250654e-06
0.6953065276219662 0.3379686885929876 563.3193665299273 7.3663206163579234e-06
0.6948216696940743 0.28058996765852734 563.3106936242116 7.968509105746274e-06
0.6941762892576306 0.3022199793857789 563.3201500759163 1.1393232303360836e-05
0.6936737855234203 0.25605123387723505 563.3140110908895 1.2175740559787877e-05
0.6940955876460804 0.2452521832327415 563.308545834155 7.2750360947588345e-06
0.6932979559862533 0.28176820446756234 563.3223295294158 1.0676056816608009e-05
0.6948323193976449 0.31517924417043097 563.3180259077798 8.286871466230887e-06
0.6940872269287551 0.2341865737516905 563.3062371391711 7.150905995887643e-06
0.6920442395960624 0.23013094979725696 563.3195059295906 1.251820548062153e-05
0.6923022412214868 0.2014731775092811 563.3117890733229 1.7184523713863007e-05
0.6905900100265203 0.16741088526065337 563.3155585561562 0.001549649266068147
0.6928726567463908 0.31213954704733227 563.3315457233971 9.851007923966656e-06
0.6924444682689551 0.24367249086350223 563.3198052723593 1.3946040765613382e-05
0.6931299246599659 0.3235608285235601 563.3323129114212 9.426428330308026e-06
0.6927103913193116 0.1812243358507504 563.304888761726 0.0005126039669211024
0.6906934367613864 0.1807395679811185 563.317715449666 0.0003289683134003681
0.6904552870450815 0.1936974000112206 563.3219834854715 3.038878969187046e-05
0.6928731554032965 0.21620817497802425 563.3112467678792 7.946273390611627e-06
0.6920423877146794 0.2552039589190858 563.3248223818462 1.2040490455868005e-05
0.6905552461173947 0.206384189569277 563.3240578724419 6.735739307454603e-06
0.6879893645700245 0.1851243948220521 563.3366833129023 3.063497217155009e-05
0.6925424381566359 0.300538554327781 563.3312160699752 9.261865389341037e-06
0.6902431170163219 0.24638558493173834 563.3348777482853 1.0151010699951514e-05
0.6910058167116895 0.2733406962713798 563.3356234402504 7.839352195773766e-06
0.690041574579916 0.2286258112496936 563.3323618633541 8.799533566610198e-06
0.6904231357716915 0.2185082627152617 563.3275895808181 1.1766513156359565e-05
0.6900932775965918 0.2590154219867046 563.3390957318898 1.0014029721759155e-05
0.6884080633701697 0.22163107393476938 563.3427309180189 1.088029592739616e-05
0.6885033873708923 0.25768431839544975 563.3515445698658 1.560285337251472e-05
0.6893680392388284 0.28976733088347206 563.3531081133016 9.896564129138553e-06
0.6911035413167957 0.28661734156463403 563.3382958740415 7.807064769379992e-06
0.689576233893409 0.2700276206164613 563.3461857452503 1.451171144585229e-05
0.6875846391788897 0.19689157181040973 563.3427869468078 1.057481911335712e-05
0.6916262924161489 0.32532993836423263 563.344374401628 7.586260627549108e-06
0.6901604643116845 0.3174023118238177 563.354071186121 8.859516299814431e-06
0.6870803887152682 0.17147275591370612 563.34009230141 0.0002515392720592385
0.6885919615140959 0.2794616687458837 563.3566187171883 9.10868902670671e-06
0.6887334592595887 0.23341305149555727 563.343241761997 1.0258433665033275e-05
0.6881290147138339 0.20954284624785136 563.3417654763946 9.292242679728042e-06
0.6906170017476095 0.29708569363119514 563.3449957243248 9.402079460022637e-06
0.690469390990753 0.33317403968461 563.355774935327 4.711471554311056e-06
0.6908550847383976 0.3089678372954054 563.3462362743579 1.0499962045471463e-05
0.6858441082487615 0.19932986914682121 563.3560494785979 9.92808318227809e-06
0.6884944192751885 0.30585469351333 563.3640763795179 4.90402904524277e-06
0.6874929954029627 0.24359350006562322 563.3554785135814 1.5157727520563418e-05
0.6863305151741826 0.1839611319422267 563.3486941511956 1.388652005936591e-05
0.686866325976017 0.23160447246965166 563.3569175860491 1.3368634642368375e-05
0.6844839563686541 0.16711126683986358 563.3576061182714 0.00010667740969031396
0.6842345597539446 0.18280723027524956 563.3635946860793 1.0052426881370131e-05
0.686992626625313 0.27374209718264 563.3668703064789 5.177500813801875e-06
0.686553415158157 0.2558975023979011 563.3654584815557 6.3221585997927174e-06
0.6847955928480678 0.22176473838269048 563.3696758870459 7.562337823010907e-06
0.6842775999019796 0.19387859622301046 563.3662003624868 8.713479084861917e-06
0.6815954085118394 0.1524670639862709 563.3754595129144 0.00036386501112927724
0.682853525503363 0.16978553925202933 563.3705589790484 1.5163595481957723e-05
0.6840983742276812 0.2082690601658877 563.3713599602718 6.601531291427542e-06
0.7077533162790108 0.44631848027244964 563.2499687841644 0.07656696535322877
0.7081523066602968 0.46089821450219914 563.2492055141773 0.06808706691118963
0.7054624549919555 0.5001947315664191 563.2772764009469 0.05116486408984648
0.7059403855049278 0.4860061691069868 563.2707118420258 0.025066211279701482
0.7068586212097653 0.47674221758999313 563.2614803930237 0.05512448108406059
0.7079483326570739 0.5157989126080434 563.2597572102886 0.08360673049725181
0.7085252005027365 0.5018227236965773 563.2527178824986 0.10082915268758193
0.7106668129321866 0.4202396598424877 563.24149130473 0.0529231347101142
0.7102470086596322 0.4819917135625495 563.2467341720296 0.04778368616394864
0.7096222200278504 0.22221113439079337 563.2267592816868 0.05940924437496511
0.7092011877383619 0.3416365521812366 563.2361690077834 0.06380223422577203
0.711232126902487 0.2716443060769942 563.229935125149 0.04976476213434813
0.719103093996128 0.2642206169750369 563.2292094187102 0.05199145391791807
0.7346664777728938 0.26691637503105065 563.2294115982385 0.021023781626589362
0.7126924346437311 0.35221073208925996 563.2358086720593 0.055954991395644235
0.7161646242097747 0.2353805107509795 563.2270464131676 0.06295807306712237
0.723156484765862 0.2528654530129705 563.228357781652 0.061433448964962965
0.7275109279446539 0.2755195068195241 563.2300568335024 0.043566815638897555
0.7306148305752862 0.28653159898086367 563.2308827392169 0.025588644957271266
0.7131139297596564 0.24917613838000008 563.2280810846921 0.05524106507523725
0.7214962119539013 0.31731954617736935 563.2331918343516 0.06403380270098845
0.7132031232558661 0.3262846284487065 563.2338642160327 0.06320538030108061
0.7176403523371611 0.2856621403720204 563.2308175316637 0.055153493806522305
0.7213302532467265 0.29698281054426195 563.2316665806268 0.048978927095433965
0.731828137297428 0.309804067894618 563.2326281725882 0.021297681366909488
0.7301869026227457 0.23990544018115714 563.2273857819549 0.03471387490901727
0.7260938985424271 0.22963925342889527 563.2266158191509 0.04014131363948917
0.7211441042738471 0.19847730300629834 563.2242786673968 0.047205650701128546
0.734272229517361 0.19385690734946381 563.2239321373688 0.025436178198364925
0.7416463411637715 0.20270833988813064 563.2245959935185 0.007676544801418565
0.7173665866429146 0.21232462420119924 563.2253172234518 0.05245169757693782
0.7418034591840664 0.23760803465979458 563.2272134742086 0.004154428170673035
0.7308271125007046 0.21916882088618123 563.225830534781 0.018225588613835636
0.7202573002863003 0.1748000926912347 563.222502875931 0.04344902574342751
0.73386031870138 0.18113424094222563 563.2229779357195 0.024259493559484667
0.7309720678876174 0.1541264010628562 563.2209523566611 0.038873187655472846
0.7317027489107986 0.16741745241249453 563.221949174531 0.037947606126847326
0.7605776655516296 0.18860707816811276 563.2235383970823 4.512445880565135e-08
0.7473241089266595 0.18894882940800836 563.2235640284647 1.9873361034215444e-05
0.7525252025075071 0.19900064400034828 563.2243179157173 1.81642961821559e-07
0.7666235727296391 0.16994501054435412 563.2221387410962 5.219573479362279e-09
0.7442482210795802 0.1563544322814201 563.2211194540474 0.022768873053557733
0.7536943359406004 0.17069751691884452 563.2221951801962 0.0021756843734990513
0.7589614057572568 0.15051816050883193 563.220681729628 0.016835585173184852
0.7512158856070394 0.14042851196918568 563.2199250045344 0.03530815313528685
0.7609223700308073 0.13437517596303433 563.2194710069653 0.0325224255061843
0.7732074117718001 0.13929328611802466 563.2198398653825 0.024211207202072857
0.7804145526439076 0.12455035915865925 563.2187341476063 0.027766873175329845
0.7825887617966549 0.14845831094016393 563.2205272391539 0.006549740304498283
0.7941984905157288 0.14460022825356345 563.220237883711 0.01111918699762702
0.7854607981497388 0.13517738215725272 563.2195311721068 0.0201589723096469
0.7955888308559247 0.12663394598837135 563.2188904134692 0.028680946689050076
0.7887761357074907 0.16652323795705937 563.2218821079945 1.3173993656160661e-06
0.7743886781936162 0.1823423045720845 563.2230685387196 1.08727623556646e-06
0.7757798544266535 0.15712526595747242 563.2211772596613 0.0036232860548163163
0.7891772439312696 0.18030504977421866 563.222915744516 1.2385794227398312e-06
0.801008013647363 0.16862138156735662 563.222039468862 1.1141610408762282e-06
0.8205208041374129 0.15779480818000147 563.2212274753589 7.958226356891443e-09
0.8077867622724932 0.1817550161372764 563.22302449206 1.5586659665230926e-06
0.8191402493154347 0.16913737558682154 563.2220781684372 1.3737407519587125e-06
0.8058518919141313 0.15325348484133552 563.2208868760355 0.0008645149722113818
0.8312268869568653 0.13018739076829802 563.219156924207 0.02743454019545671
0.8244667672924014 0.14308752081312812 563.2201244299566 0.011678004341244
0.8115395802755553 0.13230692963181817 563.2193158860239 0.0294371264857955
0.8547016862476167 0.15040099431490236 563.2206729404685 0.00351740366534644
0.8422518859916874 0.1528331613176479 563.2208553522652 0.00025696087129034687
0.8482255879722668 0.12313688832784123 563.2186281406866 0.03484788187433866
0.8436785658495065 0.13431250089758698 563.2194663082817 0.028641482930954934
0.8833414859056072 0.13075832290916173 563.2191997415439 0.038365830180654335
0.8569545840491655 0.13474745290344523 563.219498929145 0.021024377181250362
0.8612055244412941 0.12267233063046526 563.2185932971886 0.038044022694903666
0.8401782618880593 0.16828638738330948 563.2220143442827 -9.049499941193636e-08
0.8418622645936038 0.185971647702817 563.2233407396218 0.0059501953701074995
0.8574211315003855 0.18426669400664258 563.2232128680158 0.005588126111414915
0.8587399742306266 0.16527684258647263 563.2217886282842 -1.76555415598756e-08
0.8850861905727011 0.16028648503940646 563.2214143512383 -7.127647843714763e-08
0.8732276424289722 0.16287870778507646 563.2216087680636 2.4233339825986708e-08
0.8690201331258051 0.176884625102179 563.2226592125078 0.002841007323896717
0.8910047724135163 0.14665160951745643 563.2203917358895 0.009597682733637381
0.8725807914871032 0.1480017902152927 563.2204929993459 0.0012216228251670002
0.8775813163913713 0.1829719198333021 563.2231157598933 0.0026307183292098415
0.8899489438040553 0.1774220924083165 563.2226995225806 4.763949864383668e-08
0.922410196229732 0.15595231694131276 563.2210892884311 0.002775098691777498
0.9112964399389947 0.16471441004741522 563.2217464458179 2.6665310717594327e-07
0.8991638277730483 0.16576917535043734 563.2218255532642 1.3280365045016707e-07
0.9043368115837733 0.13136503751645004 563.2192452484134 0.03175372001989512
0.9048221772114969 0.1428440236841259 563.2201061666714 0.01112635102173758
0.9082240400126472 0.15306847247910021 563.2208730000797 0.00010356867188949
0.9180059273721851 0.1372376010159882 563.2196856871567 0.02838234653718622
0.932953982939035 0.1392980436549652 563.2198402221086 0.03080698811828066
0.9532435182116286 0.16003025385777944 563.2213951385232 0.02512193809327496
0.9532867210694268 0.17251100741584074 563.2223311934739 0.01954221613730507
0.9440257352065746 0.15377936721873714 563.2209263210768 0.01917570435124848
0.9414388866416763 0.17079218210778485 563.2222022795602 0.006542676524276269
0.9513169185954073 0.18469485389370005 563.223244980052 0.005736917212348965
0.9667582530945285 0.16739435722413912 563.2219474489086 0.041500316619830176
0.9292047948241416 0.20083195553469016 563.2244552642933 -7.343234653268024e-08
0.9363284102502082 0.188805094642836 563.2235532483407 -7.946994454177363e-08
0.9441982357800012 0.20317988796683342 563.2246313594962 -4.4732730571846945e-08
0.9409927403268976 0.2184243656392642 563.2257746970781 -6.146260250857347e-08
0.9521703138476083 0.21115013357523996 563.2252291288353 1.7397880226566134e-06
0.9313770054264147 0.16655381541160758 563.221884401305 0.000284463588036214
0.9292174907204844 0.18071536860243084 563.2229465184469 1.1933249317973953e-07
0.9634362220240175 0.1954259609219218 563.2240498148913 0.02384604897948
0.9635486164271947 0.20757656384941595 563.2249611115205 0.027668288884037967
0.9053032155214531 0.19510236422222987 563.2240255442848 0.00018466760223996256
0.9204135856293354 0.19059061950034056 563.2236871629108 2.0577448944458985e-08
0.9096654804726652 0.20534999037676904 563.2247941174271 0.009203415173414903
0.9078645205999681 0.18330173795497795 563.2231404962675 1.9330679009305666e-07
0.9275892139247326 0.2271162988986063 563.2264265929314 9.47976765046851e-06
0.8950615255770625 0.21802573844771175 563.2257447968027 0.057888589458953546
0.8960904652403178 0.20150258296172743 563.2245055602115 0.010919053410814408
0.909846388862592 0.2168786668789594 563.2256587682405 0.022747058639458268
0.9117803556335786 0.22866779935996415 563.2265429565174 0.030135730010048132
0.9095035186110656 0.2461348237612547 563.227852979793 0.06488547703079553
0.9210088653061412 0.24260829585560256 563.2275884933041 0.018294896291396606
0.8987533351375674 0.2519184638168242 563.2282867527454 0.06422081883676836
0.9201559751061158 0.2543901087525864 563.2284721307166 0.03503228896364621
0.9077716193954642 0.26129908177669053 563.2289900419489 0.06730431278091172
0.9144924139899794 0.2729281998517781 563.229862485223 0.05829352873205319
0.9237450240304956 0.26717223579088556 563.229430788563 0.03701947645223017
0.9409955841372679 0.298581453130208 563.2317864762448 -7.717260997642895e-08
0.9305310398242975 0.30961372100770923 563.2326138959543 0.013303058472002208
0.934713682680544 0.2729529337336882 563.2298643399752 0.010345980139037265
0.9325067177807784 0.2592454874157015 563.2288362837122 0.010496310184451588
0.9450817994138228 0.25637727576111397 563.2286211683007 -4.8230202659830256e-08
0.9342487284936217 0.2861535570409302 563.230854384594 0.004601189117602317
0.9515416193297257 0.2666014534855604 563.2293879799811 0.0004339262832004346
0.9470048714066788 0.27816380510053834 563.2302551544872 -1.1482011745233351e-07
0.9119033391995208 0.3052185329998655 563.2322842597331 0.0650147438276725
0.9168220129606106 0.2923958465364859 563.2313225575623 0.05858417513144029
0.9009124970947036 0.29935340084653606 563.2318443769162 0.05507919405531033
0.9419618390976701 0.31671418761657494 563.2331464307046 -9.389283458601708e-08
0.9535841069980273 0.31382942549238724 563.232930073645 5.5125527476618304e-05
0.9591021038702108 0.2907231005875004 563.2311971012665 0.015507251606523782
0.9623711696532865 0.30485858461309195 563.2322572628493 0.020756680704978197
0.9717313850595343 0.29374440749738046 563.2314237021529 0.049352451135675
0.965937075414923 0.2745877871552591 563.2299869563254 0.03573424266277325
0.9587579437847794 0.2586866921625523 563.228794375192 0.005450642905497648
0.9509287140225983 0.22697954514350757 563.2264163363872 1.596631040057837e-06
0.9424278601461733 0.23590119716479233 563.2270854611111 -2.77822990769705e-07
0.9631239220434558 0.2204864154336741 563.2259293517379 0.028637733812534687
0.9558297238928039 0.2459097943180007 563.2278361069534 0.004776847772989799
0.9666409940960461 0.23705929713258034 563.227172319517 0.0373356219452225
0.9714964933987553 0.25678512877462945 563.2286517579993 0.037284613124624534
0.9801197799072623 0.23996308791489185 563.2273901041343 0.03920355544323418
0.9787925717211594 0.2771341567471851 563.2301779362675 0.06108923950895385
0.9780779620950981 0.26564384450080736 563.229316162227 0.0554472942902766
0.9742251396344446 0.3075792991892988 563.2324613190382 0.062071784434458224
0.975618478370839 0.33745720962161574 563.234702161352 0.06528508036147306
0.9762313537106788 0.3258563199830656 563.233832095265 0.0615669092681644
0.9289787999677661 0.3442932295835757 563.2352148598372 0.0006486799279546855
0.9528492539714308 0.32464858680731035 563.2337415107236 0.007240228772264527
0.941192786950556 0.33845998710355063 563.2347773663823 -5.7605586018470824e-08
0.9379172236370565 0.35089127823054084 563.2357097137898 5.477994418727971e-08
0.970987732335854 0.3535010959651136 563.2359054519616 0.038186806962286886
0.9648491971825287 0.34478944254014043 563.2352520769296 0.02567569184271831
0.9716183393504116 0.3661017046121048 563.2368504985233 0.05486983374347988
0.9551663300331646 0.369170521414413 563.2370806585204 0.007202829821554155
0.9594570436013127 0.35822844552794453 563.2362600023403 0.019184499491468957
0.975881130501093 0.4009276865275827 563.2394624476792 0.06344654975303927
0.9699684189834192 0.3895739180108817 563.2386109149267 0.0506110112260709
0.9644595795450012 0.380322965804473 563.2379170934021 0.04373145607441071
0.9819033327254084 0.37509055988832907 563.2375246633819 0.06018917114999613
0.9452980137022994 0.3611731284032066 563.2364808532964 -1.3745962468111793e-07
0.9360924257430667 0.3721979907604044 563.2373077188623 -1.8652068783781425e-07
0.9248107350670032 0.35993378016455746 563.2363879020785 0.0008808733147924639
0.9489100681663831 0.3796815333299953 563.2378689851586 -4.478923350875508e-08
0.9396276859738975 0.40133898358418196 563.2394932919929 -3.81812256907131e-08
0.935141986607264 0.38802570159693517 563.238494798068 -7.096915823617363e-08
0.9342032598943188 0.41955998623179996 563.2408598641474 -1.1801277353486942e-07
0.9536163790066957 0.3898195112304583 563.238629333491 9.812121966544968e-05
0.9476306204171823 0.4107194431120977 563.2401968248904 2.0704109875869735e-05
0.9557481674700565 0.4200159693007419 563.2408940633564 0.012170340326988778
0.9610060669011184 0.4090037415649374 563.2400681498275 0.030102333748898306
0.9713658970618141 0.4204754658647676 563.2409285306059 0.05796374718487118
0.9717217879381338 0.48687092877109533 563.245908192399 0.06626461589032946
0.9745022440861366 0.4738973886826292 563.244935176487 0.05119783051222655
0.9798627497446011 0.4597140502929543 563.2438714256523 0.06559738767212174
0.9737126281437624 0.50357638685318 563.247161102247 0.08559704547325216
0.9546271571360726 0.48505666734232117 563.24577212283 0.01681333259106578
0.9634824215829372 0.45678531512488385 563.2436517705338 0.025867705050570063
0.9619917683827849 0.47319000190867416 563.244882122526 0.03031017230788911
0.9607055940162367 0.44530781244247086 563.2427909567277 0.02433303512521042
0.9669420971297059 0.43273968993625483 563.241848345411 0.036494720895587925
0.9258107886583469 0.43620842459415154 563.2421085003715 2.6498297983543107e-07
0.9444330263079193 0.42405212116034835 563.241196775163 1.550321697189511e-07
0.9323861108933053 0.45069265600916947 563.2431948206481 1.6874358826869097e-08
0.945184939624863 0.4389754096888894 563.2423160248115 8.305841112451475e-08
0.9480818968363777 0.4511756408929936 563.2432310446117 3.562125292225482e-05
0.9013842276037096 0.4291476979136058 563.2415789444468 -1.9165193450702558e-07
0.8989558563957751 0.44783747295904075 563.2429806813436 -1.450935921672157e-07
0.9192297966204177 0.448539340586057 563.243033321557 2.365811976452771e-07
0.9131842943310184 0.43197436893237473 563.2417909453432 5.9343139367245506e-08
0.9211189569813858 0.39146860770970465 563.2387530154513 -1.3069734349527466e-08
0.9194980320292633 0.419577282901155 563.2408611613948 1.1736307116517167e-07
0.9184799755183322 0.4063675921674251 563.2398704367965 7.208364330405864e-08
0.8969992837422998 0.41955274867437437 563.2408593213319 -1.7067435115675548e-07
0.8986354136856662 0.4740609276715515 563.2449474420421 2.2845514641913392e-07
0.9016975897969359 0.46080472197221284 563.2439532262329 1.3771536292270502e-07
0.9181871276076113 0.4845189802294762 563.2457317962852 0.0042135851418027325
0.9237108594416117 0.46170783449290975 563.2440209596979 6.235075797868209e-09
0.9158575442469249 0.47122885902891143 563.2447350368122 -4.860694147231482e-08
0.9287666632596563 0.4732170280101777 563.2448841495432 5.989357070421789e-09
0.9411784087980388 0.4606091795520051 563.2439385605456 -1.2863593812485305e-07
0.9499661797201204 0.471950353589746 563.2447891489252 1.5733301751985277e-06
0.9227902801086518 0.4975251365062407 563.2467072583404 0.05475914994035726
0.9188094230840844 0.5149932323297186 563.2480173659707 0.06651867114761852
0.935408497246537 0.4863641566237478 563.245870184566 0.013947855304965878
0.941979774302089 0.4949998957533952 563.2465178652199 0.033900418448610706
0.9064178004338548 0.5071133526031866 563.2474263747912 0.05876761902697379
0.9108026269409821 0.4967353749086988 563.2466480262005 0.04802584157482696
0.8862395189528989 0.48107389338240075 563.2454734146725 1.5926390405889727e-06
0.8855729721599336 0.46921284097453253 563.2445838354001 -8.233505805948794e-09
0.8621505236574769 0.5105799654362027 563.2476863708416 0.06848962089654835
0.874021666097768 0.48627695016300415 563.2458636440792 0.016450897526598715
0.8672769516391463 0.4959495237245116 563.2465890873418 0.045301279130277414
0.8793323395378453 0.4978586295327727 563.2467322703259 0.04890251069854844
0.8739493054741718 0.5104353120046016 563.2476755218306 0.07663690589590245
0.8944323755886148 0.5070003220363711 563.2474178974958 0.07804502135617569
0.8952590352382723 0.49406038199063895 563.2464474016638 0.0350846855741602
0.8784442760969347 0.4606419515242346 563.2439410184445 -1.9206739624010039e-07
0.8882127413970251 0.45456048319183245 563.2434849081444 -5.124544455175633e-08
0.8681484018509795 0.47662702854688965 563.2451398996816 8.071160597136314e-09
0.8852628815267831 0.442701180147435 563.2425954583471 -3.478759533730734e-07
0.8732288360918217 0.4464636353133873 563.2428776432432 -1.1794649430755917e-07
0.8465361829111931 0.4796302634185881 563.2453651423835 6.279887197045462e-08
0.8627514267163143 0.45373911759532737 563.243423305701 -1.1661249685862122e-07
0.8377760909933144 0.4923708239402295 563.2463206847672 0.02806957386683226
0.8489852980933608 0.49038605344118236 563.2461718269294 0.011745327654627467
0.8371861788930698 0.5134549693413196 563.2479019962075 0.052320096768564237
0.8512321488953543 0.5067990857165866 563.2474028047666 0.05688007153479824
0.8461538320359827 0.4542288476455369 563.2434600354688 8.214492312191603e-08
0.837478986868661 0.47131770061082123 563.2447416999336 1.0159412643037566e-07
0.8481138102571018 0.43818084625449644 563.2422564323938 2.8482847183459103e-08
0.8659223636911604 0.43658699501585335 563.2421368932295 -1.136734662588032e-07
0.8780575139989297 0.42726162511183313 563.2414374886065 -3.250512766400019e-07
0.8167840018018877 0.4803559011655333 563.2454195652354 0.00048139199680777414
0.8289504987943662 0.46085011048356017 563.2439566303724 -1.6322711667118351e-07
0.820337145979837 0.5039874987922983 563.247191935676 0.054168532687862765
0.80711208932287 0.49615861660134375 563.246604769313 0.029183648542270436
0.8255838359434872 0.48715428782084813 563.2459294444258 0.00877884439500452
0.809526597660998 0.5100381996683854 563.2476457383952 0.06661562045157736
0.8160908790133854 0.4619424447436187 563.2440385554734 -1.0424420006946703e-07
0.8090599945694257 0.45267079343663474 563.243343181354 -1.5680555109433516e-07
0.8233069532104911 0.4375571266591507 563.2422096532985 -2.6189781297652408e-08
0.8228697225188811 0.4508798420674628 563.2432088596403 -2.08488336475837e-07
0.8345924898469248 0.4410575432256367 563.2424721852466 -3.3398090202580615e-07
0.8453159897772689 0.42281443740984015 563.2411039486321 -1.588879662701702e-07
0.8339077474388682 0.42481850040730296 563.241254253761 -4.392924063905598e-08
0.8575524033945596 0.4227743913676988 563.2411009451708 1.0021147765955603e-07
0.8574348953464165 0.4078297799497918 563.239980100636 3.4023882460775684e-07
0.8586249986987795 0.3926411454650965 563.2388409555872 0.013289192178427119
0.8670150342347627 0.41273766303165105 563.2403481910472 -1.1381497749786029e-07
0.8756684610608779 0.39741705872446376 563.2391991482837 0.001196133146586787
0.8789282047616757 0.4093792789364328 563.2400963128011 1.3301177180326237e-08
0.8863476875949344 0.39855492743073534 563.2392844882465 1.052157209717384e-08
0.8979639728833668 0.40685859618409365 563.2399072620158 5.89988366623632e-09
0.8938925090002009 0.38946319592239687 563.2386026099023 0.0057086088209622726
0.9065776242557049 0.3975268435172669 563.2392073821247 -5.150211513719721e-09
0.919732336237035 0.3702211447135299 563.2371594552494 0.0005938924074512008
0.9087002172391805 0.3754655923855672 563.2375527892477 0.007438688892442796
0.8838026077940415 0.38461193184158105 563.2382387654736 0.020292792772475667
0.8649412965483688 0.3819862952508867 563.2380418425586 0.026372784179126075
0.8943173416029867 0.3606004634920722 563.2364379074888 0.0426934814766083
0.9062006151118749 0.36531828460943616 563.2367917415431 0.010585308865254476
0.8797581766527498 0.3686773700570515 563.2370436752094 0.048760492961983995
0.8502479594826191 0.36838917670071936 563.2370220600865 0.042947388831301184
0.8539069103338522 0.38188104037316506 563.2380339490213 0.023646357477657063
0.8255167719810168 0.3791745032874789 563.2378309585722 0.041944770239778356
0.8101836743695799 0.3848268161789633 563.2382548819471 0.009535238156340407
0.8224857895583916 0.36844385315207806 563.2370261599864 0.05338046510572216
0.8094459242659464 0.3730686295109317 563.2373300497907 0.04316244509689686
0.7951207184159977 0.367082642702468 563.2369240664544 0.01992542106989084
0.787812650013328 0.35716770829051414 563.2361804454192 0.020172014279800903
0.8010186752624795 0.35346610291492175 563.2359028232539 0.06163106368630301
0.8008039904400094 0.33785359708822427 563.2347318906617 0.0627613148403671
0.7904442452199145 0.32933425883464423 563.2340929350314 0.07442249074518678
0.7791228062816961 0.32917693125329384 563.2340811362817 0.036028074960730606
0.7849231012040887 0.34141705475883444 563.2349991456854 0.03696466644849159
0.796379740105687 0.32028424856213816 563.2334141888531 0.08093273667491278
0.7752399963788112 0.3188910291074225 563.2333096941738 0.05000706169389134
0.7856424452696322 0.3142885059455447 563.2329645065265 0.0665610994793614
0.7852903772710036 0.29773336910229253 563.2317228728925 0.06283491230804257
0.7429577884880778 0.29963629788641327 563.2318655895651 0.004738479503118035
0.7664165587183907 0.2879162326090543 563.2309865850743 0.015529842086790412
0.7494636012911796 0.28811789606316685 563.2310017098265 -7.565365773262751e-08
0.7523656510852065 0.30806929565750774 563.2324980641064 4.253673268310989e-08
0.7683506897021786 0.3083201741563165 563.232516879985 0.003989113955606188
0.7611598377163855 0.27563076992138186 563.2300651772573 1.0140143078723338e-05
0.7718415717915976 0.2684782459529165 563.2295287391133 0.04625750232279971
0.782997866947043 0.274903460185163 563.2300106294647 0.06257834760891152
0.7572481912197391 0.2627125564209142 563.2290963133285 -1.531937903135656e-08
0.747794833294461 0.27334572455278716 563.2298937992232 1.571585205601114e-06
0.7650014857803746 0.25427850769773297 563.2284637610346 0.014583906741254721
0.7323228908122696 0.3227295793119002 563.2335975853521 0.03473022779462791
0.741509443439542 0.3159407099182608 563.2330884199387 0.00645087888186496
0.7441769501750907 0.3296415863605753 563.2341159859202 6.168538808986076e-05
0.7541491173259254 0.3365414775649225 563.2346334780785 -3.195176507416994e-08
0.7620788977992179 0.32110333442581174 563.2334756166316 0.002782409577313688
0.7407859414137409 0.34083772858795486 563.2349556970104 0.009024925073599666
0.7269807015232934 0.346154898698991 563.2353544841249 0.04052400865156392
0.7665062340086269 0.3327838865696203 563.2343516585806 0.0030863143634848786
0.759720317158173 0.3455393879359277 563.2353083217711 -2.0379156034209413e-07
0.7560914211934708 0.35831478773058373 563.2362664775153 5.140327260611779e-08
0.7684849849019145 0.35606829361859055 563.2360979902759 -1.0457973477119851e-07
0.7347507480698894 0.3589688414368433 563.2363155310408 0.01663982969376133
0.7341686485292956 0.3732535465174306 563.2373868850304 0.017357891862996286
0.7182272221516237 0.38279334454048974 563.2381023697656 0.055116930001087354
0.7273569534936961 0.39537686234426256 563.2390461353874 0.056070272450012414
0.7167790449132285 0.39425994142663967 563.2389623655836 0.06633370332931919
0.7218319149483219 0.4060904788310027 563.2398496573601 0.041661517821240814
0.7175193158182376 0.3695980820960028 563.2371127237321 0.05475807739970463
0.7372273459209329 0.3850873358466247 563.2382744204624 0.020009748547679597
0.7577279264276542 0.39757063384902214 563.2392106663924 -6.346849976878616e-09
0.7463016002068147 0.41005949641643397 563.2401473289984 0.0019688165775015943
0.7504443257783447 0.3887720349288378 563.2385507729432 -2.339764885918881e-08
0.7511050025615662 0.37706660706172207 563.2376728654775 6.731779554147896e-08
0.7624201116064501 0.37195017912371653 563.2372891329696 -1.249169298518915e-07
0.7412400327819328 0.4009336816043043 563.2394628948399 0.008989982204922732
0.7259903784491663 0.41825247250407555 563.2407618078619 0.040953349477655526
0.7143000402611379 0.4393551103595987 563.2423445072334 0.06978152027664078
0.796362534185439 0.3803350889335014 563.2379180018816 0.007725110576277296
0.7760440808368759 0.3752386610298792 563.2375357693777 5.6192511339949935e-08
0.7714572551402885 0.3958874477700669 563.2390844277176 -2.680427885365432e-08
0.7580455422674264 0.4153864543343714 563.2405468499525 -1.1566837775207933e-07
0.7705417263039397 0.4181769450880151 563.2407561362927 -1.3288857707062724e-07
0.7954271133519114 0.3910904731064947 563.2387246554192 6.345875856961447e-08
0.7785682029462249 0.40863071587794325 563.2400401706968 -3.220007357811795e-07
0.7863326975091197 0.39809627889466326 563.239250089683 -3.062378911951088e-08
0.7430882562868895 0.4233854553070904 563.2411467750895 0.007735443061965783
0.752754487542141 0.43014672960621303 563.2416538720252 -2.5610232534003048e-08
0.731162280237569 0.4472792409568402 563.2429388157096 0.04955736065706703
0.7252792384838846 0.4353455414796904 563.2420437868414 0.0390759290132666
0.7411038430416855 0.4374004536515867 563.2421979029821 0.008580345976986098
0.7197681476763461 0.4957105198390839 563.2465711625937 0.07109021791043259
0.7191336623354672 0.46247983954047706 563.2440788618726 0.0680610332723942
0.722258647862756 0.48420991949776737 563.2457086175658 0.0506384032242552
0.7204743286450341 0.4496530399220021 563.2431168518688 0.049997635226022234
0.7350115487261812 0.4640882553221275 563.2441994920289 0.03134762353672815
0.7650616245244337 0.4594998819807109 563.2438553631957 1.0881328534342225e-07
0.7455771608761425 0.45586938957773687 563.243583076161 0.002603325117265045
0.7506754492967301 0.47444892658524995 563.2449765419717 5.307730789146374e-08
0.7554444430877574 0.4454012068257997 563.2427979608924 -6.918575299056507e-08
0.7726501489194881 0.4284377571141038 563.2415256987438 -1.1117952993800333e-07
0.7778202343031002 0.44405303218842607 563.2426968475227 -1.5480547878753272e-07
0.7950876134363304 0.42540196513716794 563.2412980137333 -1.2712297369350261e-07
0.7863701821894735 0.41802921127384113 563.2407450562814 -2.1498927939143097e-07
0.7973052676310001 0.41146136375739484 563.2402524688148 -1.3049662925470758e-07
0.8108253380666488 0.4092631132248268 563.2400876003921 4.018621573829693e-08
0.8214313015558607 0.3919443868196309 563.2387886988051 0.007602039896756471
0.8101119464882434 0.3966034234145953 563.2391381257713 9.112167778734235e-09
0.790286156018134 0.43620841879513483 563.2421084999366 -7.08276681832363e-08
0.7878728796287869 0.44963731001715773 563.2431156694859 1.137401415363854e-07
0.8008444155918206 0.4451708684736278 563.2427806854696 -9.317876212764174e-08
0.8128140329506888 0.43018258106617646 563.241656560892 -4.304302244949732e-08
0.8218161307734627 0.4107938823938222 563.2402024078241 -1.873517379973901e-08
0.7724856450484627 0.4818619421134011 563.2455325183499 1.2651458413108042e-05
0.7611773159751231 0.4853844786438803 563.2457967086912 0.007647977442921425
0.7637267066072798 0.4719460932419294 563.2447888293989 -3.052836145180814e-08
0.7752753824954386 0.47000878081599384 563.2446435309112 -2.142864245422219e-07
0.7764115952021841 0.4568422427179396 563.2436560401746 -1.2465645220131993e-07
0.7985858698372169 0.45701199959627925 563.2436687719454 -2.3444008796231816e-08
0.787852426185755 0.46193316594844336 563.2440378595635 1.254283444339773e-07
0.7396333926226919 0.49149574070226504 563.2462550535021 0.0370801002115586
0.7296730995597216 0.5082376199862861 563.2475106948734 0.09997322665527897
0.7427589177531003 0.5053563080938142 563.2472945964084 0.036070491392879885
0.7525389807483168 0.4953676201895427 563.2465454445619 0.030979369379602217
0.7649179514088086 0.49949302506356125 563.2468548500323 0.06407503967937225
0.7851675348541852 0.4762606721938774 563.2451124229447 -4.2756845432528657e-08
0.7964912865498754 0.4709825913067518 563.2447165667261 -6.764465575885575e-08
0.7755632529857138 0.49768375166041273 563.2467191544811 0.04251078739211485
0.7751196033739403 0.51165342953334 563.2477668806762 0.08200886765296685
0.7825175500803702 0.48874490823636646 563.2460487409973 0.019209929319206124
0.7933227251550116 0.4865260488081668 563.2458823264839 0.01583759281156859
0.7924696375945671 0.5033918031638127 563.2471472584887 0.06682621665628416
0.7862159406512091 0.5161316372418724 563.248102746368 0.07107641383562911
0.7987437583232179 0.5123051147277051 563.2478157570822 0.06866285569470341
0.8406479266757552 0.404797394420638 563.239752672228 -1.004684116734156e-07
0.8458791199326167 0.39063506379281016 563.2386904997968 0.01117785444729855
0.8338244656446137 0.3951429994460516 563.2390285942176 0.013054222357239307
0.7535024268200557 0.24010744537979084 563.227400930115 2.1451605419677205e-07
0.7586742337463527 0.22218404268144262 563.2260566732606 1.201936200247313e-07
0.7498938541862512 0.2523094430925035 563.2283160810681 2.622217563458489e-07
0.7671737201452709 0.23360733754011237 563.2269134214279 0.003469597907951797
0.7530692609746362 0.21021306329794034 563.2251588484564 2.0191810914139986e-07
0.7453346321742308 0.21860734174145835 563.2257884203068 2.6083983029303725e-05
0.7702116950471389 0.21816378881949502 563.2257551537865 1.2128616735579602e-07
0.7731450417066905 0.20175959387197784 563.2245248372755 1.3011160048938382e-06
0.7859202644132846 0.1989405078636458 563.2243134055001 0.0012791084992923314
0.795142475356224 0.19222241651515068 563.2238095478749 0.0015594720972255632
0.8199017603956604 0.18570138828299268 563.2233204701527 0.010571278074688746
0.8296879873239569 0.17560091879378686 563.2225629344755 0.0030837061398566895
0.8304247802321274 0.16290768755041268 563.2216109415474 -4.766861640586063e-08
0.7996533850976539 0.22012087729599553 563.2259019371271 0.0435243509245742
0.7930032824291602 0.2073537144389233 563.2249443974164 0.014685004255659785
0.8077149789019289 0.21201576873632638 563.2252940525527 0.044261297289891983
0.8078680551320531 0.1973942863737114 563.2240357203585 0.014946800131438254
0.8204031530742437 0.1976556914621786 563.2242170463578 0.02630150225611279
0.8311336688195615 0.18997977228320284 563.2236413497898 0.012702282637994456
0.827558877958938 0.20585458768781265 563.2248319663835 0.037441207174963374
0.7850519669679634 0.2258209133187023 563.2263294370285 0.03967108806821606
0.7987147902879801 0.2344455557959353 563.2269762892294 0.035330946944236566
0.7873452566807775 0.23913333870572917 563.2273278717555 0.04066235611938672
0.7812748357107063 0.2502395700849283 563.2281608402426 0.04845589582422683
0.7943738787961669 0.24820269307020262 563.2280080700064 0.054266329798555495
0.7877464125616076 0.2626205637183944 563.2290894168395 0.050113101798817485
0.8466119526065177 0.19856906304356253 563.2242855458576 0.03893778759801888
0.8586466190699268 0.20954624830081106 563.2250980513603 0.05045772073896099
0.8661005741203371 0.19933097968972305 563.224342689834 0.05230388306713468
0.879753667706351 0.1958192529011839 563.2240793107707 0.011369702470272256
0.8857825741548757 0.21057173589103934 563.2251857515672 0.04629643599437485
0.9172608672915985 0.3518039634973831 563.2357781649475 0.01804109715419237
0.9017145343395463 0.3463144312063149 563.2353664548693 0.060176635070230584
0.9067673624135706 0.3362220561689858 563.2346095258673 0.05546719055586784
0.9185884500680682 0.3314812173437392 563.2342539596747 0.031766474943751156
0.8975538357677022 0.3272862777433109 563.2339393454357 0.05107086867549166
0.9217840384081853 0.320182266555324 563.2334065368992 0.036874228753186515
0.9076924530910104 0.3178757414071505 563.2332335481217 0.07351717487465051
0.9466204792708586 0.5136684925545985 563.247918010454 0.0710897119918959
0.9625887384126679 0.5085294463401502 563.2475325818574 0.07753678626155844
0.9704270105865114 0.5166027188513268 563.2481380775006 0.09264487374946734
0.9559876614873237 0.4968523810266696 563.2466568016624 0.03870416290832775
0.9831207051420288 0.5102539751813894 563.2477233744692 0.08055359589176293
0.9841187446669541 0.48157175033356536 563.2457056909932 0.05668019303642308
0.9860019681597785 0.40544020161573524 563.2404400743774 0.06666195022596069
0.9864984858757943 0.4349094749362695 563.2430655183309 0.06218145160617628
0.9861812586909464 0.44927944620733823 563.2440285561199 0.07029316079267799
0.986292394295154 0.30566656318303675 563.2328509317085 0.05440924650431337
0.9870550971858644 0.32755842945165714 563.2349806367808 0.06267845966818766
0.9872532202958963 0.3945966189756268 563.2404709817256 0.0615449750171567
0.98811219293158 0.3652526275364648 563.2390745102381 0.053129266925967346
0.9877215990153979 0.4205422729614586 563.2432025039641 0.06050326324276825
0.9886180021776723 0.3538805459499944 563.2391637043946 0.05424581107857719
0.988930848753893 0.2743599943489289 563.2333655633817 0.06376468055200235
0.9871463474961044 0.24852267748435883 563.229012871363 0.044187624092421045
0.9853318657093743 0.21400310515535198 563.2256311895386 0.045840752907660945
0.984050247776501 0.19361209493450354 563.2239943913772 0.03151389411919299
0.9796954798928046 0.17279928987118776 563.2227173581437 0.044387122323012417
0.95349686392823 0.14095596031167543 563.2200265851354 0.028154588262041143
0.9047169344181871 0.12074693946928838 563.2189290350541 0.03734248917971965
0.8917549026433791 0.12003231280426427 563.2189751947017 0.03665944789578455
0.8909021897310584 0.11111025506064004 563.2302774049451 0.030856973998381488
0.8961701981658406 0.10512899583373048 563.2393053699014 0.008203878205048906
0.882885484446686 0.10158758207638144 563.244736853399 0.004909415088015379
0.8764576882482907 0.11544711731476673 563.2235051253836 0.028423125846490798
0.84741129293725 0.11277700892476063 563.2270942608423 0.03464308526028135
0.8655525661699844 0.1075311455395764 563.2347499744708 0.013383136437216562
0.8440888857467553 0.1060914130385171 563.2368169041838 0.014719613219101108
0.8480224977140658 0.10016465564201935 563.2465798344872 0.001859143881201698
0.8618249045427526 0.09855691798152941 563.2492781722325 0.0012946947610708195
0.8324176737431943 0.10513869441210806 563.2382307310413 0.010728059795136226
0.8719051467081698 0.1019950334158091 563.2436926609291 0.004763836019245592
0.8874887097056423 0.09198513066767366 563.2615863632109 0.000288599264754953
0.8998810896654262 0.09458710469607676 563.2571134820301 0.0007055691769222848
0.8379401351534193 0.09801149145804527 563.2501958848425 0.0003370318024167319
0.861966424954695 0.08627273091388948 563.2724692137252 9.905970149251946e-05
0.8652642251559471 0.091560899300082 563.2619353830447 0.00015270687853472127
0.8534288172547886 0.09377033415536776 563.2575359994465 0.0002657726162913795
0.8648729706847719 0.08114980379832652 563.2826730927252 8.612829732546483e-05
0.8413345447074605 0.09143267789789294 563.2621939119874 0.00015137782523806442
0.8483845559855516 0.08652339967020689 563.2719716864401 0.00010578626512988298
0.8827734892729089 0.08452189708922579 563.2761282574049 0.0001403651876978157
0.8934935562714056 0.08668320271753287 563.2719406167837 0.00035488777544511374
0.8767091134316966 0.07924819471186548 563.2865642590391 4.2968239360874247e-05
0.8760041629473871 0.08914514519415313 563.2668483409265 0.00016404907657723033
0.8129800477172935 0.10304576076919629 563.2423532635967 0.006407401388612083
0.8108285036644959 0.10869775262606443 563.2336087322273 0.01922225024051844
0.8303616118913213 0.11725217599355656 563.2206937251374 0.031058514712439565
0.8358933100420309 0.08206407322109682 563.2808579889672 4.809468858679541e-05
0.8538052958841703 0.07747617826856582 563.2899931147563 5.1569574242952804e-05
0.8418717259121913 0.07690444167925573 563.2911350866151 4.947906492724889e-05
0.8038147228085386 0.09867234324182916 563.2499670062961 0.0005862425092419222
0.7969770752203609 0.10297802148935929 563.2430094376185 0.0029034610346207516
0.801526960544938 0.09213030323966359 563.2615814050027 0.00048125661976891544
0.8141962587804978 0.09201850691326041 563.2613370562431 0.00017075654137852384
0.8255668148440725 0.08835864372464615 563.2683638795788 0.00011546770255904848
0.8281631473898052 0.09354398632900984 563.2580076564004 0.0001423219489921581
0.817176442659072 0.08233646311935106 563.2804519421269 8.781310212437299e-05
0.8063365165805112 0.08626565236178861 563.2727486715955 0.0003660000498502267
0.7947546589025334 0.08527605087241895 563.274849894335 0.000989384403639015
0.8034002228290635 0.11648588837677773 563.2226123028902 0.03224118208780681
0.7930540046213234 0.10891625438404035 563.2340523303433 0.02129224307960408
0.7887897086311958 0.11635905534992733 563.2239171074064 0.0253916483372068
0.7768594893685493 0.10980357763204462 563.2361398074657 0.010586423816063228
0.7811808663679144 0.09909595178419613 563.2516098179289 0.0015865228673376136
0.767491047118899 0.10664134991517529 563.2444625562807 0.003638332727467814
0.7700571093795998 0.1186678467981801 563.2262090442007 0.034527057568239934
0.7554929445351172 0.09261750149720623 563.2751861649854 0.004114819679771501
0.7566287515852421 0.08598589207920257 563.286180631825 0.004926411523857198
0.759922938976843 0.10107241906852721 563.2571569074238 0.002468250833343555
0.7540456505237143 0.07527987039515777 563.3082483281407 0.0024523191845390066
