x y z curv
0.3144061350292026 0.36722597415126335 357.77525743271235 0.24216779935288116
0.31522010714415066 0.3830948656536969 357.77525743271235 0.23570013673645748
0.31233358894808233 0.3484024501148033 357.77525743271235 0.23595888388404498
0.2996481040124771 0.33963882459203665 357.77525743271235 0.272719416987893
0.2696814185415477 0.3505273472519874 357.77525743271235 0.2921441202655329
0.28485395166343064 0.35922459341583707 357.77525743271235 0.29941587043604606
0.288189277279142 0.3718134142262725 357.7752574327124 0.2425731897901226
0.2918879547313272 0.35009883185457485 357.77525743271235 0.2621972369399502
0.27865233641181214 0.342525445448458 357.77525743271235 0.2747718053115327
0.2625212128577238 0.3122102787504017 357.77525743271235 0.2251758345975154
0.27614063381436493 0.3262954443424242 357.77525743271235 0.2318003057032959
0.26242419524267535 0.33853959865377964 357.7752574327123 0.23621011029221334
0.29353510110467435 0.3100145835214262 357.77525743271235 0.281794705450486
0.2906568476388448 0.32367515304249483 357.77525743271235 0.21953588173999966
0.3071157852952149 0.3101777294027963 357.77525743271235 0.2135902937465214
0.3288964049197921 0.31285462582884205 357.77525743271235 0.23386953536180083
0.314104504056041 0.32227394471384563 357.77525743271235 0.2826371385382044
0.3008929975234291 0.29982059066769795 357.77525743271235 0.2248004612507241
0.3184058267454523 0.29587999809184423 357.77525743271235 0.27742807722286383
0.30563275625730735 0.2872544595213062 357.77525743271235 0.2409035252867796
0.30076249703475383 0.2763093210011409 357.7752574327124 0.23125648837000323
0.2687310987767685 0.29845748539803885 357.77525743271235 0.210591667304366
0.26272131545249394 0.28666431902901696 357.7752574327123 0.2515620764218618
0.27863452465484795 0.3065186666360976 357.77525743271235 0.1905576207190778
0.2656621610619734 0.2739073871648884 357.77525743271235 0.23723849387305904
0.2852070759242621 0.2893173840684433 357.77525743271235 0.1925084974966368
0.2515547673310277 0.32878540339973983 357.77525743271235 0.20479652366313741
0.23336228573769865 0.30089819919051936 357.77525743271235 0.2014894663876958
0.24706526163295955 0.3074028548565997 357.77525743271235 0.21581271671383118
0.2561610725494127 0.297955186012952 357.77525743271235 0.20352700782639824
0.23026040707613388 0.274470828470379 357.77525743271235 0.18890665007202886
0.24202929974075754 0.27316911038572206 357.77525743271235 0.22089142965347158
0.2469478350306771 0.29010694376403795 357.77525743271235 0.2045709744520467
0.27111447297294594 0.24986313210924682 357.77525743271235 0.2179550477284349
0.2756257243336864 0.2668855915856863 357.77525743271235 0.1880647594262962
0.26479558173664386 0.2592973909281243 357.77525743271235 0.19930383671075683
0.24783916781642884 0.25937348555398476 357.77525743271235 0.22708910684692282
0.2330474034879636 0.24262822992574334 357.7752574327124 0.23081137670141963
0.23060826869307208 0.2607209116265723 357.77525743271235 0.21850651057504322
0.25483530601583715 0.2690660797518643 357.77525743271235 0.22636736973085742
0.25505551646087227 0.23360423646687642 357.7752574327123 0.2079730960894017
0.24429072619218783 0.24385261264352104 357.77525743271235 0.23604854754137147
0.32122810391237266 0.27747181551211964 357.77525743271235 0.25550726720172573
0.31055534463605483 0.26971456804221633 357.77525743271235 0.23628466878119306
0.3066146457670032 0.25126299432445864 357.77525743271235 0.23056584103973798
0.3201555898628533 0.26050206776397034 357.77525743271235 0.2898997540066376
0.2873576770602438 0.24427936388175694 357.77525743271235 0.21800739629728916
0.2853214034881397 0.2320157892398798 357.77525743271235 0.2395053018040109
0.29267430257945626 0.2650036087378708 357.77525743271235 0.23995153869127062
0.2636292697479485 0.2113416479839833 357.7752574327123 0.21654560866862224
0.2734083097185485 0.22994251644428793 357.77525743271235 0.2398429020850255
0.2436131527371973 0.22791387146560604 357.77525743271235 0.2182299304181273
0.22392545206286624 0.21127582201662962 357.77525743271235 0.2043960054004843
0.25308929590872037 0.2218604107402238 357.77525743271235 0.22056379993363298
0.2304517626265421 0.2004352121513142 357.77525743271235 0.2803423176084274
0.24079821043090677 0.21192951694898596 357.77525743271235 0.22942681723925537
0.24858478068998624 0.19894879242987984 357.7752574327124 0.23108236019509426
0.22083916611151494 0.24001213064032015 357.77525743271235 0.20952324968477082
0.2010834309684265 0.24580600192257757 357.77525743271235 0.24961526382443427
0.2116741589540363 0.25117529832531593 357.77525743271235 0.21908089317630644
0.1965685010370897 0.21105559876540153 357.77525743271235 0.21371655532590564
0.2167380697423474 0.22703936112998413 357.77525743271235 0.23277043522723043
0.18865991250856123 0.2195261935591276 357.7752574327124 0.19380033839964586
0.2085665687549884 0.21794610639392886 357.77525743271235 0.20547602210060484
0.21844585144110829 0.19823976286987569 357.77525743271235 0.2437708065192
0.20615572879371968 0.20393134112717742 357.77525743271235 0.23148415442308368
0.22602056742722956 0.1884454038389502 357.77525743271235 0.24473249261154525
0.22910309437523446 0.17122651183097554 357.77525743271235 0.18843096237586718
0.24152450503787842 0.17760917955192412 357.77525743271235 0.21351681326169694
0.19373545852650767 0.18148106017449758 357.77525743271235 0.19054803408697268
0.19189546106586422 0.16372462246573316 357.7752574327124 0.2185018817659176
0.20365970096628652 0.1683423788638043 357.77525743271235 0.16044174842820721
0.2133116636856632 0.17759699839917636 357.77525743271235 0.21496051094981936
0.27532850105775675 0.1953787311127359 357.77525743271235 0.20173079915155392
0.284650594759074 0.21063654152166672 357.77525743271235 0.19660715416323601
0.2900815831052782 0.19005421876026582 357.77525743271235 0.20686298649985282
0.25948855639078106 0.19124468458483626 357.77525743271235 0.22305278834243777
0.2793121803487695 0.18207487245559406 357.77525743271235 0.25134814880173956
0.2663210078761876 0.16617659840346277 357.77525743271235 0.2233827978753783
0.26641825876100966 0.17821081141309553 357.77525743271235 0.22897512494478786
0.2531094189238793 0.16629138731144846 357.77525743271235 0.20685953801952275
0.23451155367802026 0.157519364685819 357.77525743271235 0.21753357577967572
0.22754197720029107 0.12972467962856254 357.77525743271235 0.2505305265358276
0.24587608838444996 0.14397204965256027 357.77525743271235 0.21949294744066375
0.23188968236303772 0.142953609716742 357.7752574327124 0.20216395481303645
0.18930212578578967 0.13404076355248645 357.77525743271235 0.20910127025797673
0.2082099903053062 0.1528107539674921 357.77525743271235 0.20896315533571544
0.18536216413854487 0.11959428587741947 357.77525743271235 0.2229880405567083
0.2015713639368809 0.14311124193932578 357.77525743271235 0.15838753854079488
0.21494599790230023 0.12406043046948498 357.7752574327124 0.21433918056562803
0.22100530345211097 0.14622986352717565 357.7752574327124 0.2186567281217376
0.20374469644080395 0.1316388110288205 357.77525743271235 0.23209030831981323
0.18100117977606028 0.18267322603084116 357.77525743271235 0.2162023075621884
0.16726327616071854 0.172590474734048 357.77525743271235 0.1978281266752428
0.1806628452048348 0.16993613672342095 357.77525743271235 0.18222265840874083
0.16370744083298625 0.15994299101125004 357.77525743271235 0.24259245231460122
0.1523016922023528 0.1359768345137273 357.77525743271235 0.2546462288215374
0.17269096665973316 0.14982850351152274 357.77525743271235 0.2094063450199525
0.15645455623697346 0.14794253131402646 357.77525743271235 0.21569426458954993
0.15824696893740797 0.12028834555845508 357.77525743271235 0.26339063905268917
0.17002385486255078 0.13250885607861404 357.77525743271235 0.2650136610272003
0.1877059183867306 0.10808955563315249 357.77525743271235 0.23929042590643135
0.2092681814280577 0.10544670494827364 357.77525743271235 0.21310643361341752
0.15461509969200304 0.09513592040200752 357.7752574327123 0.2176417841724755
0.17098727863197286 0.11196712146488065 357.77525743271235 0.24104573108082802
0.14974451784195128 0.11264531492976279 357.77525743271235 0.21427069612575933
0.17768233656077337 0.0901352445967023 357.7752574327124 0.23910569958738706
0.17307278492186065 0.10041737083807947 357.77525743271235 0.21868707982898433
0.16086006858039759 0.08439174690739588 357.77525743271235 0.22557074150318612
0.2521897293060723 0.13422529847638603 357.77525743271235 0.23100093042528638
0.23880925914359755 0.12484256206276177 357.77525743271235 0.23375308357234384
0.22963430874023052 0.11676158727057774 357.77525743271235 0.26065327545615286
0.2481070133318526 0.11865861590532008 357.77525743271235 0.21567030037641208
0.22390426284007592 0.08496049748607903 357.77525743271235 0.1979692636584119
0.23515088872688727 0.10358891770435769 357.77525743271235 0.24761202453281608
0.19602762083262643 0.08836847018815003 357.77525743271235 0.22355497645763284
0.22111177723982928 0.10900769050257482 357.77525743271235 0.22186493340828053
0.2090130849406518 0.0918164207401507 357.77525743271235 0.22018044958545582
0.2068208512988741 0.07368913049517586 357.77525743271235 0.24640869076435803
0.19172989512628702 0.06785746413665916 357.77525743271235 0.23914753261498095
0.17676533689489837 0.07525114225966252 357.77525743271235 0.24261963742403092
0.16107381600388732 0.05398389857607776 357.77525743271235 0.28077524210189386
0.16187150611837547 0.07127778142524571 357.77525743271235 0.2268594738296718
0.1518001851564462 0.060401971145956135 357.7752574327124 0.2708336254005001
0.15083648282637213 0.07312207428658678 357.77525743271235 0.2374413708594407
0.18439843667890976 0.05176127090157917 357.77525743271235 0.3027631591811284
0.17717417598528626 0.06252546811592169 357.77525743271235 0.2817323888844045
0.17295149861857242 0.04208477015537421 357.77525743271235 0.3004990715761269
0.12031554481700667 0.0835142779873032 357.77525743271235 0.2137448340741495
0.13294194457365202 0.08818872524859522 357.77525743271235 0.24488473036717007
0.11882863034543367 0.06423280555689809 357.7752574327123 0.25989183969138707
0.12182192048397997 0.05330610622675243 357.77525743271235 0.26268731599769235
0.13524948174923582 0.0755607970360592 357.77525743271235 0.24186292377247265
0.13383615402293939 0.05601623803796991 357.77525743271235 0.2971146559228839
0.1277250818467336 0.04051537907393425 357.77525743271235 0.24400507414976694
0.14037519728795742 0.04083299727669309 357.77525743271235 0.26078993444518206
0.1343274674396411 0.1065886934108977 357.77525743271235 0.2314659697154216
0.11668928527337888 0.09942291869621146 357.77525743271235 0.23626361407940924
0.10667628914907593 0.09412202528131189 357.7752574327124 0.19597608071910663
0.09516747334798845 0.09181459510787107 357.77525743271235 0.22054243149441813
0.11067728890432958 0.11276048837651381 357.7752574327123 0.23558835025835956
0.10526533897514148 0.08130728385533895 357.7752574327123 0.2562853735220335
0.0860961205205891 0.07585475790201324 357.77525743271235 0.28626416551678213
0.0822460047587378 0.05594447297829266 357.77525743271235 0.22448480345158586
0.09302426862488129 0.06493297235316604 357.77525743271235 0.24872269204020636
0.0940549526492418 0.04863660623670785 357.77525743271235 0.22709401998351356
0.10445266650042921 0.06066239515228824 357.77525743271235 0.21867142533481237
0.11262378743773181 0.12354969117622149 357.77525743271235 0.23745998837653737
0.12472177354575398 0.1396563660618812 357.77525743271235 0.21880171969973508
0.13177382732860682 0.12043630234071337 357.77525743271235 0.22498552275567804
0.1474614788744925 0.12430704131592252 357.77525743271235 0.199849421548348
0.1375843718775474 0.1354540158643638 357.77525743271235 0.22844057233772946
0.10635547752276811 0.14317411788109963 357.77525743271235 0.20553615513668508
0.07581932694671695 0.11630724131062227 357.7752574327123 0.2486200109736363
0.09530706694312108 0.13541262679439992 357.77525743271235 0.21502114913966036
0.09923947332981684 0.12514019714500196 357.77525743271235 0.2135035560922436
0.08799093523020549 0.11865075443917941 357.77525743271235 0.2059084160652954
0.08444432427046723 0.08777398094393232 357.77525743271235 0.2757166452164393
0.09295457985687576 0.10671546015939254 357.77525743271235 0.20176058928809976
0.13111430845297092 0.18471516414996653 357.77525743271235 0.25203939068687303
0.11264909882071089 0.16707401838012592 357.7752574327124 0.2150711284905317
0.11758224734776962 0.18864797349194762 357.77525743271235 0.220427228071079
0.13894479988671193 0.15998342482181824 357.77525743271235 0.2521261129924845
0.13224387059698756 0.17052466248112091 357.77525743271235 0.21719746053798764
0.12032438047317244 0.15479277666890093 357.77525743271235 0.21934621539948676
0.144209852107946 0.18173153406178588 357.77525743271235 0.21336502887243758
0.09840295904321736 0.16761677568136896 357.77525743271235 0.18387612925719898
0.1073595488378256 0.1825821186777052 357.77525743271235 0.22101580648125124
0.10805481422886944 0.15581787885436296 357.77525743271235 0.2163850972745247
0.08764141572286106 0.1593334997311274 357.77525743271235 0.2231430600915967
0.08839445134052346 0.14627514935654487 357.77525743271235 0.19288667141268595
0.07869065247065522 0.12949902811629516 357.77525743271235 0.24622836783019394
0.15028221049157972 0.16358725927762288 357.77525743271235 0.24419263836640073
0.15257551839497224 0.19064337436202833 357.77525743271235 0.20993158624858793
0.14989644486201598 0.22227549516959294 357.7752574327124 0.2207688941201419
0.171362936739583 0.2237609551058652 357.77525743271235 0.24485781836899745
0.1604054122844052 0.21513543020941744 357.77525743271235 0.238969260609247
0.15301616358808964 0.20642374573457956 357.7752574327123 0.17163737422110495
0.1833449113543062 0.19521107774542867 357.77525743271235 0.2263147499810402
0.16664147406654717 0.2035811451840889 357.77525743271235 0.2272180443433934
0.1844615854993948 0.2073130023053464 357.77525743271235 0.2173181879118462
0.13278539705023482 0.2037439989617435 357.77525743271235 0.21970077861584697
0.11848285480977423 0.22740739851147143 357.77525743271235 0.23258602034041923
0.12925850921277018 0.2304267547385503 357.77525743271235 0.23679171484737987
0.11724392873537685 0.2088325560959478 357.7752574327124 0.21169289348244835
0.10554335639752223 0.20514142009230238 357.77525743271235 0.2144663864849528
0.09378580491319463 0.20307448777581105 357.77525743271235 0.23959080984713924
0.07627448525596205 0.15988283559055205 357.77525743271235 0.24256117119633835
0.07850340241581448 0.1858425968883315 357.77525743271235 0.24598623752840793
0.08441096474211102 0.17311787031624667 357.77525743271235 0.22514402662254845
0.09533499075349292 0.18460875013277264 357.77525743271235 0.23009380725238054
0.06150765689765155 0.15822131709965534 357.7752574327124 0.3032743682074035
0.06446314288328903 0.1790228811068059 357.77525743271235 0.2671615869483828
0.049061333151260086 0.14540318473980332 357.77525743271235 0.2916243879557839
0.06543478155684966 0.13282887639636495 357.77525743271235 0.273221933605399
0.05440881787753937 0.12802472533366244 357.77525743271235 0.314752928577596
0.07124654886957521 0.14405496824465747 357.77525743271235 0.27019842315957576
0.09749892508272917 0.21733442025727354 357.77525743271235 0.2178613854499075
0.08137183384303172 0.20306040815484094 357.7752574327124 0.24890736593469112
0.07886462007149168 0.21790395598680126 357.77525743271235 0.22868711825221
0.10168592727205733 0.23078133676012935 357.77525743271235 0.2587599510222923
0.07407712676565119 0.22918024162039938 357.7752574327124 0.2556626679074629
0.055709669816819664 0.20262886361102034 357.77525743271235 0.22259164550455485
0.06878017191044737 0.20480309504351885 357.7752574327123 0.24819641321070826
0.0571334279583115 0.191420699166363 357.77525743271235 0.2926538836836432
0.051653538404841666 0.169943319676023 357.77525743271235 0.2876397778857021
0.042210366329208035 0.1778733736496578 357.77525743271235 0.2873675934513691
0.03963180641342644 0.16517385159757786 357.77525743271235 0.248962554674114
0.11950685337825562 0.24318266222347654 357.77525743271235 0.23100517321179703
0.11894859963771942 0.2680680871850841 357.77525743271235 0.19459447202204128
0.14308970493698855 0.23578240080391694 357.77525743271235 0.22769108446018071
0.1445131557171004 0.2600159762833441 357.77525743271235 0.23451723220195808
0.13647006400488915 0.2504115532857853 357.77525743271235 0.23016854005965598
0.10931425281233552 0.2550107700501527 357.77525743271235 0.2252104177606494
0.10676878719399263 0.2422251618706872 357.7752574327124 0.24581454795398286
0.08428556685583115 0.23589192189620167 357.77525743271235 0.23949518242815052
0.08252833217315159 0.25857920909096366 357.77525743271235 0.21061909959268948
0.0751696863903122 0.24872526997770486 357.77525743271235 0.22721260128541682
0.09520428000312359 0.2556889856325312 357.77525743271235 0.2553162636132832
0.058305400624032055 0.25145412770450465 357.77525743271235 0.255583201707466
0.05170966213985545 0.23245439892687444 357.77525743271235 0.24874222667956616
0.06826056873499142 0.2629570781570357 357.77525743271235 0.19619623944570283
0.05278383646595058 0.21871438112295602 357.77525743271235 0.2531400281463069
0.04240803383089597 0.20518575094126254 357.77525743271235 0.2978722663337597
0.038900428413810126 0.22705743287294552 357.7752574327124 0.28938122897668755
0.11823230005856829 0.29030859812072896 357.77525743271235 0.1904686204236695
0.12803379826477748 0.30548248343720086 357.77525743271235 0.2041946527587606
0.13966941706607297 0.298508612278627 357.77525743271235 0.22352680920420498
0.13830413778131 0.2716798394360868 357.7752574327123 0.21377631389612223
0.13077565941157282 0.2812700854854989 357.77525743271235 0.20161673800540192
0.10912552794293441 0.29968743191132863 357.77525743271235 0.25029447835561236
0.10200565217014408 0.2748062013884247 357.7752574327124 0.19172893695317472
0.15387049417344859 0.30038740480118215 357.77525743271235 0.2093943371768112
0.14904183429731993 0.2834597178949366 357.77525743271235 0.20643162706554652
0.16636284316166836 0.29238497130776564 357.77525743271235 0.2155423202653192
0.1687125022418799 0.2742342525047194 357.77525743271235 0.20895750143683606
0.1818269205414825 0.30280671550066285 357.7752574327124 0.21796043681999527
0.14954338107869158 0.245104809068918 357.77525743271235 0.24173534398048846
0.1586505488006817 0.2642421739875577 357.77525743271235 0.20755733922562586
0.16921516406128062 0.25704228857258005 357.77525743271235 0.21929704121032273
0.16143638983484337 0.24660909943625875 357.77525743271235 0.23820550832712942
0.15505818792391318 0.32711539065902967 357.7752574327124 0.20557593649253092
0.18231867665254314 0.3456820971698632 357.77525743271235 0.20684452305868795
0.14866488172308556 0.34110002099846476 357.7752574327124 0.21326994805689595
0.16020160439669012 0.3419174784103391 357.77525743271235 0.22136309357385314
0.16070856617745402 0.3157236508814887 357.77525743271235 0.24606794457691292
0.17802163066782792 0.3315722487883136 357.77525743271235 0.2217683296184297
0.17551828625593038 0.3132638678795554 357.77525743271235 0.18748966971771114
0.12995571397479677 0.32118456400985007 357.77525743271235 0.2050312312535814
0.11866129092254982 0.3140318138128019 357.77525743271235 0.25253509620428033
0.13960898177345687 0.31577798016622755 357.77525743271235 0.22588572204107182
0.1422707979173155 0.3310121560333625 357.77525743271235 0.21682294410257044
0.1859078628347163 0.3194199704628486 357.77525743271235 0.20472792849232907
0.2207564210041493 0.34615782201975 357.77525743271235 0.2280245682178758
0.19643068735824343 0.3265530158397065 357.7752574327124 0.23029275143278874
0.2069985578008244 0.33193997484753757 357.77525743271235 0.2400849332643154
0.19511429683039103 0.34615700617610873 357.77525743271235 0.20856693491358247
0.20937662961850004 0.3134294997939261 357.77525743271235 0.19796449114043618
0.22040585823029502 0.3242720956000652 357.7752574327123 0.2237977678504357
0.21258986893776172 0.29959158717723144 357.77525743271235 0.23947251007910902
0.185628980662939 0.2845738216318593 357.77525743271235 0.20375121906604196
0.20007934655484877 0.3050717464459547 357.7752574327124 0.2648432277519676
0.19952377382516845 0.2758620516973586 357.77525743271235 0.21955575933279842
0.21885689091957802 0.28818072630065944 357.7752574327123 0.19662764175054534
0.2152784089574574 0.27456373759354213 357.77525743271235 0.18735750718232483
0.20751560714355072 0.2886368787905313 357.77525743271235 0.18449203693286578
0.1986462129394781 0.2582313744915672 357.77525743271235 0.20589333666252044
0.1885721263730733 0.2637900794990991 357.7752574327124 0.22464214553831674
0.19051986581004632 0.24009389928132616 357.77525743271235 0.24631139100566704
0.18467128898295732 0.25122750548158174 357.77525743271235 0.2071068386400895
0.17160443415194293 0.23842198439365356 357.77525743271235 0.20777815906260136
0.251854725694366 0.3429988994526889 357.77525743271235 0.22381677112842666
0.2225313275168773 0.3121770233053694 357.77525743271235 0.21766195460312399
0.23281126169864452 0.32544750295192376 357.77525743271235 0.22128074435059936
0.23984486542465086 0.33851284304412765 357.77525743271235 0.20448928828070254
0.23432888679692854 0.3695658138309387 357.77525743271235 0.28263889015658733
0.2229719142318238 0.37832815788678087 357.77525743271235 0.300294670359687
0.24867127603506073 0.3780003929554253 357.77525743271235 0.24638318724533267
0.22345251224059212 0.3616233976734574 357.77525743271235 0.26925145432269426
0.23192095918697803 0.3495395274739802 357.77525743271235 0.2328146300444223
0.24518182824950585 0.3535366171043758 357.77525743271235 0.2762917555263179
0.20293304450810146 0.36481545418547945 357.77525743271235 0.2690988072796953
0.20858199025054724 0.347810970206455 357.77525743271235 0.21400850116613646
0.20997126395200577 0.3753438550983303 357.77525743271235 0.2696766865036412
0.19523964531171764 0.3837449315894843 357.77525743271235 0.27107051136627064
0.1618906882209601 0.35462563953380677 357.77525743271235 0.26401737276109416
0.1828300416738214 0.36656687379854924 357.77525743271235 0.27457433399473624
0.1743798219705547 0.3544530487555132 357.77525743271235 0.25448933152906644
0.23659606700263114 0.395185440651233 357.77525743271235 0.2404892464426348
0.20722613370807652 0.4031059096952998 357.77525743271235 0.2071805397364791
0.2197659768542098 0.3990193452988626 357.77525743271235 0.22185313097735046
0.18508633220591933 0.4028192590008105 357.77525743271235 0.21733158985992804
0.21107689084759118 0.3876623409952831 357.77525743271235 0.23332515689957697
0.2709968460986801 0.3637292652454991 357.77525743271235 0.2829710970302388
0.26416523653639684 0.37956859751688393 357.77525743271235 0.257920578329679
0.25199384909533384 0.3921350885698987 357.77525743271235 0.23752418600616468
0.201459363408829 0.41593545114857566 357.77525743271235 0.14127868652972664
0.2686190074020266 0.4096700838265307 357.77525743271235 0.22399442186050122
0.24574614753263654 0.40347062271984635 357.77525743271235 0.20515926696161046
0.29382198344353394 0.4108142299107798 357.77525743271235 0.19107595079424022
0.2254760117735562 0.4166308907597713 357.77525743271235 0.13515375866484172
0.340868187454923 0.4095377481125736 357.77525743271235 0.24523801874961035
0.3061531692002023 0.40095263122613645 357.77525743271235 0.21225250356534503
0.2804819227044156 0.39507657018348813 357.77525743271235 0.22205951429344806
0.32050276978297315 0.4049323917723502 357.77525743271235 0.22311191036289507
0.30562337615451163 0.4150966583819065 357.77525743271235 0.16915965566150318
0.1742461489961279 0.3951196189280619 357.77525743271235 0.23330817808492843
0.1568170236711775 0.3919751028057453 357.77525743271235 0.22232129871973863
0.14121778150971231 0.3982647119328855 357.77525743271235 0.23028749463606982
0.15102784333339953 0.4054004147944623 357.7752574327123 0.22223854537656454
0.17411294790669174 0.4131690331951344 357.77525743271235 0.1865673784795477
0.08971386054101879 0.39426730225374795 357.77525743271235 0.26320100985159384
0.12522363332194275 0.3956751994243246 357.77525743271235 0.2116699407835847
0.060982793919247845 0.40875783980180025 357.77525743271235 0.24339735673561663
0.1132914954845934 0.3903003847676205 357.77525743271235 0.23994212071778365
0.09654230195828432 0.40647670904933675 357.77525743271235 0.21122642744202938
0.059635022300657856 0.42085298078738387 357.77525743271235 0.16988059671334335
0.11722121566737982 0.41938044342562225 357.77525743271235 0.15462425831837018
0.08110195674227953 0.4132424381696568 357.77525743271235 0.18363647118455265
0.13285620716141577 0.4156831537078225 357.77525743271235 0.1769213622750901
0.16102633312838469 0.3808720205499562 357.77525743271235 0.3064079680088528
0.16753257051049728 0.3685573887880254 357.77525743271235 0.29463283496836534
0.17488358654450115 0.37778554868545683 357.77525743271235 0.300005977440287
0.15054136157210185 0.35577871382462817 357.7752574327124 0.22616599174100335
0.12911838921826546 0.3751685612958504 357.77525743271235 0.2526545691860657
0.12014203693403176 0.35744560350957655 357.77525743271235 0.2787340277986094
0.1361038543035841 0.3595548217636123 357.77525743271235 0.2538846599572286
0.14219305766693577 0.3744132275315102 357.7752574327123 0.29279910440075047
0.08441540993834286 0.361277534124639 357.77525743271235 0.2755476186469095
0.09462491783999405 0.38337969193965404 357.77525743271235 0.23512641238504534
0.10769693969799923 0.3534348496519177 357.77525743271235 0.288954150067267
0.09552190719428222 0.3557639753364704 357.77525743271235 0.30585794748890793
0.10525575813259531 0.37754895905612074 357.77525743271235 0.28639052401971826
0.05508267423418964 0.3949726307923523 357.77525743271235 0.2687561382146777
0.06632521249138354 0.3905973892862167 357.77525743271235 0.2480199754945313
0.03822934660306864 0.39986968760432834 357.77525743271235 0.25835646938744855
0.026832938615640355 0.4091761920923311 357.77525743271235 0.25981618082395946
0.014195819581723097 0.3817974211677997 357.77525743271235 0.2519565899013014
0.028454980679397158 0.38395159553526437 357.77525743271235 0.2582166603994058
0.0055586899868735285 0.4063279541131344 357.77525743271235 0.18644372322782737
0.0018120807484301449 0.3720904944506316 357.77525743271235 0.11399994145183459
0.04621747247180404 0.3754826326751054 357.7752574327123 0.25277803118288356
0.057511123339336064 0.37873583033650826 357.77525743271235 0.27689188548851806
0.05651390168654494 0.3610948329083985 357.77525743271235 0.254833796387026
0.06925011318208794 0.36669653518042017 357.77525743271235 0.2283405001316595
0.06850298502830651 0.35082048616135186 357.77525743271235 0.24972961846671904
0.07424509480528761 0.3303883387022005 357.77525743271235 0.28313932147321036
0.0807045683590189 0.3416488662824213 357.77525743271235 0.2658612743715665
0.09232200248583185 0.3405177435989606 357.77525743271235 0.24984965818386168
0.05026746194008845 0.3254996466860216 357.77525743271235 0.27091423080082505
0.05999109546354458 0.334003102439703 357.77525743271235 0.2613889497211064
0.05560579069524212 0.344900473498464 357.77525743271235 0.27965041992785533
0.045896553573931465 0.31442521162493736 357.77525743271235 0.2497098368009958
0.07082303028654538 0.3167071141644776 357.77525743271235 0.2305078666292827
0.11937872189193469 0.34173127373557777 357.77525743271235 0.24131723633390562
0.13399654547809853 0.34598079551671956 357.77525743271235 0.22056341456646927
0.11752597436714783 0.32765767351164254 357.77525743271235 0.20913365321099942
0.104112583158481 0.3150329144966989 357.77525743271235 0.24757216730204448
0.10707590319685537 0.33612265411440345 357.7752574327123 0.27829887706658313
0.09246682886497717 0.3133077649979575 357.77525743271235 0.21709848229751996
0.08187848078292315 0.30183416908902155 357.77525743271235 0.2091610101609266
0.08511233686979451 0.28728968444479724 357.77525743271235 0.18112822818012167
0.09595221778543489 0.2964347344606665 357.77525743271235 0.21150839410126276
0.07628259184149795 0.27737067128665016 357.77525743271235 0.21467997739597122
0.0415204222775834 0.29900094522047266 357.77525743271235 0.2676586592600486
0.04967514234973201 0.2831856933407071 357.77525743271235 0.3000225887466022
0.06055841468356178 0.3041298452515976 357.77525743271235 0.28137721508322133
0.06668498767412283 0.2929353151458597 357.77525743271235 0.25910326699801095
0.06453114506701377 0.28195529025423155 357.77525743271235 0.21860196425668055
0.05442702188521788 0.27030744930606754 357.77525743271235 0.24434292063120636
0.042809668875538866 0.26816882244772705 357.77525743271235 0.28623120205159847
0.024049164246405994 0.2852622807428401 357.77525743271235 0.2849380219510714
0.03441424656626481 0.2445695440865565 357.77525743271235 0.2885503473700077
0.006219806715338457 0.2645431015974177 357.77525743271235 0.18992577293828067
0.019359961004496808 0.2666083660155001 357.77525743271235 0.28060350426392666
0.017537461324915665 0.2231580511352928 357.77525743271235 0.2789048153053057
0.004359352681988121 0.24666810722391927 357.77525743271235 0.14861882958165465
0.010763812674000162 0.2346877938755269 357.7752574327123 0.1842079087871171
0.018601214551055928 0.16652425344882948 357.77525743271235 0.2617608398924585
0.022771942078744323 0.1768007938587603 357.77525743271235 0.3118548168281516
0.02891324353206857 0.15975845533660976 357.7752574327124 0.28090560786604646
0.009715588345570405 0.17787358447281262 357.77525743271235 0.18548027601445297
0.031346969541493096 0.18842627034869042 357.77525743271235 0.2679153433245221
0.014572831223097233 0.1986587912812206 357.77525743271235 0.20820327386325332
0.01541354822887342 0.15319397139887647 357.77525743271235 0.2109961273713806
0.031247573153332674 0.12777756798322282 357.77525743271235 0.2702111289708127
0.019930451138857254 0.13496612349366552 357.77525743271235 0.24185273690676704
0.036083400734714034 0.14399248170436368 357.77525743271235 0.26219420960545686
0.006267654917981604 0.16135422300736413 357.77525743271235 0.17118828515157222
0.024170397427161268 0.11620309825602504 357.77525743271235 0.25110196470073953
0.05203692026791791 0.10398888575787485 357.77525743271235 0.2515407921027404
0.04803088473713282 0.0921247861057588 357.7752574327124 0.282813259161951
0.06326088269252222 0.11405681057354111 357.77525743271235 0.28976930897947967
0.031648718459650865 0.10410248255239841 357.77525743271235 0.2247739284687704
0.03916961283473824 0.07739013481613001 357.7752574327124 0.23516292501229574
0.059221960799362705 0.09196961171699844 357.77525743271235 0.23819129639690265
0.07264149892276028 0.10226151750276385 357.77525743271235 0.28503421753158503
0.07363693788628982 0.0803310021825536 357.7752574327124 0.23306657910860323
0.05888650900211502 0.07601630595495122 357.77525743271235 0.24331427320566779
0.03937207986902226 0.0656652962444624 357.77525743271235 0.1715366777356633
0.051206473592828844 0.061533566797185205 357.77525743271235 0.22679510903930275
0.06594432631803353 0.04332565068454633 357.77525743271235 0.2267558097132853
0.0695468452537575 0.06956816975995607 357.77525743271235 0.2533841649485334
0.06875859830991672 0.057708056880348815 357.77525743271235 0.2935041635922511
0.07304213405514255 0.02908942637136526 357.77525743271235 0.11831153091364709
0.08564497462438057 0.029384657020141265 357.77525743271235 0.21018078430202577
0.10790954748899838 0.03828857398613353 357.77525743271235 0.28023864314893676
0.12491662102802407 0.01902831095801693 357.77525743271235 0.24893724572514658
0.11785759043434803 0.02888316197612404 357.77525743271235 0.30364604903307696
0.13994525043885006 0.020706475082541965 357.77525743271235 0.30832492536964534
0.16890838771534827 0.004409431854032857 357.77525743271235 0.1792569624781123
0.17081959657659826 0.028549452782499294 357.77525743271235 0.277735102475795
0.18183285580327388 0.034883559316941204 357.7752574327123 0.24669477298757603
0.15014559710305575 0.014619672002734759 357.77525743271235 0.22211897881987022
0.18676428689683958 0.017490749444301706 357.77525743271235 0.292913348055621
0.18693207155467495 0.00024313217312873795 357.77525743271235 0.10745052601419768
0.20471566620866505 0.0013435578585812757 357.7752574327124 0.1256046926458523
0.2072586031449333 0.01406297648716604 357.77525743271235 0.25927552771537216
0.19619043192088192 0.03338453966618318 357.7752574327124 0.261929735291734
0.22834634931525644 0.02903721747224098 357.77525743271235 0.24431197005089103
0.25084145705699784 0.016464960021749825 357.77525743271235 0.21059527589073362
0.24787462967467416 0.03106690455067028 357.77525743271235 0.2930743931719968
0.29170839835359974 0.024185922693995304 357.77525743271235 0.1234185157234726
0.2713992740557219 0.02999399689497295 357.77525743271235 0.24690502744746257
0.28031625746951927 0.042405463934970425 357.77525743271235 0.27718961081043614
0.26429581139603875 0.04301704954906608 357.77525743271235 0.25756032638424886
0.2829794776595204 0.05460077773755955 357.77525743271235 0.23234509299163478
0.2952796824761626 0.042730603428976596 357.7752574327124 0.25015672223028895
0.3110174485306119 0.05449934716048263 357.77525743271235 0.2460827133817224
0.29811801738050736 0.05736742347206882 357.77525743271235 0.28254893566150047
0.32912118983716354 0.052834304010789444 357.77525743271235 0.1396438636869516
0.3232458725453667 0.07383337760440545 357.77525743271235 0.3014871200394436
0.3143647242681952 0.06641164469149484 357.7752574327124 0.2624410782783013
0.31597164171802694 0.08378591789283557 357.77525743271235 0.25076189307609387
0.31774134189834713 0.09555181994008463 357.77525743271235 0.24334651610226005
0.30382823912049595 0.07869717621393543 357.77525743271235 0.2238806823132865
0.3286194027389364 0.09985469914329817 357.77525743271235 0.2790762746974222
0.35096768273886303 0.09150988963512979 357.77525743271235 0.16235951771317175
0.34127388215265797 0.09884150704035471 357.7752574327123 0.2225480783985084
0.3386387377479272 0.11126924958144638 357.77525743271235 0.25860865218421525
0.30727696629142587 0.12443893614266092 357.77525743271235 0.25264126785058494
0.3303354093195782 0.1231966344193426 357.77525743271235 0.23445794182097693
0.3203381453352194 0.12948324145022472 357.77525743271235 0.28589143550139
0.30489996080593096 0.09220166280110002 357.77525743271235 0.27867693065478627
0.3154984187838711 0.11297863074990183 357.77525743271235 0.26605465616620977
0.34570758556393677 0.13211771855456736 357.77525743271235 0.2619950437030124
0.3035344287864589 0.13623356132579967 357.77525743271235 0.24019780656261236
0.318398375875528 0.15105913822364905 357.77525743271235 0.27056452439969303
0.30249530502021116 0.14797941251305763 357.77525743271235 0.25603383400460433
0.2726605141163134 0.12133730591932668 357.77525743271235 0.2302782167615304
0.28392280572253226 0.12112803807627587 357.77525743271235 0.22659411844862723
0.26094734379438456 0.11677701993266576 357.77525743271235 0.2090751486944539
0.28703113265801494 0.13399189509798778 357.77525743271235 0.23109423285795413
0.2652956331707207 0.09315631890323939 357.77525743271235 0.19498728494355624
0.2852033059142064 0.10868939446282412 357.77525743271235 0.23990382854093545
0.2759312640314583 0.10165409937049043 357.77525743271235 0.20128943204670843
0.2763044220800012 0.08649151655256752 357.77525743271235 0.26775638749262537
0.2955396640346952 0.11471690007906554 357.77525743271235 0.2537931144085663
0.29450504276132405 0.10084009988777641 357.7752574327124 0.27352127905908147
0.29300825653833157 0.08796174686266559 357.77525743271235 0.2694249924833385
0.265791682448013 0.07927822499597867 357.77525743271235 0.2698245372573349
0.2709441445373278 0.06781696433552944 357.77525743271235 0.2750181329765463
0.29096943375242407 0.07690480983195573 357.7752574327124 0.2856731207737376
0.2539318446042088 0.1079002855112814 357.77525743271235 0.22875536951753522
0.25250570533224737 0.0832983353189524 357.77525743271235 0.235973674780804
0.2443072257183439 0.09330966860856892 357.77525743271235 0.2143147492425864
0.24014696529497037 0.08293957601559451 357.77525743271235 0.19866565049490767
0.23229358140816125 0.058252753287727776 357.77525743271235 0.2686475497854714
0.22428492256282762 0.041232247120467636 357.77525743271235 0.2721541554404803
0.23984402196528987 0.04929075709763053 357.77525743271235 0.2479843017518712
0.2528166913581015 0.06338106382585577 357.77525743271235 0.2775163378943164
0.2628299527298641 0.1400981035783456 357.77525743271235 0.22446733049011947
0.26445102861438685 0.15371304923512955 357.7752574327123 0.17475419976254644
0.2826304585327967 0.15363975550183304 357.77525743271235 0.1945926646578377
0.2727433352983276 0.13381663473854463 357.77525743271235 0.23158279956615083
0.2942216464558728 0.17966351400258068 357.77525743271235 0.246861691630807
0.2887695999465937 0.1678928335655377 357.77525743271235 0.21223225008524466
0.3004459692115924 0.165520531295553 357.7752574327123 0.23662334818866124
0.30766338979201274 0.18075762069859708 357.77525743271235 0.2331661630248104
0.32996667362214716 0.16284799911608122 357.77525743271235 0.2772501558365822
0.31811833889081925 0.16472129028341798 357.77525743271235 0.26788505231875565
0.2970493827631751 0.23038994542408003 357.77525743271235 0.24846715974664832
0.31602199342786697 0.2134214908588245 357.77525743271235 0.26073609286277044
0.302476449205757 0.21984467676487668 357.77525743271235 0.233193922698395
0.300213274456954 0.20734166082889088 357.77525743271235 0.24010471113978
0.30467869083028243 0.19310987533334678 357.7752574327124 0.23895284967372615
0.3270674243520766 0.21728072121080041 357.77525743271235 0.2926618892754354
0.31800932685347183 0.19495622296716458 357.77525743271235 0.2788068999052183
0.320262140833768 0.23333779888975603 357.77525743271235 0.3105823254423728
0.32372733830946937 0.24708850459993043 357.77525743271235 0.2848109262500244
0.30905524289896147 0.23404131751940727 357.77525743271235 0.2430177681758691
0.36906409384778455 0.24304995164334126 357.77525743271235 0.14417372606377782
0.3531256706590634 0.24266109090573623 357.77525743271235 0.3009820090229261
0.3421200221636247 0.23817102155722109 357.77525743271235 0.28836079452917673
0.36017652724246063 0.23273514589039532 357.77525743271235 0.26449352947491206
0.3519674824176305 0.21585504574597825 357.77525743271235 0.28400241751437516
0.33344746176603113 0.2605351943069104 357.77525743271235 0.2528245816185945
0.3582272246294484 0.26203434508957757 357.77525743271235 0.2701696611360332
0.3409422921771518 0.25075347182432384 357.77525743271235 0.2660068185091066
0.34311680054181243 0.26733441101490857 357.77525743271235 0.23416283398924698
0.36864816273682677 0.27439204330077704 357.77525743271235 0.1950212670929909
0.347185120968885 0.2868446236654323 357.77525743271235 0.22947133174844606
0.33323769535929937 0.2875988469443336 357.77525743271235 0.23000700262345236
0.36726666418711906 0.28862243578090885 357.77525743271235 0.13278358501767623
0.35878653206229966 0.30784592153727497 357.77525743271235 0.19177121855911514
0.36831140593082656 0.3153517017187669 357.77525743271235 0.16900419803140163
0.361214949255841 0.3320088632828064 357.77525743271235 0.22533183107964078
0.3457058773406159 0.32332288925244246 357.77525743271235 0.2750060679641269
0.3378308304324544 0.3399993992438783 357.7752574327123 0.25369694802988596
0.34935091291046505 0.3442955497089294 357.77525743271235 0.280528636122374
0.34716470763546614 0.3624348371096792 357.77525743271235 0.2530045266176606
0.3417582946967317 0.37382000972433627 357.77525743271235 0.27496449251705657
0.3579853796311275 0.3673397941085709 357.7752574327124 0.20093118355539885
0.33639723043196945 0.35322912761861675 357.77525743271235 0.22387248414457459
0.3664786879993432 0.37775272034970536 357.7752574327124 0.16860188350478775
0.3416353991112669 0.38530481888729085 357.77525743271235 0.25789623915924187
0.35133886765426886 0.4037333741002711 357.77525743271235 0.2451857763608861
0.3635892069202682 0.4158296714755972 357.77525743271235 0.1216580630557774
0.304116752907451 0.3883395902593148 357.77525743271235 0.29500214757248067
0.33076286760011153 0.39198981760766305 357.77525743271235 0.2049561402717294
0.356843819016812 0.19779347394946345 357.77525743271235 0.2183829616094641
0.3410012496183078 0.18753339954684592 357.77525743271235 0.2752875640976282
0.35359147363800797 0.16275436119020076 357.77525743271235 0.23584215608149264
0.34834989278116485 0.17496318332640845 357.77525743271235 0.2807777293742506
0.36677310150971565 0.1863399813197395 357.7752574327123 0.13087045611751646
0.3462706947807095 0.14701195310387757 357.77525743271235 0.26308177690398554
0.21814200243880033 0.05390501771136942 357.77525743271235 0.29921665093403
0.20324327094693714 0.05085670708697269 357.77525743271235 0.26828107554251895
0.21819513662899012 0.0678700763036609 357.77525743271235 0.22437864904609
0.036172410885765775 0.3390338678222564 357.77525743271235 0.2595235029429161
0.025072316280796737 0.31350886180155035 357.77525743271235 0.23644894031373767
0.0017535963074792123 0.3328300848106404 357.7752574327123 0.13041236999278874
0.019091123097794916 0.33938039144393667 357.77525743271235 0.2936403581564738
0.022195695888420283 0.3645164849243788 357.77525743271235 0.27055361584317794
0.028530295291221017 0.3488168672715965 357.7752574327124 0.26813801649933044
0.00026033884126330716 0.40121799536162517 357.79967195897865 0.1187633921632684
0.0002706340288165987 0.37848177696979274 357.78941916809765 0.14669607036975632
0.00026095324558086 0.3949350101480418 357.7794903164899 0.13433403837597155
0.00026618105967071357 0.3893667846138829 357.7961844761248 0.15106929728478158
0.00024933897111238695 0.4172372822123053 357.77716657248095 0.13761659322611006
0.00025657123726975157 0.405835236336343 357.78731436001874 0.13740490324036664
0.00026584440386050667 0.38435737713963064 357.7763195996568 0.11699713165517012
0.00024930033377051566 0.41880526169287896 357.7990468030272 0.1483399214777135
0.005022927709132365 0.38300475501682796 357.80673762529557 0.1342370811227951
0.03732808344177177 0.3848947766574709 357.8067574327124 0.1918676382231974
0.029604613100225344 0.399774295972297 357.8067574327124 0.1355191906704688
0.013419808230170832 0.4178410229794859 357.8067574327124 0.13358917130369993
0.015077534540154522 0.3777587180893035 357.8067574327124 0.13182201868924387
0.02522481505410241 0.38886090962611974 357.8067574327124 0.14029415690377744
0.0290004940306338 0.37651323487873023 357.8067574327124 0.1421716336726415
0.01652549949005929 0.39681182996454695 357.8067574327124 0.14008806241334798
0.0492549639468106 0.3580275267846117 357.8067574327124 0.21196154606858508
0.04971566785882226 0.38015532952017134 357.8067574327124 0.1994756557962824
0.05792579725620652 0.3696597485096115 357.8067574327124 0.20137480193474594
0.047942929334648034 0.3920479342884484 357.8067574327124 0.19144122544551054
0.05729243248061849 0.4025820621178845 357.8067574327124 0.161644798494523
0.06911844788100593 0.39168107232378424 357.8067574327124 0.14070914465771592
0.04362449185123878 0.40348906972243814 357.8067574327124 0.17016060964813703
0.04890371192188232 0.41366558760441496 357.8067574327124 0.18739129991355447
0.035870766465014456 0.4161690930470011 357.8067574327124 0.15896116152576106
0.03427021545199455 0.358618811002861 357.8067574327124 0.17411707302393772
0.040858436042170765 0.37290150334011835 357.8067574327124 0.17223221466735195
0.01631649087217963 0.36120327671708835 357.8067574327124 0.13908010786608743
0.07551483313117692 0.4044021091346743 357.8067574327124 0.17935755977000198
0.06361270551579312 0.4122597387023793 357.8067574327124 0.16993998985332673
0.08664621267011924 0.4169386165033291 357.8067574327124 0.17105297128579053
0.09549476134393291 0.37131514671749977 357.8067574327124 0.19241138153541903
0.10772310223716389 0.3791643510425271 357.80675743271246 0.21990995754502463
0.08204964212741006 0.37628642650441674 357.8067574327124 0.18553131254306118
0.08933091297320458 0.3581051641331259 357.8067574327124 0.19760393002218007
0.04428897235908901 0.34399198737921943 357.80675743271246 0.19607722682427847
0.06940066500937676 0.36643196149946167 357.8067574327124 0.19457306827568446
0.057330887602295794 0.34516671869150545 357.8067574327124 0.2172585898972737
0.06321881592793958 0.3566723506772338 357.8067574327124 0.19360390715421993
0.08491753682283276 0.3926790701979266 357.8067574327124 0.1416703634306583
0.10181623373601863 0.41456246809944375 357.8067574327124 0.16127900336790368
0.09560412507829463 0.4018973540150579 357.8067574327124 0.155739452950365
0.0993292574619693 0.3880284799088002 357.8067574327124 0.16020944888823743
0.10876777803062036 0.404661535694416 357.8067574327124 0.16901851210079855
0.1272291204197374 0.4087547003554247 357.80675743271235 0.18164501733522126
0.1277882137377069 0.3785278485859104 357.8067574327124 0.2275705837922274
0.11863378914664119 0.37201184496146167 357.8067574327124 0.2062790784652895
0.11784622113838991 0.35776977159361995 357.8067574327124 0.2505617013997966
0.10282093056163642 0.35912575215056664 357.8067574327124 0.20476125446772106
0.09651645951766202 0.34854216438110663 357.8067574327124 0.20679101217529
0.14197002234635495 0.4062264313366856 357.8067574327124 0.20155375177782292
0.11996513759796806 0.38849970534608863 357.80675743271246 0.1794395440767298
0.1355883942695501 0.39208429944990575 357.8067574327124 0.19457038722673947
0.08050270376829316 0.31897790209061005 357.8067574327124 0.21793113142823217
0.08795074795614559 0.3294263958103106 357.8067574327124 0.21937918986453947
0.10000779545816406 0.3353057996056425 357.80675743271235 0.24880083096625466
0.06814570519474744 0.326251961819953 357.8067574327124 0.19715530792658423
0.05943494063311326 0.3168825406761572 357.8067574327124 0.20509771418235312
0.051381331163973906 0.30658101518285164 357.8067574327124 0.2121835638580116
0.07603542637549174 0.3402544287731137 357.80675743271246 0.21678833409985362
0.05072034679702547 0.32992327219953027 357.8067574327124 0.20464245726877928
0.043379983875981645 0.31639247759411615 357.8067574327124 0.23500411698332327
0.14177123025447078 0.36454517117634255 357.8067574327124 0.2073693538065553
0.12052371577672753 0.3454980272949477 357.8067574327124 0.2127854283886129
0.13757999944631302 0.3421750220308404 357.8067574327124 0.24287859379421933
0.12599431424347987 0.33120255384512953 357.8067574327124 0.2072440426732284
0.10059936062214099 0.32265023912498786 357.8067574327124 0.21334481697418733
0.1117357259580703 0.331748365517641 357.8067574327124 0.24252980099936983
0.10254987154705072 0.31100526216842717 357.80675743271235 0.20181016996989626
0.16167505782586855 0.36641616451357384 357.8067574327124 0.2370295635114625
0.1552491890682934 0.35735520778414887 357.8067574327124 0.21240663521753858
0.1546923816492909 0.3785723940248904 357.8067574327124 0.216094795660109
0.17366526326665888 0.37132230931299426 357.8067574327124 0.23235817199957493
0.1581021667248828 0.41556976345371605 357.8067574327124 0.1554973678679264
0.15546635143098175 0.391992330558627 357.8067574327124 0.20751780119964067
0.16389683771244792 0.4052755251788338 357.8067574327124 0.1981756813620652
0.17891561855113666 0.3875335866339361 357.8067574327124 0.21846837601096128
0.16702689432120016 0.39160299282393435 357.8067574327124 0.19735086127884002
0.19598421492892465 0.41709018553203747 357.80675743271246 0.18938563215096205
0.18960054323361747 0.3931921283836823 357.8067574327124 0.17590404228522594
0.17607209464963117 0.40996019804252937 357.8067574327124 0.13348404363239824
