x y z curv
2.203876058980181 153.33430101529518 1244.3599845473193 0.030092824105711402
2.1934009704943116 153.34182415573656 1244.392072554921 0.06958799740927556
2.1957388217961347 153.33359949026666 1244.384849679945 0.019159670594927482
2.1932823660274083 153.28040562165717 1244.3918588651393 0.0002988202097651315
2.2049140720947733 153.1067034668592 1244.3564618370842 0.0006953927564592242
2.2028435060064133 153.00215983010082 1244.3616405712005 0.0006127245435445645
2.203960379711887 153.16878218495324 1244.358855462004 0.0007805785877996181
2.2047107716946908 153.0236678803654 1244.3569648192881 0.000539442048333595
2.2011834419951253 153.01668093401943 1244.3658000180124 0.0005719475304537801
2.2057717486241906 153.21667301872475 1244.3543217205267 0.001292815380591864
2.2040917497853747 153.23693970253694 1244.3585315367275 0.0011435572416304922
2.205719595288504 153.3076472625478 1244.3544592325698 0.002128476911433113
2.2028579779188586 153.04599706658297 1244.3616076311052 0.0005728205238843981
2.2034743794755967 153.09373728793915 1244.3600671920553 0.0006109294847089043
2.203575964436895 153.14802896405186 1244.3598168292 0.000756989538040716
2.202350947822361 153.08310126166944 1244.3628805103258 0.0006745133782865548
2.2040243865563998 153.07316702702178 1244.358687907175 0.0006940564289444193
2.204424896287728 153.13573660385896 1244.3576893828792 0.0008446365463164941
2.1957052638586503 152.9851531696271 1244.3824977318745 0.0002248644911832187
2.1955298311040052 152.9628566265818 1244.3869881720348 0.00027606807760886007
2.192866415621804 152.97595894236198 1244.393004453113 0.00039524888373239364
2.1918477856616057 152.96479651450503 1244.3981645464655 0.0004852561841427298
2.1992874032173733 152.97302562879295 1244.3734348943372 0.00047788078670280373
2.2028772636560827 152.98380287211927 1244.3602987787167 0.0006331220793635981
2.199652919184326 152.98737724595912 1244.3698081105285 0.0007034234903247859
2.190936392222814 153.22312581493722 1244.3984877123598 0.0007495834704379295
2.1886243383322013 153.23587968153277 1244.4055473458443 0.0007951923144539318
2.1951205114100203 153.10512722366855 1244.384558601757 0.00028140183307915473
2.1871023226194137 153.30255141283766 1244.410902759053 0.0011197939886232208
2.1971442953377163 153.01232178737746 1244.3773871798003 0.0004461934887029404
2.1911792587707364 153.15746220046555 1244.3969645712434 0.0006597283481420864
2.1959469593389933 152.99851441604127 1244.38079511035 0.0005550059935009696
2.1976046735985544 153.02321648281733 1244.376144692967 0.000375099202719399
2.195750239810072 153.07486688860715 1244.3823103146553 0.00042496959547086893
2.190922642296913 153.20234112300017 1244.3982762291523 0.0006708709927895413
2.186583841487982 153.33299593923434 1244.4128210577885 0.020672207669999332
2.1912776756978785 153.17527151833352 1244.3968870543158 0.0004340698227969411
2.1924838905303705 153.09395342546063 1244.3922967803828 0.00047579439608686717
2.1975341663887544 153.05444360064476 1244.3767346811703 0.0005175652905382227
2.192419424684627 153.06662694708257 1244.3923702921627 0.0006317812490420146
2.189347564847744 153.16708781980637 1244.4031222733079 0.0012424805234197325
2.187075982982524 153.26920942327226 1244.4110008302073 0.0013516738285950646
2.1892933673316213 153.11368446031068 1244.4034553575586 0.0010475813763470459
2.190354608218005 153.13480831958432 1244.3995957661793 0.0010025528826710097
2.192685752576222 153.0001811765306 1244.3915881411021 0.00032860301313334783
2.1896136964127417 153.1879272935643 1244.4021139991503 0.0008646013777960777
2.1906014960912237 153.12289651541445 1244.3987415936422 0.0008990632149440045
2.1926500680791783 153.05303788196025 1244.39157871703 0.0006478201918348052
2.190391172404582 153.01017333935852 1244.39978856565 0.0005944990208108695
2.192912399918196 153.0376084892087 1244.3906783168227 0.0006167171600630855
2.1902744891449313 153.02131269962968 1244.4001779437642 0.0008446761489397657
2.189483071520357 153.09155432810363 1244.4028327507608 0.0010266187690408492
2.191045601636746 153.07968356196244 1244.3972617100121 0.0008972219953556966
2.1914110514079 153.1055699670749 1244.3958842507955 0.0009065150575098674
2.187693476420914 153.12845971882405 1244.4097668259626 0.0009755836205428501
2.187277633635529 153.06845511649686 1244.4123990848893 0.000659798681382056
2.187858651122453 153.1009536280516 1244.4093983454984 0.0008530875196445415
2.1888940553405454 153.03055967027439 1244.4057429703616 0.0006573333638318963
2.1875691799179275 153.1516001093681 1244.4100119133554 0.0012839334674184385
2.1865310845745913 153.25564535858052 1244.413235415021 0.0012981095417853937
2.1872755215589263 153.02259482187168 1244.4130132321443 0.0006054577636850443
2.189306408687045 153.0465312100133 1244.4037068590505 0.0006181729597799812
2.189269144391002 152.99903296541387 1244.4044982255946 0.000626119086919561
2.1867880275532623 153.04218225577208 1244.4149130447356 0.000254743073627735
2.186177933582207 153.24351579865746 1244.4149587711468 0.0013064896605685947
2.1865999389162822 153.21098004293938 1244.413519635929 0.0012249301964028301
2.1880342346594714 152.9864786650256 1244.4101307147714 0.0004950884146073553
2.187095165428708 153.13911006367135 1244.4122750842432 0.0010129862730168554
2.1886112441250254 152.95758368996695 1244.4098272275978 0.0007209334136771635
2.187014595643647 152.9754064410386 1244.4151663747748 0.00048333804812130125
2.5461864586361806 153.37009672153008 1244.8818509204586 0.2572086357454896
2.546186494788616 153.35205402322558 1244.848292685238 0.2857901866272298
2.5461864665963647 153.36612400987536 1244.8481364418299 0.2910372734572177
2.546186468606738 153.365120687215 1244.8702383851287 0.25910837149465693
2.5461864532917815 153.372763966055 1244.85979641483 0.267026348238684
2.5461865018109284 153.34854937794645 1244.8584701432928 0.260495487133518
2.5461865123596312 153.34328480698636 1244.8406598660008 0.2523634200316193
2.54618651559936 153.34166794634177 1244.8749521306554 0.2947522847559721
2.5461865392751 153.32985202766622 1244.886840205574 0.2555789886685837
2.546186470765694 153.36404321110595 1244.901919828793 0.28980352579426893
2.5461865247649933 153.33709362789213 1244.8946895942618 0.28262293979361874
2.5461865430979733 153.3279441355942 1244.8740779299844 0.281471011236645
2.546186479898159 153.35948544582692 1244.889785806684 0.29248414716037574
2.546186503854864 153.34752930515708 1244.8897428258492 0.2880440599279178
2.5461864529880414 153.38632419715802 1244.900236551857 0.28584780097372
2.5461864529880414 153.38485597235587 1244.864428481239 0.27431225088297184
2.5461864529880414 153.37577713830575 1244.8936423547545 0.26252959645811225
2.5461864529880414 153.4006845536599 1244.901757886729 0.25158648619925156
2.5461864529880414 153.38661615596195 1244.8896455516672 0.29740935253457257
2.5461864529880414 153.39818187819097 1244.8840909639393 0.24760554637382878
2.5461864529880414 153.4000378026029 1244.8550087660713 0.27126795674637977
2.5461864529880414 153.39604685676812 1244.8663696671374 0.2740540790334185
2.546186452988041 153.39373338726008 1244.840783330766 0.2286440961198515
2.5461864529880414 153.41450516666328 1244.8949892407843 0.2456906747225911
2.5461864529880414 153.38637241436788 1244.8505322206663 0.3088046847432867
2.5461864529880414 153.41070200252534 1244.8500251104208 0.25092537754287453
2.544998226578246 153.4192745632269 1244.8405069556725 0.1749008187525574
2.334164544312265 153.4192745632269 1244.8548882226955 0.18450314692556563
2.4812675639217225 153.4192745632269 1244.8895741289682 0.21757120417304165
2.542671340631441 153.41927456322688 1244.8652652286962 0.21207292163445957
2.3520958693534606 153.4192745632269 1244.8457664553175 0.17239111228978338
2.372348495588148 153.4192745632269 1244.8658580633282 0.19259844530949763
2.466995376329854 153.4192745632269 1244.8624103587254 0.16856219860773325
2.395737312495029 153.4192745632269 1244.8573408095797 0.1735990329125388
2.525328329752011 153.4192745632269 1244.895787370787 0.26517928903062055
2.4034980350823645 153.4192745632269 1244.8685841131742 0.18347838547072204
2.4063892244546152 153.4192745632269 1244.8486135109738 0.19359469681781732
2.530292188470465 153.4192745632269 1244.8675844008026 0.19863772978221128
2.4514186219002374 153.4192745632269 1244.8643472655776 0.19035298725048494
2.515196315338237 153.4192745632269 1244.8405127456801 0.2355958437600783
2.345330728509434 153.4192745632269 1244.856513451647 0.1874107188814688
2.2908119724033993 153.4192745632269 1244.8468071891127 0.23394413613268739
2.4296605799478237 153.4192745632269 1244.868713308943 0.19059156021294357
2.4982599470505127 153.4192745632269 1244.8480692948688 0.2050972127155284
2.418061586236446 153.41927456322694 1244.8489000893787 0.2020117136467546
2.369074163152298 153.4192745632269 1244.8560064018702 0.19883471888369642
2.518276432843499 153.4192745632269 1244.8674350912715 0.2037892124797274
2.2755431864058737 153.4192745632269 1244.8504842145474 0.18193860592826075
2.5353895937772575 153.4192745632269 1244.8991663950549 0.22908109670368954
2.493377087545823 153.4192745632269 1244.8705829622095 0.17775040702741024
2.3157371104303994 153.4192745632269 1244.8589487567149 0.20343235280774458
2.363520866929235 153.4192745632269 1244.8452812677656 0.2246914202835202
2.3275239477018994 153.4192745632269 1244.863108430043 0.19946074874607034
2.4984244631196986 153.4192745632269 1244.8889159098896 0.24895287482321643
2.2492899882144908 153.4192745632269 1244.8499082089595 0.19123038856477897
2.4794107659897193 153.4192745632269 1244.8402733387568 0.23511089890371462
2.4766283246979643 153.4192745632269 1244.8527289951162 0.2265040401949818
2.3011975285237316 153.4192745632269 1244.8490271406317 0.21464142549090193
2.4356497744224344 153.4192745632269 1244.8589165942603 0.2127996000885115
2.3855421584975396 153.4192745632269 1244.8674701596747 0.19524237622998544
2.38130783315294 153.4192745632269 1244.854335552483 0.18996033199993007
2.3489459439703646 153.4192745632269 1244.8673300314165 0.18817253313525517
2.5052679886091274 153.41927456322694 1244.8656611332578 0.1685153571056614
2.5234562208292144 153.41927456322688 1244.8553680652567 0.2341259402373323
2.4180241749295086 153.4192745632269 1244.8646589284149 0.20186536979067884
2.322182267328434 153.4192745632269 1244.8478554483413 0.19925945662705893
2.4943491775566384 153.4192745632269 1244.859804438463 0.1817313796176717
2.4328976774851627 153.4192745632269 1244.8432607267764 0.20618248742309958
2.4461102527167817 153.4192745632269 1244.8535875391508 0.20964902616307357
2.204397050530803 153.4192745632269 1244.842328509164 0.18573402007941509
2.3412877952667173 153.4192745632269 1244.8392541807402 0.22073052479148164
2.5341131463414963 153.41927456322688 1244.8485986408718 0.1884169386302778
2.404747320280726 153.4192745632269 1244.8939399768406 0.2090525767199449
2.267440700728732 153.4192745632269 1244.8598275287357 0.19307198159461458
2.41314984162075 153.4192745632269 1244.8835242006458 0.212372638529163
2.419181979241202 153.4192745632269 1244.901974565262 0.20523900133402775
2.199655842196706 153.4192745632269 1244.8962738299188 0.2114739432772627
2.4487951121549543 153.4192745632269 1244.8911862558957 0.21178858088288105
2.437104913736446 153.4192745632269 1244.8950345723906 0.19091845302143498
2.2116878316071946 153.4192745632269 1244.8530424414407 0.18066078443757186
2.466334849640543 153.4192745632269 1244.8947270237481 0.2059242002644194
2.3004635542960323 153.4192745632269 1244.884869604075 0.2568698215481693
2.350262507522107 153.4192745632269 1244.893804484024 0.21721311408267494
2.4786359338667663 153.4192745632269 1244.8995233077133 0.2247994562445848
2.22706979229792 153.4192745632269 1244.8592020635006 0.18618910258147697
2.175307006425879 153.4192745632269 1244.8510297084813 0.16609572214219245
2.187732850596983 153.4192745632269 1244.9022157150835 0.23555752886095133
2.1995747769205622 153.4192745632269 1244.8544697397422 0.19843286588168924
2.359407070023117 153.4192745632269 1244.8841494578896 0.2256016899312956
2.24959910864215 153.4192745632269 1244.8684303108748 0.18923901331401402
2.2453327247238164 153.4192745632269 1244.891089467763 0.2271064378045808
2.256487477324708 153.4192745632269 1244.8897011821734 0.24289493374757712
2.206280967146578 153.4192745632269 1244.8640690285754 0.18824551010233848
2.2610041399537555 153.4192745632269 1244.8681089427912 0.18638622972305754
2.188499336023545 153.41927456322688 1244.8560814856812 0.20942634073934493
2.2932606172202212 153.4192745632269 1244.8613299832696 0.20898379862309455
2.179132180874788 153.41927456322688 1244.8401113739026 0.2004818179984909
2.229780802668513 153.4192745632269 1244.88170820732 0.21354133612642928
2.33828585474891 153.4192745632269 1244.8687277130125 0.19357830841020313
2.274581115008116 153.4192745632269 1244.8719869864012 0.19523406861305614
2.2255793492661837 153.4192745632269 1244.901039975744 0.22383627418940466
2.1753318869829505 153.4192745632269 1244.8884794444973 0.21065030731355472
2.235362285346381 153.41927456322694 1244.8691177384703 0.1724703089485451
2.306998324436565 153.4192745632269 1244.8949486159995 0.2112964633576541
2.2721952546413156 153.4192745632269 1244.8837053210755 0.23512822197283675
2.5065643303906775 153.4192745632269 1244.897992730223 0.2013906906707119
2.348146875030337 153.4192745632269 1244.8805553481902 0.2103345708387478
2.173542017053883 153.4192745632269 1244.9007789154784 0.2219814758164873
2.186532134709155 153.4192745632269 1244.8847782788444 0.23438879811355004
2.426869253437319 153.4192745632269 1244.8839305061783 0.2260684356653809
2.36518087156535 153.4192745632269 1244.8932975119976 0.19623025303629973
2.313286474994791 153.4192745632269 1244.8832159896074 0.20566705186980283
2.2707536618845525 153.4192745632269 1244.8943662954978 0.23279770278839165
2.3776881116668047 153.4192745632269 1244.8873648854392 0.24767127383403204
2.2197402345989405 153.4192745632269 1244.8911735429347 0.19402432962253505
2.3372101880442067 153.4192745632269 1244.8818844580683 0.21877985293962574
2.330985901694104 153.4192745632269 1244.8992099108693 0.1908519535389646
2.3850138639818868 153.4192745632269 1244.8957755699832 0.2061368080664627
2.2231887624475 153.41927456322688 1244.847652697319 0.17447026645441108
2.237786810721673 153.4192745632269 1244.8533657985208 0.18451660384230295
2.193875104116633 153.4192745632269 1244.8667969808762 0.16946675009825252
2.172658254745854 153.40885082554115 1244.8944212960512 0.2845342110978114
2.1726582547458535 153.39602326507145 1244.886459699164 0.2434199843685862
2.172658254745854 153.41022534467885 1244.857045912201 0.2672895167318294
2.1726582547458544 153.39781550909868 1244.9014613463332 0.2719742941973906
2.172658254745854 153.3858785119895 1244.895986876634 0.26850795219781015
2.172658254745854 153.41007306658543 1244.8418107246848 0.2615439145370287
2.172658254745854 153.37529386488626 1244.889110452076 0.30123011201896766
2.172658254745854 153.37592751348015 1244.8396690028105 0.2338384824845044
2.172658254745854 153.38474711786722 1244.8674888049738 0.2566420806397006
2.172658254745854 153.39309300884796 1244.8413366793725 0.2123744716188178
2.172658254745854 153.39937745129697 1244.8512866886867 0.2785665899991591
2.172658254745854 153.3784155881853 1244.8561204910438 0.27649124938184483
2.172658254745854 153.3935488032381 1244.8617808074794 0.25397667354440184
2.172658254745854 153.3503633059015 1244.9018481182263 0.2739326204823562
2.172658254745854 153.3360722561906 1244.8958341065259 0.2540325969315185
2.172658254745854 153.35780448630226 1244.8891414493612 0.29582306865409386
2.172658254745854 153.3638107883894 1244.8649802920565 0.24812279451081193
2.172658254745854 153.36498276165432 1244.8532452542279 0.27820366869653584
2.172658254745854 153.34319397238582 1244.888275444106 0.279401642630265
2.172658254745854 153.35413039278228 1244.8434311853218 0.2801680921890208
2.172658254745854 153.35084921431002 1244.8607819098636 0.26792700225379007
2.172658254745854 153.33921350152445 1244.8558217282762 0.29540932489834887
2.172658254745854 153.3350836483432 1244.8656966939745 0.29574864495695063
2.172658254745854 153.34560306275446 1244.8718148059106 0.2776048341927556
2.172658254745854 153.3282544669717 1244.8474338908577 0.2546218755483512
2.195224492849939 153.31935196650556 1244.8865043530668 0.23701380586694162
2.207822877059713 153.31499410490852 1244.8599870870853 0.25407759790562945
2.184981799890647 153.32289497944709 1244.9020473364462 0.28803372804278465
2.2181259197443897 153.31143021661137 1244.8694640036485 0.27344780218468845
2.215397609572216 153.31237395653278 1244.8872526017728 0.26652415873127777
2.1849000226971795 153.32292326670083 1244.8897784949686 0.28408891198046426
2.2086203775185367 153.3147182444041 1244.8953015996844 0.28375416072325743
2.1763146497826176 153.32589300204924 1244.879788933097 0.2574657588854677
2.190608620354132 153.32094862629555 1244.841494653981 0.2533161696310331
2.2146397616378293 153.31263610097565 1244.8440415429352 0.2909920590969778
2.1849534346647794 153.32290479115997 1244.8660259570931 0.24866639609129185
2.186813334375604 153.32226143996596 1244.853486725564 0.27888184028709395
2.1986306918325402 153.31817374051317 1244.853062488799 0.28096342489677706
2.175139666660876 153.32629943621876 1244.85838593306 0.29479497065317534
2.1951289063965964 153.31938503047053 1244.8649219480963 0.29317175064604517
2.223756156405286 153.30997761152176 1244.8551966069138 0.269404046814465
2.2417052607599666 153.30622603973862 1244.8479869007542 0.271655622860399
2.2267868026658917 153.3093441711689 1244.893968028041 0.31276151198436114
2.2411841836482655 153.3063349509216 1244.8644073404212 0.2630526893980451
2.2299552472361195 153.308681929365 1244.8449453751355 0.28547479784475377
2.2519253090169844 153.3040899306657 1244.861352061566 0.3065906333136169
2.263124215241066 153.30174922888125 1244.8503838798981 0.30732005656016864
2.264533624248707 153.30145464598957 1244.8869302696198 0.23401334594681697
2.2611534064475918 153.3021611508643 1244.8690413811642 0.28030695172262016
2.2399186896008176 153.3065994539111 1244.8920544408306 0.290984745698698
2.2744188705835624 153.2993885144163 1244.8538716604176 0.29863934027695827
2.247986356884131 153.30491321752083 1244.8844752986952 0.21629003919203074
2.2570665252503015 153.30301535661619 1244.8945900852596 0.3083325605757258
2.286702816385064 153.29817457300635 1244.8560578930437 0.2730440167966183
2.284254261521163 153.2984020953568 1244.8399893776475 0.2350310780427844
2.3059975672021995 153.29638168401635 1244.858195598403 0.2926194688941044
2.292162514462585 153.2976672519912 1244.8666980690832 0.27061164175276187
2.2772081416893326 153.29905682838697 1244.893279644268 0.2848496485248109
2.2783631368373563 153.29894950499607 1244.8678233802837 0.2650504998802651
2.295381272214143 153.2973681615604 1244.8495057585656 0.2667585653842506
2.303582978430069 153.29660605020104 1244.8824826026957 0.23968443429498032
2.312134969032264 153.2958113900399 1244.8905021920248 0.29778009486498774
2.3234208396451046 153.29476269480895 1244.8493547219107 0.28040748115393477
2.293252154781622 153.29756600144128 1244.9019320450448 0.30521932735130286
2.2924525643111826 153.29764030024742 1244.8864246732414 0.24589235490436143
2.3211744437041473 153.2949714323349 1244.860255030479 0.29932526710918866
2.323414862667877 153.29476325019607 1244.886679740877 0.2533492654922356
2.3725158531433923 153.29456786191673 1244.8623287154942 0.25950284599391354
2.3385995302017326 153.29415800009153 1244.8407053000215 0.27684239406710087
2.366359457280893 153.2944934649472 1244.844235484621 0.2981888822722132
2.357348457644587 153.29438457151662 1244.86679279224 0.22906281974782094
2.3355941247852536 153.29412168126797 1244.8616464809088 0.2668635575922253
2.3789473246622896 153.2946455830382 1244.8529692195364 0.255764088176719
2.3837020664191435 153.29470304171787 1244.8411407837652 0.30366534137868634
2.350439555373053 153.29430108088292 1244.8553593368144 0.286174478109301
2.3334308496573852 153.29409553916838 1244.8939693476107 0.29260573863865197
2.400621518999141 153.29490750485286 1244.8605416716925 0.2449584378374124
2.3571734920020377 153.2943824571442 1244.8848368400786 0.23872030008489406
2.4000057877969434 153.29490006404876 1244.8708875578584 0.26144078868589415
2.3876874622295556 153.29475120323596 1244.8630727780649 0.29181354365654144
2.373372973389568 153.29457821978687 1244.888208221938 0.24913908789305664
2.401055846294905 153.29491275348133 1244.884481747006 0.2468408083175382
2.390671133231145 153.29478725940996 1244.887452334255 0.2506190371478952
2.3882286356396243 153.29475774304638 1244.900612075544 0.2713749388708943
2.3530824512768747 153.2943330189601 1244.8971264938605 0.27871294586747597
2.4736518202659186 153.30524676238568 1244.8394001373533 0.2574683430470924
2.4373290772662024 153.29986189640437 1244.8549533216549 0.2884001019488823
2.40581197196093 153.2951894687689 1244.8499928808515 0.27547198183262933
2.425291246143766 153.2980772815337 1244.8555724323319 0.27460091488209565
2.4267899497647685 153.29829946514317 1244.8801964551424 0.24433009777659204
2.4305464035447084 153.2988563614153 1244.868012553484 0.29444633500964545
2.4494736994265147 153.3016623431032 1244.8491502094146 0.2530462084861983
2.4380397952350075 153.2999672607215 1244.8427748927083 0.28612750858738195
2.4124297056268764 153.29617055130694 1244.8883452660584 0.2937973874030534
2.418155274092112 153.29701936987917 1244.8666746701888 0.2789646605322378
2.4480272491456385 153.30144790607926 1244.8605785438963 0.26730228008071305
2.4400387577020006 153.3002636079711 1244.8860115009738 0.2596167988230009
2.475469479725085 153.3055162313679 1244.8604130689919 0.2905888523721869
2.4601362081129494 153.30324306569076 1244.8642062055874 0.28865518218303415
2.453437847657325 153.30225003018822 1244.8977391865897 0.28063404021778965
2.4226012010124514 153.29767848091132 1244.8995040627772 0.2657823565024469
2.435307669963282 153.29956222169588 1244.8985936056115 0.29744318146119103
2.4709903448131953 153.30485219723334 1244.8966281070625 0.2833203883465189
2.459054090947474 153.30308264124506 1244.8877866117728 0.2785581028619903
2.488028018558049 153.30922211785742 1244.8547668740948 0.28619699799344966
2.5024712955363113 153.31369278151175 1244.8647619928115 0.2929976393737061
2.49134960786286 153.31025025770418 1244.8655283997168 0.25947174684028207
2.4985371188818224 153.31247502597014 1244.8532095289825 0.28820517312055
2.489666022259092 153.30972913324064 1244.841038554074 0.2812357426237577
2.501279594558521 153.31332391132693 1244.839769158974 0.25349925351059294
2.4816160086094556 153.30723739237777 1244.8909339323664 0.30108418204859727
2.517253599346742 153.3182683849895 1244.8557502749727 0.31443708055569186
2.5306328579821873 153.3224097003844 1244.8496937932573 0.27546773129154706
2.5210093961553777 153.31943092617115 1244.8666929133087 0.2800423558868163
2.497652121708478 153.31220109058117 1244.8882579583894 0.3112016378160736
2.5352608231518685 153.32384220602066 1244.891267517718 0.2994937797248726
2.523561761739176 153.32022096627526 1244.893086655617 0.28078798301226177
2.5093312843696913 153.31581617101622 1244.8838261159372 0.22086810368210957
2.5214071881542552 153.3195540557237 1244.8810508475178 0.2324471676071823
2.5111379878820226 153.31637540447406 1244.8726842969004 0.2584259638226114
2.532414820380075 153.3229612756632 1244.8619054554842 0.271796423358489
2.544403140431933 153.32667205035872 1244.851057358525 0.2677180819854631
2.50529864971975 153.314567939525 1244.8997762422678 0.28855513014679485
2.428904587050442 153.38288528810162 1244.839004913878 0.13366426729471792
2.3716906448136292 153.38264695899082 1244.839004913878 0.13417079385439126
2.400222941847204 153.38325492448172 1244.839004913878 0.16797065370596484
2.3834470781809807 153.38677061014778 1244.839004913878 0.10373388661442219
2.4048206769924207 153.37399284901045 1244.839004913878 0.1304904983168556
2.361334620635431 153.37925964360426 1244.8390049138777 0.20679382523007583
2.3701002537293148 153.36978284078438 1244.839004913878 0.18258400428843452
2.441032885610857 153.37284563829311 1244.839004913878 0.06443224789087364
2.376386672144018 153.3581339359204 1244.839004913878 0.17756321537947614
2.4193177771205474 153.3726311156894 1244.839004913878 0.1487162020854757
2.428474684153932 153.36099876161975 1244.839004913878 0.1532909040557062
2.3877933923838937 153.3633420558723 1244.839004913878 0.14169856685781362
2.399308918972433 153.3621027807526 1244.839004913878 0.16173220894325
2.4216246919999254 153.35062059039967 1244.839004913878 0.11382036090569339
2.446220040462808 153.35607047558182 1244.839004913878 0.09006675135024762
2.4046796227626963 153.34676750017314 1244.839004913878 0.23806847666322986
2.368242777189763 153.34728588250647 1244.839004913878 0.14977731619115808
2.3806280318676434 153.3480130254274 1244.839004913878 0.21576238255072405
2.388611358734729 153.33967483071476 1244.839004913878 0.1689584380389514
2.3700988686894133 153.33299354723087 1244.839004913878 0.13766693639959818
2.3499081694406354 153.3822123093464 1244.8390049138782 0.20841332492430922
2.3393954511518666 153.36207726844177 1244.839004913878 0.10408249201062318
2.2832855939010783 153.36198742157836 1244.839004913878 0.19676827981022743
2.3251501025877745 153.3635680423277 1244.8390049138782 0.12734854920841882
2.3251784464468988 153.37508801688037 1244.839004913878 0.18235967119669408
2.309604470250626 153.36678344030062 1244.839004913878 0.16209975543832095
2.3487862208657724 153.37060141122248 1244.839004913878 0.14156881613633987
2.3373564737262904 153.37307979055788 1244.839004913878 0.21129968880903163
2.279781871133783 153.3358009862178 1244.839004913878 0.16698818198998158
2.27647323350036 153.34718312991322 1244.839004913878 0.1407461233053681
2.3160795399174425 153.35222979929625 1244.839004913878 0.18507866312639995
2.3281625852038097 153.3520943279113 1244.839004913878 0.0656085933558085
2.339990671574292 153.35090466350312 1244.839004913878 0.13205890237594806
2.288327708504864 153.3510613954024 1244.839004913878 0.13862484548601653
2.2922215888550674 153.3378057260673 1244.839004913878 0.14867971313983908
2.2999422526383784 153.35200239329023 1244.839004913878 0.18874652279453924
2.3560396458301835 153.33252655519604 1244.8390049138782 0.13062575425953962
2.3290402800614376 153.341556779335 1244.839004913878 0.10591777378152169
2.3171401795109348 153.33583142100858 1244.839004913878 0.17466179544266128
2.3591392699023914 153.35249235047817 1244.839004913878 0.1575661926670795
2.337888944958032 153.33400846700044 1244.839004913878 0.14529089112082633
2.272760024008072 153.38774955082698 1244.839004913878 0.14346200327525152
2.3146987493065345 153.38315339146712 1244.839004913878 0.15916994355672584
2.27305050146902 153.3723416412778 1244.839004913878 0.13965851796935266
2.292191897212486 153.3692673291789 1244.839004913878 0.17213270635475053
2.2858476965701024 153.38138245766467 1244.839004913878 0.21572983737827933
2.4756294027619723 153.40048045750913 1244.839004913878 0.1528354438888319
2.465635849367054 153.39415654272622 1244.8390049138777 0.12153149856482544
2.4514677917310754 153.39571289529135 1244.839004913878 0.17315455064751897
2.528814334766834 153.41387061317462 1244.839004913878 0.25399491341064173
2.4281860987775095 153.39542691442722 1244.839004913878 0.17888516921978798
2.439216794461315 153.39471440465258 1244.839004913878 0.15645226165838733
2.4186188545808402 153.38963246885015 1244.839004913878 0.17159573456803712
2.403006678070966 153.39889947958224 1244.839004913878 0.1539406131002666
2.3649254391594345 153.39325258436702 1244.839004913878 0.19286278070439908
2.383081388324953 153.3993597486253 1244.839004913878 0.2078240349146771
2.4487372759920216 153.40637031670096 1244.839004913878 0.2097368585018782
2.3084856824864994 153.39224883944053 1244.8390049138782 0.20745706835196975
2.423075225889526 153.40525446735518 1244.839004913878 0.22381657868250385
2.496701829367341 153.41106102257604 1244.839004913878 0.23479544310866907
2.4641514704338516 153.40583238276702 1244.8390049138782 0.2458302767339464
2.5389725157654692 153.40502222757345 1244.839004913878 0.21151812561616065
2.5115710804798024 153.39624578680915 1244.839004913878 0.16602761314267123
2.5245658436438028 153.37894042971732 1244.839004913878 0.12833448695856636
2.533097679472318 153.3932914078767 1244.839004913878 0.2060907737950002
2.5453252534784743 153.3775635631385 1244.839004913878 0.25001062348176867
2.5145959597598315 153.3839323522094 1244.839004913878 0.19553829640247286
2.5208490598984774 153.4060156802248 1244.839004913878 0.23358271097126854
2.5010212187036016 153.38497525258146 1244.839004913878 0.10415729466539492
2.4780686691448888 153.38751344240688 1244.839004913878 0.09619418822592578
2.48787263598686 153.39638983086343 1244.839004913878 0.169683607116016
2.4999307330499474 153.39765019524236 1244.8390049138782 0.15676214434945374
2.4583330686804437 153.38486684531296 1244.839004913878 0.14465173818856902
2.491525326588871 153.38020406678555 1244.839004913878 0.11083202075853817
2.4813319872438493 153.36884742692888 1244.839004913878 0.1133779910137008
2.4586774827239926 153.36584798258798 1244.839004913878 0.05966244826262609
2.469105344335417 153.3698814121176 1244.839004913878 0.1470779508295495
2.469114655855861 153.381516730811 1244.839004913878 0.10966581842376946
2.514847971140055 153.3700867785642 1244.839004913878 0.16085670272155328
2.2305732866138492 153.4188350976405 1244.839004913878 0.20808455370086842
2.238245115258355 153.4068259176727 1244.8390049138777 0.23272440524763144
2.394513858721266 153.40970126513395 1244.839004913878 0.2275518639972285
2.3060420453391814 153.4048665893415 1244.839004913878 0.23264781702956366
2.409886238227322 153.4087433927878 1244.839004913878 0.21795834023727187
2.2826727347407356 153.41597484803415 1244.8390049138782 0.2523955207471482
2.349653309893794 153.4095162674939 1244.839004913878 0.24716707928342757
2.3127590284997654 153.4184351714558 1244.839004913878 0.18545029007103925
2.333478219441824 153.41227678575763 1244.839004913878 0.27025427626128945
2.4607103637424386 153.4169657612069 1244.839004913878 0.22626992699437729
2.251864978470779 153.40311775843875 1244.839004913878 0.20613873477060743
2.3204138791388598 153.3952489874722 1244.839004913878 0.13097019311643257
2.224231786990954 153.40598645740005 1244.839004913878 0.22283299770449355
2.2641100157857625 153.40296100228448 1244.839004913878 0.2088126985134477
2.2488006574589274 153.41368379448306 1244.839004913878 0.23723228064417004
2.399631162456098 153.4191814221271 1244.839004913878 0.22344494343946134
2.3813921170197467 153.40986851403596 1244.839004913878 0.2661116973678272
2.3534912605680804 153.39826975002956 1244.839004913878 0.2096568476993823
2.332738116565574 153.39930530898897 1244.839004913878 0.17984144515443504
2.2780480294213743 153.40451507524122 1244.839004913878 0.2494605127068664
2.214239537936217 153.4118545404486 1244.839004913878 0.23566217644233603
2.434587437744983 153.40948569173182 1244.839004913878 0.2285111265178216
2.4436699763799226 153.41861949151573 1244.839004913878 0.2440934407823932
2.3009757588995603 153.41426792188983 1244.839004913878 0.2515617840235194
2.3621362157092083 153.40501005485882 1244.839004913878 0.26997162357787996
2.414376958226494 153.41912473286715 1244.839004913878 0.23021755989601458
2.3747556405601276 153.41883907283827 1244.839004913878 0.19210360025062478
2.2971226075460764 153.39284525903614 1244.839004913878 0.1856905551153488
2.2596165737843212 153.41772188401754 1244.839004913878 0.24069326028316668
2.319967967571678 153.409163555379 1244.839004913878 0.23189564989387085
2.285818501533255 153.39337870783183 1244.839004913878 0.14685145135792949
2.2914677163997514 153.40313590736216 1244.839004913878 0.1906707283464672
2.2517424771171375 153.3849963748742 1244.839004913878 0.13813468086546055
2.2651348084396075 153.3802043511246 1244.839004913878 0.16876893129712497
2.2490871817994633 153.3658499241981 1244.839004913878 0.1614336804983152
2.20527911220988 153.37193111350683 1244.839004913878 0.10829662806726724
2.232780944397598 153.37484386969857 1244.839004913878 0.22020592663621247
2.217622381899976 153.3771853751203 1244.839004913878 0.1572934639024412
2.2612237862398286 153.36185202048082 1244.839004913878 0.14659555802552715
2.2010222762791813 153.40823192985098 1244.839004913878 0.2316348228140758
2.194827708577911 153.38591437502086 1244.839004913878 0.09101147666766118
2.1831178269260465 153.37835753408996 1244.839004913878 0.21951331702411941
2.2247186919483664 153.39482390177736 1244.839004913878 0.15167733267087014
2.204525682874696 153.39183773024888 1244.839004913878 0.126016831987176
2.1904455704819847 153.41325572013267 1244.839004913878 0.21249724965179345
2.18440601246046 153.40376009990433 1244.839004913878 0.1967740439924119
2.2127884716829818 153.39987039821608 1244.839004913878 0.19076752419464824
2.2412392149547395 153.38799679970305 1244.839004913878 0.13340860557988438
2.2448083531430063 153.34003030904967 1244.839004913878 0.17371294111776042
2.220960278718271 153.35891875255282 1244.8390049138777 0.1570266443825961
2.2655341360905963 153.3389778898861 1244.839004913878 0.2021761404216788
2.2083964654456447 153.36042120469145 1244.839004913878 0.18045316903548062
2.232744668217647 153.3455845914704 1244.839004913878 0.1771848855740888
2.189800898703576 153.3688934083198 1244.839004913878 0.12221848157239974
2.258435782245913 153.34680263606074 1244.839004913878 0.17502516197825704
2.2408940516324396 153.35358344556093 1244.8390049138777 0.24845856080359022
2.2422879509544793 153.3282190021398 1244.839004913878 0.15077402394200787
2.185534457668814 153.35313448499096 1244.839004913878 0.17815430117887038
2.1795445761351733 153.33801169745368 1244.839004913878 0.21415850542443296
2.221852472136759 153.33295969834023 1244.839004913878 0.21980412312172976
2.1772313498099822 153.36521184122344 1244.839004913878 0.2298477586282904
2.1973380218230996 153.3499930761598 1244.839004913878 0.1502764071579277
2.201818628007156 153.32931246645563 1244.8390049138777 0.20776051532559817
2.20960026035209 153.34468164579903 1244.839004913878 0.1556360503076961
2.2368606281158043 153.31875754727776 1244.839004913878 0.13613070209686856
2.202077262576136 153.31783294345487 1244.839004913878 0.23362481732788004
2.1802789923953076 153.32653142413946 1244.839004913878 0.2162693907397008
2.2708625218519107 153.3057737265177 1244.839004913878 0.19169550760397291
2.24663541333515 153.31136984283773 1244.839004913878 0.1695009888756417
2.2573606143235203 153.30637397583 1244.839004913878 0.20051164970160068
2.284035007869985 153.3228910127155 1244.839004913878 0.058656941416544865
2.2894824768349804 153.31117431571232 1244.839004913878 0.10598286514779069
2.3114777149543864 153.31496217062664 1244.839004913878 0.17297834174063653
2.2963260335245885 153.32127723133908 1244.839004913878 0.1478667204967723
2.2667454408891183 153.32478376134 1244.839004913878 0.1265810127322876
2.307040290602798 153.32448482945233 1244.839004913878 0.11561680081767997
2.3357649844733945 153.32370240025654 1244.839004913878 0.10784325154625239
2.3077836111257026 153.2994858013277 1244.839004913878 0.18876221992333836
2.354323746974955 153.31970104205095 1244.839004913878 0.14424937656117506
2.334007139203581 153.310130725816 1244.839004913878 0.13668937647284174
2.319650737166678 153.2981820215289 1244.839004913878 0.2353047427781423
2.391600475909711 153.3028602219031 1244.839004913878 0.17144050457013715
2.3441360320652525 153.3079352006752 1244.839004913878 0.17430393453778023
2.356420928938583 153.30831222701977 1244.839004913878 0.21609186092035765
2.381650303414893 153.3076356371248 1244.839004913878 0.19040114395649174
2.3700716770369663 153.30562615405302 1244.839004913878 0.20688621353755718
2.402398561533451 153.31021579244913 1244.839004913878 0.14390971279546194
2.418738350503858 153.31727951547137 1244.839004913878 0.08672013341679817
2.436174115196101 153.32125165183493 1244.839004913878 0.14557353432346778
2.409282148040494 153.2992001491033 1244.839004913878 0.23187154489605524
2.408412487000148 153.3207624716311 1244.839004913878 0.08403498331186902
2.3728269266947586 153.31882675482174 1244.839004913878 0.19087216536309654
2.427426148842315 153.31051239045564 1244.839004913878 0.14386742291444332
2.4273128477559576 153.2987017141518 1244.8390049138782 0.22565388133754044
2.460582966935583 153.30476993638257 1244.839004913878 0.20487427586947057
2.4477247382682012 153.3173070809118 1244.839004913878 0.10840304388282164
2.43325768190867 153.33313989532834 1244.839004913878 0.07090403329674995
2.431379258499161 153.344767863423 1244.839004913878 0.0969503932360807
2.3925117620949012 153.3262611012379 1244.839004913878 0.1303565896307341
2.4511176748171493 153.33851083976575 1244.839004913878 0.003945032142927447
2.4012828609146997 153.33414946464137 1244.839004913878 0.10066176167477875
2.4157370910397793 153.34119002398162 1244.8390049138782 0.11132684398654404
2.4231178252480263 153.32928070396417 1244.839004913878 0.06783092132904793
2.4934034658914905 153.3247763065795 1244.839004913878 0.14614770072032476
2.5284639019623314 153.32276495200458 1244.839004913878 0.23805039407275244
2.465911765114244 153.31702051248496 1244.839004913878 0.12060190859296545
2.4575303049857906 153.32451648804297 1244.8390049138782 0.07690962904123845
2.5100913603115553 153.31926581151035 1244.839004913878 0.2224814010999746
2.481103312274655 153.32403495447232 1244.839004913878 0.14654949786126276
2.4696678369212295 153.34363650409813 1244.839004913878 0.10314950808736663
2.4683014583392353 153.3316039044792 1244.839004913878 0.14161858518957446
2.4811892757572616 153.3393195086299 1244.839004913878 0.14474595186449316
2.5161278590206777 153.33019296060866 1244.839004913878 0.15638385363199434
2.5039064221157754 153.33022565239574 1244.839004913878 0.12252506030579781
2.536228716686827 153.3663735063438 1244.839004913878 0.2222483361497033
2.512900559839363 153.35231026928687 1244.839004913878 0.09788947881162051
2.498409536195271 153.36103566414027 1244.839004913878 0.16460038181037084
2.477438640298395 153.3517922477012 1244.839004913878 0.1952013810238639
2.5224317406349233 153.3586064361744 1244.839004913878 0.1638605747282858
2.489488903274768 153.34970283693355 1244.839004913878 0.053957765257619604
2.463680463848197 153.35474613563363 1244.839004913878 0.10131828023026448
2.538967746123528 153.3321811041718 1244.839004913878 0.21905924459941106
2.5018218767039544 153.34820286574808 1244.839004913878 0.13058210423991112
2.532420707570163 153.34505037802128 1244.839004913878 0.17999325721610726
2.5165872351986804 153.34076764250727 1244.839004913878 0.1630917799875297
2.4392839541854197 153.37140216160495 1244.9024321599718 0.28537892672123477
2.452154981719067 153.3600498833592 1244.902432159972 0.28483451796953974
2.4297802933002464 153.36302319465142 1244.9024321599718 0.31661722708881385
2.4020806181435095 153.3616764484425 1244.9024321599718 0.27812894499057206
2.419289395922391 153.36896078308706 1244.9024321599718 0.2926215825020704
2.4296074038021285 153.3777684305181 1244.9024321599718 0.29053678799046184
2.4180805920489306 153.35793124425075 1244.9024321599718 0.31258306086526666
2.3728483692430133 153.38644065751777 1244.9024321599718 0.268509833392032
2.364855684594949 153.36084909225252 1244.9024321599718 0.2756831568552858
2.394165546455377 153.37228506547464 1244.9024321599718 0.2983826687227302
2.4126475045650917 153.3795533226017 1244.9024321599718 0.236574824538706
2.3782767147692363 153.3723539080176 1244.9024321599718 0.26356291440022106
2.383558654419334 153.33723351183522 1244.9024321599718 0.2709465632156261
2.3697754969199476 153.34089161101844 1244.9024321599718 0.27518729648728574
2.407162365252739 153.34976585434572 1244.902432159972 0.2907951460334165
2.395206499823536 153.34307768030578 1244.9024321599718 0.26995658586032467
2.4310606800059364 153.35010961741543 1244.9024321599718 0.2861972623462886
2.3836352441722606 153.3533941635868 1244.9024321599718 0.2710893614535374
2.369593956696017 153.32878467820314 1244.9024321599718 0.2613337544294556
2.314089650616089 153.36990801597562 1244.9024321599718 0.2590882205946109
2.338169073064223 153.3685788980846 1244.9024321599718 0.28978987877441276
2.3465034590605374 153.38171263450897 1244.9024321599718 0.24673916912729757
2.305008923560652 153.36109438017033 1244.9024321599718 0.27676328914368853
2.348395570724116 153.36130043164832 1244.9024321599718 0.2830602820004792
2.357253607996734 153.37929520921404 1244.9024321599718 0.2649970140392544
2.2916374870718874 153.36203067601883 1244.9024321599718 0.2735978299554785
2.3103841381532595 153.33351715468513 1244.9024321599718 0.2835738055264365
2.318241052467947 153.34175757032534 1244.9024321599718 0.2760644126443312
2.3495517264113825 153.32599391143216 1244.9024321599716 0.26736627067776725
2.340138918238657 153.33227852706207 1244.9024321599718 0.2746771618766869
2.358714645838405 153.33658258894735 1244.9024321599718 0.2627079663606874
2.332573971096214 153.34165852912116 1244.9024321599718 0.2724863234663591
2.346548437098126 153.35026298145308 1244.9024321599718 0.29082605785632093
2.3330955838281136 153.35523500509575 1244.9024321599716 0.2808477411955902
2.3162566620058684 153.35474131228898 1244.9024321599718 0.2502407783868314
2.2685755083645525 153.33699055932937 1244.9024321599718 0.25457615504051334
2.2816041631348805 153.33201942943555 1244.9024321599718 0.3006954580707857
2.2984304218378417 153.34830652657178 1244.9024321599718 0.28985558942643586
2.2918154805030886 153.33753058814295 1244.9024321599718 0.3003922226857568
2.2781346143422514 153.34490241208584 1244.9024321599718 0.278047793648256
2.537801601758244 153.3744218784867 1244.9024321599718 0.27106203187485783
2.5327055389337936 153.3861083420167 1244.9024321599718 0.26692896678129113
2.496080113935845 153.39726877805055 1244.9024321599718 0.29714312028277357
2.5171998306698766 153.39144188018815 1244.9024321599718 0.2671679265403718
2.5320962015151967 153.40411507201105 1244.9024321599718 0.28856103442258857
2.459112322430571 153.38871770412234 1244.9024321599718 0.3007237384132181
2.5232194180709175 153.3816898893019 1244.9024321599718 0.2874691406744158
2.4814635486564725 153.38699565488713 1244.902432159972 0.2717353524608873
2.5016876759590936 153.3872884938476 1244.9024321599718 0.27713965362122
2.50434973871132 153.40422589062177 1244.9024321599718 0.2953769927652548
2.4796152857024456 153.37058525589828 1244.9024321599718 0.25177628344208686
2.4645745700661155 153.36366001834287 1244.9024321599718 0.3003373309284255
2.4950380319620775 153.37552095419463 1244.9024321599718 0.2977589294543708
2.4557343096574495 153.3739133003171 1244.9024321599718 0.295732863442035
2.4934242550727093 153.36410081246936 1244.902432159972 0.2990205298260247
2.5162919240899555 153.37193069226552 1244.9024321599718 0.28185520044701823
2.469379328680944 153.37663653262217 1244.9024321599718 0.29402115024721004
2.503903159166069 153.36789775595062 1244.9024321599718 0.28556512790646943
2.473888613930564 153.39729856270878 1244.9024321599718 0.276211316405213
2.430071534920038 153.3987849132734 1244.9024321599718 0.2811006415629676
2.4520954831129798 153.4018551936173 1244.9024321599718 0.31213876791852413
2.4393017098474195 153.3893296025072 1244.9024321599718 0.2941909689563065
2.3881502768406997 153.39063273650464 1244.9024321599718 0.2845264692263954
2.401974639584378 153.38853228655455 1244.9024321599718 0.29436099892025513
2.4890173554609407 153.40732627613696 1244.9024321599718 0.2976370627020261
2.5158875951993345 153.41202689483447 1244.902432159972 0.2303110181084936
2.2807150684997106 153.36237462650786 1244.9024321599718 0.2869959013546751
2.3053619054555576 153.38244319268958 1244.9024321599718 0.31160687616442406
2.329436567468623 153.37894027668503 1244.9024321599718 0.2817130194686913
2.2968673510225934 153.37551009317684 1244.9024321599718 0.2937476723595348
2.2678166303611547 153.3845374172345 1244.9024321599716 0.2893046017878728
2.2829607768433697 153.3739467544537 1244.9024321599718 0.2837192910603992
2.2689835269908696 153.36443796785034 1244.9024321599718 0.30458679337062994
2.375363264223178 153.39894081524685 1244.9024321599718 0.2655922322143577
2.418640634115971 153.39866796581106 1244.9024321599718 0.27391914351806534
2.472857845138554 153.40888006121102 1244.9024321599718 0.3048110090539621
2.3425279042280125 153.3946590627642 1244.9024321599718 0.2584315240604467
2.4414142440348243 153.40253348784506 1244.9024321599718 0.2784089422349726
2.353883553302655 153.39539378952878 1244.9024321599718 0.2699510585474254
2.200606354341473 153.36849463241813 1244.9024321599718 0.28685581553318756
2.216018323216033 153.36702129371233 1244.9024321599716 0.30679838294551504
2.2315528667944298 153.37014662209728 1244.9024321599718 0.27614624499970075
2.2483406024846517 153.36830507562962 1244.9024321599718 0.3083160174595754
2.2405588759270874 153.37732520289 1244.9024321599718 0.26905160503392755
2.2599900569852673 153.37322930317478 1244.9024321599718 0.289638918491382
2.2438229904563682 153.34604383578795 1244.9024321599718 0.304038875782337
2.1889008596317634 153.3659151623287 1244.9024321599718 0.2511548662635152
2.2561706364051206 153.3312090946684 1244.9024321599718 0.30467629005825975
2.2125634732309925 153.35711492465464 1244.9024321599718 0.28834982956364436
2.231372909816948 153.35312220230915 1244.9024321599718 0.30686033700552834
2.2615527403233058 153.35487082441796 1244.9024321599716 0.29392067367243
2.3437419662838237 153.41222662146555 1244.9024321599718 0.2675390045855591
2.40978567170607 153.4054185058956 1244.9024321599718 0.3001815658049578
2.3185185385941747 153.4039233960422 1244.9024321599718 0.31304850992387956
2.2666330658077474 153.4041632804152 1244.9024321599718 0.3031793914064411
2.2159788537104967 153.41452892807106 1244.9024321599716 0.22922107979271147
2.2895511648351823 153.41906977661995 1244.9024321599718 0.21514314208817792
2.3992186847144756 153.40721149665714 1244.9024321599718 0.2840757137475058
2.254904202964071 153.41659310911834 1244.9024321599718 0.21406459806380057
2.3347051287239537 153.40512572994453 1244.9024321599718 0.2669656884593292
2.374671856633811 153.41570620226156 1244.9024321599718 0.22190950943181426
2.2291247282009983 153.40085921551167 1244.9024321599718 0.2798272908053075
2.2835587693357295 153.4089497483795 1244.9024321599718 0.30891130826235164
2.314711758355542 153.4147934184192 1244.9024321599718 0.2486991952595023
2.3985146019283707 153.41923466899368 1244.9024321599718 0.19375379134236567
2.288861991446739 153.3923110035866 1244.9024321599718 0.27803513575891
2.2437538330109494 153.39954051726244 1244.9024321599718 0.25677573468935744
2.4949921721966435 153.4190722742726 1244.9024321599718 0.22480835766384016
2.3546563698248 153.4065976758175 1244.9024321599718 0.2837549988647014
2.458989995945313 153.41268965657997 1244.9024321599718 0.26991162140630265
2.3252957396494134 153.39476294437912 1244.9024321599718 0.25500802497042685
2.300646435776919 153.39954162950937 1244.9024321599718 0.2887699983422047
2.2721599295720942 153.39412602171282 1244.9024321599718 0.2580781504752162
2.2439959849874533 153.41410599220947 1244.9024321599718 0.2615659043568969
2.4463366813890333 153.4154570615977 1244.9024321599718 0.19631548228983325
2.2592417619703413 153.39396314530356 1244.9024321599718 0.27312530702534304
2.218496302664644 153.38296608991192 1244.9024321599718 0.29306609471980255
