x y z curv
0.012739089401285429 2.357347522292084 456.15845170581736 0.0731089842447062
0.011544037334085735 2.3861675686150896 456.16299058485436 0.058309917297517486
0.015487439868083142 2.3560073221658144 456.1374244280579 0.17138221171101042
0.013829108342174525 2.345632949177526 456.15238185268595 0.09828661311361703
0.015110795963830996 2.367529777418525 456.1377103895099 0.16782840720694442
0.016590664998818817 2.3335136489429615 456.1371888021521 0.11454353012532603
0.016275521785436637 2.3444860190525483 456.1342518716785 0.15436265785630365
0.014585676043271288 2.3346487348108123 456.14996420465786 0.09445436132071248
0.00968942854577342 2.393353987676618 456.1769825267216 0.033168991884305395
0.010456262083776728 2.3730116555160197 456.1741561837141 0.03241826071473211
0.008586707678793559 2.3891809743072345 456.18740035493914 0.023926745688972767
0.010121299679242862 2.351975145008824 456.1810941177136 0.025942149559741015
0.009343353379784008 2.363379456317346 456.1857803560578 0.020124932131087674
0.010481842808733821 2.3298021396799484 456.18256616314 0.021087626671939908
0.010672258991656962 2.4297989152683748 456.16300895110754 0.06259153883439918
0.012168362733821988 2.4257179041242796 456.15151192698966 0.10423679427052687
0.009221433457039624 2.439708219826174 456.1736000161455 0.04414648423826749
0.008971338996589596 2.426955702933602 456.177502667136 0.03962608545862909
0.00954889260860239 2.414540789069205 456.1742646225406 0.0392399441615009
0.007703517821176789 2.458107262666971 456.1837946861686 0.033206457570126004
0.009651695324783282 2.45872505834892 456.1676558129219 0.05198634544842459
0.011074258948898751 2.4454533085178563 456.1576951341135 0.06783884011251506
0.012576031015951554 2.4498319280992007 456.14526801038346 0.07336445663209118
0.012879270738947244 2.435597158994099 456.14451061356124 0.09253169444586078
0.008489936007682724 2.5495197953147852 456.17009138489556 0.08576843143059312
0.007633809467577896 2.5205012090143524 456.17936186412965 0.03452081928990504
0.007104637570079957 2.4936308471086654 456.1857590298763 0.02617259753872047
0.007365535315491925 2.5429426004005498 456.1799122184357 0.06638498932094868
0.008348700282985504 2.5338980628973973 456.1724297332701 0.04470869483595001
0.010490404796428337 2.5229738887238593 456.1556903568975 0.09246553156999752
0.009759340991491923 2.5407406645998725 456.1602251498687 0.09638331887621583
0.00925606976022428 2.512854076213808 456.1665499866915 0.03363396679195373
0.010835492220456051 2.467657686264731 456.1572967230095 0.0640784674466206
0.00842349142788898 2.498604529565249 456.1744676881656 0.03203440613844785
0.010939113325485432 2.4794305743450784 456.15551293043626 0.06738797903518505
0.008442320163771454 2.475274749899337 456.1761770484803 0.03619945839832504
0.013765075890095159 2.4837244091703137 456.1330081233986 0.10601627353549148
0.01372865325307677 2.5221639155748523 456.1304887886522 0.10544273648071405
0.015111514576593016 2.4937364139618508 456.1220265437705 0.14909721014680527
0.013310817734367464 2.498678994064698 456.13537927403615 0.1073881749778701
0.012861742353727614 2.4697204655772262 456.1409058875666 0.10033140848198534
0.013713609480451708 2.510760382086938 456.1314330193768 0.13783961550937027
0.013123479611591524 2.542358372758713 456.1338211872337 0.11558577654436257
0.011277683117993398 2.502882914669118 456.150908928573 0.07733022443080327
0.012104839161161346 2.4913589157337936 456.14524466154955 0.08816932719398439
0.012317154426995849 2.5267787090356095 456.1411722665793 0.09848409657224405
0.011738914849261737 2.537584992415548 456.1449443386208 0.09595830236475497
0.01404466508201921 2.445392959067727 456.13431068842783 0.11121833399733569
0.014320017673953175 2.4633363376527146 456.1303316967436 0.14954756228748822
0.014476657290631596 2.43430032310061 456.13215412605086 0.1566663969417262
0.010362885087581207 2.556262154318621 456.1544840108301 0.1109605514823968
0.015304768573082876 2.5560674924822218 456.11650574778145 0.1166358393579758
0.01626157297745609 2.542954525798156 456.1101968336013 0.09188574341772862
0.015951724033894464 2.48372418720254 456.11644408022283 0.08956001155847923
0.016294524718749447 2.5117085473783445 456.1120342481464 0.11191535516012317
0.016661431129156776 2.5268710669010104 456.10830743100485 0.09591267664099391
0.015096649349999106 2.5319661029197986 456.1195172287963 0.12129804766449273
0.01764076781058859 2.4943874545142264 456.1033627890224 0.031740110507605765
0.016843553260167517 2.472460240260566 456.1106778405988 0.0628682056590991
0.017683082138268913 2.4522678357135153 456.10612102005166 0.042265256025437986
0.015653563108088145 2.452196664618315 456.12128015219173 0.1336729813109252
0.016110456506043806 2.425755659736073 456.12087152949925 0.1164426175789593
0.017457057052420122 2.436634722775847 456.1095834191974 0.04717215114802593
0.01472023296252396 2.3121165992205874 456.16132486200854 0.050611387482662216
0.016405242334056366 2.315066925959298 456.1495375105676 0.08893993160009567
0.014413979149358902 2.3015327312155933 456.171685811967 0.03596731633788432
0.017917001353445483 2.3204550815022134 456.13715041777306 0.14310147118030273
0.020957598949939926 2.3156499612809687 456.12696964631743 0.1348001517677463
0.01863446609367764 2.336292980327998 456.12287902254116 0.12568778542820255
0.021468062933439464 2.331080083065415 456.1111188110633 0.08451996028417785
0.02279098799744486 2.3039594336891005 456.13205581077165 0.170550174895774
0.023871483577893548 2.3289629638667577 456.0976139277887 0.003958179800953095
0.02529530069177586 2.3105034456655424 456.11549570025613 0.11234197975439889
0.022727153991766155 2.342321458080005 456.08980693463997 0.0037239811339135815
0.026818133045943 2.326389099729061 456.0868320733956 0.005406594777226348
0.03146474991092748 2.309895781401668 456.0929525327606 0.0030015509944020012
0.033128857307929666 2.318501230483197 456.07571335718313 0.0030194534940051437
0.027918842178700214 2.336512875820892 456.0710092979151 0.006588055720950248
0.024450390206109552 2.3450113713041905 456.0779042907462 0.002266153314704853
0.033454117849707435 2.344027412190801 456.04290589346436 0.004610729227862528
0.03194295691892607 2.358931489859265 456.0326725993284 0.002338216045915615
0.035490365502844734 2.3565780978742628 456.0212322047266 0.006481497178415031
0.031084438405558978 2.3693770388755424 456.0282164547119 0.0033619806257441784
0.028354205714885203 2.3621177375257103 456.0462508455091 0.002867978502533525
0.026730417735506853 2.356247810056013 456.05823578874856 0.0027502340607596034
0.037853217517037394 2.3806367385253555 455.9910220951141 0.0033786105438217873
0.03560556150283212 2.3672210376824165 456.0102707314464 0.004472663704226657
0.041139938273851887 2.382271264222762 455.97795789461736 0.0052907787209443965
0.03406254421007804 2.379955682064291 456.00775408760165 0.0031216242405787183
0.04705549003553801 2.3725506818642312 455.96958595149096 0.006264440681814189
0.04082463912016131 2.3524858690945525 456.0090115528893 0.0042125810655315
0.04195968409091473 2.35974603740925 455.9966227025243 0.004411918293492747
0.04422824501776752 2.3422406675115894 456.0128445327076 0.00624032076416357
0.041885176903700645 2.336924544998073 456.02666001022493 0.006615581129310788
0.052764925050972175 2.377247538105021 455.9565907250333 0.007441204453038854
0.045761741375677165 2.38656409508772 455.9638836669138 0.006935006349775731
0.03606611688050107 2.394493042827174 455.9931853513603 0.0012539132218411624
0.036889475722524545 2.420256328771851 455.9850660534415 0.0009264029282200405
0.03427795014070447 2.4170590629724327 455.99929215349505 0.0001934601931417352
0.033291321318507504 2.4062728886189646 456.0055150919211 0.00033166478324859073
0.031226934272209763 2.410611413805995 456.01683261376184 5.747664350803194e-05
0.029393020157395675 2.391504892583889 456.0295873331986 0.0005027744491506429
0.031279838322329785 2.398986783468841 456.01771054559595 0.00025030188627130957
0.0279132365012872 2.385851548653432 456.0392228372584 0.0004363596110720377
0.0320396792352599 2.3770018660600303 456.01903785254103 0.003039198924487765
0.029311212341052956 2.40588499886384 456.0285418763367 9.818461689095621e-05
0.026308977832792606 2.3958249034012096 456.0476304634544 0.00010421287605251567
0.02341334562671895 2.374481109872496 456.0692830487658 0.0004165560865072244
0.02609793807280284 2.373109048313403 456.0530247160864 0.0009335636709004132
0.02387220172252552 2.3621943148775717 456.06998815859544 0.0009280530452093793
0.0381525967280285 2.3325087508375764 456.0431101295228 0.00482053887077221
0.03607253899978416 2.322792699467334 456.06205858571093 0.00645700586883363
0.03646574843833119 2.308078153520248 456.08141060636916 0.005801092063772369
0.044915672439941705 2.3210419747952638 456.0434681546225 0.00410712943204146
0.045344944534805094 2.3121315910830753 456.05635868950066 0.004168340831193171
0.2603758607238812 2.352166907560744 455.9435778077531 0.012593774807496119
0.26087549815384015 2.342479597941331 455.95264563113267 0.004879889357749435
0.25360988611267893 2.333382735629007 455.95893227457634 0.0033893291891147217
0.2658103002887929 2.328879807120377 455.9709864407658 0.0046795046329572995
0.2752624405871527 2.344500008651836 455.95976322100387 0.00546291252800834
0.27716501206458294 2.3615163787086777 455.9462678772745 0.01163601038286625
0.2764899883480496 2.3763890924563458 455.9385043868567 0.016996967889880144
0.26529020582191615 2.3625398692979998 455.93858952616336 0.010711381742892509
0.28904590173774886 2.3916593999328906 455.94242843297627 0.016017479873861873
0.28314083046712846 2.4027606134350803 455.93640135781413 0.016523652447136775
0.2874320216517591 2.4184786414648647 455.938310245755 0.01987657474530818
0.28275732590161967 2.4284597992924217 455.9348559941035 0.01975518343422826
0.28673873978755254 2.4408438477381855 455.9372710889677 0.019481921374986097
0.29274979526952066 2.4293392333172865 455.9415428842257 0.017926084731816515
0.29132651829878986 2.4528256442154586 455.93960770592435 0.027140710270042823
0.2846204445314175 2.483692887382074 455.93501088309796 0.01864360411894753
0.2879020528829395 2.537856737571037 455.9338446090902 0.01704185146596425
0.2837594856768301 2.524975068017456 455.93211501315193 0.017927780234595216
0.28298594316714176 2.5098973386521157 455.9320070605419 0.02053096488920289
0.28161757025541645 2.4702841839778316 455.93235955947046 0.01914801167920168
0.28402177850933524 2.549453386431666 455.930801003091 0.017836363633292676
0.29208181395389854 2.628479589954969 455.9321005851813 0.020221374077637255
0.2916003573384194 2.593005741194233 455.933348254571 0.026362344965221343
0.2907620970617688 2.65595888139012 455.9296214823725 0.018142496825834815
0.2817891362157161 2.624339846235451 455.9242624083376 0.016128230425351133
0.2846564301977599 2.665726276606636 455.92449198173404 0.022399787109830854
0.2887363690466116 2.709850178480549 455.92548247427715 0.04390304897377599
0.2915325949357081 2.687081825753922 455.92884295668216 0.04702953528663365
0.2976025698295163 2.697800192672282 455.9347623900687 0.08367236978409104
0.2954347698546285 2.642059847538504 455.9345555621148 0.01701440340431642
0.2989806741382889 2.675528640665285 455.9373607360747 0.021814370104592258
0.2982998531246567 2.601246711496225 455.9394089750769 0.022075314039343215
0.2954151251708953 2.6131129632295984 455.9357320615793 0.024373885597261846
0.30087823719005846 2.687005189331725 455.9396601339125 0.0457208957653344
0.2996882602193532 2.651495561245088 455.93933483006214 0.011503156278399089
0.3030996038044601 2.6101434550439064 455.94619813209744 0.011042893982361687
0.30456756673743013 2.659626517469338 455.94699970130364 0.006285186495857911
0.306731409802222 2.6976274123867094 455.95030650138204 0.049174098765459875
0.3062757017251002 2.679581841267773 455.9499718827436 0.021099126623136667
0.3060752932942894 2.6490600347949185 455.950642435733 0.007913560585896982
0.3059563475904268 2.6240754545472176 455.95127701792876 0.010366321868213606
0.3026424473423632 2.5719533702577486 455.9467940621069 0.01398847939192145
0.30095198985447064 2.5471966853222985 455.9452100756125 0.0174532945929832
0.30585592149808205 2.554965957056724 455.95356411641785 0.00912295706277743
0.3054538159245738 2.5390379155168548 455.95335833577167 0.012152235142679416
0.3039438172126504 2.51811526565149 455.95134576896476 0.011991942786743988
0.29857978617261693 2.509701850472235 455.9434689941 0.013370489518439757
0.30243275467812336 2.4963053414196175 455.94971422552703 0.016847640710699822
0.29951930729577164 2.454294415427518 455.94752351023885 0.008696561948911113
0.29505405588133427 2.5212342365954066 455.9392399711164 0.02351894764860828
0.2972360613842267 2.4777829929432986 455.94353511912095 0.01469917181396738
0.2995086512105552 2.4216027738063017 455.94933077774704 0.015717933854152166
0.30339174942523617 2.436107800978913 455.9545355388233 0.010981509888562148
0.30176141816802116 2.4098214619411538 455.953661253634 0.007177891210775758
0.3053443170120228 2.4590437907965756 455.95701737652433 0.010867524480275245
0.3047929707557711 2.4715145178186964 455.9551297446643 0.009707804067866598
0.3026079762977833 2.3970382481036987 455.95725852003704 0.006464533136551842
0.30717795088053856 2.40374674764788 455.9654367973348 0.005875692936658494
0.3079220430271814 2.4483553350333067 455.9637972280051 0.007579843405928154
0.3096562247328374 2.4286090242680034 455.97007350995506 0.003597402756094078
0.3080742602224862 2.4163438862796913 455.96636393795995 0.0075990784964610385
0.31140616042504954 2.4398252222104766 455.97603595935976 0.0018407164291571747
0.31084351867557525 2.455121086117395 455.97287382357075 0.004910068255218195
0.3098165013997538 2.494622064355789 455.9670951045101 0.004740982986567652
0.3119712073519173 2.422550132539609 455.9792297712633 0.0014429001723310117
0.3130989286683697 2.5367003488339313 455.9793822358663 0.0013442963747707115
0.3122587944847176 2.4713368496683605 455.9783064083602 0.0027807230611364684
0.3131274402893726 2.4955067921346883 455.98156144239346 0.0008915306166648258
0.31361855817703554 2.590254630955677 455.97991639522115 0.0008493370402573852
0.31237378646737646 2.563376190760783 455.9744642090768 0.002980179845447441
0.31284264647585264 2.5758008873182177 455.97642805351455 0.0008048805240119512
0.3149475789184304 2.570620809030985 455.98836714250103 0.000453693901761369
0.31670938999553616 2.557384461508855 455.99905877225825 6.455417149762887e-05
0.3141173636512159 2.551127451044401 455.9843810356972 0.000489182574345481
0.31726654868850046 2.468152116937006 456.0065322112306 2.2330333972656826e-05
0.31677190508847014 2.515254390852274 456.0013749912063 1.9035876057172897e-05
0.31464967989334375 2.5276850099845016 455.98852111466476 0.0006978964854694916
0.31742866511023704 2.5002814746449316 456.00589682375266 4.41960689601786e-05
0.31807726902996025 2.533523891348784 456.00801425128964 3.3126814073010817e-06
0.315399980483812 2.541783392694373 455.9921613630321 0.0001142821390390498
0.31353920227613885 2.4817167651657477 455.9844407588755 0.0008768911461967068
0.31563780223346727 2.4883591225424935 455.9961585590446 0.000188892150067992
0.3135829478078847 2.45725302510657 455.9859221492558 0.0008103465276271721
0.3151798120720848 2.4648507079330892 455.99471054898294 0.00046129225532395325
0.3138463641453567 2.5148829003894697 455.9845369516969 0.0005232542799248984
0.3153201782356384 2.451335573048469 455.99603604337705 0.00014005515611113716
0.31485535380535734 2.4397400420335305 455.9935166094265 0.0001657827308866438
0.3157638263724233 2.4264643449200816 455.998936132684 0.00010566885732584875
0.3182628397135139 2.4858373585955342 456.01152090806414 5.840357712255519e-06
0.31947343975721604 2.4667292477868723 456.01981316229126 1.0110881983525464e-05
0.31862023713860577 2.5104368767035377 456.0124238546785 4.462531620152276e-06
0.3188469696267109 2.522934085126834 456.01315551894766 3.554950538494751e-06
0.31580616609832984 2.6117936646395963 455.99160412499043 0.00018878304543564015
0.3178966216944312 2.6141775226524766 456.00352125712766 8.05767626334941e-06
0.31574276281730346 2.5996235664004974 455.99174828932513 0.00028671826667404183
0.31879344330049203 2.5747592262517713 456.0104282933922 5.162712156216541e-06
0.32041204844841054 2.5542542463630804 456.02111324156544 4.8527682055561315e-06
0.3186763216610312 2.5875535101720466 456.00917130276025 4.426209434075672e-06
0.3211765706189833 2.513394211617185 456.0277146313224 4.2779905142005686e-06
0.3198196631387953 2.5423768202143293 456.0180344570813 6.080216463637384e-06
0.32163318953290226 2.5273137860903256 456.02975822806064 4.18507129938019e-06
0.32146537199853986 2.4977791705278545 456.0302593485122 5.161930888453315e-06
0.3143221494116023 2.639940141149972 455.9821725901357 0.0004885041906884281
0.31399455149427147 2.6165482300738336 455.9810258479538 0.0008199832686762
0.3166405676895995 2.6284193134831177 455.9958240482868 3.464688469782557e-05
0.3151895680417932 2.6622012154071246 455.98644755044313 0.0003077749067929028
0.31650666763446067 2.652439235079992 455.99430262825024 2.0842361264911447e-05
0.32063092195517423 2.618592990816243 456.0196068626659 4.548494046497124e-06
0.31863560757723175 2.640362743878132 456.006909212271 3.091173421173736e-06
0.32128671347866156 2.593592010837998 456.0246131903097 3.467302022521523e-06
0.3195875352761891 2.603651716593575 456.0139814964414 3.416274197933907e-06
0.3214292420987117 2.577127053754185 456.02622097954526 5.136820049856436e-06
0.3229852251067495 2.556159315002997 456.0367564477447 5.3863110822162e-06
0.3241927994872718 2.6019788746006562 456.04224208004484 2.5851569298407977e-06
0.3260955933160478 2.594863502545829 456.0544206952788 5.780682544357654e-06
0.3232963369565181 2.5853509054784736 456.0373948410008 2.9299052550501463e-06
0.3235089298144723 2.533050316435599 456.0412213872993 4.358448282289622e-06
0.3241950042308973 2.5660620778963477 456.04386013813075 3.6800178780091778e-06
0.3233519158342883 2.5074536763995425 456.04154834107914 3.5570777262131246e-06
0.3253128704005445 2.493635965894928 456.0548888432844 4.4242721574163834e-06
0.32534627357627305 2.50988705630183 456.05421320675566 3.673523648684058e-06
0.32365458172019135 2.485394042559931 456.04468378154326 5.382319044816344e-06
0.32534936120922353 2.542103198709465 456.0524681312521 3.606298192920018e-06
0.32584055373891047 2.554661198973429 456.05493668629714 5.428878352699751e-06
0.32255019674712415 2.4712806876646867 456.0383599040868 8.344780972290101e-06
0.3250381174804547 2.471076074870587 456.05435912408893 9.56837951701477e-06
0.32292263071775795 2.6694736049298515 456.0318936157996 2.7544575738660863e-06
0.32430737712982216 2.6457269199665934 456.04138616212583 3.924156717472838e-06
0.32433027020501964 2.657596028211544 456.0410736626596 3.5058157029672985e-06
0.3239357165094847 2.63390530880623 456.0395126389916 3.7206096255573507e-06
0.3222082795328644 2.637897549750553 456.0285563361308 3.457144828557851e-06
0.32305692497988125 2.6214144797341987 456.0344382877204 3.478541001074754e-06
0.3259912563117914 2.66634976224659 456.0512466835364 4.5862106430221965e-06
0.32527034574545216 2.6864942851619844 456.0459808446967 0.04961456882659492
0.32465032667908433 2.674935505466449 456.04243726793607 0.006218796584235639
0.32577277964697227 2.630821301369886 456.0510710548507 5.22643968661254e-06
0.327293740491042 2.639272938855088 456.0606146140383 0.002552049904032147
0.32926170058881665 2.6877285548446883 456.07182971817963 0.03113841510123615
0.3296362016399337 2.700374786302631 456.0738501782861 0.09741241019002315
0.32688805172473306 2.6188971963583736 456.0586476436357 5.239717056800284e-06
0.32644625991416965 2.677806147848552 456.0538120269153 0.009778599221313505
0.3273237453000325 2.6977034997157 456.0588694225014 0.0584302302233932
0.3271990845721303 2.655514808860463 456.0594583138472 3.6018701503118455e-06
0.3211730077432357 2.657226762312469 456.0216065778239 4.035449899836367e-06
0.3192431224041815 2.664835458216391 456.00980312319905 4.5229588487847e-06
0.3207077753096009 2.6458798681281412 456.0191953214137 4.2009854622507684e-06
0.3212652337079278 2.6884068016184615 456.0212628768038 0.0674194684883764
0.32215479947576336 2.7013775514854412 456.02635286784516 0.0719471175230884
0.31998150609683423 2.6775894650593077 456.0138337894731 0.007978630090867035
0.3193018811625362 2.69246516180719 456.00935964760833 0.059225788864924786
0.32288958909539345 2.683297759435643 456.031222428696 0.028766587315573106
0.3170947382568011 2.7037040554820635 455.9962314116302 0.07474203554507251
0.3124219514547184 2.7105905819479372 455.96985559856563 0.06418554955932196
0.31424596025288676 2.6818740787394773 455.9804722309096 0.025701604054140084
0.3149201355501919 2.702171609453917 455.9838043085269 0.08649378180690134
0.3161931496002842 2.6920056538556585 455.9913650768374 0.04254469656558694
0.3170864908297578 2.6799824458820947 455.99679880854103 0.015062362067569971
0.31083244533204685 2.696414671337034 455.96310204421076 0.04953754601660082
0.3129118426884604 2.670059447599335 455.9735533624109 0.002093375924213644
0.31182051935749533 2.610995552336643 455.9702147598367 0.0037117860475742886
0.31093520542974573 2.6630135190892243 455.9645696832679 0.0032039745527779606
0.3100898596863845 2.6746126855532166 455.96108013494046 0.004675808438197981
0.3107718752701225 2.591014303012086 455.96650866592336 0.00493231964480108
0.3102617984322837 2.627380428814222 455.9633110947739 0.004945420066696176
0.31118994796838906 2.5493714312839098 455.9697453913909 0.0024321590211738037
0.3108364788901178 2.645051054931255 455.9647975813765 0.0032940246658661964
0.3090385973842283 2.7092042435970156 455.956209286297 0.04495641976632565
0.30754713427428615 2.5875796758718215 455.9562640518533 0.004661879458257103
0.3077555029586194 2.575137494199481 455.9572838994028 0.003968689438656531
0.3075193603379476 2.6017953877401534 455.9556937092832 0.005545426434210674
0.30836670471300226 2.5219685588128185 455.9612586027125 0.009983406632757565
0.3092045725580311 2.5628473347292533 455.96189354947643 0.0034796879119786163
0.3085264245458166 2.5092697821257053 455.9622557292082 0.009929512948811288
0.3106074988512909 2.532552789776753 455.96808170065384 0.003233449806476433
0.3073500652571591 2.4842939917751177 455.96012630790585 0.008467390713891049
0.2919386460289223 2.49633140750624 455.9380835463985 0.023526587929367362
0.2968871434300833 2.56080765345684 455.93946817713515 0.025456833661346094
0.29589284231172985 2.575464562044068 455.9377730345093 0.02568440538053606
0.21873820174223424 2.30152498528259 455.9946860534481 0.00085036875295255
0.3132436704543742 2.3532675507915477 456.0207672482638 0.006727591067122667
0.3159798119848019 2.342252667875916 456.04311733741196 0.005896859256129577
0.3164155645721121 2.3525126662813522 456.0323273557433 0.006423901370611812
0.3150455756628936 2.3660637751543745 456.0136958122831 0.0045196395798099455
0.32124847790749483 2.338742597782335 456.06548999282273 0.003846724728880922
0.3202706809936505 2.3578793634023856 456.0427194062456 0.002512625626534755
0.32120235490591764 2.348767984034397 456.0550803474805 0.003998819496574461
0.31982453442167186 2.3216469393112886 456.0806252004608 0.004453645996666573
0.32491658605263085 2.338924990972061 456.07982758992824 0.003197325116335839
0.3264468104054794 2.3537595133564593 456.0765068484342 0.002549674086283009
0.32369596703281234 2.316524614033949 456.1032599171923 0.00525612215612123
0.32759445786621416 2.3314505342821645 456.10396178727797 0.002427823795551394
0.32771694049477074 2.348568939852636 456.0871900420725 0.002221710065830852
0.32865526389568656 2.3614715709650973 456.08670245019334 0.0006320520625780733
0.3287425117862498 2.3433069540483156 456.0999158515437 0.0020156527264308896
0.328844574022722 2.3082778490992406 456.133472731881 0.11521929806731503
0.327799087081024 2.3202254611750988 456.11704922197714 0.140114006452183
0.33089005350203293 2.3241200339340287 456.1283520968503 0.16986537587370873
0.33053618088304115 2.3423834394898577 456.11473487733315 0.08228349183664901
0.33277258874047994 2.345523311495103 456.1272769821942 0.12188655202933263
0.33190156862530695 2.370003829388171 456.1149570965512 0.07949717059020825
0.3329259777227921 2.3613546779326926 456.1243354555293 0.08352298738555207
0.33088893514664114 2.305828465186441 456.1449013404335 0.08837647549156853
0.3295372863790595 2.2863655169876362 456.16077287697453 0.05765009820359359
0.3248581294024438 2.30498336067198 456.1222179804115 0.12659600838441565
0.32442503104293585 2.296670677171772 456.13061678365165 0.1468931853294319
0.33618276871150915 2.6611477389233844 456.1334311769081 0.08780916724728233
0.34417628475907786 2.706367480041788 456.183287473656 0.09248411507798077
0.3476497714718695 2.7107950373513745 456.21431555358856 0.06168425798381688
0.31744388292725023 2.2297244450630815 456.2143934546038 0.10493355410823299
0.3082666981380677 2.230088217101356 456.19332823477845 0.021790963480250836
0.30855480337913155 2.219711175615272 456.2134121876273 0.10722694852589616
0.30327114331835336 2.2094456050474696 456.2226580754189 0.12185253926711524
0.2987864746083535 2.2117923152754235 456.2107661674729 0.08652063073172347
0.30597276659093653 2.233876644063814 456.1820115526259 0.034338120794766995
0.2974219203368047 2.220962584687805 456.1908551301766 0.03194480913311003
0.2919896244247948 2.211618352376128 456.2004027601503 0.06111674503427968
0.2903352702759137 2.20360519377866 456.21401271745435 0.1030419269751435
0.2974905843104526 2.2299340582872693 456.1744474120013 0.09570996522288398
0.30224723943449194 2.2386331627968135 456.16729218366635 0.09954899729934841
0.2983781190496835 2.2434834274900957 456.15304445383566 0.08585036576652022
0.2884079938152135 2.2297760431740437 456.1620985733024 0.06816501620388384
0.2844792040326471 2.2198220007283944 456.1751735741544 0.052619137315754884
0.2804741055642064 2.2079070584777485 456.1930829241098 0.028615285637240848
0.28297165889403075 2.236072136454422 456.14528867926555 0.09797493464897551
0.2727141779606441 2.2313097592238123 456.14337971023997 0.10045245432161651
0.27201550701843286 2.2251436108159255 456.15340133399127 0.09488314503340646
0.27704467724852916 2.2389453623892264 456.1343302718291 0.1372220882990828
0.2673843869138426 2.2117098790198875 456.17384706451634 0.05263713145676197
0.26395919232762255 2.2049125901114315 456.18437382346184 0.03697350114151626
0.2607680844853594 2.2263180173487807 456.14321467628577 0.12484251039092205
0.2599161396230102 2.218810407757909 456.1559271860659 0.07101639982580528
0.2747750385714034 2.2462295588206693 456.12015312851133 0.10437873863910244
0.26065149134837556 2.2343087948080234 456.1291847163635 0.12715593879915543
0.25126283497192337 2.221345387583611 456.1469332340188 0.09799709222157209
0.2561085929020286 2.208997754583137 456.1718091943229 0.08479989864004406
0.2515581772673423 2.247772499575594 456.10074242463514 0.002842092465070797
0.25372368834353265 2.2378037877715515 456.1190712963923 0.11279982512844675
0.26392416632836285 2.251595822653737 456.10209025007185 0.0030658046154189386
0.2764982402114491 2.255344061801875 456.106902731042 0.00348743654705051
0.2738980786436891 2.26864819592525 456.08198094618103 0.0036013436508223716
0.2806587036574235 2.2778742879230007 456.0740811225149 0.0030592932888814954
0.2798209199912496 2.264690507565109 456.0945907952758 0.002529622506794494
0.28829002110550384 2.2947223796018266 456.056236762008 0.003034089338063458
0.29002866220252754 2.279493476275416 456.08309581193635 0.003511612230253969
0.29206745995682193 2.291156841050933 456.0674234338717 0.0026118079526890876
0.29673179140375094 2.288397855211463 456.0788859361013 0.0027782865559762048
0.2969562947013436 2.279513345401448 456.0933897522009 0.002988419855180118
0.29319576660897717 2.2715057608201406 456.1007906518043 0.003314579946027619
0.29079144570542437 2.2528118958658143 456.127334210494 0.15045247447832152
0.2839545299851675 2.2534844235005305 456.1179455649893 0.11158579602063971
0.2935555780683036 2.2611433309244404 456.1180563893673 0.10522143488768629
0.3015757831567632 2.276196013810764 456.1071199026802 0.031785267025370614
0.3006896344196694 2.260586750258303 456.129402131908 0.1174736961292505
0.29872061404496525 2.3022272260034073 456.06066248884053 0.004062212456076433
0.29801060893379283 2.249157692618437 456.1433464108904 0.10001470380219031
0.24163800087252002 2.210009898336311 456.1641080493131 0.11241882323642971
0.23678673186812346 2.2009575995196564 456.1799548181543 0.0978671502310522
0.24361460795518322 2.19652333806924 456.19060625660234 0.04116239826316934
0.25282402386838077 2.2018063039067157 456.18401796068247 0.07487790494577352
0.2532899756799114 2.193995171794485 456.1997343615186 0.08569828503902274
0.243223665990701 2.1904823397940105 456.20269884139157 0.08381094907004578
0.2295504344129583 2.1865971494433127 456.2070953877142 0.0720963132951213
0.23109184711710418 2.1803763344657634 456.22022518366964 0.09247779179007413
0.24193097885429948 2.1847467993251994 456.2140302927363 0.09045987286478928
0.2591154558928468 2.189615345695005 456.21184114828117 0.10993374248509874
0.25356722460218545 2.182468868040707 456.22372655066556 0.10974979613241591
0.2709799448215402 2.200658572612322 456.1980021486707 0.05956447646973192
0.26974489753703457 2.189744736456073 456.21948301120125 0.07172871474045645
0.27933111966284163 2.1966013586226563 456.2145822227194 0.12020882693731882
0.05575521675498445 2.44474699298837 456.22983260655195 0.06211286331097521
0.05405475153325109 2.3783449891626187 456.23050366564723 0.06347681045640446
0.05459502317718953 2.3479683884838254 456.23049262152927 0.058472986699500164
0.055741773066710416 2.3171021184497014 456.23041591266093 0.0509159292590581
0.23727412320429705 2.2279148147636696 456.23007123495694 0.042175778672279736
0.2737484406983652 2.2482732778852585 456.22927427079827 0.06998858446775523
0.2934229872856646 2.3282810939483958 456.228226060907 0.07055657422303531
0.055154214581607304 2.456729973414442 456.23110996096295 0.06954928806307487
0.05403841790831349 2.3350335355304663 456.23136514804094 0.05435130609610785
0.0851495266586168 2.5395137819059377 456.2314448526229 0.07427410967349697
0.0626062759245594 2.474451895951654 456.18546463283207 0.005491452602790054
0.06003878540371591 2.478511377734039 456.21671976731324 0.07464370731708023
0.06419075009328098 2.492666681989005 456.1987072317683 0.022462182373321787
0.06287214642701927 2.492963080448093 456.2135509212847 0.06847639323449346
0.060452384856136854 2.487835030261378 456.2270262503704 0.06650049069535689
0.06392946043353473 2.500586812698054 456.2246685556722 0.06730584921484262
0.06870541504406244 2.50405064670055 456.1899575304977 0.019750616997535084
0.06934846482208168 2.511837927215521 456.2199716317243 0.08575931253601822
0.07542810902671984 2.5178125661663646 456.19310421469214 0.006544311685863189
0.07704370930791449 2.5219476003581907 456.20563506380944 0.04174999812939706
0.08133472221445756 2.53007226525787 456.22463888527227 0.07520083431689456
0.0869715484209932 2.5341358685911404 456.2091640476125 0.0801886478538481
0.09074757796184857 2.535678799120036 456.19266353151636 0.015750384922123717
0.09803337731266439 2.5438707582344335 456.2147094663006 0.06856376281379892
0.10447693885376719 2.5456996768132516 456.19116311735417 0.07020444948481593
0.10654380211886272 2.550094003776072 456.2243281545834 0.07318858237574165
0.11079007315742467 2.550585106766432 456.2072070044391 0.045488270844441445
0.12030463873865058 2.5561996059894176 456.2252373572232 0.08452469863870259
0.12296632524645311 2.5537220437029666 456.1869685544046 0.0644709528494293
0.124359233982979 2.556463843879206 456.21201358975065 0.05744091691994873
0.13546387202652738 2.55907726801845 456.21321649306185 0.05743527845619803
0.14228163876353356 2.560800413457337 456.2234270262516 0.06595905326656065
0.14472691124144 2.5586710395134484 456.195480694582 0.03585320568381814
0.15470087080658765 2.5612278120632657 456.2187273811921 0.06066722075415064
0.15562858260255796 2.559955942329946 456.2035755532347 0.05445789182954257
0.14874327413548716 2.557959013705717 456.1846379362396 0.03651884952041032
0.1660579629435867 2.5610432438315733 456.21281548622596 0.056482116875812005
0.16427306281766685 2.5622621692213046 456.22742228701804 0.05417480630779491
0.18027451035912287 2.558628308775763 456.18435945650083 0.033335086105153
0.1859400120173618 2.559456796802265 456.1949021599688 0.037325277443922666
0.17712666909364483 2.560322183467044 456.20331183405114 0.027679271427402504
0.1786054735215708 2.561510952604856 456.21726759794814 0.05906916729863947
0.19178392189290944 2.561439303884098 456.2200179581052 0.045255750566018334
0.19517320970641472 2.5603721400660153 456.2090071719049 0.043134262550472854
0.1632225712039015 2.559218555479535 456.192315145473 0.028760738977145296
0.19849276128233714 2.5591065033798666 456.19603119322943 0.028912658287210603
0.2034679554566172 2.560960411913926 456.2199050529322 0.05532786871324801
0.2116347104381502 2.5568846521838835 456.1781405142632 0.03518344382416114
0.2076759523420328 2.558961981299589 456.20246478118133 0.05028377724364148
0.21928936686272674 2.5567332802005147 456.19792329932613 0.04310411705219041
0.21849281200817006 2.558151335097395 456.21168039648904 0.03455267837004264
0.22248462855107087 2.5549433432170554 456.18609669069735 0.052034713578108724
0.2247924295481183 2.5575882547852316 456.2224729824882 0.07728120900194038
0.23158801917269584 2.5527892054160626 456.19522991691986 0.05540364336503555
0.2340888631486789 2.5506880955747473 456.18216388076223 0.09728076180952433
0.23219487115510973 2.553920145330234 456.2101499581654 0.03764330226202786
0.24329464162955713 2.5490708963677733 456.21272583779205 0.057560456829267734
0.2443895887194411 2.546409150023467 456.1907012008131 0.0817338632834984
0.2538594653948145 2.542805073513586 456.21637059639653 0.04937930173476725
0.25608090037216 2.5382930542187943 456.19195539742645 0.08456328768777892
0.25876698713768703 2.5374736465368857 456.2048829416168 0.03991088167026444
0.2632967825702903 2.53505164886482 456.2185311753507 0.05660474265054324
0.26613705052823894 2.529420447380816 456.1978581772721 0.013700364589746125
0.27178915906452816 2.521043789138063 456.18843436063014 0.01106312610369211
0.2736800193340375 2.5202568399277006 456.2006322596096 0.016268517588412145
0.276437688300933 2.5180202309036037 456.21270183262817 0.0669988527199776
0.2803854224900314 2.5129498526721443 456.2234029255243 0.07802415958532265
0.2819587489503633 2.5055587840809297 456.2033879385731 0.024695856142540745
0.2818890930708261 2.50279758809344 456.19050931926415 0.010043920875653412
0.28638150668812956 2.499182818100971 456.22367327853794 0.07428932620622501
0.28666147717887497 2.4881688655962666 456.19652491320926 0.01700612025336517
0.2890315435450063 2.488278162291941 456.2222542092903 0.07951815824112476
0.28858328934113875 2.4843019284107335 456.2105453039484 0.07058190151598605
0.2875361860222249 2.4743954769987058 456.18678472025584 0.009094386084626037
0.29052039265239415 2.471346781493664 456.2163225028627 0.060956351040088896
0.2907268462389533 2.460520343444583 456.2101291850505 0.06721991718991724
0.2891475175781991 2.4633737241515217 456.19520126724484 0.002331527375247364
0.29021541703623305 2.421574906911389 456.1868239248986 0.0902134087539431
0.2905240641313952 2.4427559970664605 456.1977097947242 0.005556977246027772
0.2928912881066168 2.448246872596605 456.2251541239807 0.06222225231323845
0.2922247847305098 2.4365220686531583 456.21286558691156 0.043937773823355473
0.2916242054609794 2.4200747897131656 456.20153375204694 0.013392088843990443
0.2927509672637078 2.419803666792608 456.2132549247262 0.04882965119021094
0.2924526357776198 2.4088718610590596 456.2080612976358 0.047529043920126954
0.29081097817431545 2.4109018979448846 456.1916409209468 0.08241648867309821
0.29131213273271606 2.3851237454968777 456.19578581490094 0.006796926515281768
0.29067741879862624 2.3939103888655566 456.1888665663202 0.07343914659033852
0.2923982750071867 2.392494171429706 456.2064363437852 0.028244616722762544
0.29379522074440023 2.3984378469274668 456.221478721034 0.04441138558331008
0.29420832574644074 2.4212392745125757 456.22743904903746 0.05383924853247152
0.29245950194683934 2.3760426968131756 456.20810506112474 0.03295538217864218
0.2939073831344468 2.3789843298295406 456.22287753803613 0.06605789946809162
0.29329141483717747 2.3589916848040233 456.21961677455096 0.05886692579946996
0.29152919611401196 2.3561330897607022 456.2019242607695 0.022798126829810365
0.29089300719481476 2.366050929851913 456.1933656823344 0.08171168012108575
0.292333250934281 2.3364661421270645 456.21619165623264 0.044871494891978864
0.29133927977998 2.339035348877989 456.20416504590014 0.026351254347843057
0.2935224326370323 2.3424833488990133 456.2266809108553 0.06821180819998493
0.29006088553206116 2.3207809016911005 456.19724314986127 0.07703924611344537
0.2902479526135954 2.332637361401622 456.19450473633395 0.004233419267583495
0.29000308276622017 2.3065157300350823 456.20559823638837 0.0303469426096784
0.2913575359771671 2.3187422645721756 456.2128995589335 0.05349980681371943
0.29117765037187826 2.300382603703296 456.2216833591205 0.06840736993348402
0.2886230453198446 2.2941414547463457 456.2056018759889 0.03208060176258692
0.28766307683127884 2.2845661573804064 456.2121739338611 0.04873527171671881
0.2809126838180541 2.271530303258298 456.1982101942593 0.13159976400062107
0.2811067531353354 2.2664318761537414 456.2118357096106 0.1530780329896895
0.251741894120781 2.238091970923593 456.21528628298785 0.11429078425288886
0.2530073172617996 2.2460288608101937 456.1956528936032 0.10735858124473789
0.2655899408009522 2.251327508918024 456.20302876755795 0.13625245644718276
0.274565218624851 2.2616164636438185 456.1991656622668 0.10134791838788017
0.23695047219136905 2.2396510291406364 456.2004272288394 0.10578987870377737
0.2403332359357605 2.233728049757496 456.2167644787146 0.12320774096911037
0.2628864798248957 2.240695333013855 456.2227353471295 0.07964509145206515
0.22433986855075333 2.228174470930929 456.22403733595183 0.05837104420689251
0.21433348680950112 2.2350709642613187 456.20469068300656 0.1025293613499575
0.19044465350020826 2.227574370333225 456.2208821028311 0.07647051117775959
0.1918398387379427 2.234760600082139 456.20226468745204 0.09367357368550716
0.20297232075453053 2.2320903423873557 456.21028042694104 0.09727732895535186
0.20844409142089573 2.226408260921427 456.22549841788543 0.07914344977823794
0.1758275925459593 2.236240853264741 456.19744840201224 0.08183464495336827
0.17263839258849664 2.2240882170686347 456.22892048405527 0.04368542865183525
0.2016482752351117 2.2374194424318983 456.1950740841486 0.07634543034048352
0.12110208172015507 2.238933864604889 456.1981400192532 0.09572759661315869
0.1315743991124501 2.2359057168969323 456.20340243094256 0.10089572009550075
0.11899148450841442 2.234595608970021 456.21045761422636 0.12497835291530784
0.10937491308411472 2.2318712526553792 456.22119537654294 0.08319678934170481
0.09887500745304682 2.2359502159493005 456.2195410343398 0.11081096220281375
0.09853773644239767 2.2430029071257045 456.2039887858278 0.12308838827043429
0.07854285570864161 2.2490025183721083 456.22037302518834 0.11737896693128383
0.0691095323550503 2.260401189995413 456.22300329427543 0.07656470527604783
0.0689975528220456 2.2679296939894127 456.20791014665735 0.1067281182828384
0.061488989530876316 2.2823865622635813 456.222329880926 0.0655873939791459
0.06299468681517437 2.284524445751015 456.2077954010754 0.10315283148387991
0.06648918990686847 2.2775447931076576 456.1989395486297 0.13525754129977496
0.0603830216597423 2.300336313376688 456.2075153151691 0.05021882875934703
0.060175606739364236 2.3108149373521347 456.201077205125 0.019397091306569768
0.05872318385757205 2.312189552402355 456.2159971376703 0.06592961463834748
0.058118046047386886 2.3050763238834513 456.2269723493972 0.07119513758197259
0.05921824690033339 2.3236667237737585 456.20418930014637 0.01823896513525482
0.05737009761609542 2.3646134614982617 456.2117880240249 0.06517308604242115
0.05857351019952246 2.3580990924562992 456.2006174315278 0.01770766340487141
0.05815022396755182 2.33252692771946 456.21240630798377 0.05505486412468603
0.059089551637208595 2.336105706670064 456.2006505725974 0.003924283144372555
0.05770591360328002 2.345334690527873 456.21261211071476 0.05865084079616984
0.056135182948855056 2.3629513325820186 456.2255989046728 0.05742023104818747
0.05788933344259044 2.3844468509764796 456.2042915349406 0.026774093225738475
0.059112499897670895 2.373445068246928 456.19234162411203 0.06415436307393314
0.0589596717776493 2.3959052351281462 456.1925659304266 0.06293498366467226
0.0566840069915089 2.375848133475169 456.21718594498077 0.053784894151278545
0.057607549692000326 2.4062000201038143 456.20719392508624 0.031635837001833776
0.05874641522040906 2.41185254532282 456.1964581027818 0.07064560222337968
0.05603684468323513 2.40622903715178 456.22382698660056 0.06610127175372077
0.056488709253638435 2.393199191738133 456.21833816619557 0.06969007361326715
0.057690612658373455 2.417917254699552 456.20834213219996 0.03664779971801962
0.056626443873975064 2.430162348294619 456.2228862429872 0.06336476624636113
0.05779322552453733 2.4311310435858395 456.2110228450893 0.040526943894591855
0.0590982284453202 2.4303861557638324 456.19741972720874 0.013901193054071052
0.06027703589437297 2.456675182594802 456.19738701976775 0.00960965492964785
0.058267322363262264 2.4535405083976056 456.2163182569875 0.0568780279845411
0.06058216697569064 2.4455753208498225 456.187884548105 0.0918254492464225
0.05772746005126003 2.4417902530629876 456.2158419863487 0.044241619371709305
0.05901072426490016 2.445786743559533 456.204255063282 0.04003278504302982
0.06017156525845197 2.4699615418770184 456.2079285475719 0.03791062233360799
0.058277509938983216 2.4693525086697594 456.22696482498304 0.05993878886835815
0.0801428881300286 2.2570273003558636 456.1963158841927 0.09286638410367373
0.08985495646477576 2.2494023444931983 456.1975879547491 0.11715680705094683
0.0813135742400569 2.252024054796307 456.2079566899336 0.12933348799761038
0.12369093537957442 2.2294585358829018 456.2210768095334 0.10552966405365433
0.13592010215963882 2.2316022671105404 456.21314880690954 0.08152097425574732
0.1446379428993299 2.2267328526663674 456.22438285053084 0.06769034433905406
0.16866530803792146 2.2326866815135715 456.20694495374454 0.11243889615608102
0.16687291325476933 2.2280624279191468 456.2191462550747 0.09191765669165186
0.22337868272977607 2.2328301071527292 456.21217668425425 0.09507870634035219
0.25639439256772645 2.4027100332546008 455.934335800633 0.006013401673206919
0.2393259238584065 2.374730152536201 455.9348091624595 0.008015717953454904
0.2580458442758423 2.4678154126644882 455.9317887565929 0.02305393021765436
0.2581841974553909 2.4479527210462164 455.93198089330235 0.009844444939111187
0.25831124453518917 2.52024052781395 455.93064059443657 0.006481207987018278
0.2588701734460733 2.584149476978985 455.92746386107586 0.011367248267230358
0.2586193672076701 2.5029129511413153 455.929826161514 0.020725189100653046
0.21462031316792365 2.370155413936132 455.93434955350517 0.007597036310873223
0.19789435907093683 2.369522482660872 455.93388620684135 0.011177417133774474
0.18547944469357316 2.369493431225057 455.9338734559015 0.009820791112903716
0.22716103794601272 2.3674524536747574 455.93344836143973 0.008740003587653046
0.20549634622047042 2.358135091350116 455.93384196039716 0.010364373305742735
0.13136360306013856 2.3675522551253834 455.93344388539003 0.01209454921598245
0.12773425099807167 2.35671655681547 455.93390615562214 0.013978063602268626
0.17105210707687088 2.360226466727696 455.9337542551255 0.015513761746433935
0.15127440209099202 2.355332819717671 455.9339640531693 0.017410268788137808
0.12004369387923834 2.372511742117546 455.93625857175357 0.013942940724505123
0.14644243178728378 2.3710879022287736 455.93532850779764 0.00994761658359799
0.1729709888948934 2.3716834374714044 455.93713326243693 0.008785473365448236
0.09821768092836257 2.3886412580901344 455.9346243457073 0.0050553335372596426
0.09309649250537569 2.4064399664935374 455.93382582042096 0.00784689706081336
0.0925024245106709 2.4244269531308107 455.93401517030657 0.009167605318411546
0.09036536933664184 2.527138747132338 455.92776203502274 0.009571730084058186
0.09143955060267601 2.549360156796603 455.9290991142791 0.008864380582127586
0.0911593781066669 2.5944937500255514 455.92744233418864 0.010925967976312012
0.09039268062630343 2.5721917898478983 455.926222144545 0.009749139109506928
0.08764937203161852 2.6067143693553643 455.9234116969493 0.013189507392381356
0.08215283818748007 2.5439052018571924 455.92598934119553 0.015310516423252032
0.08783867158242506 2.4764514828756274 455.9288398204833 0.01560886805959947
0.08433599843579256 2.4892414701713546 455.9282998227242 0.009648047441650095
0.08629321654433461 2.5088170422437517 455.92747187032273 0.007904846747420207
0.07543154377970801 2.661553414809786 455.92101708842875 0.01533834858429135
0.07889531811180363 2.615853149519097 455.9229483815576 0.012263660410868618
0.0792356842989945 2.6381490408878805 455.9220057508385 0.014128409561308003
0.0775475750179481 2.5273883931267034 455.9266890905556 0.01147416808301762
0.07534171478505734 2.433734336704159 455.9306497731533 0.010158339117446664
0.08587468273443812 2.4596198317634395 455.9295517985185 0.009389369257378715
0.08410514204526934 2.4470485355263722 455.9300839301221 0.012630129340821798
0.087086057751892 2.4342216276883346 455.93062530787427 0.013859899661958816
0.07697490480290611 2.5767026941227122 455.92460413125076 0.01223223947378583
0.08243785713489266 2.3941403025178425 455.9323227316714 0.009638856585019208
0.10781243055731532 2.374320446543676 455.9335218595391 0.009692148236045306
0.10657883511831039 2.356509568769513 455.93426666331425 0.013796949962100801
0.19337714299291503 2.3540931005433516 455.93408873989824 0.012530213344499032
0.13733340295851962 2.3503213524552513 455.9351446989639 0.012869081868559567
0.23021833662504232 2.354144346605544 455.93424026020796 0.007081224645406136
0.24032029338612185 2.361705767558279 455.9336915663888 0.008712904149234204
0.25282796626872744 2.368437054210019 455.9334079181494 0.014581099645403094
0.2542010480694146 2.389387546063757 455.9328965917546 0.008173372508938369
0.2688759097674801 2.386778888386429 455.9326350585364 0.012028216955715553
0.2603285359640682 2.3790969728250473 455.9329583200351 0.0103875008576157
0.26825906209015976 2.4066777750739834 455.93179390258825 0.01093288718293323
0.27771789074570946 2.4169009631054044 455.9317455042485 0.017114595543249362
0.276648166928785 2.450284692971221 455.93008001930787 0.016101593421237296
0.2799832281884487 2.6121855531979974 455.92384750700137 0.023437926169310223
0.28059538288025493 2.5853217726443187 455.9253268314631 0.014710559286807881
0.2812869862630827 2.6797254469465313 455.92143313935935 0.025936850750321976
0.2792631543660091 2.7016959047576465 455.9197520633918 0.04365460342319576
0.27638907902892734 2.56356166485736 455.9251790923239 0.013750916713032321
0.2770743300244695 2.597594579702332 455.92377705024364 0.017023003367976932
0.26756544593498716 2.6826499636875822 455.920128293976 0.029043487255369906
0.26674823136486325 2.6668710428717777 455.92079436306875 0.012262776328483625
0.2748474143758966 2.5750732135719288 455.9246753700142 0.017581196450805903
