x y z curv
0.34215112960118615 64.58626971870567 707.719255319965 0.08866107420828102
0.34363940444552843 64.71735222534109 707.7200744654831 0.12411177357509459
0.34157585504802457 64.68609562141101 707.7199012184021 0.09462821027115627
0.35093264733663465 64.55654082540906 707.7188090889863 0.06252819687662861
0.3522516943488689 64.7648810583365 707.7203010712866 0.10522614959608542
0.3510884989503398 64.6040323958281 707.7191730132124 0.0462206148901781
0.24808026775056208 64.50472473091482 707.7198644040972 1.055100386414248e-06
0.32971852065775825 64.49093910562544 707.7187262442901 0.12002159918668107
0.26530041173957153 64.50785522854888 707.7196795173681 1.6350913082724014e-06
0.3048508561141443 64.49583512883935 707.7190793054456 0.0768431240222572
0.3399976500976361 64.50541878839552 707.7187311404296 0.0709416530132343
0.322448879650371 64.50159355904644 707.7189137519546 0.08922999528177232
0.2918203786016379 64.49948564036342 707.7192742236987 6.200821825145498e-07
0.23570254133598906 64.5026449429942 707.7199988567897 1.0916852549807891e-06
0.34343470278145855 64.4831990091354 707.7184854473868 0.08995197722982981
0.3029957000889907 64.50752996407343 707.7192091920934 6.569680922388625e-07
0.2824346857660749 64.51175334857072 707.7195027110307 1.3239942527280005e-06
0.27904748369260723 64.49389462008345 707.719381484498 7.397961734545618e-07
0.21501580529548325 64.50520207133918 707.7202787055315 1.832463600753221e-06
0.3250658022384765 64.4737525196424 707.7186014403942 0.18346108591014826
0.2664077585575563 64.49320023596107 707.7195273226614 1.3405187675128313e-06
0.31236187773280943 64.47716033873301 707.7187927191808 0.06854022915325354
0.3489227803693482 64.4952035567712 707.7182896708933 0.09288152961915316
0.1445732298087149 64.49387005169127 707.7200383216843 1.7971469503902041e-06
0.11028939282352497 64.49432528189433 707.7196849822524 1.1874809076813632e-06
0.17570519292619313 64.49666697054312 707.7204169097979 1.5331943637238776e-05
0.07853647180854137 64.48608079280619 707.7192018789476 9.088806745638044e-07
0.1597977462084224 64.49643242789547 707.7202449464194 2.7111601653355134e-06
0.12160940009073387 64.49025074006431 707.7197310776535 1.1103444682392306e-06
0.03261111884061175 64.47978161231364 707.7185879570903 0.14226449933282748
0.03110080144542776 64.50702571465052 707.7188241050474 0.10474468431238736
0.07619582578913428 64.49843152761652 707.7193035231678 1.0030190857760538e-06
0.10913602891209453 64.50651058328425 707.7197880428914 9.899408742891557e-07
0.03659333665004702 64.49533394229866 707.718782902382 0.13781336113027887
0.05453550544619755 64.49069381149333 707.7189622295703 0.09026901552050086
0.09344092489435284 64.50019987553236 707.7195341548224 1.057498854052025e-06
0.0623812422456439 64.49986010638898 707.7191453898226 0.07697750495546227
0.13464934856735009 64.50005300775473 707.7200443569457 2.352088043476729e-06
0.06562993590653822 64.48623613834705 707.7190582535517 7.165237629319435e-07
0.12324708196058781 64.50913960639247 707.7199878199012 2.043081939425715e-06
0.14506614448539307 64.50841140143653 707.7202518764769 3.0935562701121386e-06
0.26051657544971024 64.48057083437163 707.7194078507994 1.3213571328082538e-06
0.21380623846039226 64.48796538033443 707.7200143925778 2.535566264917701e-06
0.29355131605717705 64.47701642044795 707.7190085741163 0.08490049769068551
0.23058511347794913 64.48866111355363 707.7198559135545 1.9424886246801457e-06
0.27305165963757144 64.47807320308203 707.7192359856422 8.366881597590744e-07
0.2042327818737638 64.49979904062192 707.7203215464841 5.802837664308985e-06
0.19117670836320946 64.49911335848117 707.7204423057794 1.2489196445286657e-05
0.10660591998161031 64.46589052064391 707.7192043326561 7.380148070242445e-07
0.039326614574077795 64.45103827501961 707.718307590821 0.1152474021641847
0.0780429577293104 64.45865120036986 707.7188048433422 0.07156757505030226
0.1313057774258044 64.47272847099168 707.7195614117371 8.051267596073051e-07
0.1441786444375579 64.47176556526287 707.7196564656822 8.216859725582477e-07
0.04296605747290537 64.47142968157273 707.7185994495502 0.09009822913322368
0.10564537427094485 64.4820030065256 707.7194273166524 9.147375123765928e-07
0.051727842931397094 64.46076579464687 707.718566776515 0.07689874074295694
0.02849710029732446 64.46260149156635 707.7183302765866 0.09471633432773924
0.06855393169415301 64.47487759718057 707.7189267990483 3.500154839783263e-07
0.09028890456519773 64.4781442071917 707.7192089871969 7.498112179524347e-07
0.08920353552655563 64.4669683879913 707.7190602984006 5.852719531606612e-07
0.05592579698140907 64.47618085254837 707.7188019710104 0.1523145971484109
0.29493302982972514 64.45291517467312 707.7186414790615 0.15331803358303264
0.2243841442183483 64.47734944573936 707.7197455654134 1.2927762948570895e-06
0.18765929616378826 64.48737734509257 707.7202660643887 8.489059811234708e-06
0.2598419554317287 64.46066338872589 707.7191018708836 1.044310638191531e-06
0.23780439023358796 64.46576889685045 707.7193958293826 1.1705394547518648e-06
0.20547993027959804 64.47470060767043 707.7198560852164 1.3627821629383594e-06
0.33822656883729757 64.46343317044777 707.7183212487654 0.09610987429732733
0.27068296362909905 64.46464169057819 707.719079801909 6.718109230574939e-07
0.2523655383291309 64.47016909255713 707.7193532160293 1.6955930065853285e-06
0.24173725168052815 64.48062530417508 707.7196062405701 1.512932719483464e-06
0.32522626691553963 64.45210216125543 707.7183166924932 0.08898046471268159
0.28333963766240744 64.47156612017346 707.7190307640659 9.894808972818327e-07
0.30646738980661453 64.463205522641 707.7186675599321 0.08249613526377617
0.2833449389083835 64.4596049212676 707.7188749722173 0.08697902225367195
0.02062621094532282 64.52809661143758 707.7188556085165 0.1255276565697799
0.01444245987837372 64.49314043147078 707.7171016349539 0.08625935067489607
0.010392466275592475 64.67092777526801 707.7179320789966 0.06376269582486457
0.011153838299561191 64.71768852772969 707.719278064412 0.0736450459152361
0.01084138025567707 64.74503767830473 707.7194040519911 0.0930161856760565
0.012817181550841286 64.5459654880873 707.7182334492386 0.0866584796702866
0.019780862978545557 64.46565447798025 707.699930979094 0.11796070289424078
0.02605033015783944 64.45221028045967 707.7054860036437 0.12057258440746838
0.023966323904145465 64.45576243503795 707.6874337305208 0.10539356484664736
0.03353396993218588 64.44001947764141 707.7142560731021 0.09157653894169986
0.03227515215270941 64.44722403388441 707.6857758483609 0.10625599160275678
0.03627954519364804 64.43584155787265 707.703129799236 0.13356910922730103
0.03511572083256227 64.4371682290963 707.6897737587909 0.0992290530720592
0.042270373016054345 64.42822167048334 707.6969458664812 0.08288132529659573
0.046802289813455016 64.42309044349597 707.6862716615584 0.0877313442152046
0.054731272140012624 64.41603464588404 707.7132741935749 0.09621795254187965
0.05601491383217448 64.41468348297275 707.7016768655001 0.12841074278913006
0.05857154960433533 64.41528925190715 707.6857758483608 0.10514134428962242
0.06949920246979274 64.40494207110952 707.7054935579133 0.11052927917394521
0.06816663898590679 64.4054984889601 707.6867876195596 0.07980801980715702
0.07483186341501277 64.40372055140007 707.716380838038 0.08043347205542507
0.09059413623286641 64.39460094463773 707.7032138064128 0.11512589861917173
0.08648634191094005 64.39755958549242 707.7158725944128 0.09109106163081576
0.12019745781237734 64.44010725916374 707.7188660884804 0.07705814698711937
0.07824561129001079 64.4185695338407 707.7181472154665 0.10348173891236999
0.11512459689511426 64.42948825849527 707.7186387268548 0.13371506243574388
0.06569644066884756 64.42390320158385 707.7181385248244 0.09854013567501779
0.14148057225631933 64.44398783635732 707.7191073269777 1.5860494706233123e-06
0.13944647724479228 64.43134157257958 707.7188430760458 0.0772179861515502
0.0999617705881277 64.39925268858897 707.7178944030312 0.14482436156770923
0.1720768523531955 64.45164756471478 707.7194847441829 3.875548311644033e-06
0.11788624749071093 64.40898437736297 707.7182142891231 0.13076934249788155
0.12330820336313093 64.4203792064651 707.7185046569841 0.09137127422620901
0.13566969807960788 64.41822919509957 707.718522258779 0.14431715254334593
0.09637670005783669 64.40996021325208 707.7181203115811 0.15134840420615284
0.11076982135109421 64.41895233993125 707.7184041559852 0.16057407760044345
0.15724776574918303 64.43744425868586 707.719079159237 2.231344358586648e-06
0.13313460844401964 64.4056075703647 707.7181926707626 0.12118817180073949
0.1651634629350914 64.4198842956502 707.7186580035146 0.08530448252091281
0.14588819804595388 64.40965965557211 707.7183362250422 0.14676243650630094
0.1811801565659485 64.44114125061913 707.7192515757374 4.097167742968779e-06
0.1765271407333432 64.42300938451588 707.7187735053959 0.13255704295037468
0.15327796739968258 64.4259219499699 707.7187750836163 0.1313058346262456
0.11075434683692481 64.39347236248756 707.7177177427975 0.09682461713684846
0.13248624197161807 64.39257767930029 707.7178356852445 0.08361029858900028
0.1528239637647913 64.3995083308049 707.7180753747396 0.11298172097000342
0.11577512420995527 64.38823788060276 707.7077253040754 0.12729768277685338
0.1070646673845061 64.38972380928453 707.6954130954589 0.13211744837490427
0.12470422070159314 64.38700908794792 707.7002020476019 0.11841669951297482
0.14499311219784725 64.38568123196882 707.7061260220266 0.10717112461614571
0.1161140839623949 64.38952409389609 707.6857758483609 0.10076200015294473
0.09148125157200951 64.39539467821157 707.6857758483609 0.08692190717330645
0.08044750148532234 64.40104724236005 707.6857758483609 0.09694514983504143
0.13973747783953716 64.38823195340333 707.6857758483609 0.107666616433468
0.15899804972046497 64.3853330179247 707.702444470695 0.14229005543622825
0.168534179536051 64.38544253340665 707.7122505030993 0.10786250491841229
0.17506037303757566 64.38528248146662 707.701355591346 0.12860852352769797
0.15977856880565358 64.38516551844243 707.689865647634 0.11071160599029312
0.173049550778968 64.38509880969633 707.6870546128537 0.10489919639205879
0.18854851202538173 64.3851937603924 707.6940628609985 0.09486638284045142
0.198225660845253 64.38607628468412 707.6857758483609 0.09814479263623661
0.19894172801721305 64.38528602655536 707.7016692825194 0.10276095306433464
0.21085793170889902 64.3853679976131 707.699412899324 0.09091939348360481
0.218778570931518 64.38641214823267 707.6857758483609 0.08055991571876575
0.20683215411700864 64.38589658957565 707.7144587288169 0.13117070376295265
0.23460649984414383 64.38640967881395 707.6959092614475 0.09239613357289471
0.22962739763980197 64.38615612212348 707.7079750042337 0.11816309734503049
0.2443565992191075 64.38736818180944 707.6862567601519 0.1020614865923305
0.2516000311225889 64.38857196214177 707.6980126837796 0.11295433912742746
0.2600331157911516 64.39007735402659 707.6878707168274 0.09716742118280568
0.26818394062058015 64.39246828210123 707.7074827488273 0.0822899201443622
0.272403081740218 64.39468907242578 707.6857758483609 0.08060708189442127
0.28457574770851735 64.3989872968213 707.7141353656739 0.1086440605977642
0.2821121452515175 64.40123771739144 707.6857758483609 0.09895232295832686
0.2903119318807485 64.40158222190388 707.6960918613772 0.08688802680469103
0.29514259518239233 64.4047162878898 707.7074208301344 0.13691428976091533
0.3061408749376904 64.41229243558053 707.6944555678435 0.07706360914429046
0.30794077349296367 64.41394162551222 707.7135078130601 0.0624194405340375
0.31924101467188637 64.4279831324476 707.716870085122 0.13019630925962422
0.3194145103600055 64.42470334268683 707.6998872177056 0.04573467612277774
0.32132549758582263 64.42650180971879 707.6863415189126 0.1057706334931117
0.3270743056913464 64.43363825306444 707.6966330100627 0.04496707802961429
0.3324509821233631 64.44128834084694 707.7058681115957 0.09313801776246351
0.33764803663249565 64.44955178100773 707.6976771770653 0.09872730348367992
0.3449372064868298 64.46476471867861 707.6899178793149 0.07718039170188822
0.34132745820305865 64.45674943348668 707.7077990960212 0.1122792394289641
0.34838216857782006 64.47516133065105 707.7039387192743 0.13007777359062753
0.3499758502992929 64.48256939653832 707.68577583517 0.10046480006855525
0.3515185119724328 64.4884806506487 707.7071130799656 0.11482795053938641
0.3531823876482784 64.49849595444454 707.6975718029122 0.13060289264566557
0.3538775203136264 64.50551855792287 707.685775866206 0.10618578760202056
0.3543805240355765 64.51533052527195 707.6972781231991 0.11290298622965687
0.3541854950667571 64.5140970641817 707.712528407824 0.10661184174587322
0.35482099520126764 64.53014658915879 707.6898347996803 0.10866837486277911
0.355341851989585 64.65966623033857 707.6857755286044 0.11235375243423636
0.3515301200621413 64.51775645477765 707.6857744150747 0.13447884169302476
0.35523763276567577 64.72079444967574 707.6857753308027 0.12452446225689173
0.3550112998720805 64.55128801365936 707.6902784405275 0.10098921274080296
0.3553555101686736 64.60313605863732 707.7033784610758 0.11928350887372371
0.3557013043399666 64.63606280015568 707.6989029129446 0.11210342707956579
0.3562592857973294 64.71456600409203 707.7150347676414 0.11453256323428947
0.35513371410859507 64.58520165174758 707.709180924109 0.12792772592653873
0.355153621730996 64.57712252129976 707.6997419370559 0.12384040653861739
0.35528573351788445 64.58888169725113 707.6972767190308 0.08638767347116227
0.35608513387819984 64.68278670374497 707.703301108673 0.11566643670090952
0.35550750436882 64.61727894798537 707.7011073904996 0.09501224900337492
0.3564353707557739 64.7232400731238 707.7053066096671 0.1322385343317289
0.3557124348705575 64.65179819662332 707.7122670575815 0.11499110825075914
0.35470405385481046 64.5349196753754 707.7061177556028 0.1286387857494765
0.35616016662430494 64.70116732913523 707.7126721925948 0.10437852924412855
0.35499765919224846 64.56961596697457 707.708520641695 0.11397288017498125
0.35587046978898396 64.66583355496451 707.7092893775832 0.11825230993906963
0.35487063352915776 64.5481129436724 707.7015054566695 0.12085520891609716
0.35586176908233447 64.65496805764252 707.700163351773 0.11629945854002248
0.35502891212048504 64.56133387463551 707.6977536203304 0.11157766312629203
0.35623730031162515 64.6945323179036 707.6990821003233 0.10887362343160405
0.3572217904471999 64.7999265328261 707.6981501021643 0.14427352004261582
0.35686439715904783 64.77006954614555 707.7056318980267 0.11788774710115342
0.35570398945563353 64.62499507174498 707.6890091266661 0.09258707653085771
0.3563173178804314 64.70749047763773 707.702739673804 0.1354097535305081
0.3570215937568276 64.7834425740554 707.7025456697527 0.09576820840227869
0.35704472830514533 64.76953813088599 707.6885990792193 0.07735293438688969
0.357327270930885 64.8117193592025 707.6984758242685 0.1413739113315316
0.3551700940521547 64.56494272838121 707.6870525035617 0.12230846724351474
0.35633332993744526 64.69185717957487 707.6879783762446 0.11043019621307969
0.35529941197782683 64.57967327080003 707.6876836135496 0.10514328333051126
0.3574517569732678 64.81165372604771 707.686973788219 0.1193313372269542
0.3555426067227603 64.60638078415195 707.6880249505499 0.09874164074109557
0.35671054479677944 64.75631609485777 707.7080872531479 0.1425724437074546
0.3561270052898522 64.6716254837967 707.68975164894 0.10685236047689463
0.35734239470841844 64.82175976686428 707.705620030096 0.13783792775100445
0.3568597135401773 64.75739720915948 707.6952904796171 0.12040939470068515
0.35646107490602286 64.7052585744573 707.6876242801285 0.1019795772033963
0.3567000809200698 64.74566471991822 707.6999952284568 0.12605761470066676
0.35685200332314704 64.74613729540683 707.686427975464 0.10219858054512282
0.35394439349066575 64.52787465553193 707.7161573713084 0.06907993315431672
0.35622037326244516 64.74059515501011 707.7166778108287 0.09629528005635178
0.3558512108404584 64.68889245254934 707.7160099715155 0.07984419753996545
0.35546730408075156 64.64112963949387 707.7154409741794 0.10931375455171853
0.3567265824815615 64.83768743622636 707.7140012811128 0.09699513501587315
0.3568052321641172 64.81359589673636 707.7173139323465 0.11360977921956315
0.30795020393709466 64.84208747489018 707.6979984654072 0.16491458491308011
0.3237782378313553 64.84212810916654 707.6977108833584 0.1644385343660359
0.3385023558974141 64.84211695972658 707.7014088379228 0.17068927719193647
0.35740432786430876 64.8351328139789 707.7011939939885 0.16509994286030524
0.3575633140978647 64.83205608458658 707.6866596597454 0.14205111510741994
0.34095173651050814 64.83635822644467 707.6879830904429 0.25330719409572444
0.326328201237742 64.82183782298128 707.685831183127 0.2744930568439951
0.3216017255604458 64.83836663284455 707.7140123400679 0.10176830652879813
0.3554187052877124 64.78403542635222 707.7189487844134 0.08567746261417876
0.3540103951478757 64.79670612268752 707.7200266758227 0.08885126993217927
0.3283127816429302 64.44051064188729 707.7175051914103 0.12160339947671829
0.28479862825986385 64.44649184290795 707.7186431114235 0.13983603836980485
0.3122564778620565 64.43877503490869 707.7182568891348 0.11539065596361181
0.2478055477050815 64.45906856901686 707.719195798812 9.463434731687584e-07
0.28371075262789003 64.4238211521232 707.7182647570579 0.19308827024513714
0.28584798289117674 64.41066345949773 707.7180153742155 0.12099372898626783
0.23269846302268196 64.43838839382616 707.718935086465 1.923102092197057e-06
0.2716534590308367 64.4325121213227 707.7185157529373 0.15988552236019452
0.2421946475189457 64.43080874511068 707.7187244463536 0.1305947050372004
0.21888318380798044 64.45324092661626 707.7193278006239 1.9040987855511527e-06
0.264419449989146 64.44151882282651 707.7187524734655 0.06771883364137785
0.3047658598867913 64.426794434907 707.7181485727689 0.10099041824535926
0.2429689007175358 64.44496938247744 707.7189785405473 1.6404004795059007e-06
0.1890266990428276 64.46806071730236 707.7198598370995 6.721722754105021e-06
0.1961305056329071 64.45862315024826 707.7196049642466 5.691244817930594e-06
0.20931511066223246 64.46141002765371 707.7195725150766 2.4320976043669725e-06
0.2976289514942131 64.41134517710579 707.7177826907781 0.1072520538335654
0.15377385227273116 64.45934744873182 707.7195136238314 1.2193496612970085e-06
0.10880798819162561 64.44421928501448 707.7188675679425 1.1266607823401237e-06
0.1817579814596225 64.47670133569724 707.7200885407124 7.0848201599179375e-06
0.1280275721597438 64.4519638771148 707.719171543092 1.564432414220627e-06
0.08047295941115534 64.434104128529 707.7184477827564 0.07153542237852482
0.1611128068144487 64.473302634511 707.7198421599862 3.230989048572573e-06
0.06610316684997691 64.45525691207507 707.7186333028897 0.12103571220400024
0.0948520914725044 64.44220810410759 707.7187245703994 0.08211580388500282
0.09916582968611894 64.45744141082682 707.7189932371916 8.842926532726901e-07
0.12147544264286603 64.46368844607507 707.7193069000333 1.0815907066609041e-06
0.056102099734417876 64.43298225707086 707.7182038608772 0.11152221554963698
0.05192775400752085 64.44488330858088 707.7183390182148 0.14800744769238186
0.07478698025426428 64.44542137162475 707.7185734531722 0.08627499101853246
0.22301413413796464 64.42176381133235 707.7186347294625 0.07458014779213416
0.19490823626146858 64.43144282659308 707.718969359874 0.07438851939343955
0.19578628114441116 64.44319721063712 707.7192672839119 3.018239622773705e-06
0.243295090432171 64.39896413644283 707.7179887501034 0.11833992349998118
0.20638473321853362 64.41315379663851 707.7184660252015 0.0692111130183779
0.2108860554431135 64.42376133020814 707.7187233915868 0.06601091405988847
0.2056585618704812 64.43734873348812 707.7190871132664 1.8072980050201714e-06
0.2620205013708917 64.4181229397253 707.7183400262325 0.1395268212267262
0.2508528580459766 64.41924284425535 707.7184263117722 0.08100992477251058
0.27390660930209193 64.41185091701342 707.7181314837225 0.15014551826163694
0.22096348509622157 64.43288744037763 707.718901850943 3.834149089982036e-06
0.26233486501761794 64.40164050326999 707.717959666031 0.1026154346897975
0.2393964975722712 64.41327929356461 707.7183514327503 0.12042219112388064
0.16869786984193746 64.4083339198712 707.7183506966046 0.11540146531501538
0.19378770780735005 64.4049075376987 707.7182505776241 0.13214948455067424
0.1817547829318177 64.40083866608668 707.7181253219895 0.13983652058434515
0.189501592914662 64.4181828397572 707.7186445603992 0.07672018486872736
0.21656303169596275 64.4060054389877 707.7182447828593 0.10371582642817939
0.23182393187566958 64.39410901256174 707.7178768798287 0.07955287703949435
0.21774779746935485 64.39175951691881 707.7178388563647 0.10089387069407639
0.2044003440864949 64.40080875079968 707.7181222328287 0.12289926479224403
0.19673740043209526 64.38903288299412 707.7175703257934 0.10158569644764001
0.1840699021891037 64.38777145356458 707.7168877652018 0.08552083774990936
0.2730226695272865 64.39676502224482 707.7170053896597 0.08011830342621504
0.25534178109262873 64.38999259575435 707.7150936422087 0.08054447644680363
0.0418408796816724 64.42941043490526 707.7147850725996 0.10495614917766065
0.018704536397400717 64.46795013332245 707.6864286305739 0.09579789698313933
0.05960146001000279 64.82573439030888 707.6877416781417 0.27480823534327264
0.0035658288351157375 65.03663600807235 707.8901688155959 0.05977840895516167
0.002883746378117923 65.03758842143606 707.9617269183498 0.05403047339573254
0.0035299304452212936 65.03800635814979 707.9429105902543 0.05924930575623521
0.008261265372234943 65.03728206376196 707.6858067908573 0.11877613039133768
0.006833489683706451 65.03906940736451 707.8235415609109 0.06483632505787403
0.00922173614531146 65.03931677686248 707.7083148420373 0.08856888200256449
0.00815092230736485 65.03950191980034 707.7965447551484 0.06374606868534606
0.005558438204781018 65.0393605523063 707.925279740419 0.07637998245306876
0.006386214269106729 65.03988863716279 707.9741049790152 0.07183195063090152
0.045693689702178394 65.04006203344035 707.9495548837288 1.5071259919844008e-09
0.04621168656040816 65.04006864025726 707.8381592264877 -7.693506384689779e-10
0.10543927688809858 65.04006616816552 707.9993764962533 0.00010789015256286085
0.024631521778366687 65.0400697042034 707.7766404415396 0.06400532733156974
0.04250431522601869 65.04005709970471 708.027103394036 0.008618301775792255
0.1208890574857393 65.04006887961586 707.9843116500283 6.763384892333515e-10
0.11951032655428395 65.04007256568782 707.9188069223612 2.8800645787227527e-09
0.03769280674758588 65.0400692015609 707.8114695747191 0.013830928588257255
0.020945621419750378 65.04006681596987 707.8183788600536 0.05033963514978498
0.04035915993356977 65.04007174048046 707.7736249458331 0.0020247727086552176
0.05724105793826446 65.04006561014037 707.911914490355 1.450861455666936e-09
0.09738963367254332 65.04006714923784 707.9664869850842 -1.190572825323219e-09
0.1213693348046544 65.0400707777313 707.9529748506452 -2.3010256364729505e-09
0.06222491689498161 65.04006499956427 707.9323314010369 -8.000779408836399e-10
0.063484286331317 65.04007312105162 707.7966498150641 -4.254632182267556e-10
0.012685983101528577 65.04006013546358 707.9154549976619 0.0697025842883433
0.034517724712776435 65.04006034990795 707.955723663767 0.016833338063025477
0.06168553928431306 65.04006142793403 707.9920299156603 -2.8765722562908917e-10
0.14342511044877337 65.04006961263447 708.0171718326724 0.006863084196335481
0.036524190484733446 65.04006704816851 707.8457660804855 0.011465543691396345
0.02935617098131198 65.04006436700269 707.8769756694004 0.02683298845848675
0.03168997391512659 65.04007312010089 707.7327064557637 0.0379115713704132
0.019653498393176493 65.04005576115567 708.0039151931799 0.06676828863326077
0.08190740631709041 65.04007239088456 707.8461372821382 -4.987384310348457e-09
0.07916016772425245 65.04006539380802 707.9596900580497 -3.6363607068349478e-09
0.011166740968429161 65.04006607560744 707.8113068285579 0.06496607451385901
0.10996949832767815 65.04006950571595 707.9516898991271 -2.4706508295018674e-09
0.13200885545727511 65.0400703574722 707.9815301661139 5.897977508562333e-10
0.06436509450432527 65.04006920191193 707.8651193368654 2.2661918534692795e-10
0.01577274438082455 65.04006286658553 707.8751851050262 0.05318478340298407
0.07353790195778659 65.04006613282003 707.935803107895 -1.5168025404553868e-09
0.021595683075414086 65.04007145389282 707.740756369515 0.05585383224317345
0.08716944221640661 65.04006952838111 707.9054380742385 2.115478314512921e-12
0.02205698369984893 65.04006290048841 707.8872499219564 0.046706974432775245
0.0205012665449484 65.04005902129128 707.9501382085666 0.051572292808046816
0.031198511067206124 65.04005851885898 707.9802081044866 0.0237536001951645
0.05366352590763879 65.04006583447776 707.9008998192328 -6.13516993526487e-10
0.023297114304448627 65.04006602949099 707.8364939193789 0.07045054504734316
0.10526567459662114 65.04006730188233 707.9797331789807 -2.0461448701426712e-10
0.013979901736937118 65.04006386577929 707.8545737889002 0.04930079695597906
0.0426700979499864 65.04007120809597 707.7873341329614 0.005826228661212741
0.14359375634843893 65.0400722990315 707.9717928147104 2.606220215085246e-09
0.06772341393116763 65.04006721287467 707.9057254582381 -1.7932387669087187e-09
0.1350298926449772 65.0400722424964 707.9555273197115 -3.3396733433086016e-09
0.07741073956789887 65.04007114963767 707.8582155717784 9.604829097556534e-10
0.11197946592389284 65.04007220306069 707.9098286924047 -1.6535311229716786e-09
0.07622239150599555 65.04006305231758 707.9936287398879 1.7590306859308782e-09
0.13684187431593264 65.04006974184358 708.0017296228948 0.005294917075808703
0.13207056872385906 65.04006761219847 708.0283745790912 0.008046116346364941
0.030516024878411374 65.04005582241231 708.0247244765753 0.036752724261491
0.07575891577621306 65.04007020086891 707.871039214594 -1.2742676563547944e-10
0.09795731288180108 65.04006434366241 708.0153754736134 0.003985182194654884
0.0823372002299689 65.04006446327543 707.9819173964069 2.7476260646105312e-09
0.11067246756875676 65.04006613677507 708.010438144772 0.0030266865748593986
0.0814868162037175 65.0400675633881 707.9274476371521 -4.274233223633592e-09
0.09297259358182822 65.04006858760769 707.9331225694355 -1.4383874137679281e-09
0.011569403837077268 65.04006832979682 707.7737540732948 0.0696314571131569
0.09137402531796152 65.04006700517834 707.9568372575568 -2.601770893126508e-09
0.12536743073140805 65.04007197601051 707.9406248460896 1.6739051165911858e-09
0.02476895032332154 65.04006887465974 707.7910344379816 0.040459895151255885
0.020136994487293912 65.04006035706377 707.9266726556656 0.05398670542691603
0.1522746505679422 65.04007279149839 707.9808748583501 -2.791201085461607e-09
0.028381791934636247 65.04006555420098 707.8548112853052 0.04547870570844548
0.08696426420050185 65.04007171160686 707.8678702358511 1.6481390395562303e-09
0.01588508834584569 65.04005774083737 707.9626433232638 0.06322208009586347
0.08852846200975438 65.04007059667751 707.8899912337581 1.762721880642574e-11
0.0185448333144543 65.04006150356506 707.9039580997234 0.05944046702734743
0.052558971427732006 65.04005961926161 708.0044510854573 0.003685303477348847
0.05811918419899961 65.04006991108682 707.840485603405 -1.0016828173676625e-09
0.04257727072591659 65.0400626470618 707.9328428118163 2.1101900720687577e-05
0.03633095970661525 65.04006571438293 707.8680763100346 0.02032522763085728
0.023899927327874475 65.04006434332844 707.8664024279203 0.03623886710738381
0.05024862485436318 65.04006152205339 707.967420898815 2.00939738978747e-09
0.04812474733736747 65.040066549807 707.8775838609307 1.5590962763293377e-09
0.024027805757089904 65.04006014764339 707.938063675941 0.0417930179910633
0.03739662059980421 65.0400722219845 707.7594708600349 0.017377317183978936
0.01526922513499888 65.0400565216205 707.982153576918 0.06833489376696082
0.10994965886146622 65.04007288378386 707.8941605543937 5.653949751736918e-10
0.06305741954830228 65.04006981402765 707.8520714793566 2.074989766540072e-09
0.0207708661981539 65.04005511507901 708.0171581785502 0.05543513829440288
0.025829640016467578 65.04007050856356 707.7653617030337 0.06942431635750809
0.03523855690600119 65.04006264649337 707.9180894439884 0.01807964935952944
0.041495415957748735 65.04005815186639 708.0071676787488 0.004853055573641368
0.03416409557424237 65.04006336514797 707.903697609126 0.022840513682119958
0.09757586626490805 65.04006974810092 707.9226330367198 -1.7960579227260969e-09
0.07802888469716275 65.04006890398065 707.8976766445289 -2.3458346135048247e-09
0.03568657717021312 65.0400679626519 707.8285180048424 0.012591181825392714
0.08575970793870816 65.04006342538032 708.0064656907542 0.004668326476838518
0.02742404088990895 65.04005742124629 707.9912947829542 0.029402042274206723
0.06816698276841697 65.04006356574935 707.9686861413616 2.0292804035021798e-10
0.04738413746665501 65.04006040645419 707.9806442606454 -9.258610680133475e-10
0.05310359595520128 65.04007083224347 707.8147192685849 -1.7942621746826086e-09
0.15778054028179436 65.04007250021974 707.9969079771082 -1.841057249765481e-09
0.1163371461919513 65.04006913343306 707.9708351528222 -1.517411139686509e-10
0.06593341225610143 65.0400645282628 707.947812469444 1.8577682835733186e-09
0.11829773831065349 65.0400664773705 708.0199812416303 0.0060030081248888135
0.09349960428736684 65.04006594741175 707.9791147461176 -2.0377116635904564e-09
0.04340832260772363 65.04006517478174 707.8914967692078 -2.8254802015128948e-14
0.07316929809288954 65.04006124798042 708.018193932559 0.004594641478022222
0.12055607784313546 65.04006789453956 708.0004062646341 9.521751173780893e-05
0.05473015749868147 65.04006668620201 707.8885505105786 -1.1219850894477807e-09
0.07662567049589435 65.04006958366728 707.8832866424013 -1.4676196024484708e-09
0.021314522848646194 65.04007232431256 707.7253775860071 0.056887323053315196
0.09524069694054385 65.04007209433414 707.8780062349549 7.090565502007628e-11
0.04211740904418283 65.04007042849925 707.7994898245671 1.3323446979701669e-05
0.016391752638226564 65.04007333352742 707.6982993572474 0.09665162547147507
0.03817667898706935 65.04006002729713 707.9685745893646 0.00026375011368546695
0.053214862178570466 65.04005862985446 708.0226086813748 0.008404210821759628
0.07291679076686423 65.0400672167493 707.916106857932 -4.150499453938615e-10
0.15435926408215764 65.04007066546741 708.0212501277831 0.007013515728001767
0.0529260613650086 65.04006793427534 707.8636810148395 2.0888386251532383e-10
0.16719490012698973 65.04007207785064 708.0230345867791 0.005753729990683821
0.1269626387441485 65.04007081906386 707.9635232947721 -2.2447604967330487e-09
0.10633867909665197 65.04007029601092 707.9309363183005 -1.1153967079755525e-09
0.14320023260186618 65.04007121444796 707.9894590921135 1.7409569820813437e-09
0.04135395347609897 65.04005908600104 707.99098559253 1.3593991780381923e-06
0.0797250256273406 65.04006616040985 707.9477799990619 2.827856266838986e-10
0.14757957962146284 65.04007084967961 708.0044766629642 0.0056039764514412595
0.006915359351959069 65.04005451262296 707.9995383857607 0.06872666782377182
0.05444917334077906 65.04006360291544 707.9404579810513 -1.9774345400346417e-09
0.06682445001949916 65.04007156224823 707.829897505587 1.947700634295437e-09
0.06528817555204511 65.04006854994506 707.8780717243526 1.289277232333608e-09
0.08382380311862997 65.04006647772215 708.0300295973179 0.004922084196405666
0.21128889808198653 65.04007347022066 707.7653891415787 2.2670997435619165e-09
0.21257699853421813 65.04007346294132 707.7927131492787 -4.73344537546975e-14
0.1589431499205447 65.04007341751446 707.9632287815718 -4.702287944431697e-09
0.171318186077188 65.04007344506061 707.859830672046 -3.268263913411624e-09
0.23233178379868838 65.04007347675945 707.7408450086172 3.3150984383512193e-09
0.12568557602513797 65.04007348178959 707.7219632592405 4.85960734948071e-09
0.2008305232179803 65.04007346507983 707.7846859066906 -5.051679227828781e-14
0.1967532392186434 65.04007341239173 707.9824578148824 1.4984819607138344e-09
0.16946813128490104 65.04007346595326 707.7814072694161 3.364351322683799e-09
0.18125137046102854 65.04007343111668 707.9121711032928 -3.607364750712547e-14
0.1483017719568248 65.04007343170714 707.9099545845949 -3.478841779290017e-09
0.2861810602312425 65.04007348681756 707.7030907316052 0.07314438034618578
0.271800415800335 65.04007348550267 707.7080262976534 0.03896248161059938
0.09831004476495092 65.0400734561257 707.8182960705863 -2.309705845999982e-09
0.265065946769056 65.04007345920303 707.8067455177046 -1.1786371740366048e-09
0.15778253880179557 65.04007344417407 707.8631583736167 -3.0125156853806313e-09
0.23774146756947004 65.0400734707746 707.763309996059 2.1475270792693896e-09
0.1611513086994264 65.04007342075214 707.951075819979 -1.6393370967655782e-09
0.14875883617919822 65.04007347089734 707.7628488695998 -1.1432526827281228e-09
0.199764530795892 65.04007346178646 707.7970480115985 -4.548399307456105e-14
0.19741584143041818 65.0400734279315 707.9241271908235 -8.867553154133586e-13
0.1700664395604295 65.0400734383461 707.8850344830155 -1.1647623920910581e-09
0.13539930759027255 65.04007346061096 707.8014602061655 1.0910351816002862e-09
0.18097381644833446 65.04007346690014 707.7778530745826 -3.055723090733739e-14
0.09271907995179529 65.0400734625355 707.7942359205304 -1.3125207714319971e-09
0.2786281122059392 65.04007347175246 707.7596395757182 4.274491816362086e-09
0.11214410780732224 65.04007347990539 707.7290358318457 -3.2283202491142193e-14
0.07398627386168151 65.0400734664666 707.7794799980547 1.7175111207155725e-09
0.06917640975411286 65.0400734709053 707.7628186917267 -1.2850340703620584e-09
0.1829096894621039 65.04007348251184 707.7192524609798 0.007977437809254017
0.15758267339643722 65.04007342906618 707.9198677939224 -2.169828679927256e-09
0.2781226560553357 65.0400734561162 707.8183324368089 -1.5733164734357874e-09
0.12348551031180725 65.04007344901697 707.8449797196309 -1.0563636945343338e-09
0.16694591032796308 65.04007346247182 707.7944752878581 1.1334763091014089e-09
0.062449283194748836 65.04007347560096 707.7451928641767 1.0716736411569113e-09
0.1922982760922629 65.04007341712052 707.9647076876762 -5.007564583553267e-11
0.2508159468202797 65.0400734371809 707.8894086150922 -1.6671256180681397e-09
0.24742373591170166 65.04007344114841 707.8745159121565 1.8757210461328476e-09
0.18947795896513547 65.04007347566827 707.7449407693156 -2.2610437055878294e-09
0.16789672411140452 65.04007345830517 707.8101153784373 2.3482550551671946e-09
0.22814526343220073 65.0400734678041 707.7744600554772 -4.159391352239333e-14
0.08295769007893947 65.04007346959041 707.7677543601045 -3.457368934082897e-09
0.13777272749527203 65.04007347001509 707.7661605393117 -2.18885408614949e-09
0.28913363203969145 65.04007347916398 707.7318195769234 -2.165329977195042e-09
0.2124639560662285 65.04007348459534 707.7114318484666 0.023322199009927852
0.06464594824532992 65.04007348205596 707.7209631383603 1.0392960243880868e-09
0.13222170781905518 65.04007342728326 707.9265601962261 2.1387372337124758e-09
0.041650950916946 65.04007349075728 707.6883014578403 0.10100649427711453
0.23442536864969468 65.04007345727379 707.8139870821619 1.2120886320677538e-09
0.1209015993709824 65.0400734437619 707.8647053422728 -1.3050271557245978e-09
0.051166318877093275 65.04007348847995 707.6968497815109 0.09680127331500243
0.30074677737320415 65.04007348245578 707.7194633617534 0.002017956793237322
0.2985281575984248 65.04007347556477 707.7453297246439 9.40031819305345e-10
0.32380353077902674 65.0400734819791 707.7212526956007 0.007602269946320272
0.14853398032090373 65.04007348863226 707.696278492276 0.09570137926179698
0.17369946202179468 65.04007342558195 707.9329464461318 -1.0927589545758394e-09
0.162960643723597 65.04007348167207 707.7224045112705 -3.764868799592887e-14
0.023188892762796634 65.04007348538173 707.7084792640237 0.08021792340049626
0.15037432718104074 65.04007348216504 707.7205540729867 -1.0694306150812277e-09
0.11912837741413493 65.04007345569005 707.8199314359244 -2.150820941747003e-09
0.20089257554039133 65.0400734764594 707.7419711542984 -3.669511297364788e-14
0.15409746435757057 65.04007345275384 707.8309529658778 -9.032395303842738e-10
0.30698243720064095 65.04007347234409 707.7574189725541 2.635905202372632e-09
0.20531268845206202 65.04007347358176 707.7527728183285 -1.2117695109062725e-09
0.3040226034496434 65.04007346577379 707.7820814387442 2.2946479726108343e-09
0.10597108094980434 65.04007348971875 707.692199997864 0.11376689704922616
0.13096542104158754 65.04007344215256 707.8707461876254 -4.3598794061946566e-11
0.09341632665834831 65.04007348943179 707.6932770773512 0.09752992818026149
0.1709426622087003 65.04007342239396 707.9449129833731 1.1184756954276129e-09
0.2854846468260512 65.04007346939893 707.7684739348769 2.4223852623386533e-09
0.12717124477292963 65.04007345207908 707.8334856768802 -3.813097494691087e-14
0.1765293675780495 65.04007346064931 707.8013163696997 2.060874689691379e-09
0.11904639032788587 65.04007346681938 707.7781559597688 -2.289854718248839e-09
0.3163707626962977 65.04007347950495 707.7305397437566 -1.0577063520991614e-09
0.20471074046695478 65.04007342230537 707.9452456900832 7.600014453165726e-10
0.19233378891908726 65.04007348474595 707.7108664487039 0.020004118933962336
0.1747959320529746 65.04007341767938 707.9626098219234 -1.224953439065876e-09
0.1683564806803109 65.04007341196076 707.9840753883376 -2.0541823910761592e-09
0.13846210540612283 65.04007343350601 707.9032022669019 -2.344158360041859e-09
0.13587728164210816 65.0400734654958 707.7831243021747 -3.4866786968703144e-09
0.1098499029206941 65.04007347258965 707.7564963762712 3.0867855040235815e-09
0.22563333080796932 65.04007342933103 707.9188740201406 -1.5367107089739267e-09
0.25537091798225 65.04007345477173 707.8233790176656 9.315119103939866e-10
0.1222000358937565 65.04007345875756 707.8084170508491 -3.2356023524729243e-14
0.22250536703039933 65.04007345081924 707.8382151023267 -5.186748362729968e-14
0.07812221091539545 65.04007345654558 707.8167198516823 -3.5349081311496033e-10
0.19748573240464168 65.04007344593647 707.8565431064494 -1.0685323991297429e-09
0.17096589493144912 65.04007342878397 707.9209272147993 -2.9816741562705445e-14
0.29586762448768095 65.04007348900186 707.6948917732291 0.07678663514747706
0.16180794464185844 65.04007348568865 707.7073277753202 0.04600132842571619
0.31448728724642794 65.040073489135 707.6943920320969 0.10381201783825333
0.07512175639251516 65.04007345992875 707.8040207096411 -2.474792660521926e-09
0.3162497508675524 65.04007348592512 707.7064407802569 0.046709197778065065
0.2676588992599261 65.04007345126944 707.8365253835543 -1.945113838929696e-11
0.03686253460687203 65.04007348635409 707.7048294059482 0.08118588576300795
0.32645243107347366 65.0400734874374 707.7007642885668 0.07307568702027081
0.2840287682504011 65.04007349047716 707.6893539361331 0.10701996449437184
0.1107993323183346 65.04007348682701 707.7030545370769 0.06400691276286784
0.12034631361698755 65.04007343452878 707.8993631096259 -4.009265215433457e-10
0.22682904948133076 65.04007344356533 707.8654436007034 -2.956410614808374e-09
0.24271042028395381 65.04007349036746 707.6897655304952 0.09208578434863061
0.2594404540067796 65.04007344714822 707.8519949242303 6.307845434680753e-10
0.30033952850452167 65.04007346893309 707.7702225806524 1.7589825026219572e-09
0.1850426236221659 65.04007342001313 707.9538498363708 -4.9903062395096254e-12
0.17453750266657023 65.04007347250906 707.7567991557108 2.05823198363749e-09
0.13053313763773525 65.04007344548202 707.8582486249616 -4.901025513800236e-09
0.24025848262648614 65.04007346377492 707.7895842220626 2.2367239737342595e-09
0.1583364364598423 65.04007347458136 707.7490204672513 -2.434049117735539e-14
0.0769223181299667 65.04007348028901 707.7275957256902 1.2165509218404685e-09
0.16792496172816726 65.04007345441471 707.8247187555356 -1.141273150316647e-09
0.2471625601665336 65.04007344818729 707.8480945472484 -8.556665382571174e-11
0.29868875877145246 65.04007346278654 707.7932945415643 1.3290493385533426e-09
0.12968742905061342 65.04007343097008 707.9127211842281 2.2542618847936118e-10
0.0641792607395845 65.04007347904765 707.732255262491 9.979002791951213e-10
0.30076530907070187 65.04007347884786 707.7330062001362 -1.1029241134397688e-09
0.07844361041164553 65.04007346319972 707.7917426760131 3.818366459982367e-10
0.04116168885865727 65.04007347551239 707.7455252170923 0.005374369333912228
0.1888306437407984 65.04007344247044 707.8695532371358 -1.9071397791976174e-09
0.24995179951123414 65.04007348740257 707.7008946647078 0.053740109443696886
0.1895940073416374 65.04007346346752 707.7907378554326 1.2057418825067038e-09
0.19047083866770045 65.04007343450284 707.8994607371426 -2.7820288947727224e-14
0.2507156259125867 65.04007348126791 707.7239219642942 3.2741010605836846e-07
0.3441416128326022 65.04007348967168 707.692377643484 0.145691675989028
0.21236751637952472 65.04007343758997 707.8878729119406 -1.8428426281938126e-09
0.15043168649199404 65.04007345742096 707.8134342741477 -2.9168280598080516e-14
0.14035285381899523 65.04007347925695 707.7314699328351 -3.049304995835508e-14
0.14938637315355807 65.04007344170128 707.872440271684 -2.1151141096007543e-09
0.20787098345859828 65.04007341531377 707.9714896342097 -5.52016825790764e-10
0.2717594979709225 65.0400734807759 707.7257688891913 -4.2145197243741286e-14
0.23892338875658461 65.04007346042748 707.8021492828799 -4.445922573996164e-14
0.2300122658859432 65.04007348963476 707.6925157691746 0.061556686741989684
0.30354789892516343 65.04007348602302 707.7060732264882 0.049498354065989215
0.3208893082214776 65.04007347613519 707.7431885936466 3.183689009950412e-09
0.20505864140192706 65.04007343177038 707.909717473532 -3.1495997060428156e-09
0.14721571602390968 65.04007348541491 707.7083552191555 0.049423466175351996
0.182138913445148 65.0400734460468 707.8561288428621 1.122588240116506e-09
0.16546661260401607 65.04007345047131 707.839520803569 9.869132318464598e-10
0.2057340185231656 65.04007348777375 707.6995012117819 0.043108256710998556
0.2087095301796312 65.04007345155308 707.835460415261 1.0787788329690881e-09
0.1866652591262914 65.04007347902854 707.7323275003896 -3.0313346641687126e-09
0.17902707209317925 65.04007340338009 708.0162841531503 0.00497990255377415
0.13607083232830788 65.04007348988591 707.6915726438344 0.13863399478109276
0.2884227265273402 65.04007347438939 707.7497415643913 -1.4354065083729025e-12
0.08727734123448118 65.04007345966335 707.8050169968399 2.1182538805788772e-09
0.18817442822342345 65.04007345831874 707.8100645579541 -2.980525177401022e-14
0.24086055616760807 65.0400734852666 707.7089123211806 0.03864412297035239
0.2628585992453238 65.04007348295532 707.7175881191157 0.018043968365475244
0.14710511730156894 65.0400734486695 707.8462840791858 -3.830319616925954e-14
0.23190821008293072 65.04007345363141 707.8276592314498 -9.714511474114168e-10
0.09296189375387526 65.040073450437 707.8396493102694 2.4248440575062034e-10
0.3379952800788739 65.04007348637691 707.7047449753583 0.07859258997523369
0.1962132865425786 65.04007346882844 707.7706149849577 -3.3745742861751525e-14
0.2114861944048788 65.04007343435444 707.9000178816434 -1.1297727853867194e-09
0.10877469893758127 65.04007345976305 707.8046427858351 -1.1663256011619035e-09
0.222105599977136 65.04007348734049 707.701127544178 0.05110766523175279
0.21966592322330677 65.04007347614719 707.7431431797258 4.5292493534168735e-09
0.2896390298718632 65.04007346624444 707.78031482131 -1.3761408239602983e-09
0.20996563688683392 65.04007345555195 707.8204501790722 -1.075669693433519e-09
0.22207590305848923 65.04007344770243 707.8499144548028 -1.982827456677195e-09
0.14979407289085936 65.04007341991576 707.9542151491272 -6.035866096553586e-10
0.14244713573426013 65.0400734284114 707.9223256029687 5.618485445002643e-10
0.2478247307812844 65.04007344443406 707.8621828382556 -2.4786206396657416e-10
0.10873169216289696 65.04007348367955 707.7148689545278 0.028072580235326095
0.19177818499236782 65.04007343861424 707.8840280562451 -1.0839187209332769e-09
0.19718212101485483 65.04007340910334 707.9948012467542 -3.9008072063706283e-10
0.1394464974751325 65.04007345470443 707.8236311545212 -3.3862690017592103e-09
0.14380214884015455 65.04007344461942 707.8614865833749 -1.131994582695218e-09
0.22051833372194568 65.04007347968609 707.7298594475666 1.03000413455928e-09
0.15260659184386077 65.04007346301864 707.7924226698259 -2.1452273081954993e-14
0.25840240261800584 65.0400734787519 707.7333661323814 2.1939081828912354e-09
0.24875548154256805 65.0400734749991 707.7474528181498 3.0822981895938965e-09
0.23183258473382168 65.04007343743133 707.8884684430951 -4.279085391317157e-11
0.14460767675803857 65.04007347417884 707.7505312995005 -1.0982746593594488e-09
0.09847499223828034 65.04007344525785 707.8590900040642 -2.7470356451177727e-09
0.10679469931936439 65.04007346598625 707.7812831215472 -3.317226881566471e-14
0.10478346393858162 65.04007347548561 707.7456259976714 1.0420220498607664e-09
0.1665953008663822 65.04007346894267 707.7701861083087 1.0957522611412981e-09
0.04485344833656158 65.04007348120831 707.7241448440047 0.001657941656568815
0.12368380952666941 65.04007347614822 707.7431389247504 1.1597453000847893e-09
0.11242436500488596 65.04007346307044 707.792228060167 -1.1953055614203354e-09
0.17612861816026384 65.04007347793095 707.7364473991756 -2.153705959935768e-09
0.17106261890584393 65.04007343509993 707.8972194393203 -3.5519511097668644e-14
0.06375425943688942 65.04007348964151 707.6924897526026 0.07369005403737812
0.03020937898117524 65.04007349026281 707.6901574737325 0.11890149275871816
0.21843758662266347 65.04007342323833 707.9417436973715 1.2753585839826959e-09
0.18378546631509485 65.04007347036011 707.7648656108101 -3.640894795310158e-14
0.15820923111305799 65.040073435697 707.8949782237797 -1.0648341819712075e-09
0.09906193586732231 65.04007348092523 707.7252076603097 2.411236255990111e-09
0.08756203950197222 65.04007347894722 707.7326322928533 -2.236215891304889e-09
0.14814695847468123 65.04007346638592 707.7797831428289 -2.6548479793927608e-14
0.2395417411563397 65.04007348195788 707.7213320150536 0.0030882079683417925
0.1390974857280899 65.04007343704481 707.8899189280586 -4.4730290801011755e-11
0.2104577860895959 65.04007348125778 707.7239598375527 -4.646007826724421e-09
0.25035769681777303 65.04007346171407 707.7973199612525 -1.1833815536137136e-09
0.24604101611919715 65.04007345214895 707.8332239160285 -6.547351269603407e-12
0.18623542040289207 65.04007345110107 707.8371570553174 -1.0307263969319998e-09
0.2670983329723524 65.04007347666564 707.7411972878007 2.334465631293654e-09
0.24173831067642393 65.04007346795476 707.7738946426257 2.2171362710579274e-09
0.17031904078538362 65.04007349066241 707.6886581334379 0.11734339082210354
0.22252196332580942 65.04007347112235 707.7620046019568 1.1312583250969838e-09
0.11319371330632505 65.0400734411379 707.8745548412223 -3.038285364855848e-10
0.11139708679552486 65.04007344774436 707.8497565477743 -2.9398496459482403e-10
0.13176069637676469 65.0400734733841 707.7535144258746 -3.958947702126092e-14
0.2639156491850095 65.04007347277945 707.755784623208 2.0909504942671055e-09
0.18092645792215428 65.04007341038155 707.9900032694795 -2.5946194932444707e-09
0.2566313983467097 65.04007346804346 707.7735617786722 4.568494619023196e-09
0.1596233650361899 65.04007342440815 707.9373524346325 1.1403162465957155e-09
0.3331537420402636 65.04007349046572 707.689397140606 0.12102712695938586
