x y z curv
3.2879287565694346 0.41805760318136653 500.1817028168888 0.010355023336812475
3.2885424859691206 0.44755600349286373 500.182013292296 0.011320844845039493
3.0383865975879907 0.5223885730452464 500.1621409882034 0.06793009754384714
3.042890212769883 0.5339271774180233 500.1572393587385 0.0724272966192792
3.0413975828366526 0.5088823855554258 500.1598256665886 0.05439972208358611
3.100425202342237 0.5350285995539933 500.1633155017518 0.08304876938323737
3.054917060822969 0.5350286208243265 500.1619862643177 0.07734603130023221
3.12646133065548 0.5350286257467016 500.1610873997815 0.07576699263633584
3.2260599039017492 0.5350286070058644 500.16182992305096 0.11517069569795348
3.248495558798507 0.5350287030111558 500.15881811314387 0.06534539525386196
3.277185120920495 0.5315688108763971 500.16174612645796 0.05976769300570913
3.2748279078455544 0.5081817021979798 500.1605163149198 0.04172102242226647
3.049755313848844 0.5158538654861506 500.1530234351155 0.0758162028787744
3.0722342671831355 0.5350286968116772 500.1544936618732 0.06712414665927678
3.20478521320911 0.5350287506849041 500.15602521607946 0.09123891519017541
3.233915575178175 0.535028341449272 500.1526002220978 0.09262546667743832
3.0912993284366466 0.5350286361107529 500.15102712572786 0.05701017996352146
3.14186479526576 0.535028506931312 500.1510219801889 0.061122767780906265
3.262891964849014 0.5214071456649307 500.1512042622752 0.0545440320583074
3.16895210775061 0.535027921329156 500.1501701991764 0.08766366825722324
3.261162982517471 0.4238870628204108 500.1548086619331 0.017975775708744427
3.256122502389797 0.33875160203920357 500.1581827928889 0.017149305149792703
3.2562285327550864 0.4035447066950312 500.1554401229447 0.018635104236861842
3.2457170447797212 0.4480866719121063 500.1535531739194 0.007807410627985201
3.248142776761371 0.43292633377420564 500.1541952537979 0.010081313967216319
3.2574957189658913 0.4622293209546373 500.15295618960084 0.015551608171927129
3.2654375547429644 0.21968582539552212 500.16790202523515 0.013259506837538682
3.24597123021595 0.18729465929864242 500.1679882653185 0.009311116113188706
3.2276933310346987 0.18379708980828877 500.1648748928297 0.01805895590903302
3.2179068938272497 0.17647348207569222 500.1659521000172 0.014610901164263815
3.160885989249127 0.17405581837884143 500.1661703500806 0.021159559619988343
3.1795075763771923 0.17459668371676995 500.16596780461714 0.015289631673443663
3.19114153431334 0.17566810029691185 500.1654994886818 0.01881826140620324
3.137800036693522 0.16987008143084031 500.1693809159881 0.015191393979529065
3.1727243563172802 0.16619044011016726 500.17245388216566 0.022398844110879453
3.148109951282222 0.17836918078302805 500.1649903748015 0.015838582658145806
3.143111901614536 0.18870484048908434 500.16453027099567 0.01020825191326855
3.1308868846163174 0.19198546956841742 500.16439144911885 0.011282230634346071
3.1174660082666623 0.1916621354659255 500.1644054683824 0.009046414881698425
3.108586496206962 0.17843821936523435 500.16496629304885 0.008790085811827266
3.161656070622249 0.18526921161494186 500.1646754504508 0.020751401843300547
3.2074431537017087 0.18531285438373424 500.16467167964464 0.01988387743009597
3.105137583839919 0.1928334773764259 500.16467356175366 0.009100187281366736
3.0837941240531164 0.19953749675237906 500.1640735018534 0.013792851372052287
3.068070840180408 0.22321263060641372 500.1630719966618 0.011543480401958198
3.075375355970204 0.23668534379159079 500.16551153117524 0.00591614726771989
3.0799220763754303 0.21533392608002214 500.1656735481202 0.00851609299514139
3.0743873803441213 0.3189732636467314 500.1615320778827 0.009153625024432845
3.0748255904124897 0.25005092442043414 500.1641561711534 0.005195222134725376
3.074521454664324 0.3377207263713817 500.1616721817859 0.00991637254843409
3.074030861620979 0.39097468926793133 500.1594120638158 0.01033426882789252
3.0734433127869454 0.3569252973649355 500.1590001628621 0.011029913824915171
3.072258352801246 0.37980311013695744 500.1570290663175 0.00971896291171332
3.0722298522102562 0.43478004883551385 500.15490147811647 0.009195109229237185
3.072936016028681 0.40353563119786406 500.15680224607763 0.011840802977509918
3.072556402409634 0.41652623775018194 500.1558345763265 0.012052043783235367
3.212044293559975 0.45124285774752865 500.1539864955852 0.000500877876288931
3.085196640966962 0.45136879879743114 500.15402817169206 0.0005686517948851335
3.1240720622770564 0.4501920452126203 500.1550733332585 0.001067574330382097
3.1052426313075627 0.4496211199115894 500.15666103594015 0.00020626674336103552
3.1853031368698965 0.4497977560126254 500.1559093159081 3.087406440321076e-05
3.1716042161050613 0.4531085103308966 500.1533734637642 0.0009821174979239577
3.1989237590820743 0.4530856400380531 500.15337799483655 0.0008240950211731819
3.0611305923529333 0.4721190434342433 500.15253551670406 0.008248410629302002
3.057481799320296 0.28565171924872756 500.16042817437045 0.016714283032126052
3.05980636487349 0.35596585543657155 500.1574522331882 0.013810226394383897
3.06610567162595 0.44502522940853045 500.1536838687614 0.015404288186938318
3.061792027964419 0.3887403450514231 500.15606535472875 0.01723105075742735
3.0563670753005523 0.4592977723312259 500.15307694069855 0.014749866759794616
3.0612885559891247 0.3694404058011831 500.1568822336859 0.013504531374302119
3.0621459525056025 0.3300876647560074 500.1585483852961 0.014704322587375602
3.0632379850581435 0.3433898704060815 500.1579855721901 0.008711666514792785
3.0627216965624853 0.3149067671292475 500.15919119645923 0.01153867943351738
3.0624851027278366 0.4085096780445373 500.15522865820896 0.013077277990001445
3.0597783095703095 0.20935278019626244 500.16455197076107 0.011415636043699906
3.0479942896748664 0.22168072073071282 500.16910097342844 0.02083558244220436
3.0620588317399475 0.19442737052921183 500.1683878218871 0.01694912325740195
3.0743642744810664 0.18652776081113256 500.1657736839164 0.014252235682675874
3.0630332646219767 0.1822634036277506 500.17508458942325 0.017713093493020436
3.075087062364315 0.17589395493160193 500.17336052630156 0.011187927928611178
3.049957884736255 0.19813951154038983 500.1745312308883 0.017944413913794664
3.060873787502784 0.17317459215792014 500.1834824383683 0.010462079178060002
3.0591529116392904 0.1656068732552271 500.1924947475276 0.005462098818937187
3.06934886413786 0.16537933939701757 500.18592040802275 0.004740671798207678
3.0808204218293325 0.16371637736757785 500.1823433136192 0.004471004368308286
3.077644796477466 0.15557429972216527 500.19244952760187 0.003064793019786678
3.0893865431229397 0.17721217915812018 500.16652266546697 0.015629403948378705
3.0918252746474106 0.15894378797034892 500.18383075136137 0.002865877582759277
3.082190149895721 0.1423199981643147 500.2070405457272 0.002485293508821486
3.087558064380307 0.14869411619184222 500.19685208336534 0.0019160514757455302
3.106987761368936 0.15417442123877312 500.18611087021884 0.0013466056910437665
3.1063584856885207 0.1450146755393301 500.19704928188065 0.0010294127823278882
3.1148126158159664 0.16242277482647977 500.1766257500703 0.012024436506103516
3.135133325250024 0.15050118423576042 500.188098638853 0.0025867372535112792
3.124783991155533 0.14628322512813308 500.1936677152232 0.001249793151180874
3.1302458427207207 0.1620782713742143 500.1763065132192 0.01046979788225153
3.1453818088347756 0.16053670743368814 500.1774604627998 0.01546776997397737
3.1195748843515667 0.17127005857330635 500.1682665779662 0.012905966203082092
3.158374254871216 0.15522863530346487 500.18230749476345 0.005273720421716023
3.100647418269072 0.1705948266986428 500.17042972001786 0.012023405144294931
3.0625354756217487 0.14853944789201992 500.21109744349025 0.004318642607201044
3.071042984421374 0.13758802021206568 500.2206708043349 0.002945056002008304
3.0790133386000544 0.13069938384630964 500.2276370433056 0.003276234718026758
3.0729604128081807 0.12391567621806943 500.2454727672265 0.003677873764282068
3.0606532826266992 0.1389010473190413 500.2294152803029 0.00321318098342534
3.0525529322839677 0.13285733332893915 500.25187808322335 0.004980205379740311
3.0569034423410244 0.12512477574879277 500.2602005748406 0.0031489487626051083
3.0675467983890714 0.11924304549044196 500.2591660779306 0.004639302317604885
3.0525127939732624 0.11118613287722921 500.2888570530045 0.003692611728445266
3.0546844270636506 0.10392837074262788 500.2985909894087 0.0052757273151706596
3.0504998927302154 0.09434709677766721 500.31894353671163 0.0025650368361832187
3.058298121981005 0.09621013942745332 500.307345622701 0.004010678862635246
3.0581167196221926 0.11436324853569318 500.2774516696873 0.0032918244519318475
3.0668330827646013 0.10445945277431001 500.2855720199598 0.002991626041713246
3.0453012705206115 0.14201291998590992 500.2460078876002 0.004399532328028092
3.0440904475503947 0.11303141752247538 500.29676667236265 0.005059195712067984
3.0438868113686492 0.12746157437737082 500.2734606687945 0.0032469783074244194
3.037116674929959 0.13670807312902133 500.2690470165354 0.003367972604576121
3.0444196037919173 0.15319130980463824 500.22729642536217 0.00296872326969171
3.038137461115249 0.1112442732405522 500.30818304893074 0.0026644306157991493
3.031170998371251 0.13344586606950704 500.2857947341297 0.004115719717938321
3.034739248351698 0.15474586717623595 500.243730975117 0.006053056829589926
3.034962661331468 0.148418128183402 500.25380351591065 0.0025250916988565067
3.024499764382755 0.15006636807281085 500.27374398333484 0.005578640073718492
3.0187785615950116 0.14140742528860528 500.30063345463293 0.005962287557742625
3.028038005279275 0.11872623306043398 500.3140690416039 0.0044653891592047615
3.026089715150063 0.12921809586411212 500.3018970663626 0.0037154001332199765
3.02693505609205 0.1569085734600623 500.2579801476577 0.005023815309547929
3.033299257329891 0.16875891003602214 500.2240173472625 0.004491560161044249
3.022405571693234 0.16721808077289785 500.25525877199027 0.005512433006946354
3.02564743088745 0.17090983424391815 500.24092671315236 0.0055264626299445455
3.0201844133391456 0.16083518394917434 500.27025079745573 0.006859405676041488
3.0300213238492057 0.17951599699125026 500.2168751211086 0.006520036098807195
3.019017698689826 0.1537228712559609 500.28286916095715 0.005225853232874925
3.0404708977734796 0.17406380791407097 500.2029983466404 0.007568157933884947
3.0499353550156574 0.17531344079067546 500.190506183099 0.006832406374478553
3.0342316326912444 0.19157724452070532 500.19629037703777 0.0064232803407839765
3.0500896458229327 0.18643580415323618 500.1809451413582 0.011995346086172873
3.0584902985408515 0.15631875034029974 500.2040894275998 0.0067795143979985616
3.0484391875308976 0.1568446568103899 500.214125034907 0.005782168407043266
3.0483345395326813 0.16438270017846543 500.20425882822633 0.007334324254958745
3.0398781774526027 0.20706095396868282 500.1793868376188 0.011622575464364484
3.028768709846144 0.21559154931604516 500.19260611322 0.006147843148379412
3.023308783224846 0.211340835237988 500.20782070915914 0.002403380811149559
3.022783472951227 0.23245427669501878 500.20431020308285 0.0032909769916078706
3.0202554403932913 0.21377564120574996 500.2188149010549 0.00258416140195573
3.0195309713506866 0.22813754027352218 500.2184415975457 0.0014606031655531298
3.0210364928542055 0.20129679789182492 500.22266186788073 0.004845296711920317
3.0170940484872952 0.20491491712708226 500.236937293784 0.0027824215692120098
3.020194998397347 0.19225275715536622 500.2334533369516 0.003492414388462499
3.025230289326006 0.19312630965740732 500.2146510948431 0.008050363279690775
3.018975031863625 0.1851435536751227 500.24469335773637 0.0035907764824386255
3.0158109966361972 0.18362486237411701 500.2582073643205 0.004443922229141685
3.013534593975655 0.19543683320745464 500.2592245154099 0.0024484111945268718
3.014603721055405 0.20239132586428882 500.2503851698847 0.0022841776270475234
3.0094306499668844 0.19748696962023418 500.2802277668891 0.0018112690166170505
3.0078140094625567 0.19251749663663326 500.2919216182137 0.0003017326532002795
3.005863748191704 0.1882315509219321 500.30503064297534 0.001575776779262144
3.0137646068281496 0.1775192917768905 500.2724361715703 0.002490131824854875
3.0099078545696574 0.17483535091786004 500.29095685341304 0.00226982694409534
3.0068045485202317 0.17471224971482371 500.30659483267686 0.0026293087395919453
3.0098653692761275 0.15232294864349438 500.3138357695851 0.00604966732145193
3.005689770746652 0.16818003422008637 500.31650305638874 0.003027056549333427
3.0061108457069943 0.15146329451191312 500.33401589081996 0.002904880835016407
3.0038539389203436 0.17515194837701709 500.3262224324561 0.001274665970490254
3.0038693737728677 0.1911243798482715 500.31652501066026 0.0005961687299746283
3.002007099816775 0.20065543539370256 500.333815118378 9.714570815623388e-05
3.00288535266632 0.18651557141571223 500.3295197422906 0.000535178954489954
3.000851369173209 0.19339280530338093 500.34658156198384 0.12237324543567289
3.000392257163785 0.2069058824254576 500.346376010957 0.09764626597687504
2.9989487275563524 0.20040208984117336 500.35880551037224 0.1583198897865584
2.9996515850811782 0.1854325261279242 500.3569702707088 0.1716952435379626
3.001450817818913 0.18061873754560437 500.34543899910915 0.081947408432838
3.003029338019926 0.16675984920122774 500.34059443492566 0.05551575546082069
2.9999602330271484 0.16932170903820978 500.358451060184 0.1063863388641589
3.001013898827062 0.1583423888959765 500.356909578221 0.11695915842845962
2.9973586822885467 0.19901472832862932 500.3713782563752 0.0912080539235945
2.998350022450237 0.17652813948751214 500.36869048944055 0.13738105815470006
2.9950850370887747 0.20658990957079174 500.3882531814104 0.05321893938304709
2.9961494416505166 0.19538581325963406 500.38221735335225 0.08755041099010873
2.998449063721343 0.16221808021096756 500.3718733919443 0.12451849169640683
2.9933310405108697 0.2011974247577299 500.4031816109692 0.04704780979939447
2.9938374783394064 0.15639178408559512 500.40728139369713 0.03256199577981238
2.9948955276817193 0.18851349727149214 500.39333928775574 0.05856498011953495
2.9933919666439865 0.21254522311802 500.4006784795028 0.04753427331092131
2.996686011493707 0.17434618811371144 500.3820127486757 0.09358463906984209
2.99364041086726 0.18228468093062677 500.4041719812408 0.03730950627331195
2.995291791914375 0.16675136108533353 500.39416697000183 0.050780771973884704
2.998773910986382 0.21366427129812987 500.35722395922767 0.09889487207986424
3.0002504620275876 0.22601327046626407 500.3445219228033 0.1141188869012105
3.0021451685491147 0.2136768930996349 500.3300064314212 4.9686232782875114e-05
3.0020515010409046 0.25539889491120654 500.3263805719199 1.8587538180474473e-05
3.0029848404574118 0.2251666325845454 500.32013697294326 3.993535259937048e-05
3.00336429939062 0.2059995329043332 500.318920458831 9.560572796276462e-05
3.002009751581375 0.23732182865306448 500.32785363168205 2.667868805416098e-05
3.006329086660852 0.20231961515851202 500.298735126088 0.0004076041987865148
3.0045362042527737 0.214270055854257 500.3088069506216 8.839360730400508e-05
3.003771522458651 0.24491249477141297 500.31315332410793 3.400965246049409e-05
3.0054530581017094 0.24902768798743719 500.3016912553904 1.5240472441327555e-05
3.0050577893406873 0.23254940492452927 500.3045292281962 2.6835405637605655e-05
3.002376419442074 0.36693486833464106 500.31691429841516 0.00011257428668636098
3.003358274445815 0.3389226872281041 500.3118571470033 6.410782651003133e-06
3.0029731632936856 0.27968790677080385 500.3180274097896 1.4848322263109636e-05
3.0025422631421828 0.32672481402628895 500.31817537097925 4.475049991959904e-06
3.0045126297553084 0.3111302107965055 500.3056049953791 8.189104367252337e-06
3.005169664436612 0.29879047801512004 500.30183897156616 5.4810153690178104e-06
3.005613581721036 0.2827736025506184 500.2997523756432 1.1783514822397585e-05
3.0028699809571657 0.29425333678931903 500.317865966599 8.743370148470601e-06
3.0046251233505625 0.27420621774253656 500.30686652153645 1.2039051194817075e-05
3.0045247480086226 0.2598665022469176 500.30787611815583 2.2418664242674178e-05
3.007700342897732 0.24285224067928424 500.28631924536495 1.2333063987769248e-05
3.009258307806004 0.23561261058789623 500.2763740392808 1.2811862025518268e-05
3.010637735559656 0.2675385749861351 500.26735477280204 1.2993730626890078e-05
3.0113848833601775 0.2518191520677085 500.2629135009694 1.682362991116447e-05
3.00815034782493 0.255523986212377 500.28333623865416 6.846484958276303e-06
3.0081979208574166 0.26841928817416183 500.2829678717426 9.49966384273433e-06
3.0093649361955723 0.2807757982316045 500.27541360209597 8.475724511340283e-06
3.0093131261913864 0.21979773026077243 500.2769031256212 4.8325477949588925e-05
3.0117958228115835 0.21015260914035105 500.26366491612475 0.000648818621320254
3.0126369745458206 0.22320460547974044 500.25644535212297 0.00042747468312639584
3.013018301961087 0.24615473953679695 500.2529257695579 2.0330756140538075e-05
3.0130299039708994 0.25931628413378305 500.2527859983022 1.0531015004239453e-05
3.0136438113239614 0.2709899748076027 500.2490207626128 9.629836027295019e-06
3.0118466300956364 0.2759542221289122 500.25983577693546 9.203364637167672e-06
3.017802980834694 0.2400166919638326 500.2262186554114 0.0004908875598022742
3.0147761540862703 0.2319226161838857 500.24317675414443 0.00016763685424674653
3.0157128156238353 0.24798058715805865 500.23760133152905 7.890582957237296e-05
3.0161201997419065 0.21659793959418533 500.23808536333354 0.00066935052376909
3.017314671484959 0.22825687322218957 500.22983106037213 0.0007845915800237027
3.0126957071771088 0.3312549827906075 500.2521549882015 5.015547942981413e-06
3.0131605943364677 0.3467062244389217 500.24856596961763 4.155733291311866e-06
3.012962788209263 0.30020894152076 500.2521320890716 8.112185501921278e-06
3.014386088791243 0.3195283945625874 500.2425732952149 6.226460854550257e-06
3.013279175708245 0.2876647544438228 500.2508672712621 9.889161102378797e-06
3.0126699396661145 0.3132688604268915 500.25322879900943 5.6260532131025645e-06
3.0132616491492294 0.37116513802377094 500.24670813728494 4.333611744959032e-06
3.0086838599065437 0.35038657521719097 500.2760010573119 3.969637905427062e-06
3.007544159253217 0.2865678331882842 500.2868160174384 1.0033863657469499e-05
3.0091944845905374 0.29342711550602607 500.27584405597844 8.044774168092039e-06
3.0067947246200006 0.326953526006467 500.28941459914523 4.912106312467727e-06
3.0087577308666305 0.31550555244922396 500.2774383222926 3.4717498628644644e-06
3.008181281849819 0.30355994576399975 500.2817941098353 6.287088876756842e-06
3.0070562890451966 0.3665847488606435 500.28556332031707 6.6494249098902755e-06
3.0075045555777358 0.3382112741895336 500.2842401174929 5.251797337942832e-06
3.0093273045592177 0.3299704928729343 500.27298861311016 3.3156783254205306e-06
3.006526178928873 0.352416946213509 500.2897433663521 4.946513118588748e-06
3.0115914422671652 0.3624426466862434 500.2573611500992 4.437211556625804e-06
3.0109200223029537 0.3231277709350441 500.2634119615906 5.112857821658759e-06
3.0099550544116105 0.41713024801472076 500.26490490096853 3.526126567303994e-06
3.010628977040672 0.37493252618743605 500.2627397951371 5.9673333562934e-06
3.007391178667379 0.4118537048483729 500.28107780213554 4.23630451028831e-06
3.008634704191331 0.3777018772469177 500.2749906707419 4.1148141045673455e-06
3.0095235046407245 0.3619856777385033 500.2702238602201 4.145950968331363e-06
3.011971579730217 0.4173952300677147 500.2523706237085 3.3922755060631615e-06
3.01038201688038 0.3082777187684303 500.2674634343692 5.595945213058555e-06
3.0088116344520883 0.3943018039363659 500.27309754066016 4.7249721820445156e-06
3.0106118153173123 0.40492492430153354 500.2614109050173 5.3314561430258976e-06
3.0105166496987543 0.3882583991639233 500.26279950576543 3.962599908912682e-06
3.0126251085697677 0.3922818201936719 500.2495144866404 3.84209210360739e-06
3.011128835545316 0.34862849328010104 500.26089485656473 4.012680625722392e-06
3.011014051084674 0.2931157557558287 500.2642644853181 9.992944140271645e-06
3.0051104708152154 0.333874239200798 500.3002496214824 8.167561558600283e-06
3.0053357072884035 0.3749059433757133 500.2964749168123 0.0001017207652380527
3.004667362481009 0.3522765839479447 500.3022233834798 7.266853873214558e-06
3.005644080941099 0.38971974414954064 500.2935820672788 0.00011472293653249796
3.006125404064507 0.3165422347660802 500.29436364195146 4.13678816738674e-06
3.016239521027912 0.3395238346113799 500.23086136416305 4.004675409372361e-05
3.015352233031285 0.35014172419815126 500.2354765464093 1.951025606443737e-05
3.0150393927941233 0.30409705807032406 500.2394795074517 5.584626215914667e-06
3.0177400468847093 0.36620056957381975 500.2209267116996 0.0003257941576199615
3.016671677919444 0.4094195735384325 500.22503155603806 4.251543457092367e-05
3.0155194262763736 0.3888412545714298 500.2326648129729 2.164973794946164e-05
3.0170368215877907 0.37900871036420547 500.2243748877593 5.816106699243884e-05
3.015035902889718 0.37703461812434796 500.23601930678154 2.6181083776883135e-05
3.014925921834956 0.40425099036718826 500.2353554901093 7.335255105896346e-06
3.0176224001810192 0.35494527783910634 500.2221341035881 0.0003429754206485285
3.0187726082545225 0.270746683558366 500.2193383390802 0.0006257931050099597
3.0160553246256487 0.2841513454498354 500.2345270693384 6.011482128798253e-05
3.0170695482689585 0.29725676142098534 500.2280199551757 6.064485526142448e-05
3.018771001876188 0.3971511303903562 500.21349863602626 0.0009996727979619583
3.016866624798059 0.2664661836024977 500.2306253088661 4.5346589266205285e-05
3.0175448804745586 0.25260974218638116 500.2273204290581 0.00031533238552244495
3.017338111372377 0.3104791384997563 500.2258456383827 0.0003022087607783084
3.018205278024382 0.28645494113434233 500.2219121729724 0.0005631076295927387
3.0169522207019783 0.3217582274264096 500.22756881619296 6.375708331370888e-05
3.018286247573255 0.33583622889941633 500.21915610158044 0.00037320957691552034
2.9923371898727025 0.19305923056270757 500.41327517427396 0.02281925978114958
2.9919571254909556 0.21815270919126212 500.41185795183264 0.0206426482685649
2.9904972835850643 0.22330212238847236 500.42386442657926 0.019336409047928133
2.991400763430315 0.20743187083931774 500.4188596185176 0.027479872027716876
2.9869178137840424 0.2604262073111306 500.447809799453 0.0924939520631994
2.9855215914991504 0.32107680223310253 500.4548521443093 0.15454893850397783
2.9851958775853937 0.34251934407386847 500.45610293794266 0.12817207875160866
2.9868911952417596 0.27622774470274253 500.4458352747043 0.10219674997728109
2.9855378716778627 0.2960762253456144 500.45677371168455 0.10835133112831973
2.988612742991511 0.21492313287507447 500.4413369566217 0.08154728843144618
2.9919858038726677 0.18280352895745045 500.4183615776514 0.018785570401119608
2.9905035002624567 0.20036415238024108 500.42790290455366 0.022869568237829863
2.9884269346688734 0.24677171130264108 500.43775500341815 0.04521540013550459
2.9886670912814117 0.23211832866864285 500.4381121823089 0.06214108188315192
2.9897329321685104 0.18862325689804377 500.4366555274665 0.07152734970248036
2.9923007077704664 0.15748597174783927 500.4208201355875 0.01620031366662279
2.9930886721078105 0.14411668464268867 500.41782979743124 0.021561472639692242
2.9862031387535657 0.2370965790259822 500.4561197398345 0.14321791791783997
2.9880351849835263 0.20494427970819823 500.447133020784 0.10677774799337336
2.9873558415666293 0.1863066319911555 500.45283158459506 0.13372116337244994
2.9864170947229 0.21334625284168784 500.456618415874 0.1244070269270611
2.9864710024895884 0.19806207766006717 500.4574641438204 0.1553971310892765
2.9910866909608678 0.14680987346418842 500.4346132149444 0.047035385839566624
2.9899998395550287 0.1713559435946049 500.43860524485365 0.07784663205554793
2.988787048836653 0.15293088031965846 500.448444026435 0.12580852173424134
2.9893553871449714 0.13457717339155553 500.44754335511936 0.1014759524365831
2.991199217772744 0.12407175667056915 500.4424196217071 0.09298031172542216
2.993801132077196 0.1304180059576192 500.4203589079612 0.027166087439148775
2.9984218151623416 0.1492079280335175 500.37841462322683 0.08951617932071752
2.9971915394880906 0.13745881798808748 500.393411463493 0.060723244850998226
2.994816968177579 0.13804045286175548 500.40763539471925 0.04182988936064343
3.0042014685552436 0.15066270863731057 500.3452464113708 0.07496003064600917
3.002661722027474 0.14566460561820013 500.35664899477354 0.07532657609739188
3.000912571968414 0.1427441000301082 500.3678348316253 0.1036302899640204
3.00166669924438 0.1316995595810777 500.37505808553595 0.08508848054120359
3.000738908821363 0.12339428155736219 500.387291095679 0.08194305539996447
2.9979757003861924 0.12463136970307462 500.39963158710987 0.041093012686266445
3.0071032817589316 0.13772875391900136 500.34609816379765 0.055369998430490945
3.004947485746201 0.1331353840228857 500.3594140977138 0.07966140179459398
3.0110623443332 0.1436011740833332 500.3211435905772 0.005800931015218133
3.010812622498056 0.13569267670520113 500.3340587834699 0.004367699988844597
3.0174641666829416 0.13082760539943158 500.31877202739906 0.005593137990908613
3.010730498059363 0.11918444093088286 500.3566404217052 0.10294995250493404
3.009806581676436 0.11014516322812554 500.3706367703493 0.13187722496535165
3.017398758996891 0.12017815065583481 500.3363217454622 0.005881061212793069
3.0173400380570263 0.1125985774173409 500.34797939155834 0.09505216337903874
3.0313658717019627 0.10978137621808173 500.32163284204694 0.004056036415022588
3.0337310045323447 0.09861246542562345 500.3359344450039 0.003919380018838263
3.0407756419870475 0.0997663158078849 500.3228187843301 0.004745475744726621
3.0362533518270127 0.08480881600799228 500.353799939382 0.11374884273393059
3.0389258004293658 0.08957700239883079 500.34240624520896 0.07339451822087262
3.031461502443343 0.0819708423736637 500.3651911141428 0.10550988498378241
3.044739285052065 0.09188894751008728 500.3300435239033 0.004553410476020668
3.0438566640221842 0.0714422752687312 500.36441407116905 0.13898021481400194
3.0466543652951126 0.08020755108360296 500.3468776710521 0.10363992165695811
3.043063028047079 0.054345889297242954 500.39347944030453 0.09611110048826166
3.0411711064707845 0.06509799186109949 500.37818671252484 0.10349202970909673
3.0553847309835396 0.05676550117336205 500.37596321761 0.09215977443391425
3.052320505495733 0.06410140597427318 500.36679206257816 0.11035514624832518
3.0587825232929746 0.07799010117856078 500.33724813039726 0.003401137792711022
3.060671381671679 0.08750332937822722 500.3197981935053 0.003318720469303747
3.0607079835328017 0.06753201333570354 500.35274617759757 0.06462357962839578
3.070963369556755 0.07793585188857788 500.3275780981387 0.003924962562238544
3.0733538557519444 0.06210468551554972 500.3527805177883 0.16571291058883836
3.0771556654547374 0.10364489811876086 500.2792169356625 0.0030640153122079732
3.0747480437535684 0.08499313611053352 500.3130865236811 0.003645206944910616
3.076505406393867 0.09445954282472802 500.29556315446496 0.002620329204794209
3.0903405453745365 0.05312555008477346 500.3606959088324 0.15894865274982556
3.081513806715102 0.06558620395383857 500.34211266840487 0.08542197814282189
3.0869298260521663 0.10687931991008273 500.2674966125639 0.0028629605599332563
3.087331900468387 0.09787416475287143 500.28349512417486 0.0027004126581454484
3.090514371877115 0.07011391404576604 500.3302682545978 0.001986131734422116
3.0877078854292104 0.08526170913545425 500.30532832079257 0.0023165048656135184
3.081068202874564 0.11735847556572425 500.2519750709471 0.003158171202742064
3.0837982916372235 0.12306967520623358 500.23929440832984 0.0032267384273753585
3.093228180645982 0.12961934491339838 500.22228123640883 0.0017899116269896745
3.0133921461419115 0.15209141356009404 500.3019669382228 0.004675236714726474
2.9851444923247863 0.4076877079040593 500.4609376828083 0.1431833840727305
2.9851796837218387 0.43569941834318726 500.46169182447204 0.16613503633155005
3.037299436460662 0.3046933114803667 500.17249378982393 0.010911272842324132
3.041183111644347 0.293395771758619 500.1699430643096 0.010138493178668374
3.0422642436901257 0.27343688761997526 500.17012523291066 0.006277314369033533
3.0422427449949576 0.25050775750755966 500.1711043187156 0.023211020493768983
3.0424960158336347 0.3269746083432034 500.16757167530193 0.029025395718465158
3.041185542900688 0.3933061598066287 500.16540251353643 0.031184264973084363
3.0452245208739366 0.2387156027963913 500.1694852719154 0.023103030899756453
3.051853133763358 0.26884790240731166 500.16348855677865 0.020492113974996624
3.052352958013195 0.25385674624349547 500.16353195488193 0.023123080418386715
3.0501022257503934 0.3132900382123302 500.1635973572564 0.02392091896054953
3.0464797627861477 0.37132708061309433 500.1634337163469 0.019452603241787998
3.047428409292923 0.34177853349088244 500.1646028499958 0.01586711253279969
3.0493502658688714 0.35561035324856066 500.1621775944431 0.01750546969821073
3.051714440989711 0.2951945480912034 500.16235833001974 0.01848603697542816
3.0503411926344564 0.4088515732137165 500.15779084324316 0.015652443517000198
3.0445144371196426 0.4572749920411108 500.16009025764566 0.022295814933174403
3.0494098465895942 0.47397574283032684 500.15520282702516 0.017818359980955524
3.051462009841894 0.49421428239172016 500.1527842608077 0.016836935029307498
3.0531943493220624 0.42167640251879346 500.15524414816286 0.017462802170042337
3.05392259599414 0.37866313910311006 500.15694085412656 0.016818594439592677
3.0556114335377544 0.43973453321213873 500.1539609846155 0.012093576740861992
3.0619440389255215 0.5003481078607341 500.15134170785046 0.02289738036726068
3.056787622449064 0.5309979803254194 500.15004326663313 0.0610739597869027
3.1561608001659502 0.5275901573984652 500.15019073164234 0.09230202941190879
3.0768050303520957 0.5176266478830716 500.1506106399813 0.07198175009677416
3.1196298958258986 0.4979785590271854 500.1514446428069 0.0058065169354719936
3.0922542222626137 0.47932616652280013 500.1522343533123 0.0006364760583889292
3.103988063569269 0.47031080475987724 500.1526167925808 0.0006318599556753649
3.1478422127542656 0.4903500409816044 500.1517687960217 -5.160482844356323e-08
3.21576092502082 0.5332960743387896 500.14995067987735 0.0978024944052495
3.093634196340373 0.4623425673604294 500.15295419414315 0.0005991756681628952
3.1018003104003924 0.5230149226260749 500.15038301897584 0.0609818166333394
3.1025096257237483 0.50945817937554 500.15095760264694 0.05476931162586933
3.1233175435526865 0.4788261501303483 500.15225647102477 0.0005813985620979585
3.1068480472043785 0.49785033517770455 500.15144969617046 0.008032064231901313
3.0630949782444197 0.5160059976973249 500.150678917758 0.058832219543846834
3.1872884652835083 0.5142064473499144 500.15075888858007 0.03370154660007814
3.075210069117241 0.47892200889409825 500.15225097425537 0.006099082740060861
3.1401560365350503 0.5138234976055287 500.15077371376117 0.06606382438645485
3.129851310376922 0.5205311034368383 500.15048912451425 0.07395210811490355
3.1194616009029845 0.5099403668862426 500.15093767188995 0.07612633003484985
3.119142175092348 0.5338883038410505 500.1499226997839 0.08044914068374126
3.1858859899215632 0.532526690879956 500.14998239735434 0.09011600789316936
3.1751131013917924 0.5160105117415601 500.15068206569225 0.0646488223375708
3.1330924552655404 0.4943694800199083 500.15159800427966 1.138790356368798e-07
3.083987885827478 0.5062127160627661 500.15109459989367 0.04573701404687889
3.1960346348771673 0.5253927646878587 500.1502850502779 0.06527028828826457
3.1139849106605553 0.5221195814489077 500.15042132858923 0.08825653742645122
3.0746377920733416 0.4588457596909345 500.1531018297284 0.009255125162363903
3.1532644021897687 0.5127789718730332 500.15081837365864 0.05961525470760607
3.1623553090657683 0.5055376362747905 500.1511255472816 0.0335591079404799
3.082078314653983 0.49029113904068744 500.1517693319915 0.00037572374480012024
3.236667616627221 0.49541175516433655 500.1515546884656 0.002393709526642303
3.252284833178351 0.52565550584426 500.15027513279364 0.06102998063199584
3.177742013624844 0.49716782686921446 500.1514806150888 4.265699972981458e-06
3.1977670376686786 0.46488936052380747 500.1528461191545 0.0003653359229705766
3.238076541371953 0.4623815456370276 500.1529520651984 0.004058411339600522
3.226627459549518 0.5089881460748258 500.15098036060056 0.035275688159488665
3.140484204993998 0.48062248190862694 500.15218072408965 0.0001387213098138741
3.2381924950302405 0.5176852741892959 500.1506123752941 0.05987970399906864
3.24441304041729 0.48165723260536286 500.15213656094045 0.008301137507259545
3.221861339583932 0.49734269946187976 500.1514730526951 0.0058864696163391
3.145515360933039 0.46235081179224846 500.1529537099224 0.00021085495667894777
3.234914526876297 0.4758532551956988 500.1523821404026 0.0015258915838354053
3.1617105208782874 0.4679895581837525 500.15271509583 0.0003618066393706863
3.109480474954357 0.4599885414333395 500.1530537826703 0.0007317708390318548
3.2242259794858974 0.45955549572175847 500.1530716761224 2.6064350809705253e-05
3.2102835575949658 0.5084706028621827 500.1510023167051 0.03603592575826802
3.2185922179444386 0.4760776749963042 500.1523727068062 1.971469476006156e-05
3.1543621458088174 0.4535042101827372 500.15332794291305 0.0007277152375654903
3.1727692837589685 0.48333382570119277 500.1520658973343 0.00028207547064518863
3.1804010248696657 0.46292195820343995 500.15292941706286 0.00046433598846400923
3.1862711096761895 0.48087621932779223 500.15216981901995 0.0002687297071051913
3.2063520806525774 0.49710808006391954 500.15148303626745 0.0018651195620316098
3.207844006671544 0.48188368561996187 500.1521271166805 0.000240089788720483
3.2260849275759753 0.48526132497974117 500.1519841537744 7.002842882360487e-05
3.129132073366889 0.46115330027052315 500.1530044330348 0.000826034258631265
3.1908768845974835 0.5013160243455572 500.1513050718162 0.014901828078610718
3.196876122918053 0.49099098799484286 500.15174186233065 5.977199801389485e-08
3.257280798186919 0.5070062188351082 500.1510627724534 0.03523304362368237
3.243642260434331 0.3626918828517123 500.15754227050274 0.009713617122199624
3.2429007340397655 0.37634398071502756 500.15727301509673 0.005588683258583364
3.243703834174268 0.33881506611461215 500.1584532907072 0.007904535651683468
3.2437672376384064 0.35111510817739144 500.15795063230377 0.008684889134273491
3.2470511819699386 0.2523844150673214 500.1618373514461 0.0073912484781317855
3.2515033045889323 0.32660899387332865 500.1586961288985 0.016231622269885313
3.2457717928978402 0.28582716061513413 500.16042154597426 0.009023893894584125
3.245544253395501 0.3946472463420974 500.1558152137858 0.010105244817994527
3.2541103888535146 0.2782339308380085 500.16074421018027 0.013091829788909173
3.2418847244074143 0.2732786155760154 500.1617982291157 0.009155881577750371
3.2420764818143195 0.4224858153055258 500.1566380051541 0.011820110755698625
3.240585253060736 0.23663776577125697 500.1641413597371 0.007098516813525028
3.2440125207186385 0.22589100280874178 500.16296278272335 0.010259729028857996
3.244255880669473 0.21082246806989594 500.163608033124 0.010971596177329755
3.2546282491289658 0.21961803707622787 500.1632281504732 0.013003134035866823
3.2298632879874587 0.19837133834341805 500.1641203340939 0.010929762747449417
3.2186888697324068 0.1979050738472922 500.16721228186253 0.012100573113693957
3.1777386796050098 0.19545960296506315 500.167921453611 0.00912635368007013
3.1911821337913495 0.19530731986800814 500.16725368114123 0.008901350980768446
3.1542616062238427 0.19543580454886203 500.16771598761864 0.010854161163870465
3.2407787416910323 0.3027177952136805 500.16271424562547 0.005073157212862516
3.2409767892481898 0.3219257180353236 500.16167444732525 0.00759660659499124
3.241762852317944 0.4050209812650502 500.1578935788624 0.009359120394943642
3.039167997804955 0.47169700702539086 500.1634572515992 0.024969144572423486
3.041567041409489 0.48522604067193387 500.16067239011824 0.020748871148266883
3.0422829835957232 0.438951169480251 500.162336633014 0.024869587085208783
3.0407409380596793 0.4138006627513365 500.16474224257723 0.026446354638216353
3.3143854058179185 0.43971918999431403 500.3223618732785 0.05902942786118363
3.313370557265411 0.39989174118687065 500.31731626751946 0.052264311024813936
3.312091432848379 0.42545574797521646 500.30717801404444 0.040216849749962064
3.3145359253774407 0.42370260908097757 500.3242036821637 0.06122240073180903
3.314232413703207 0.4551518408157892 500.32053205562573 0.06600007958137637
3.313316483484646 0.41291597215531967 500.3162919903597 0.05365906008026098
3.312249723188674 0.4461325905501863 500.30724649537547 0.06289101090509602
3.310626733483071 0.40945296917433605 500.29782776778876 0.01332251874522799
3.313574834127582 0.4661567348526807 500.3270208804189 0.11023246945290856
3.241339756213004 0.47108125314508764 500.3442801252389 0.058708620677149104
3.2765997375421145 0.45624074206137993 500.3370971407479 0.03708379317671963
3.289638668527545 0.46221752330457827 500.33404026446055 0.06623167042220679
3.2761610034771014 0.44508188241410224 500.337637736337 0.00425109397548731
3.3020320870529165 0.4397319897565734 500.3322599094268 0.06582182023235851
3.2507543975717517 0.46118626486000736 500.342485557341 0.05091337875450606
3.2644267091505332 0.4623731829157469 500.33948313222396 0.0508452224312827
3.307083381304656 0.45613782888111765 500.33051279145894 0.08943846614299795
3.2884922175404356 0.4511959708043548 500.3347283345022 0.0426891012103623
3.297487053436324 0.4730035367787786 500.3323467872495 0.1336953875046096
3.2295111228382734 0.41517493607636796 500.3492023448062 0.10299795729868487
3.2892746125931334 0.43443515765173685 500.3352497366682 0.0318451046987975
3.263001732962984 0.4494929039801859 500.3403139934027 0.004974335288759316
3.252519311255032 0.43847834118240153 500.3431084300796 0.001184838091448711
3.2389891984922823 0.42624395464310505 500.34662519558384 0.04443150638715331
3.304166130415239 0.4280871630962111 500.3322798895485 0.06427509810766369
3.2485742228447183 0.41715075833148446 500.3449412790628 0.04414059567594894
3.2269074292475515 0.4672959968902854 500.347402485974 0.0776329790833585
3.239210081560504 0.4591495723981206 500.34508087621373 0.060713035076883956
3.234037867232106 0.447871546820115 500.34672535250036 0.02957646150015958
3.2605861841244597 0.42271118657577184 500.34206012167033 0.025940657595149862
3.2735536080537635 0.4330206579688122 500.338753991731 0.00017521804127878601
3.2989961121157423 0.41452142903336114 500.33414179540733 0.0710772440955978
3.268359033162111 0.4129934287706986 500.34087679007445 0.03820390935155848
3.3082519443230174 0.4014852262646852 500.3328593304738 0.09986389400614755
3.2848038892165787 0.41312780750603584 500.33729991351515 0.05679769170687884
3.2186482077339953 0.418989553800465 500.3527163231258 0.11795627564526295
3.251024333169822 0.40499660776061513 500.3455557400341 0.11255972156891168
3.2197662097954884 0.4543929835524968 500.3504991399784 0.05370499746483583
3.278090596504887 0.4014524605578416 500.3399260632206 0.05510280333182084
3.2201113095795177 0.4030440234681183 500.358876292949 0.2497532677509281
3.216288820033092 0.43835172362376407 500.35620669518244 0.05158069375783822
3.2217210461366257 0.40595610407593163 500.3808149594988 0.2386716143200072
3.2169099712206894 0.414554788273618 500.38814929568343 0.26044876777939496
3.220053999878231 0.4151985388897001 500.4101869338772 0.1651100595148321
3.225601231806152 0.4089844959755844 500.4003047651198 0.1991433974974049
3.248239785406114 0.4054290135774863 500.40526394446954 0.1170773367498173
3.278322033833903 0.398767331792113 500.4070605531391 0.07223474395699928
3.275155871516927 0.3980942092392988 500.39237547415973 0.07612882664910893
3.2646004671427815 0.4008255089697087 500.3971754916912 0.07119477469381294
3.2923048894619686 0.39476444423558554 500.3992609672328 0.07291827395195624
3.304944465686636 0.39184863088491007 500.40127094773766 0.1279082186400169
3.3139569367632733 0.38857872454074033 500.3844158295125 0.11862133579322846
3.3026865697478156 0.39159782984509006 500.38910468230324 0.09487599780842808
3.2487410835115518 0.40242877167307944 500.386735102345 0.09899143753131459
3.2662451229163425 0.39828778556123035 500.37882485232615 0.08810013443374554
3.295546754088329 0.39244761952899165 500.37966647411815 0.08970532062373597
3.3013411855583494 0.3903562620542654 500.3661423031795 0.11942751180663293
3.2803098003887525 0.39445948577373635 500.36580400082994 0.12355661678344125
3.2659358507942584 0.3966519879969373 500.36415800639617 0.1724681126661014
3.276607251620944 0.3939857356184853 500.35217980828037 0.12347414680587589
3.3021307208765034 0.3893069201518587 500.34595580234003 0.1050181244505469
3.2885785574351374 0.3918139411413954 500.3498595754778 0.13814323194930156
3.247297226959667 0.4009381912896306 500.37486829570827 0.1311920922498598
3.2304548476913535 0.40140954392728667 500.36888341950635 0.22646220781852183
3.246297023307339 0.39844007781134994 500.36104197634546 0.19389419759541196
3.2335329486234388 0.4034442090958967 500.37972764918845 0.17473560908830157
3.23460971906814 0.40248859797068737 500.35231319359957 0.21702859090674448
3.267324736980016 0.4002640000191666 500.34356962564186 0.10192384806292408
3.2333319639683413 0.4352846648360654 500.415098445885 0.050439079754646725
3.227107944147014 0.45816869513295905 500.4150792115974 0.05429198527516341
3.234364693736793 0.42402640300013994 500.41510219959287 0.07007555657213464
3.246829662303203 0.42731914966679957 500.41513701887146 0.036656520301105604
3.2570846884247047 0.46047222259075643 500.4151595983355 0.05842429672793441
3.242557974536068 0.45576964438525236 500.4151217090232 0.03963834796681113
3.2825037092015075 0.4495285218003196 500.4152290456053 0.01598304986104373
3.26870565931059 0.4578034317839642 500.41519096466413 0.04444385867288331
3.3001299370491024 0.46113244481694593 500.4152740507822 0.06192458662148474
3.256255800805776 0.44139449946704956 500.4151605248852 0.006470050721434179
3.2433222749066406 0.4427210695834831 500.4151258857079 0.03181941557628968
3.2369909806023367 0.4662116647559976 500.41510517841954 0.07622558847926399
3.279561298362305 0.4654956138391103 500.4152185928663 0.05627499808926759
3.2689969006211257 0.4459257059390138 500.41519369009393 0.008092281396767348
3.224431126755479 0.4818846688798922 500.4030054806741 0.0563579933258312
3.2219742879575866 0.4814299456306204 500.3667319360365 0.05001527978197012
3.2165254489721664 0.47331247826880907 500.3567785963167 0.06095305867344157
3.274164849766847 0.4822870953556181 500.34670377429404 0.07714501438027085
3.286737303533367 0.4828482326547454 500.3714035796918 0.017500981112180233
3.30129044992747 0.4828054709089743 500.346630812343 0.1371741251761287
3.310885954351858 0.48291497584335136 500.3621486739072 0.10149658183007353
3.2562925228343627 0.48268842389750605 500.36556944502706 0.03374679608593391
3.272191812018634 0.4827475268243974 500.3629827128825 0.04053534699543136
3.292336032562124 0.48280674449435335 500.35608182907805 0.08475386303604714
3.245659262528158 0.48260962511284966 500.35821545848484 0.060965857212729596
3.2335683829960464 0.4825587080337569 500.3588013535338 0.07359705056939295
3.2747091088088216 0.4827889595821383 500.3861319021072 0.031699776081326854
3.2471385849050636 0.4826426112830016 500.3732243653541 0.038128625008882214
3.231750042505478 0.4825552104686939 500.3908665187691 0.054462063761054655
3.290874359594263 0.4828773492573622 500.3824759155589 0.040151688898680114
3.261917821814713 0.482720503973773 500.38256726905036 0.024371904615264353
3.2524542923434474 0.4826671036886022 500.391900559374 0.04233935218912338
3.2367580107759446 0.48258514660324586 500.3786361707817 0.05082892158058886
3.2495752020412256 0.47923168110898445 500.3461893736436 0.06279514204640253
3.3059982763063647 0.4804980628058002 500.3355284856725 0.12035311486405678
3.280957828320612 0.4765580583036682 500.3371689586387 0.0783486849015038
3.2644692330646716 0.47642943424894174 500.3406574813203 0.05975574388978932
3.3142112111113105 0.47743399920861873 500.3273094464286 0.08655388058449721
3.311884656359892 0.47958951513942727 500.3035118305968 0.019470320307069394
3.3122709397622807 0.49478297280406414 500.3055032396363 0.0154436405488454
3.3123024483661805 0.46812046794272744 500.3067305827711 0.04915481013744896
3.314602581153256 0.5070490516601538 500.32103048530075 0.03319476590237087
3.315385652136959 0.4905282673132733 500.3270176298204 0.07808878663176842
3.3119160041966227 0.5332373900277063 500.301805678925 0.08318645708377528
3.3077182353154346 0.49946592427305453 500.27565668357545 0.010305609688550663
3.310790779700483 0.521758586295644 500.2948948407608 0.06203734513445903
3.308258623118996 0.5109307966531664 500.2787739225628 0.04158351589089874
3.3084254117863345 0.46987688231508384 500.28130399798215 1.794162839811252e-06
3.309889507782569 0.4304365287328836 500.2922294497413 4.3743090346540265e-06
3.3116788385720923 0.5104711373809374 500.3010792422366 0.026857150992347992
3.310513845858037 0.44264901491385933 500.2958690733801 0.013568234547090427
3.31014444259084 0.46398480579205204 500.29271275392193 0.003243838290593696
3.312533209441399 0.5220119164881991 500.30624143400087 0.06764466154251932
3.3087137671172484 0.4816500203528266 500.2827696539096 2.4590448894711254e-06
3.310021433284081 0.5073118681942091 500.29038987377453 0.0281230760158706
3.3105248502503875 0.49502399082404186 500.2941017874305 7.713380450236175e-05
3.308209114699439 0.525136446011819 500.27800475339893 0.1054508425890461
3.30564779288952 0.5059021083945369 500.26265757782005 0.03242317088132743
3.2176565075493655 0.4386521059166776 500.4020825004054 0.047635109550740566
3.2170937742459706 0.47221140115302285 500.374612922352 0.06489711747480376
3.218122871539672 0.4616724734128438 500.4035195161951 0.06008209865349545
3.2171894260799556 0.4596334769135476 500.3821661548575 0.04487693824183814
3.2179612884488282 0.4707158731419235 500.3958806391163 0.06729524544852425
3.2185889572944513 0.45040549067081237 500.4093007461079 0.05512315484532649
3.216788298599524 0.4289985052467417 500.3855090946735 0.08608353342800075
3.2164874244461106 0.46196028078607 500.36449450727423 0.06687487325897276
3.216306905443857 0.43563401944581676 500.3712854539595 0.042513816807932585
3.2157734020402304 0.4236023509393473 500.363679227232 0.09692677541665354
3.2170524116650743 0.442405135510208 500.3861396160596 0.03363087777809022
3.2165053228775564 0.45169907108446306 500.3692372954668 0.04188807106656415
3.2173636735170206 0.42467884910564396 500.4009900186127 0.1081033569672968
3.215972692570878 0.41277254467241875 500.37235979006687 0.2253773700111897
3.1896330085568994 0.061369115852661416 500.4274432001446 0.06608099805261114
3.088904247994432 0.060364618912274 500.41855410790095 0.1588121141644942
3.0741011247543795 0.06858609762928615 500.4194838874645 0.13033729382877943
3.0572146805502127 0.081131848837967 500.41841172153954 0.1432917069301886
3.048577923000101 0.09059997518035637 500.41754825978626 0.12695222920583854
3.039104055757373 0.12977337089317662 500.4162000374078 0.06712827049876148
3.040902302183117 0.11555015693065492 500.41668756703837 0.07877035798266738
3.038849414265484 0.18121820764042335 500.41436878116644 0.06840973225578824
3.0383532378315223 0.1515215440732231 500.4151673762728 0.10982819681168438
