x y z curv
5.142697059132835 0.25073016800953146 497.2156383667176 -3.661343524049627e-08
5.1384144726015295 0.26220301468468277 497.2156383667176 1.7383203452851913e-07
5.130259615150386 0.2514054624225872 497.2156383667176 3.6121274555779654e-08
5.118738230571911 0.25663088547147916 497.2156383667176 3.772426655596179e-08
5.106392944908077 0.23598463148884827 497.2156383667176 0.0005940819309190691
5.160418207893694 0.2710250943940454 497.21563836671754 6.690766806129389e-08
5.165584069298937 0.28123882322339144 497.2156383667176 6.426927980979836e-08
5.148692080749052 0.2737266364265778 497.2156383667176 -3.796571222473132e-08
5.150111990155072 0.2961857049208942 497.2156383667176 6.785278628708985e-08
5.154263318219995 0.2522140285515536 497.2156383667176 -3.793894384606366e-08
5.132898881724436 0.27201306331655895 497.2156383667176 3.8346998879470774e-08
5.1297656798986075 0.2965905594322025 497.2156383667176 1.701456441107482e-07
5.140223949031623 0.29090760009404154 497.2156383667176 -4.050103795645013e-08
5.118761837872881 0.29066968505995533 497.21563836671766 3.337432556266377e-05
5.121260379393458 0.2773938071540262 497.21563836671754 1.7745354173659629e-07
5.101733818253898 0.2540257395046023 497.2156383667176 -1.220373521124883e-07
5.1086325043121 0.26624039666360766 497.2156383667176 7.081683003538745e-08
5.164198473392744 0.3021042010251188 497.21563836671766 -3.568082560157471e-08
5.157154770457334 0.32058297513169776 497.2156383667176 0.006069762382069486
5.142512151394156 0.31326235386264095 497.2156383667176 0.0040720673253697385
5.192899822773295 0.3066221067772762 497.2156383667176 -7.641561463016758e-08
5.19442247367465 0.3211004309240111 497.2156383667176 0.0004286257842476815
5.1792087043649335 0.3064880155942604 497.2156383667176 -3.513170504969379e-08
5.180379583939667 0.28660780325973123 497.2156383667176 6.962346742593036e-08
5.196240424628063 0.2710324888603264 497.21563836671766 6.80019315210093e-08
5.176620212456066 0.2717348016993395 497.2156383667176 1.5461008497747863e-07
5.192496201428542 0.2860050783689762 497.2156383667176 -3.800634511897158e-08
5.2164023958447014 0.3142671056788081 497.2156383667176 1.7070400119397993e-05
5.209570479732023 0.3011551196531854 497.2156383667176 -3.784713052345045e-08
5.203845505053019 0.31109795891793784 497.2156383667176 -1.6475693849317428e-07
5.204743581989567 0.28511288067851626 497.2156383667176 3.2643446581482394e-08
5.21638850379999 0.3259438149696796 497.2156383667176 0.013081767194105521
5.217752150072082 0.34257456465077496 497.2156383667176 0.054647688410804716
5.197350375345367 0.33722952795131916 497.2156383667176 0.05882382644611416
5.226925188858444 0.30281829453230336 497.2156383667176 6.889040439038454e-08
5.231752903015787 0.32367118985443716 497.21563836671754 0.010003919523106973
5.244208093385734 0.32202929831743193 497.21563836671754 0.008617050187612451
5.2398206036845645 0.3343065046149628 497.2156383667176 0.032792047110016036
5.229362614119009 0.34432432598870405 497.2156383667176 0.04928185369391656
5.240953278337386 0.3007560810365809 497.2156383667176 1.3711009134231368e-07
5.253618759525725 0.31190157032571536 497.2156383667176 0.0002975974007544858
5.268004160573638 0.3269534483954776 497.2156383667176 0.0492070793619816
5.254755186047097 0.3265628404333101 497.2156383667176 0.02798198371549375
5.293175292659243 0.3200278786913215 497.2156383667176 0.05792176645886534
5.2792856355388285 0.32875987500595605 497.21563836671754 0.05223920986264834
5.304041618854587 0.29466656024281696 497.2156383667176 0.03965961953448987
5.307581126225995 0.27388804160134506 497.2156383667176 0.049769741713938075
5.3192333268851275 0.27288657216675294 497.2156383667176 0.05253017659484287
5.3026159726244 0.2531709034458518 497.2156383667176 0.00910867374976427
5.280233048684353 0.22609331570876062 497.2156383667176 1.708454649655462e-07
5.275207605168558 0.23716359462426698 497.21563836671754 -3.625413491197912e-08
5.264445256478611 0.23266221646561108 497.2156383667176 6.96279767674558e-08
5.2922508558627746 0.23600401039135863 497.2156383667176 6.877980004618106e-08
5.298787033244204 0.22241029193560713 497.2156383667176 0.0023193316226424628
5.276194919308351 0.2098081063436823 497.2156383667176 2.7513522247604034e-07
5.290428714408623 0.21265274021838823 497.2156383667176 7.257789946376167e-05
5.250084167104864 0.20151522685715967 497.2156383667176 9.871675482546957e-08
5.260950985581463 0.21465058645354113 497.2156383667176 1.0025892669124493e-07
5.241038576866198 0.1919249319224488 497.2156383667176 1.5573820649886288e-07
5.233416634948945 0.20674406142258472 497.2156383667176 7.71577329764515e-08
5.26364813113727 0.18994323152789583 497.2156383667176 1.918307748784845e-07
5.2515771113361955 0.1702322589210006 497.2156383667176 3.6594805893614073e-08
5.2397387030914935 0.17062472911339852 497.2156383667176 1.3260507054792632e-07
5.227959697750631 0.17398690165613384 497.2156383667176 1.3096131463114336e-07
5.281394632748887 0.19755241181516528 497.2156383667176 2.746519185520216e-07
5.274317796972177 0.17246524402438074 497.2156383667176 1.4809034879504092e-07
5.276421112696721 0.18392121337633122 497.2156383667176 1.8878656175754368e-07
5.288167670593847 0.1873032308229132 497.21563836671754 1.0133572164785302e-05
5.263424724354223 0.17586569089911216 497.21563836671766 1.1224786010357083e-07
5.256830137282562 0.15527258494465607 497.2156383667176 1.0668468286098833e-07
5.264740194001677 0.16389787029314443 497.21563836671754 1.0803470299708862e-07
5.243379070956319 0.14489125763438981 497.2156383667176 -7.204591558352369e-08
5.231755889248567 0.13894928434861625 497.21563836671766 6.888956015293171e-08
5.225599903853376 0.16007751175990273 497.21563836671754 9.952813992221868e-08
5.211354875559049 0.17504398833875562 497.2156383667176 3.585446294638757e-08
5.222976069125798 0.1861403826319453 497.2156383667176 1.1059690300327912e-07
5.21768003105017 0.15072172330811884 497.2156383667176 7.269285553975294e-08
5.204890341818613 0.1610020300964261 497.2156383667176 3.580521755391236e-08
5.199876451493164 0.1489593288152809 497.2156383667176 -3.9136715998453944e-08
5.221443364038836 0.13103785021586303 497.2156383667176 7.579875989152036e-08
5.215881193959541 0.11540367862269954 497.2156383667176 6.8560890421642e-08
5.208713258513353 0.1316200117986952 497.2156383667176 7.268667246703029e-08
5.199302440432521 0.12125175887270748 497.21563836671754 7.166678291481675e-08
5.265118652575202 0.14435592429808752 497.2156383667176 -3.3495950252233403e-08
5.258076725435414 0.1268014383356342 497.2156383667176 -1.316851925333419e-22
5.247473545947868 0.13314098498698035 497.2156383667176 2.4583224360640826e-07
5.2393201146035455 0.12460318690936487 497.2156383667176 6.997055308171699e-08
5.23860079882285 0.10625246907898585 497.2156383667176 1.0266473456148292e-07
5.231825758833018 0.09722738800259774 497.2156383667176 0.0
5.219508854699229 0.10039463293161076 497.21563836671754 -3.595339266601502e-08
5.211934733131681 0.08912889138720868 497.21563836671754 0.00026306738909448316
5.208343743054715 0.10362812040045011 497.21563836671754 -3.68704791287566e-08
5.197261472338283 0.1336268906239304 497.2156383667176 -6.040605988169314e-19
5.193879514675294 0.08786668363822264 497.2156383667176 0.0013035107132052415
5.188257080302398 0.10371941986303497 497.21563836671754 1.6195407125031397e-07
5.179367075923587 0.09532871460786049 497.2156383667176 7.219681867400588e-08
5.210397773313168 0.06339321247647496 497.2156383667176 0.046575450289901385
5.183716081893713 0.07233233487787487 497.2156383667176 0.03913212066256408
5.202877397539312 0.075346929091747 497.21563836671754 0.028881994534120936
5.194417651681241 0.06511589795907904 497.2156383667176 0.05143806979803926
5.221892064920321 0.07754718307701874 497.2156383667176 0.032432886446565744
5.23670279118455 0.07856947632505001 497.2156383667176 0.03109115227778491
5.241218028255173 0.06764202567886893 497.2156383667176 0.05073581384250397
5.262733750956143 0.0693386180819692 497.2156383667176 0.057607864987107474
5.267861720862311 0.09052583490918287 497.21563836671766 0.028332123394869263
5.271826908881557 0.10389897303064032 497.2156383667176 0.00024067107165676928
5.259668968532188 0.09910383049113342 497.2156383667176 0.0014306117607820624
5.251044245892536 0.10836584879766364 497.2156383667176 7.59432426375467e-08
5.254581492791823 0.08036852156338072 497.21563836671754 0.03489586304724625
5.281246289751151 0.08147137589038424 497.2156383667176 0.05621141022831136
5.280678397676145 0.09647148796936386 497.2156383667176 0.03971287605669523
5.292220838417532 0.09246905714909553 497.2156383667176 0.04896983242284634
5.291518438599645 0.11882777724257886 497.2156383667176 0.015863364678346342
5.298620419349746 0.13617308584634635 497.2156383667176 0.0322874194887829
5.302033802263447 0.1130292497142071 497.2156383667176 0.05902912591998044
5.310356493947989 0.13214254787109003 497.2156383667176 0.03919289806718763
5.315022494025303 0.1439466684695753 497.2156383667176 0.034991216265150546
5.311192247493808 0.1608570883601998 497.2156383667176 0.05134090859263304
5.30233606263688 0.14847080931784779 497.2156383667176 0.03386163031417072
5.287818686675489 0.17605215970601795 497.2156383667176 9.592407733981702e-06
5.28445552788128 0.142548239884167 497.21563836671766 3.290521870974862e-06
5.275275363976553 0.1526248491800472 497.2156383667176 1.36268018689652e-07
5.290126809895652 0.16159203766433855 497.21563836671754 2.641558016690015e-06
5.309898194746686 0.17384325333433726 497.2156383667176 0.052420458349788715
5.299274591954079 0.17894849752343936 497.21563836671766 0.0126570987322372
5.312089226341225 0.18581864020303387 497.2156383667176 0.049263984695467146
5.302894077908496 0.19340825201706832 497.2156383667176 0.028015806339208412
5.300547421389592 0.20603963617122284 497.2156383667176 0.02413076803280716
5.31604596535691 0.1985065130070919 497.2156383667176 0.06354197099128606
5.311009155757953 0.21800613049821657 497.2156383667176 0.04678703293738698
5.320390789921952 0.22798639796278852 497.2156383667176 0.05673706409469999
5.307101287176331 0.2322822025101191 497.2156383667176 0.048188570781331194
5.313078117989369 0.24482313880933404 497.2156383667176 0.05368932774212988
5.321700951072237 0.25787041503427915 497.21563836671766 0.06596097904566058
5.276605343942592 0.1187655546038733 497.2156383667176 0.0001503913992649197
5.263315440606071 0.11291279461572541 497.21563836671766 7.374925738634127e-08
5.167855193952091 0.10438264370855392 497.2156383667176 1.4745705964453717e-07
5.161065569612133 0.08740391445159529 497.2156383667176 0.0017507046353768762
5.17169793544602 0.08475771170568457 497.21563836671766 0.0016607185014361231
5.16123788760975 0.06988195649994897 497.21563836671754 0.04481489753911268
5.174649515894089 0.06000407520376154 497.2156383667176 0.07042847093352445
5.178159372956526 0.11933053212961406 497.2156383667176 2.1986816555990922e-07
5.166603465918737 0.11957591140281329 497.21563836671766 1.4256265467196902e-07
5.156672467150268 0.10600450513657649 497.21563836671766 1.9669659560457378e-07
5.149616226097719 0.09380326214132179 497.21563836671766 0.0007590646002737467
5.188724737347459 0.14245601635453475 497.2156383667176 6.304316892839699e-08
5.174492189209115 0.14103283241350761 497.2156383667176 1.2847327384879501e-07
5.176689939530906 0.15769876522111903 497.21563836671754 3.49182529830706e-08
5.1606498343833955 0.1309599381179226 497.2156383667176 6.693436842255753e-08
5.151098766145969 0.12212557810062377 497.2156383667176 1.952822723850527e-07
5.150739127314146 0.13554361476189025 497.2156383667176 6.922337996641033e-08
5.138676953254862 0.1215845491170647 497.2156383667176 3.888672069045513e-08
5.130878607476229 0.11139147670352027 497.21563836671754 6.434824606168792e-08
5.1354702049450225 0.09490000136839166 497.2156383667176 0.004112756663898685
5.142820062466649 0.10546696727693382 497.21563836671766 7.065659457443128e-08
5.154876130706134 0.14764525067083192 497.2156383667176 -6.145699827001855e-19
5.154453810684753 0.16122334690959103 497.21563836671754 7.156649574473707e-08
5.136786508377987 0.13904854419886684 497.2156383667176 3.449973400050444e-08
5.125536848731617 0.12189818576225078 497.2156383667176 -3.405869109439105e-08
5.184854105822978 0.17463359195986178 497.21563836671766 3.508641882367707e-08
5.186117293983919 0.18883787273486305 497.2156383667176 6.98500558153437e-08
5.174674901666986 0.16934183927463314 497.2156383667176 3.6364845916737626e-08
5.161907553656274 0.17084352238859232 497.21563836671754 1.6364283457272952e-07
5.172455456216759 0.18723197575302208 497.2156383667176 1.1064235942933535e-07
5.199284802086652 0.17213592464355404 497.2156383667176 3.639995879746936e-08
5.218992516374888 0.19758678315489825 497.21563836671754 1.7461338920960925e-07
5.221301855596044 0.2111594184738267 497.2156383667176 1.3856216386323243e-07
5.206369284305782 0.19292825052841253 497.2156383667176 1.1049776450233414e-07
5.130503169702196 0.14883525574618944 497.2156383667176 6.557506547897679e-08
5.132906900913619 0.1629976025052079 497.2156383667176 3.7413628137512855e-08
5.106161956187132 0.14177054874662487 497.2156383667176 0.008180379373127157
5.102668624969059 0.12110185252443173 497.2156383667176 0.02613714677253494
5.119270707581193 0.13474976330422792 497.2156383667176 -6.764087663764508e-08
5.106440817049425 0.15403643117951174 497.2156383667176 0.0018940448296461071
5.121662552781466 0.16241027915142256 497.2156383667176 -2.5254601714357992e-14
5.097033010806131 0.16357905604564826 497.21563836588405 0.03619423446591809
5.092124143029915 0.15327316309374628 497.21563832560634 0.044460189537210336
5.086279577602145 0.16865265022653497 497.2156383667176 0.04931920148697992
5.084815938430905 0.13867851564004502 497.2156382711064 0.06094207193778851
5.0958501352150645 0.13590017958366243 497.21563834631684 0.03823547607937434
5.092209934630931 0.1124530112259648 497.2156382997707 0.06905006558439034
5.096566672224414 0.10159001972698198 497.2156382931511 0.05814176848368597
5.105104844869024 0.0944280414474811 497.2156383269298 0.05230553544818081
5.110521753007747 0.10705209534431803 497.2156383392711 0.02154425130600583
5.111772007676549 0.08264960374981839 497.2156383667176 0.0435480376827395
5.121789119204072 0.09915547258598037 497.2156383667176 0.010513192539055697
5.1311383690964405 0.07434636346484516 497.21563836671766 0.06337023224126023
5.13904803029007 0.08378717621878747 497.2156383667176 0.02635791609005963
5.122914191481189 0.083269952381293 497.21563836671754 0.04010429731792886
5.145896209261157 0.07473339762683447 497.2156383667176 0.03974941161385448
5.087012694053529 0.18792629916393816 497.2156383667176 0.06066003052934218
5.097989035303885 0.21321530955295398 497.2156383667176 0.018286275646475857
5.09165309171399 0.20007732676875278 497.2156383667176 0.028645850629441187
5.080743886507367 0.20183431705579086 497.2156383667176 0.07490337786028176
5.0953418230057785 0.230054502863078 497.2156383667176 0.022596694293877433
5.085170984734576 0.2222260664174668 497.2156383667176 0.0625938225436874
5.094069243551012 0.2642039371397211 497.21563836671754 0.03430521305006712
5.093200850841153 0.24336007085171255 497.2156383667176 0.021626240143132483
5.0769142546933566 0.25315938028875856 497.2156383667176 0.05764367282079414
5.07734568922019 0.267846446671947 497.21563836671754 0.05800603426398783
5.106971476377011 0.28028806338313716 497.2156383667176 0.002047631858073436
5.094280427971542 0.2797580981132905 497.21563836671754 0.04569993714017355
5.080763044510013 0.27909873223555476 497.21563836671754 0.05650500876771483
5.130223005201632 0.30978802478489376 497.2156383667176 0.011964324578968972
5.11655897955671 0.31206955094854366 497.2156383667176 0.02688035360464877
5.119879186042272 0.32383496527685207 497.2156383667176 0.03330853686745421
5.105191680964592 0.31898809748799944 497.2156383667176 0.042857345080375066
5.10727442042025 0.3031717520572922 497.2156383667176 0.0460459696760826
5.137604789326561 0.32804459745947445 497.2156383667176 0.04601830481541802
5.1512406437557985 0.3431664171077021 497.2156383667176 0.06443847003355926
5.1614753695641244 0.3324461706344791 497.2156383667176 0.028026979112442583
5.1757206953286445 0.3253269672282847 497.2156383667176 0.005239577147990252
5.185966340363397 0.34700047661712907 497.21563836671766 0.06311274174092052
5.168240494873801 0.349165097738476 497.2156383667176 0.06424921490794604
5.09623156486321 0.2971047651962937 497.2156383667176 0.04824881108663154
5.084294576950409 0.29218954066996083 497.2156383667176 0.06995455897436673
5.013978912235251 0.4618092729881249 497.28100201098266 0.0844174475585857
5.013847652390331 0.4832855824415049 497.273653490434 0.07075435779474318
5.01380309731037 0.49778757510269744 497.27104719731267 0.09520553490478123
5.0140456325191245 0.49810429514245075 497.2849516925422 0.0911509045881938
5.013699335071015 0.5094817070898457 497.2649616432401 0.07241850841159873
5.013563317278861 0.4961387547153596 497.25722654544586 0.07682891594549167
5.013703919017586 0.4733791610482377 497.265386744179 0.030374812894812867
5.013805812892876 0.452235634052025 497.27089118533866 0.11176654632652154
5.0135865468560645 0.4477031364834435 497.2582109232902 0.11066913777341073
5.013744808993154 0.47442497556121294 497.25056217707044 0.007754418595525873
5.01360199006937 0.46099677973470576 497.2541269666979 0.043414572638424825
5.3835871344170405 0.5064726760909488 497.25400922731234 0.07161909433649424
5.3834177734627655 0.4577726680138549 497.25067600101454 0.051486399134810616
5.3832454493211825 0.3377824342705615 497.2508749202119 0.1035878755226112
5.382278186658859 0.3054984256757294 497.25350373244055 0.13843147273359493
5.37941955518728 0.1954442017397516 497.25450003555494 0.15644238538417088
5.379882498732454 0.17442434436504795 497.2514063293078 0.15858270764362023
5.378862392374956 0.16265708585925298 497.2518161137847 0.13848368151623117
5.3792527823110055 0.21836688030544507 497.2552223326102 0.15351260727491997
5.379470096405117 0.24979441266895117 497.25532469549296 0.13472988852029577
5.373865797501282 0.1460836192227428 497.2552657760294 0.229546240960527
5.374043164490731 0.13060296476364552 497.25310940005386 0.13877245938462968
5.372052888369169 0.11708387762620735 497.25004177959903 0.08112079439444224
5.362319187812037 0.08595468137258389 497.25034645334387 0.12924956057464373
5.325321185604307 0.03791813191280934 497.25411759583017 0.1265415376332091
5.281436550382431 0.01697552875867253 497.25553183174827 0.143258445921578
5.260435329032413 0.007034390010902554 497.25266860856334 0.10009479253674437
5.212229884953143 0.0013624516024681732 497.25326604208976 0.10878343647084684
5.159092358673874 0.0025424740397297324 497.24887683979745 0.12235012653067144
5.146783615614993 0.004695850161524134 497.2519439005594 0.14553546522608218
5.11967816364519 0.01137407233280113 497.2515282635942 0.13967955382721145
5.100494573148913 0.01956739832325624 497.2532885342247 0.15075696486174406
5.072417986821998 0.03516367874702292 497.2505278926236 0.10555745587276974
5.061681936929018 0.04957951292942472 497.2552038045221 0.12010979186686473
5.047319511244599 0.06631720168797718 497.2546159948985 0.20009412940331278
5.025610954178244 0.12118294677125441 497.25395935151914 0.139891892805563
5.022715633467631 0.14446618810618023 497.2548741293152 0.17166650041107745
5.016734033889592 0.18332615192809043 497.25210972856576 0.14271837173175111
5.016005500942949 0.21191553066768015 497.25325607247817 0.10623038924038174
5.015063721247176 0.2866179402992377 497.25369601735116 0.16768264833753435
5.013842872331759 0.3975535921076868 497.250508885232 0.09148434011701334
5.017870940724464 0.263045275257977 497.2553933231185 0.1343811835348467
5.014312052708478 0.25147297829046433 497.25099737283773 0.12728807709824816
5.273262600173988 0.00982763410107474 497.24968727943184 0.07428529441756256
5.308866843435469 0.024691204891924435 497.2495907988573 0.07005683637734136
5.350524463142496 0.0631407086591111 497.2500598428694 0.09110086186915757
5.064965402518873 0.3859090740663307 497.2556385194166 0.022557108800837885
5.07277891146419 0.39522434517343874 497.2556385408103 0.027542417789263664
5.061351148680645 0.3599415532813421 497.2556384597792 0.020869999578634193
5.0542350707034185 0.39176237858510143 497.2556385328595 0.025751102734727065
5.072176047071338 0.3734060001618109 497.25563849070187 0.023507624831593125
5.101543417926555 0.3833462839783782 497.25563851353087 0.020876630342742005
5.118337125978455 0.3927744607296611 497.2556385351839 0.022774764033546988
5.0897042115584945 0.380940506344729 497.2556385080058 0.0215359029894618
5.094917129037753 0.3930958619308671 497.255638535922 0.024182714155116972
5.087658784503134 0.3488490251104539 497.25563843252326 0.07290296457067959
5.075848684761175 0.3539425443976133 497.2556384454386 0.020711509168762302
5.094928613368552 0.3398848800221923 497.25563838798985 0.1452873743625945
5.105238614078607 0.34887931203538486 497.2556383912622 0.16107602126543247
5.104629391390455 0.3719583909590972 497.2556384794592 0.0533186177401989
5.05359088271096 0.40414227570533917 497.25563854982306 0.041911984467088166
5.089992760437795 0.40930511459848357 497.25563854982306 0.06196353849369806
5.04064320232384 0.4236799122532381 497.2556385498231 0.18367327788128962
5.030999761743095 0.41640907401969196 497.25563854982306 0.2018716124789454
5.071481529994951 0.41870645587880106 497.25563854982306 0.08509475520362698
5.12057736274942 0.40497289619135624 497.25563854982306 0.043670477677403466
5.132260000823446 0.40475367473714946 497.25563854982306 0.04041175382442332
5.052710705099351 0.4249274106089249 497.25563854982306 0.11018268114683033
5.246129319226618 0.42772161731427444 497.25563854982306 0.10872305906218885
5.305982170205618 0.43363065211143603 497.2556385498231 0.11265901049858666
5.149044113710705 0.4272748520355478 497.25563854982306 0.09188581034551038
5.19638078542964 0.4190680971759241 497.25563854982306 0.09120845122176892
5.232555138183906 0.4255371078393302 497.25563854982306 0.10080186464240001
5.26831762025074 0.42869571879650026 497.2556385498231 0.11848899283560535
5.179927324717059 0.43335970527184553 497.25563854982306 0.11115305708787447
5.2515973111468455 0.41722008217765005 497.25563854982306 0.09852077366308074
5.117656857291697 0.42317399994652194 497.25563854982306 0.0959406571457255
5.137819201073226 0.42055482020019574 497.25563854982306 0.09998726039752509
5.264267525451848 0.4181030419313846 497.25563854982306 0.09072854132942068
5.09924117699121 0.43104386580032916 497.25563854982306 0.08995538541484394
5.162810606501738 0.42538024950960124 497.25563854982306 0.0889567450381128
5.3178109189284015 0.423105650055232 497.25563854982306 0.07440132657298094
5.160278918678197 0.4075874500829477 497.255638549823 0.052148256033815905
5.190279714532212 0.4031740868000245 497.25563854982306 0.04673405359372266
5.208729172365555 0.42315961428258925 497.25563854982306 0.10489533991969571
5.2994464385432805 0.4232252841924769 497.25563854982306 0.10429094091535036
5.0825194929375215 0.4249276634672593 497.25563854982306 0.10026106824184756
5.3366788808384875 0.428111795496522 497.25563854982306 0.09870013421033348
5.11266484466677 0.43314301093931695 497.25563854982306 0.09329845972395444
5.278138350608596 0.42274848975113277 497.2556385498231 0.1085359481948777
5.037948542962378 0.4016797687064017 497.25563847274185 0.12705625094885759
5.0242145652989665 0.40671658995389176 497.2556383966893 0.22922956286380827
5.021479809402345 0.37691670474938194 497.2556382679845 0.22239479573707646
5.040537145832338 0.38439457729496374 497.25563842989345 0.12194728978896277
5.040411041525395 0.3670586203766837 497.25563838912166 0.11120994224557287
5.030458244893188 0.3574443389755335 497.2556383989498 0.20189049720868216
5.02295256526049 0.3317822334665911 497.25563837810125 0.21385572622053367
5.023389638900947 0.31678582655512855 497.2556383792696 0.20425069882670116
5.035793768466931 0.32035592607006985 497.255638413681 0.16082871250549852
5.051532087026594 0.35134945542567614 497.2556384573419 0.027411469901991753
5.039396776239031 0.3407495107939933 497.2556384236764 0.10494598538784267
5.029422205947022 0.2973174168661883 497.25562851839777 0.17388031410752328
5.024291822617435 0.2742580391129298 497.25563838144257 0.19215675470561827
5.04282447935031 0.2723030138707088 497.25563843299267 0.12055573573103356
5.041145865065557 0.25901305814378817 497.2556384283001 0.1230732090288774
5.051331950564393 0.24771792190607067 497.2556384567754 0.13376037202452926
5.026516005824337 0.24567327720355878 497.25563838715914 0.269486385177818
5.026739885126302 0.23387281261706142 497.2556383872278 0.25834226764949236
5.05051497445493 0.23442600687973356 497.2556384543925 0.12892544277524112
5.039488906893598 0.21224766005598755 497.2556384227627 0.1432465104278688
5.0246791182171275 0.2009413305320018 497.2556383788788 0.16865898977567925
5.029614486872765 0.18703288278640093 497.2556383910174 0.259320258028747
5.056304131110076 0.21565904271878386 497.2556384055342 0.17535473775310823
5.042981862333669 0.18075944691378376 497.2556384001024 0.18685664910961172
5.02976614641593 0.16696158223277668 497.25563836671756 0.22222763730943307
5.04626919043281 0.1472873066605773 497.2556383667175 0.17561178521067913
5.043849142037447 0.12760154752930797 497.25563836671756 0.18991522107382186
5.040168697568039 0.09715608448703596 497.2556383667175 0.18010058886421126
5.049654757686465 0.10477167735619874 497.25563836671756 0.19097083538516363
5.069425550606654 0.0972302865755308 497.25563836671756 0.10142197514717705
5.056997362826672 0.11958300412504998 497.2556383667176 0.14897204543946424
5.0568664809247466 0.16174991851297166 497.25563836671756 0.1503270847891121
5.060459229098829 0.14923287181022613 497.2556383667175 0.15450360930406445
5.052012356343484 0.08563131855062368 497.25563836671756 0.23222154019769367
5.063676997078748 0.07601863337376596 497.25563836671756 0.16672427611038032
5.0748595552816536 0.07567604324379967 497.2556383667175 0.15125277471328577
5.087388304721186 0.05304018487893501 497.25563836671756 0.17692984512086515
5.081096269383822 0.04108834569049316 497.2556383667175 0.21003983363484838
5.100785858154896 0.0461912620410562 497.25563836671756 0.17390787279826223
5.118575955210539 0.0456941541009966 497.25563836671756 0.18373860853213225
5.117011575830959 0.031809144277385584 497.2556383667175 0.20871769322197825
5.148947243631367 0.04126901152009478 497.2556383667176 0.1735853482110328
5.288732469501552 0.0283645160495571 497.25563836671756 0.24539708979157682
5.29290634277225 0.06105582582199361 497.25563836671756 0.1429082790864376
5.3079764427429 0.054059639037973964 497.25563836671756 0.18331531550683405
5.312670488831504 0.03546016764481235 497.2556383667175 0.1668084632523087
5.3088152680810206 0.06828607548851119 497.2556383667175 0.13637951697583267
5.333767686006793 0.052111412844576696 497.25563836671756 0.12497828926211524
5.3240470563302145 0.08069377498425799 497.25563836671756 0.1569417129088068
5.331802948677904 0.06644019795190767 497.25563836671756 0.2413078630994764
5.328172955860319 0.09856287262530497 497.25563836671756 0.13593447763490835
5.353011917890527 0.08077954596336459 497.25563836671756 0.1756738294278335
5.338813187633466 0.08909413864152951 497.25563836671756 0.22725624754809093
5.332336541197412 0.11860137186633996 497.25563836671756 0.12419603690316834
5.3438822052606 0.14076379889567153 497.25563836671756 0.15261199031787656
5.34175743757475 0.16479764368480818 497.25563836671756 0.11964846522699929
5.34068895331865 0.2360085850013673 497.25563840194206 0.18691995478915224
5.344598850812431 0.2055126513118088 497.25563844984487 0.10054066298331786
5.3420462439859495 0.26482629423966897 497.25563841742735 0.15113083139571312
5.336731266849037 0.33939366480326866 497.25563842368854 0.03876237675221614
5.327729418455865 0.3157178455558264 497.2556383847118 0.15308023259388734
5.344736107023655 0.3221933190549563 497.2556384552 0.051379418708795976
5.3174616992993675 0.3226092082203884 497.25563837556876 0.1670737471358598
5.318897014693393 0.3415375451610172 497.2556384156412 0.09865808723870156
5.326915735665638 0.3582159130210756 497.25563845570343 0.02061160639971155
5.287700750255061 0.39829266830132753 497.2556385478571 0.026500383074077222
5.314764285880884 0.3692239220523801 497.2556384810972 0.019369700138429046
5.298607505956481 0.36177350240038963 497.255638450142 0.07077344533942757
5.284826896962209 0.3796223633296036 497.25563849586695 0.030314022105731885
5.279856095294059 0.3596974294070122 497.25563840836884 0.09401752056839353
5.305349441579448 0.34904882761481115 497.2556384213998 0.11746781901082126
5.335335372189018 0.39570798200344215 497.2556385419209 0.02944550874158879
5.314067418930868 0.3940555513870051 497.255638538126 0.026184337345651367
5.325220751449644 0.38962324700851036 497.2556385279467 0.020436056653058154
5.334092215078723 0.3747066158661895 497.25563849368893 0.02153917295311081
5.355606125154946 0.41246507852883313 497.255638549823 0.13996276014895354
5.335013187039763 0.41093991811791064 497.25563854982306 0.08445449945316028
5.27663712386201 0.4006715142072929 497.255638549823 0.03283268966869421
5.301803077540355 0.40149949708252436 497.25563854982306 0.03088016437759563
5.319545678422691 0.40920632477685864 497.25563854982306 0.05869078916260611
5.282420490417938 0.41151447400189756 497.25563854982306 0.07837637912811697
5.236351449622688 0.40438718316773725 497.25563854982295 0.0446289032471235
5.35929436344288 0.42909695309828777 497.25563854982306 0.2010605174939612
5.373216839788957 0.4268321437094793 497.25563854982306 0.21379928666282175
5.177967758618478 0.37678383791286324 497.2556384332497 0.11561379040670741
5.1885738629967095 0.38429375805697297 497.2556384711157 0.07246184457782677
5.167949430679552 0.39767543505317055 497.2556385422051 0.030285940826818628
5.157703026558548 0.37728104909754845 497.25563843675025 0.09328437966378478
5.156232234464239 0.3960193009527513 497.25563853364156 0.020789298002387074
5.225045592503832 0.38391575759772806 497.2556384688867 0.0757013545579213
5.22001773434415 0.3733048895959983 497.25563841250863 0.12027843924152509
5.205286959921056 0.3958924167199688 497.2556385325216 0.03167521399686626
5.19507967030557 0.3725884447682314 497.25563840870194 0.14980692742456728
5.207316882098159 0.37378696580054216 497.2556384150699 0.1306086954254146
5.200698126183254 0.38318737250740076 497.2556384650166 0.09458543307687178
5.250262247815155 0.37558403495127235 497.2556384370016 0.12166488479970862
5.245638695108912 0.3954675564216813 497.2556385321987 0.02876091960052681
5.256532556673363 0.39651835738820274 497.25563853722963 0.02899041627833065
5.233761393297156 0.37269193674598844 497.2556384124818 0.13900453692692685
5.263605546738061 0.36557180669808453 497.2556384030082 0.11771470105546451
5.265053838156426 0.38170642758409173 497.25563847019356 0.061568533016604796
5.146329303701509 0.3686407122908516 497.25563840056617 0.11396748562449778
5.1357186610200944 0.3772220036191807 497.2556384473225 0.10022184127114526
5.124201653672779 0.3581803345364264 497.25563838974676 0.13584752730216526
5.1237075088824495 0.3742154315151822 497.25563845406884 0.08131351387152112
5.368907918037344 0.4081665722196143 497.25563843786466 0.22406469734850515
5.375673156539746 0.3759785011488234 497.255638265993 0.17110099547543883
5.353790473612336 0.3885609678088916 497.2556384610835 0.08177891617471099
5.351631568271173 0.3695909388680836 497.2556384339129 0.0747377795806172
5.363094834469513 0.3650691051499372 497.2556383862778 0.1844610028684816
5.374214781947854 0.3597477152235039 497.25563837817714 0.19406382736998537
5.349086563076399 0.35810727630353806 497.25563844779856 0.041252155290139855
5.357952031344679 0.3504641290235551 497.25563842322174 0.12111085547142483
5.374039349131759 0.34280659655072565 497.2556383786363 0.22083385923716095
5.376023906324317 0.3233524573139157 497.25563837307794 0.16542194989053988
5.3582271411674895 0.3210494887092504 497.25563842243 0.15564840269176736
5.37160447570548 0.31096162072042716 497.25563838531923 0.224358932305976
5.354993244195946 0.29996818349841536 497.2556384314014 0.12181861687427994
5.349861896230816 0.3339112112984103 497.2556384456365 0.03048277424011724
5.376900568215425 0.29021399295554773 497.2556383704344 0.15479399552898004
5.374589584245456 0.27860031187050716 497.25563837674633 0.20493250408289385
5.351820832864319 0.27880025912816087 497.25563844013084 0.14715102535311123
5.367559660309289 0.2523317019969848 497.2556383960658 0.18240283820076797
5.3561233601535 0.2623770718765736 497.2556384280357 0.1280031444490483
5.356058359679463 0.25007649244738483 497.2556384282174 0.144809922481319
5.370564247999148 0.2375716472893148 497.25563838706125 0.24800879054711494
5.352479703330534 0.2292974582891507 497.2556384376969 0.1296398630148702
5.364773191451134 0.22376791686248368 497.25563840243166 0.19675905979374614
5.353512656242414 0.215456274378501 497.2556384347337 0.12677833712798667
5.356537860422456 0.1989815078591419 497.25563842529823 0.16883660390799435
5.350508055543564 0.17490209981352267 497.2556383926119 0.14147021034571344
5.359930885921219 0.18636863089677863 497.25563840370023 0.1473815976890572
5.356322071498746 0.13915240331565806 497.25563836671756 0.17385620323198425
5.3529789575444635 0.1566972668349278 497.2556383667175 0.14182697637488548
5.3459985254111535 0.12017764493001062 497.25563836671756 0.155381885797847
5.363286763147185 0.10538065658219369 497.25563836671756 0.14712172076902957
5.27392307715496 0.035500683115648655 497.25563836671756 0.18539450923462142
5.2537290739435365 0.03686581950494598 497.25563836671756 0.1626043319796257
5.247817999377245 0.012799273438029862 497.25563836671756 0.20890991023492989
5.227372479420884 0.028273106700625095 497.25563836671756 0.16161888720539172
5.231808801356338 0.03945363323426523 497.25563836671756 0.13776799263205627
5.209454391607833 0.01564720414055737 497.25563836671756 0.24518987178808146
5.193469650004552 0.005582588833945229 497.25549593048845 0.15679161153075988
5.178687213713925 0.011861187225960895 497.25563836671756 0.24511109918837623
5.18703710498159 0.019518729391937682 497.25563836671756 0.2210714511769062
5.183326599705664 0.03165210989951046 497.25563836671756 0.12034730710238843
5.1680232213877995 0.017253853035337302 497.2556383667176 0.2040737104384451
5.154618119980156 0.019881100749746933 497.25563836671756 0.24339825161829734
5.125209359500395 0.023120315876129564 497.25563836671756 0.26103842612764083
5.052626482657336 0.30707928550236907 497.25563845419015 0.056367549985945675
5.0534198258635925 0.29248704112358537 497.2556384499296 0.09891083874584893
5.063591775958596 0.32403153609235824 497.2556384032739 0.07721534150847104
5.067369345307747 0.3070128368573038 497.25563838013375 0.14615102661306884
5.057904897506085 0.341089850194945 497.2556384299099 0.021982608813206114
5.076363733824272 0.3287883558640185 497.255638387441 0.14269020136590785
5.073199880391687 0.3172497894568072 497.2556383797294 0.1394417880443045
5.382133825889892 0.43488009907160685 497.2539404689969 0.12110626907656324
5.2212040244836455 0.4357300769039712 497.25589457584704 0.11647940218839505
5.071243326195481 0.43559975939949297 497.25574524856785 0.10026063582738631
5.059334707986698 0.4351378315999467 497.2556896144373 0.11463231236326207
5.280216911617289 0.43783683869279133 497.2568361762776 0.11037296438557863
5.200594964005173 0.4380139857658647 497.25690649289504 0.12479929632968155
5.248508247198949 0.4387858852461487 497.2577781660648 0.09830821981235205
5.333621803873539 0.4396062281258387 497.2596765431019 0.09056391012992843
5.133064585032436 0.43925030371673157 497.25851627336704 0.08353454109885465
5.383296208444226 0.46438412886900216 497.2752930778465 0.05494876722063245
5.383298222860222 0.4767116685371091 497.2753187903238 0.061110233353897175
5.383428840183907 0.48645909138195603 497.26783524128416 0.06475499658190373
5.383080462147893 0.45323440565322143 497.2874464001105 0.10558760345726895
5.383027032124248 0.4644774165893815 497.29070895395773 0.08756331942888636
5.383215925657843 0.48684207036715976 497.2800342485847 0.09459409742824287
5.383180278216085 0.5004266403623281 497.28199988814055 0.11483647438087612
5.383593120469801 0.493131333677577 497.2580053471106 0.06401476209724684
5.383616666513588 0.47244280523626525 497.25664882783093 0.015511217265883148
5.3835477838559695 0.4487957138224825 497.2605426252361 0.1044212640147082
5.379967696454864 0.4401538567111315 497.27940322922416 0.17096735687388132
5.381840760888663 0.4756980497020918 497.2935574158221 0.07311169448191134
5.382368449814071 0.5081209686480574 497.29309899469723 0.06489839294927928
5.3827967961348495 0.4889035288494592 497.29194446972053 0.08870429608225328
5.381230449169617 0.4412436044842677 497.2914954555593 0.15642544974260889
5.172485866235381 0.4398138351440366 497.2752618535159 0.14229870096723335
5.1346066101751715 0.4398138351440366 497.2725704983362 0.132348933215797
5.1220012882616714 0.4398138351440366 497.2740880329094 0.12569311044735784
5.159663577764853 0.4398138351440366 497.2710482678326 0.127866713523352
5.187473476838427 0.4398138351440366 497.27010798793714 0.13900300995582704
5.193738783905637 0.4398138351440366 497.2804628077821 0.17872351289850066
5.209656527675433 0.4398138351440366 497.27564946668576 0.1499639234801466
5.199194547376093 0.43981383514403655 497.26952326834487 0.14269799472646805
5.228458594414542 0.4398138351440366 497.2712683885645 0.16458970082536817
5.246228270598523 0.43981383514403655 497.28306343537866 0.19789464080815652
5.2209852675798665 0.4398138351440366 497.28191578556095 0.1879351953875388
5.257259883706 0.4398138351440366 497.2764344411788 0.19501272474338696
5.07369028905846 0.4398138440526782 497.27518447955026 0.1572140020260865
5.101589296889694 0.43981383693519593 497.2760021099518 0.14703994294456857
5.034974708172056 0.43981385392964073 497.2764999668092 0.20962443268473693
5.046655605005198 0.43981385094965747 497.2772345724699 0.16137718392049652
5.058819235391103 0.43981384869950324 497.2806691628049 0.16406083289083406
5.086590073030399 0.4398138416197002 497.28299263085404 0.1516479526548856
5.050709758248577 0.4398138642979502 497.2903043345666 0.20693111900867067
5.1535015044819 0.43981385321491334 497.2875895340407 0.20339901436568741
5.1417128348325996 0.4398138434172407 497.2851895847334 0.18485728388768086
5.182142225963053 0.43981383820406994 497.283912613546 0.18226542620846525
5.112711635571614 0.43981384773864346 497.28624811647416 0.18580782481750913
5.037903102638575 0.4398138388362546 497.26474690722944 0.1884683181257858
5.086486994801493 0.43981383637654115 497.2671785333096 0.08693140788623521
5.02451523617083 0.43981383821960146 497.26323255254147 0.19375253008790422
5.050773734892271 0.43981383636412813 497.26420368031523 0.10423531729443916
5.1042545666071915 0.4398138351440366 497.2619040511411 0.08059362713316935
5.150389941377602 0.4398138351440366 497.2643320965236 0.1088704104439535
5.172065115948229 0.43981383514403666 497.26308590622114 0.09201245901546987
5.277825592521977 0.4398138351440366 497.26959464508775 0.15312999822766005
5.242251152185037 0.4398138351440366 497.2693747619543 0.13636647381654285
5.21578126433886 0.4398138351440366 497.2651917347722 0.1351760673291781
5.296791744959487 0.4398138372428486 497.28092883831636 0.1896261505561878
5.347943595900784 0.4398138502925465 497.2757824890486 0.15793491087084197
5.308668219889983 0.43981384024625403 497.26987027833366 0.13107594675702236
5.367147361320299 0.4398138458046072 497.268632516252 0.20431604168956832
5.357287792690159 0.43981385684393515 497.2855212646043 0.19192239831337143
5.338796801487493 0.43981385115639215 497.28517996624305 0.19369250180311057
5.276737177515755 0.4398138468969549 497.28604194406336 0.1975328289657627
5.264541470136637 0.4398138351440366 497.2617100179277 0.09358058279340997
5.289112245611642 0.43981383514403655 497.26549566534567 0.13114717129738618
5.320953255412296 0.4398138351440366 497.2654604367984 0.11403249430907997
5.353626020421959 0.4398138351440366 497.2617558144259 0.1293127921997062
5.365230460213316 0.44414249543951234 497.29554752873497 0.1589715727909781
5.350905463420505 0.4425263152038771 497.2950480687168 0.14743820729546586
5.239086665501958 0.44268845668146517 497.2950709937162 0.15839201010200413
5.303984955459027 0.442879323628888 497.2951752839962 0.11462983356884922
5.317395835811965 0.44328532718918734 497.2953560912007 0.12190186921948058
5.292273791472228 0.4398596499823482 497.29099524178304 0.20263385014880148
5.127159209281315 0.4409006619182737 497.2936936548026 0.16242000800477097
5.1730963621836 0.4407661192320219 497.2934270704799 0.16641620497481385
5.266166360391767 0.4410496445576012 497.2938508104887 0.16811744300063203
5.201804081198722 0.44087286796091446 497.29359121532855 0.1576498988358149
5.0226938874480425 0.4970052346062831 497.2956382446472 0.10640794189557855
5.044235628976294 0.5099710443813003 497.29563824464725 0.07965209676132548
5.034221267658972 0.4905842504381584 497.2956382446473 0.07844564875687292
5.046808502082075 0.48841173422041917 497.29563828586464 0.06731861467418149
5.073909260824578 0.5045650988808921 497.29563833926176 0.06830510891600865
5.085433016459266 0.4641996536583735 497.2956382650078 0.04384831954636624
5.038265057208318 0.4799762548340023 497.2956382624663 0.06303605562029686
5.073683872887309 0.4595468983871026 497.29563824830166 0.056361736300834187
5.0955970073205545 0.48309532260436133 497.2956383073094 0.038507819356557865
5.049491501711025 0.4717310619595425 497.29563825466215 0.030439055743289565
5.078707512584771 0.4845341469212461 497.2956382985143 0.027506644467413733
5.063890434866819 0.46629296189404146 497.2956382542732 0.02880996701525327
5.106512140578543 0.5015398257721594 497.29563834927694 0.06880004857063146
5.0989779965552176 0.460964492849327 497.2956382681636 0.044000629564123206
5.093136108562027 0.5001940553084472 497.2956383376572 0.07843846070736792
5.061136994375692 0.4922229984519474 497.29563830096095 0.06725270569955702
5.067175169986655 0.47990813308713676 497.2956382820057 0.027246314466221444
5.027951418733496 0.46580409927530414 497.29562841391567 0.07464444009632751
5.060751667019891 0.4450066513317956 497.2956180228259 0.1354079736931081
5.038146930778194 0.4453981527072895 497.2956088753534 0.150417644681233
5.038898450440161 0.45720422994305576 497.29562300548974 0.09735113422080319
5.094398103666661 0.44831246375625255 497.29563618739 0.106139581868547
5.0200300928912265 0.4452792502155317 497.2956010378556 0.16052622658340904
5.050255403360561 0.4534633497727265 497.2956234553153 0.09781720435741711
5.0804788745607805 0.4480154711394566 497.2956299252555 0.08544229929034566
5.12418275649133 0.49028441057455335 497.29563832979846 0.06657557963644517
5.111128491371568 0.45966412132835277 497.2956382724569 0.06092903245645648
5.114495151112294 0.47497269456493174 497.29563830112477 0.01008885692646446
5.118410720776805 0.5008335726438526 497.29563834955354 0.072361135668202
5.10983553007101 0.48668973949857186 497.29563832306684 0.05975771981724226
5.131297645395895 0.4782737433735088 497.2956383073065 0.012209424246156207
5.138761280010563 0.48876615963253567 497.2956383269552 0.058027564144294864
5.152018787354146 0.498078158891608 497.2956383443936 0.06832985914398451
5.1131476526598645 0.44744090126980807 497.2956382495669 0.10799101599433873
5.165654218067352 0.48337378688167043 497.29563831685715 0.044631062232935406
5.151182932170209 0.4598475225836737 497.2956382728004 0.05538910227352349
5.149382450394068 0.4480629163350035 497.29563825073166 0.09019870137166508
5.1740854387039175 0.4645249313054944 497.29563828155955 0.05500845475953396
5.136356454639162 0.46490850921494226 497.2956382822778 0.03178961504626269
5.186503093610894 0.4621993653628638 497.2956382772046 0.05561206073430699
5.1454957921408155 0.4783606565596926 497.29563830746923 0.015701563477329233
5.13151077152122 0.4537954084699441 497.2956382614667 0.09258377251343623
5.164927747554901 0.4493055759241165 497.29563825305877 0.10815563194613675
5.16152050916065 0.4698045503326135 497.29563829144655 0.033365455655652625
5.183440243464836 0.47574666263207555 497.29563830257416 0.008555482623737629
5.162823799238367 0.5071006092694467 497.29563836128955 0.07875726666970097
5.195127667255015 0.450468880671671 497.2956382552373 0.08412617888808235
5.178346724750048 0.48631061204707215 497.29563832235687 0.04661951048984451
5.191791182793175 0.48656419630952563 497.29563832283173 0.05827633117333867
5.18551303019753 0.4979897316229481 497.29563834422794 0.08483234124668353
5.177238408822468 0.5080320518275434 497.29563836303385 0.0755623277123721
5.2148450626930405 0.4745132517934446 497.29563830026433 0.025023204748106764
5.2155591792478235 0.48999298701901306 497.2956383292527 0.058404958536609076
5.226709307134227 0.48783160141777776 497.2956383252052 0.06949300797580368
5.218534533215617 0.5014160483251096 497.29563835064425 0.08991287098200669
5.20268995244976 0.49485789219865167 497.29563833836306 0.06516251400501014
5.20422399461005 0.4836779896109086 497.29563831742684 0.038599225946395144
5.2595830264268795 0.4700171953610522 497.29563829184474 0.02145810619837641
5.222344528532636 0.4460979684568144 497.295638247052 0.1522153196650444
5.245493561018645 0.4636149023768798 497.2956382798554 0.05603243045454731
5.250395064796306 0.4469394605665894 497.29563824862794 0.13372046401700116
5.225703970540824 0.47411224143655173 497.29563829951337 0.01789082529568346
5.272412722036789 0.4666860366733698 497.2956382856066 0.035063883978114656
5.270882506844979 0.4527604343882059 497.2956382595286 0.09614361936008926
5.231674196354495 0.4579848437615822 497.2956382693121 0.06802349353943692
5.239834221189661 0.493891074132522 497.2956383365525 0.06227580288971568
5.214086645006635 0.4609464181199955 497.2956382748582 0.07072255287101932
5.248153330411164 0.48281314582367096 497.29563831580737 0.019622392254197294
5.267675952977286 0.47824571726944687 497.29563830725397 0.018078075152052224
5.251888189664283 0.5095173775803022 497.29563836581536 0.0691935480408329
5.265226976261478 0.5008060130299782 497.295638349502 0.08832110965013841
5.278992447291403 0.48881825158280656 497.29563832705287 0.06786789258257724
5.28667461569851 0.4785310549112021 497.29563830778835 0.021251113974310277
5.280450613961609 0.5004887617343293 497.2956383489078 0.07944455433270028
5.287331224283395 0.4635010279022027 497.2956382796421 0.05338688794671185
5.307923998429768 0.4671572794753786 497.295638273142 0.032966073961515664
5.319915480298655 0.4833347486913814 497.29563829527956 0.04386178987934206
5.331972274265841 0.4886691209830772 497.2956382970674 0.063573469176341
5.351674068621503 0.4817345581293636 497.2956382706797 0.030372277733190536
5.303572699424507 0.4788840119758737 497.2956382980619 0.018054354384047427
5.326955980726222 0.4621745552616389 497.295638250865 0.0581149801837007
5.299830821396296 0.4900362093043298 497.2956383214912 0.060383177174590685
5.337989181156116 0.469927566302941 497.2956382578784 0.021073546209480386
5.307730584696517 0.4538183039245676 497.29563824829455 0.08371216262670636
5.3562236723966095 0.4611106595952893 497.29563824464725 0.0573681146623451
5.3689269686383625 0.4650519433164873 497.2956382446472 0.08374860723315243
5.374576858833002 0.45089559738724727 497.29563824464725 0.10348422277719095
5.3367388075927575 0.4467093125801129 497.29563824464725 0.14857465628282826
