x y z curv
6.331754751909349 0.4163099319735751 799.6126306625684 0.1535168480224636
6.2621897710926575 0.3897894107869194 799.6126306625684 0.19318575521730297
6.293040791274284 0.4038693147445809 799.6126306625686 0.11987615290963177
6.196113914861298 0.36206585831560917 799.6126306625686 0.11688219565403478
6.303010434002653 0.40848729790228216 799.6126306625684 0.14490351031389748
6.249985733635034 0.38640870763742985 799.6126306625686 0.16670781420050493
6.211627831186656 0.3671070089611776 799.6126306625684 0.18516420748634219
6.2196260014656755 0.38030046037728643 799.6126306625684 0.19289167800187687
6.230221686001279 0.3868092825179072 799.6126306625684 0.1749748660551827
6.241699651276725 0.40054718443066245 799.6126306625684 0.1991138814798977
6.253217646634871 0.4048788945782913 799.6126306625684 0.18774273212453774
6.268589244918439 0.40335260297108166 799.6126306625683 0.1878175972988485
6.278442408359931 0.4124562430054891 799.6126306625684 0.15327043690415054
6.2039388251886125 0.3924169619570135 799.6126306625686 0.08530462281011943
6.227638614189395 0.4047591717047386 799.6126306625686 0.16550384057292758
6.216252249749855 0.40100104864525765 799.6126306625684 0.07692964964241758
6.339355220210159 0.4265118425333494 799.6126306625683 0.15656314201599406
6.263264641882833 0.4224600298055972 799.6126306625684 0.12098381249782063
6.28257016064562 0.42695239964886905 799.6126306625686 0.11285125800747524
6.293084115114441 0.4166731808780425 799.6126306625684 0.13783312662876798
6.217972079391798 0.4126836578183892 799.6126306625684 0.1176430493683141
6.2498259965501175 0.41632865795785556 799.6126306625686 0.16459891739819216
6.200391080255516 0.4055569598383384 799.6126306625683 0.07639551112419264
6.232828296224851 0.41789028648943144 799.6126306625686 0.14529571548657189
6.302097739384364 0.4260270968687452 799.6126306625683 0.10479051356693678
6.468927996574969 0.4031337481817555 799.6126306625683 0.12900796909490211
6.442517603484636 0.4101815894182211 799.6126306625684 0.15602665182509756
6.453788503355553 0.4010575080369032 799.6126306625684 0.15143533067580728
6.4118010397986795 0.4130533478467787 799.6126306625684 0.14060835032132263
6.4978788802821255 0.3846454853349189 799.6126306625684 0.09336542708907185
6.516218646234109 0.3735943130153805 799.6126306625684 0.10576168206057572
6.364433810754659 0.42869448335013177 799.6126306625684 0.1367796771816477
6.483800662975213 0.3915156229138418 799.6126306625686 0.1472693451578481
6.509828079125029 0.38500206788361846 799.6126306625686 0.13571712467341995
6.426074612423271 0.40595921409541486 799.6126306625684 0.16264057616702962
6.506063978361395 0.2343557770917117 799.6126306625684 0.20222322944444476
6.51864364008762 0.21279256341992256 799.6126306625684 0.10465238105031271
6.487957397747795 0.25941042157090227 799.6126306625684 0.2237118418716124
6.478555429926509 0.2681834567077001 799.6126306625684 0.18824704347004906
6.413674777704256 0.35624640780968764 799.6126306625684 0.14734617409917733
6.4077606786165155 0.36881248477366463 799.6126306625686 0.21372311953366188
6.517619179247548 0.2296064528647115 799.6126306625686 0.14264549248075614
6.497342047789568 0.2527248689531912 799.6126306625686 0.1788629744375423
6.457298868587118 0.30771938311022395 799.6126306625683 0.13773730678104015
6.4748781038567484 0.28499430755366206 799.6126306625683 0.09605663188943667
6.445332776036079 0.3275452379120567 799.6126306625684 0.15752039831678094
6.507714536410117 0.249068526391478 799.6126306625684 0.1682494624463759
6.400984898289711 0.378898616508362 799.6126306625684 0.22177936440117488
6.500399127484151 0.417051261029617 799.6126306625686 0.14626259641977002
6.398386363651334 0.4245350287134515 799.6126306625686 0.12878142811851057
6.413027194756937 0.42542467164880676 799.6126306625684 0.1158369884308957
6.512887150888075 0.41273475415159044 799.6126306625683 0.12856120738056703
6.45166028608422 0.42124260601256863 799.6126306625683 0.13725909719153678
6.513534033268576 0.4002842836071016 799.6126306625684 0.1299865766005387
6.495018893300404 0.4025303366032783 799.6126306625684 0.14261217628483042
6.3753315231070875 0.4276280838038628 799.6126306625684 0.12769007962205386
6.463285648099899 0.4158769494673515 799.6126306625683 0.1183441164837928
6.479814595059203 0.41044603877858565 799.6126306625686 0.08398723650912159
6.430236750672716 0.4202498092530872 799.6126306625684 0.19195954087220876
6.486598981142229 0.4192520364673348 799.6126306625684 0.1273351634387877
6.42145884106317 0.3443691964307666 799.6126306625684 0.11701992104557545
6.4922311529616525 0.23679819301279253 799.6126306625684 0.2091759685004505
6.505465614731969 0.21966823780019476 799.6126306625684 0.14244726178573217
6.426937081927978 0.33156194705135017 799.6126306625684 0.1385564701083737
6.484308949258373 0.24635896516500733 799.6126306625684 0.13200367251687847
6.521211326719593 0.25299388861203576 799.6126306625684 0.13435376770248866
6.481924572791902 0.2991821042864671 799.6126306625684 0.1800911376701721
6.474595223882388 0.3247269126915625 799.6126306625684 0.1612307014563164
6.5039700616835 0.3006717496347357 799.6126306625686 0.15936513657624546
6.377224511810212 0.4146547196546189 799.6126306625683 0.16034234265508127
6.408802136304243 0.3880191022714025 799.6126306625684 0.16426669889536472
6.42376844856701 0.3718361134245806 799.6126306625683 0.14754764118077685
6.492241062702595 0.31718320366768915 799.6126306625686 0.2053932412940654
6.394500735218711 0.3987633702127097 799.6126306625686 0.10418651016286182
6.521548955920363 0.28091236842820855 799.6126306625684 0.11114023548945441
6.508383003895959 0.28962255648281865 799.6126306625684 0.14903491117899517
6.478412872635937 0.3121130192380879 799.6126306625684 0.162589489279963
6.458213454325972 0.33286424450605134 799.6126306625686 0.17271119898738352
6.429271327069962 0.3622206314015238 799.6126306625684 0.13360949580978337
6.493914728388379 0.3047089817566362 799.6126306625686 0.17241734892887653
6.517097780133653 0.2695316567037317 799.6126306625686 0.1807185354462478
6.449543676532392 0.34580700844231954 799.6126306625684 0.0947483172090855
6.453411489887627 0.356768361615282 799.6126306625684 0.09864317931750254
6.478375638126346 0.33669314208627327 799.6126306625683 0.16791366889892428
6.522031361485379 0.2934853865652092 799.6126306625684 0.1269731539265785
6.463152044165806 0.3445526445851306 799.6126306625684 0.08763623259827254
6.472349305046913 0.373414379280815 799.6126306625684 0.1265479280916444
6.516078206491646 0.3582401685057816 799.6126306625684 0.13492035997498936
6.431064673683949 0.39637404708953616 799.6126306625684 0.13091507869892943
6.463991012785091 0.39053860873593 799.6126306625686 0.1602727514547026
6.500399316310915 0.3718761600115569 799.6126306625683 0.13642122916891744
6.483561367124214 0.3780824596784377 799.6126306625684 0.13271809093701167
6.473348961186056 0.38442711637741034 799.6126306625684 0.19107425940201608
6.443470857026652 0.3980099919429726 799.6126306625684 0.09000687976403227
6.470863268563718 0.359165452675526 799.6126306625684 0.17369740122928817
6.421865156518347 0.38926932968698946 799.6126306625683 0.20470529915878855
6.508914679577296 0.33527701021982914 799.6126306625684 0.1583290207101269
6.495030307361411 0.3409930892917368 799.6126306625683 0.1781287743873061
6.521760586432662 0.32257720885484975 799.6126306625684 0.1459343755531022
6.460979549009092 0.3654774888736437 799.6126306625686 0.11044282746762366
6.4446678446182615 0.37275060099837354 799.6126306625683 0.11115134436984779
6.4371776357051305 0.3817526372908417 799.6126306625684 0.10073058094987954
6.4851944579534795 0.3502042611041001 799.6126306625683 0.12334960468214126
6.523745055209451 0.33956337397116926 799.6126306625684 0.1223942605141476
6.511735188914933 0.3459438800801923 799.6126306625684 0.13553101860429315
6.5019522413949895 0.35250503699692104 799.6126306625684 0.13255205233564302
6.416879616703819 0.39876651436842214 799.6126306625683 0.2026290864699497
6.483191356753443 0.3636558323214998 799.6126306625686 0.0914564775925488
6.4555653163969655 0.3785915790045693 799.6126306625683 0.17930271487201435
6.506084651220871 0.3174163291787347 799.6126306625683 0.15208668822881857
6.5200539416259895 0.30768834050891275 799.6126306625683 0.13615930670920187
6.388646956355449 0.41006540268175684 799.6126306625684 0.12289253639673595
6.49984778320354 0.3261208192087597 799.6126306625684 0.17758869697816437
6.487705515969825 0.2858121589156341 799.6126306625684 0.1369299400902272
6.468502694554397 0.30664571883342606 799.6126306625684 0.14191342451040181
6.516995747568376 0.2427794494193133 799.6126306625686 0.1170197374440559
6.501969371245574 0.26640084053229734 799.6126306625684 0.14850338488756956
6.4975662682897335 0.2767246474735588 799.6126306625686 0.1134193288464353
6.41813473938372 0.030952854832578924 799.6126306625683 0.12349826546529083
6.460939746965415 0.0735353212269419 799.6126306625684 0.16158046936092538
6.468707504358958 0.08518276828294397 799.6126306625683 0.1413400934186136
6.405253874202202 0.02303329251143175 799.6126306625684 0.13675649819327393
6.39777725648198 0.01248265790626243 799.6126306625684 0.1496544558962365
6.439170041547078 0.05769243273579291 799.6126306625683 0.17796543958438069
6.48672759568149 0.0991385087941414 799.6126306625686 0.15393922860280745
6.494654359375563 0.10833841551932204 799.6126306625686 0.12932864072804903
6.437388769009093 0.04078277529537859 799.6126306625683 0.13683688131823774
6.446135493257751 0.047186128062424205 799.6126306625684 0.14557708883085493
6.476035751759818 0.07345464707803204 799.6126306625683 0.12932839783709488
6.458525453883858 0.05037111961693062 799.6126306625684 0.15188528575538232
6.270503205692833 0.04165731445581827 799.6126306625683 0.08341133359755795
6.249898737681353 0.06560216918046849 799.6126306625684 0.09259912688027055
6.237838185415046 0.07600614778758422 799.6126306625684 0.06597526377461442
6.255966861217521 0.05428984415032015 799.6126306625683 0.08184952057859368
6.1957174626752725 0.42201078144001675 799.5929032169386 0.13087049134360726
6.193757453710765 0.4056010977582961 799.5906269006455 0.13529089158438304
6.194490833693793 0.4120731127835909 799.6023454108667 0.13941125829648326
6.195662421416171 0.42152738648625043 799.580732600703 0.11209469251413835
6.192601294523707 0.39562099794773214 799.5790676966303 0.10754770141938907
6.191340700172548 0.38383081652197637 799.6061734828586 0.12991844351203757
6.190905277335729 0.37918708738414886 799.5935521402092 0.13340868747152768
6.190444331405988 0.37415851759202745 799.5801974196179 0.1237452409269047
6.192019808581184 0.3903870914775196 799.5908920910211 0.1317815473315707
6.19289903142687 0.3985063840298586 799.6002048470641 0.12242652224743977
6.189572848550602 0.3653681374859026 799.5989195177794 0.16642326992613485
6.18888401343491 0.3572493325139888 799.5902112361503 0.16288152071572704
6.188078809748075 0.34690604834453553 799.5972197346017 0.16562358336869035
6.187653452374148 0.3404345745087229 799.5822564895358 0.1514451777002122
6.187222736092375 0.3346953532114914 799.5911045428711 0.1416680343881321
6.187008334420019 0.33078175262663245 799.6047631995075 0.09940602022406955
6.1868456196672685 0.3246687909288497 799.5813380765451 0.1478922012871114
6.186398144246043 0.3122108609882381 799.5885144289178 0.11287670315724573
6.18620083776351 0.30208358325484325 799.5816583596195 0.1026974213524187
6.186288439393444 0.28891888937057464 799.6058747892077 0.12393068533002452
6.186500250910897 0.2824354755940316 799.5887133461632 0.15209303265711308
6.1862039886841895 0.3047126716140941 799.6009834795875 0.10456056721947891
6.186862943983043 0.2710524750351163 799.5934598810175 0.12771660782640273
6.1883158084902 0.2477949922055823 799.5798752902438 0.12514576257012414
6.187673140580506 0.25755653980989757 799.5900406302447 0.1299470493492179
6.188274154715208 0.24767549528835192 799.6002693110623 0.13989524996060582
6.189909554958713 0.2300035365840459 799.586679534061 0.14665130167786086
6.190081340571515 0.22777295993835994 799.597126319396 0.14857619095482255
6.188771783665322 0.2413935119493784 799.5904375881219 0.15471655093550782
6.191559762799349 0.21401366668440439 799.587203893491 0.1405377361430036
6.191351699941835 0.21577449859500542 799.5993529638986 0.17993911967221926
6.193507364537802 0.19991487767106642 799.595075338491 0.14576876307607162
6.19440049860236 0.19433599330831086 799.5813812245987 0.10580918323733951
6.193264043175113 0.20113711103355983 799.6073947390893 0.08236519363156113
6.200054844336371 0.1636407078740408 799.5785960780062 0.12237259938264423
6.198134542153081 0.17275590527306117 799.589097623638 0.1293008790803551
6.198114475880217 0.17241107689912455 799.6008238566725 0.14326255888809405
6.195548408318981 0.18633711294984584 799.5983412617171 0.1378065740171198
6.201057259890382 0.1582030308440258 799.5997531077749 0.1435092467177113
6.207838793637596 0.13294693971693683 799.5806739926982 0.12045329987311532
6.206493458253814 0.1372482752002092 799.5955327688107 0.12297941564116781
6.202728452236468 0.15124507694696196 799.5869999723524 0.13779114827405622
6.205135770789587 0.14180037402510048 799.6067119257516 0.09683815412970175
6.216477299819885 0.10819911565747384 799.5823912840137 0.13231969565677343
6.212435781292946 0.11888515518054618 799.5794966183655 0.1238679460873694
6.212623158688651 0.11756624627546738 799.6039398195592 0.09787928405910111
6.209807686512518 0.12589133927938917 799.5936155192464 0.12670455849846793
6.2181081310924124 0.10342818758840493 799.5985534384445 0.09489489770417099
6.228485398004745 0.08187180697100468 799.6040204132756 0.09093492703637725
6.22929051353749 0.08131123499869818 799.5808159527928 0.118241597222413
6.22221596039406 0.0941361366956354 799.5900994999886 0.11832273701575917
6.222981414099889 0.09249637525404827 799.6037879921803 0.09656630591741679
6.233196906039809 0.07382330084824087 799.5889334218429 0.11408701320923582
6.24758490777454 0.05420583063413088 799.5932727554155 0.11183878237259069
6.239356408514157 0.06489245384863043 799.5891972652347 0.11462706935093167
6.23940588446046 0.06447137076703106 799.6011225841924 0.10578092823596176
6.257965641849724 0.04327017143892605 799.5803458075344 0.10748796910181853
6.26746704640712 0.03485684708499023 799.5860416137541 0.1142955279506823
6.260755365865434 0.04048100953310331 799.5925470742022 0.12500184104011236
6.259540115077065 0.04122081067330561 799.6055462572934 0.08850316308607184
6.270561790795885 0.03179932755780171 799.6066218771491 0.10546351677302415
6.281153730583686 0.024724017313757625 799.5809917602228 0.099683976064466
6.283895547995705 0.02277195161764979 799.5951966574721 0.10964456774916191
6.29462457856414 0.01653296212974327 799.5996119234067 0.09838345259368368
6.315885013448186 0.007608168049786017 799.6015467323672 0.0899900446074446
6.307805126185114 0.010838652317061723 799.5821163664367 0.1324328649366429
6.30720720948937 0.010774151402718186 799.593433821428 0.10191410470276488
6.32670662110333 0.004275234498373554 799.5977566701017 0.11376326337706222
6.342654120477501 0.001377279513932004 799.5993278642836 0.11174448153742006
6.339470923178864 0.0022784840187640007 799.5802758900772 0.09809540963652916
6.351200978328355 0.0007285682253428125 799.5880205270985 0.14107974760504713
6.354339898055387 0.0001587312774680121 799.6018193273673 0.11855714104853939
6.363281154971761 8.982259147850629e-05 799.592622153127 0.12599077438469403
6.374902477860911 0.0014281356089684166 799.5874615782734 0.12370808320652993
6.367975407620889 0.0008958601348325307 799.5784509059802 0.11958563364215694
6.388603887501119 0.0031364290186445334 799.5936500149786 0.12616459882311454
6.396279468794663 0.005486767369844284 799.581357301179 0.12910852330905973
6.405943313953866 0.008639926975469123 799.5854349083183 0.11744162198593579
6.401135289798259 0.0067410741435196195 799.5967577015724 0.11727774496908806
6.413659852000272 0.011008602105209675 799.6057696255943 0.10692600126487764
6.437635233067317 0.02388001063580971 799.5844384487174 0.11193413208834448
6.428551111943213 0.018810702488124897 799.5792357015945 0.12664734472652137
6.42905006540627 0.018587666058663594 799.5983415537473 0.08643803759648885
6.4200926980226365 0.013820631410162314 799.5883952861374 0.10861723299734631
6.44765984841906 0.030521335345483368 799.5852028736397 0.13734141597287683
6.463017202088445 0.04404531191136403 799.5792400575715 0.13207143499156926
6.460380532304022 0.04108742053501371 799.5998773426328 0.11586750455128161
6.442592166252246 0.026674707243491785 799.5960141117744 0.1063461124044293
6.46714435376679 0.04771035448371357 799.5890219585783 0.12446881519784862
6.475536744958306 0.05774830098538424 799.5989176299349 0.1575151612836307
6.471229889395824 0.05298401678165921 799.5784791208815 0.12404936555226094
6.479740368694571 0.06390494724158344 799.5787310112769 0.15048935880382264
6.496220715801924 0.09113149991006327 799.5849358404151 0.1402890016043292
6.495938935387423 0.09001552401614721 799.6045379873281 0.14644473618153547
6.487853275822783 0.07561440948449055 799.5860719141348 0.13765740716631086
6.489542329555579 0.07815995461029521 799.6030047573772 0.14196818497855426
6.483657570795836 0.06865360317266939 799.605958056982 0.11662676958918759
6.499359932380753 0.09717887901412053 799.5935590266101 0.11998977717929991
6.501216839852093 0.10141838058422292 799.6044652381838 0.13601854312520845
6.505695228740718 0.11325868739101083 799.5912373728836 0.1192697064308504
6.506084906424142 0.11371076441818095 799.6064501031303 0.14080147786760708
6.5161303390090275 0.1464376901299676 799.5933566413746 0.12100010972812804
6.516617702765373 0.14857534001917935 799.5823255081888 0.13111116334364095
6.511252444234318 0.12902059742620678 799.5863129031977 0.11605207129898672
6.514876497622112 0.14156392056531616 799.6031551484787 0.11979184073843799
6.51144784505705 0.12946337617147835 799.6007588217585 0.1309818444348615
6.520475611019404 0.16470453138808105 799.6029347715973 0.11164484619991125
6.520072310463781 0.16335103903951056 799.5868558267871 0.11974525819461157
6.5218695377313844 0.17245504089657834 799.5807230519031 0.12210081254405837
6.5265415220782685 0.19951863884531834 799.5932957028181 0.13286193912548266
6.52332542036011 0.17921982793142652 799.5959986558787 0.1017913717036651
6.525853575703855 0.19432063617356343 799.605259689465 0.0748835832629698
6.524021600483963 0.18306097690820874 799.6069732307927 0.09426634489096133
6.528240459146075 0.21136719975702065 799.6031428910102 0.12095156621363931
6.528590720636591 0.2141948929332411 799.5824688347561 0.10524149163621489
6.529308997363313 0.2205174274863536 799.5973212652102 0.14189685616855832
6.530389255289234 0.23203643813948088 799.5816683316251 0.15553062761347333
6.530468860350078 0.23219753862024253 799.5938755304896 0.10627484077109338
6.531329911887301 0.24103790711490178 799.6035684139001 0.1251852621448521
6.531832716730314 0.24790702225184716 799.581245303312 0.15215008205167627
6.532648791048563 0.26097057564943277 799.5878634537487 0.16144112882252462
6.532549355976208 0.25833457137089444 799.6008690427111 0.11880006716410804
6.531851540194414 0.24764909082332603 799.5940119661286 0.16610878609350285
6.533324775062022 0.2722920876625131 799.6012920866713 0.1307945042253434
6.533649949494793 0.2846201839354078 799.5895485997294 0.1210176763777746
6.533865760497712 0.2917635215911846 799.6050836750825 0.09528259429792625
6.533703984630526 0.3130395611108754 799.5879522396453 0.14282947301574234
6.533373221877455 0.3237652671125816 799.5921243843471 0.13893040420717456
6.533729724580298 0.31497178523198255 799.6029387185272 0.10462408473165294
6.533935821360166 0.30358467474131956 799.604453866924 0.10279063131764583
6.53288003733751 0.33514315547062445 799.5985816124046 0.16851983768076334
6.532817239258925 0.33615547496060627 799.5870670233444 0.11985330374716023
6.5309094795624665 0.3611164130704233 799.5783751203719 0.10641317694701527
6.531809664271242 0.35008742223769695 799.5968792722233 0.12020613120230951
6.532001189121851 0.3470036828018086 799.5854982334317 0.13186952362214627
6.528761231026232 0.3838373857159404 799.5942504000088 0.12193922989161625
6.530661027807211 0.3642134196070719 799.593035332374 0.13498377684517093
6.529752507384524 0.37397859135302935 799.6030018563656 0.12021682118292362
6.527975432587897 0.39166580976055876 799.6053912044355 0.12795917250927802
6.527460984033671 0.3964050505088555 799.5915215140479 0.12498853370577495
6.52521978455893 0.41515172087511953 799.5814071426507 0.11176056399732515
6.525785118741604 0.4107053084921125 799.5977288440235 0.10152019705343261
6.422370651476817 0.4339640981096246 799.5959115796428 0.19250193810315827
6.434891235858757 0.4332242578513955 799.5913073333688 0.18976866758272704
6.474300625834793 0.4320338614290661 799.5965075980698 0.1440583915993758
6.451412488973932 0.43304684509741853 799.5990514899445 0.1272027798136833
6.493643231588687 0.4310258789079603 799.5917296298709 0.21428304767642486
6.398457376244072 0.43410114010951495 799.5826308419004 0.2057588711977032
6.4118135540939445 0.4343331684889793 799.5953866882938 0.17828880915576606
6.368831154616352 0.43511216913185613 799.5807307560474 0.2079627609893441
6.405840880010854 0.4345601826835106 799.6071242567041 0.1239628302823229
6.379565442649836 0.4349856446560192 799.604537358608 0.1214562564664795
6.380076019170878 0.43497736020715516 799.593121336823 0.17231111666736518
6.397428064648809 0.4346963913826819 799.5962866132434 0.18202928851286815
6.366286763882963 0.4352006521489708 799.5992006802092 0.1302211231039934
6.415544814156281 0.4335025834860289 799.5820838875728 0.2084392787881213
6.4825861031695595 0.4313291089298067 799.5884732062228 0.19603478863975976
6.447021944969683 0.4324820967989031 799.5818292585706 0.22675380366133877
6.5060800612606045 0.4305674362220263 799.5828952446901 0.2202731740073143
6.428692659077874 0.43307633114472055 799.5817551908053 0.2019148377499912
6.4659693051007565 0.4318678245234354 799.5808124963454 0.21443474557228848
6.216217325828073 0.43063795860531645 799.5795549628185 0.21699024762334776
6.228838276850589 0.43104715272982774 799.5809616616505 0.22045494996698076
6.20747650007856 0.4303545651800747 799.591597351752 0.17991214088705634
6.260945616764479 0.43208813092735143 799.5838730530826 0.19659540874379203
6.233939627889021 0.43149892029604947 799.5950329613967 0.17336357957130477
6.249158627322784 0.43172690515529805 799.5890124850013 0.2065238248876411
6.257662712274501 0.43252563113074827 799.5972696966817 0.14151621800412836
6.285548805083251 0.4331382002892335 799.5896108854062 0.17787032028156324
6.281455291847586 0.43367852117789285 799.6016451889351 0.13129808436796417
6.306279886781061 0.43369307362893 799.5856392052652 0.20970702516992085
6.296092398311039 0.43364437132034744 799.5914680243843 0.16894882684942744
6.274228428132239 0.4329131044057589 799.5931281218907 0.1491635225422468
6.308427729383004 0.43441558234583555 799.5967398037029 0.11921684388781527
6.336481621714158 0.4349194704139844 799.6002062902578 0.154728644661418
6.3551178851275365 0.43522141962488164 799.5885676180312 0.19235357716881435
6.348759998831645 0.4351183628356122 799.5983409724856 0.14599000706698756
6.342356319353396 0.4350147350216089 799.585998605377 0.19395205996818393
6.3216633079748945 0.4346795023704123 799.5936769328382 0.1578711298942002
6.5113608235595075 0.4304853532051469 799.6030555230192 0.13353443051530958
6.216244203713646 0.43084928180440546 799.6050995374062 0.10394844956420164
6.2709010572952 0.43350880789032986 799.6059756407457 0.14263508530172261
6.304777203825376 0.1393022487627828 799.5782632614454 0.2128078933309353
6.349771040669484 0.14590674025949674 799.5782632614453 0.20715973204381252
6.270205151344857 0.13574545239870156 799.5782632614453 0.22125617087110264
6.257324278607728 0.14685430940308924 799.5782632614454 0.23578131361862312
6.212216623991597 0.15349137378373748 799.5782632614453 0.2292732885463665
6.253314113334043 0.13560252890695665 799.5782632614454 0.22563764158637542
6.477421042174159 0.1529524697584921 799.5782632614454 0.20663935996074828
6.285919165638658 0.13778186112239246 799.5782632614453 0.20998300935599137
6.339515293753845 0.14291588506194652 799.5782632614454 0.25152102397520026
6.217957271359547 0.12899304329100203 799.5782632614454 0.190019105369256
6.2356550467054515 0.14846752582654468 799.5782632614453 0.2560242878603187
6.315555578716568 0.14417886081140874 799.5782632614454 0.20684850873765578
6.367186921562783 0.14844908650524893 799.5782632614454 0.21944945237430608
6.2667067600069934 0.05031360507971171 799.5782632614454 0.19199303459531447
6.295110237384786 0.020350698121497975 799.5782632614454 0.1490106759774665
6.237890308962496 0.0965046160570019 799.5782632614454 0.24346328430886274
6.3051560776579265 0.026570994272540407 799.5782632614454 0.22872327848457044
6.315596925785232 0.019763364918805218 799.5782632614454 0.1810765011888592
6.3239014183959465 0.011731227673881576 799.5782632614454 0.15476189627372036
6.285768473876914 0.05702089298888634 799.5782632614455 0.24834480723179972
6.357790053524929 0.127363686914793 799.5782632614453 0.23797370893790776
6.386554264609815 0.12824265086569908 799.5782632614453 0.20592383453426805
6.3487699045705694 0.13423286443236085 799.5782632614454 0.28952823680123235
6.464948836522631 0.13213680892999882 799.5782632614454 0.233394787483109
6.4394395426455855 0.14232655130460387 799.5782632614455 0.20463302221717142
6.456820367045801 0.1445087000973463 799.5782632614455 0.262796842965332
6.452542846699015 0.12681159087642974 799.5782632614455 0.25138594805705455
6.383628077266822 0.14086601787867184 799.5782632614454 0.21513022847350347
6.502249220435122 0.14387860018439236 799.5782632614453 0.2404054652070374
6.24548955534983 0.1268645862454198 799.5782632614454 0.21050360853356723
6.488345437964761 0.15103986049775914 799.5782632614454 0.24653502535942867
6.428915020495504 0.12584567413090725 799.5782632614453 0.2538517135929885
6.4176424161259575 0.13208575522227178 799.5782632614453 0.22831596955485853
6.502419543170052 0.13152951899248375 799.5782632614454 0.21553264889447066
6.477055246308298 0.12958313660824478 799.5782632614455 0.25513177650803504
6.426203318219409 0.14132070967361718 799.5782632614455 0.24213379818064007
6.389919785613812 0.03064674559700421 799.5782632614454 0.27563176867182787
6.330544430116614 0.02805837719777262 799.5782632614454 0.28797646587819614
6.331567210426899 0.060158879436913844 799.5782632614453 0.25241397356718315
6.436188109448338 0.10608280902469824 799.5782632614453 0.22463657358422448
6.364100502204335 0.07465378304325583 799.5782632614454 0.20607315575978946
6.346787027910338 0.07018764043879994 799.5782632614453 0.2465524812706085
6.35295019765255 0.09246369165833264 799.5782632614454 0.19292929454886057
6.279043754936746 0.11017888817119585 799.5782632614453 0.24920608081961926
6.330057973766846 0.07244738845574782 799.5782632614453 0.22532933378627176
6.3915409891450015 0.08391579422136955 799.5782632614453 0.19414474312927987
6.427962896182237 0.08799900366395946 799.5782632614454 0.2255516073219073
6.342592374268964 0.025076903829298385 799.5782632614454 0.3181118263543294
6.340309024192422 0.10404593954523433 799.5782632614454 0.2536126036799711
6.318947878783235 0.05170147827949365 799.5782632614454 0.23937021006101125
6.3579767372244635 0.012880014767471571 799.5782632614455 0.19379278231323666
6.3188786588443335 0.04109404439855589 799.5782632614454 0.23654855199253538
6.31220796940562 0.10456479987564002 799.5782632614453 0.23751839339754804
6.3570520092070675 0.10967575067139837 799.5782632614454 0.2371479568660932
6.462836177478095 0.10859089159880271 799.5782632614453 0.21701365826051522
6.308069969730086 0.12051479584264013 799.5782632614454 0.22404413497906686
6.398670613385111 0.07125656473654843 799.5782632614454 0.259828099518441
6.352595602939234 0.08171782000513945 799.5782632614455 0.16642281003507212
6.4655831827355 0.1203346891578556 799.5782632614455 0.24092155239272953
6.28949735726288 0.09849404347413165 799.5782632614455 0.23226350332684376
6.409729793010383 0.0913658283160246 799.5782632614455 0.21315431585602307
6.395998788001885 0.11919026776104961 799.5782632614455 0.2157710620863603
6.378380475886022 0.12123891018090255 799.5782632614454 0.24815685906673218
6.267578124705111 0.1213000127731733 799.5782632614454 0.20589303142830068
6.258811716662274 0.09229176771605083 799.5782632614454 0.2401877961081268
6.23488219716194 0.12299763103152093 799.5782632614454 0.2866919959070999
6.48659991001109 0.12267758442952421 799.5782632614454 0.2878611592612381
6.361291172885612 0.04278393705127967 799.5782632614455 0.26693675227051156
6.318395462453049 0.06533276161585215 799.5782632614453 0.23187512811131794
6.481205926287988 0.10985584898199924 799.5782632614454 0.2889784490063807
6.41780741779113 0.11412214045353766 799.5782632614454 0.27608349550279393
6.3799826077664274 0.09056909122397591 799.5782632614453 0.20924796303810886
6.340066302256622 0.03638356320497964 799.5782632614453 0.21800578621941905
6.441545578902552 0.07213432426854917 799.5782632614455 0.23554597485229462
6.368332800068621 0.0337069927536741 799.5782632614453 0.2223176737073447
6.375939811766565 0.06662182168744274 799.5782632614454 0.23760826162765877
6.269952226325088 0.09716054619636864 799.5782632614454 0.22825338219025693
6.374107933568677 0.0526519780162437 799.5782632614454 0.2228956371981102
6.385649442409227 0.04493872501836134 799.5782632614454 0.21229611302729026
6.4053955884014115 0.057423564246612005 799.5782632614453 0.21085528892146777
6.350682500416613 0.05875476964891194 799.5782632614454 0.20239390634563656
6.297021238430245 0.11220759816339747 799.5782632614454 0.26386627528084333
6.462431756907246 0.08823150881546264 799.5782632614453 0.25414078419280317
6.267763078472283 0.18271814812936574 799.5782632614453 0.2165007207493593
6.296796622836888 0.18136804122827485 799.5782632614453 0.235619872331189
6.3362623141307095 0.17452989770345978 799.5782632614454 0.2501012897640279
6.25128385793856 0.17099529408750141 799.5782632614453 0.24266358502863944
6.21495738649492 0.16755541206395036 799.5782632614454 0.257928996907576
6.197286178763465 0.18020094736075967 799.5782632614454 0.11626509404784013
6.355759430086221 0.17431344518568154 799.5782632614453 0.2803929311472063
6.4176287986363185 0.18054672511784933 799.5782632614454 0.248149020615262
6.240263672278676 0.16802401756216567 799.5782632614453 0.2532836100559644
6.38398019829506 0.17657724129276606 799.5782632614453 0.22193028558489555
6.241888232087311 0.17940482632101296 799.5782632614455 0.23646708223011415
6.222420264712287 0.1803813764634173 799.5782632614454 0.2460565261940291
6.495431461320548 0.18209534481294282 799.5782632614454 0.23767451809318627
6.501155642024244 0.1729184533596165 799.5782632614454 0.2417627987932968
6.3761717692330455 0.16823415914082593 799.5782632614454 0.20217923387593315
6.3962559858453645 0.16213823845797387 799.5782632614454 0.24270619761179657
6.34795279086297 0.16177211599351426 799.5782632614454 0.21319613662525222
6.284156625496012 0.15489167685563354 799.5782632614455 0.23621698319483284
6.303916609012182 0.15510039949234364 799.5782632614454 0.1853832494776109
6.45677248177326 0.17428776547044836 799.5782632614454 0.22625371467479932
6.4301335039616925 0.17429654868275934 799.5782632614454 0.2556320109175496
6.4520654785717575 0.1634833100954105 799.5782632614454 0.21121921396839105
6.477985721903358 0.17321342337556492 799.5782632614454 0.19656173940629645
6.510801690796958 0.16317538203420012 799.5782632614453 0.21177031837467447
6.24898025659179 0.15553185370554123 799.5782632614454 0.2554206285695347
6.428658624617679 0.15504745906233017 799.5782632614454 0.2242431756336202
6.382214276347406 0.35235420930450356 799.5782632614455 0.2348470089079713
6.40202975389847 0.35860341370031606 799.5782632614454 0.22270435848868067
6.295407734762369 0.2546170686750766 799.5782632614454 0.28512214433891675
6.31167555141265 0.34202002059948566 799.5782632614455 0.20477599536622104
6.333221625016432 0.2727803331227777 799.5782632614454 0.23819621970283303
6.369125786967423 0.29337164783682185 799.5782632614453 0.28117725127831233
6.4433272679108615 0.288363667464363 799.5782632614454 0.19771074552711207
6.3057250143648576 0.3322580447437408 799.5782632614455 0.1845350802316008
6.3328890886112905 0.3578503324498011 799.5782632614454 0.2585669214025087
6.373778697437305 0.2620243483137922 799.5782632614454 0.2376208499872045
6.397854312872698 0.3354437696787952 799.5782632614454 0.23781387978474605
6.272840327973744 0.21269660913416735 799.5782632614455 0.259485359725723
6.4864718857147174 0.19988398927765164 799.5782632614454 0.20549869558590972
6.314535270190014 0.203273881263132 799.5782632614453 0.2281712217206253
6.340196623583264 0.3688199518075218 799.5782632614455 0.23579877196394405
6.32280741604875 0.3072329815287218 799.5782632614455 0.2611055224974232
6.2846968823327485 0.25194235195120296 799.5782632614454 0.23056260296076325
6.284660865715905 0.2939666961354372 799.5782632614454 0.21398520897715065
6.470318758451817 0.2025613744297708 799.5782632614454 0.25482730526308595
6.2890050937523005 0.27607741079778986 799.5782632614453 0.2393526945322391
6.37303178822741 0.21849391022722758 799.5782632614454 0.23420613887560807
6.422047588819942 0.20917697815379432 799.5782632614454 0.231718261346056
6.396550167473828 0.2055040944063604 799.5782632614455 0.2208465269137191
6.359226287632093 0.2871259919346012 799.5782632614454 0.248029223637151
6.476642079266326 0.25160469099081373 799.5782632614453 0.22380999130516877
6.237337830721388 0.19066957353708547 799.5782632614453 0.23857013252447173
6.327886362639017 0.2844746497363738 799.5782632614455 0.2361757110262679
6.422608716183651 0.2646733137585823 799.5782632614454 0.24269092976768142
6.455222759109099 0.21196104996364312 799.5782632614454 0.2612108038263881
6.321716736344789 0.34989771760552496 799.5782632614454 0.23573505513551174
6.386497165472393 0.19859967202221296 799.5782632614454 0.22428145016690276
6.299815828544897 0.19238817033299185 799.5782632614454 0.25534349611404433
6.285881421972038 0.26504534796360724 799.5782632614455 0.24034036354929378
6.399779000911286 0.28969217497079225 799.5782632614454 0.2652570411818557
6.313679564647858 0.32078177965802485 799.5782632614453 0.1799999524914978
6.361832199316952 0.3942601841388247 799.5782632614454 0.2520186597596685
6.337069890205102 0.2503223451393519 799.5782632614454 0.23011226884618058
6.348618813049783 0.22592859778144192 799.5782632614454 0.23243332746564632
6.2989245836142835 0.3218090246866596 799.5782632614454 0.2197852784903151
6.3314266285127 0.1873608944543933 799.5782632614455 0.2427229002736222
6.239678958237576 0.24253175000315325 799.5782632614454 0.25280000730281427
6.416379449318667 0.2842495941291269 799.5782632614454 0.2803659916486497
6.264130475636741 0.20275669342205083 799.5782632614454 0.25946221363363653
6.247709583130015 0.2638058047783494 799.5782632614453 0.20898194287261065
6.465820666102689 0.23458079671212675 799.5782632614455 0.1820021662209294
6.4618357111739595 0.22062568199743884 799.5782632614455 0.24032675542119242
6.386766739687834 0.3265623662520867 799.5782632614453 0.25097376397621396
6.4042018428095915 0.3246017324423691 799.5782632614455 0.19474904071037807
6.276227551762649 0.23250107996860891 799.5782632614455 0.22486476993752202
6.219764201370275 0.21268963354632536 799.5782632614453 0.27448637279603927
6.361074971511771 0.3058431325970705 799.5782632614454 0.2635561396195158
6.250960337999376 0.18969022195702434 799.5782632614454 0.24581174987571633
6.346015829101145 0.26770215352334903 799.5782632614455 0.23372033346448237
6.514735563026211 0.19775259891534253 799.5782632614453 0.18337556254383502
6.3801988299125405 0.3828991131379124 799.5782632614453 0.14648009944887627
6.437191078292825 0.2617610206334616 799.5782632614454 0.23278022716380298
6.389113386972578 0.37058737695610244 799.5782632614454 0.23204888382320252
6.327483774837505 0.22980178696758702 799.5782632614454 0.24159663131543438
6.396677207985897 0.2645978688999291 799.5782632614454 0.2001397244774228
6.332538027352194 0.3321543670676652 799.5782632614454 0.22094363968573572
6.3009857487612155 0.20452945690975877 799.5782632614453 0.2522752857138536
6.475531946198329 0.22668117953080538 799.5782632614453 0.1909648037302401
6.4635405650538305 0.2570580951763668 799.5782632614454 0.22382417727210635
6.2453410711194355 0.20147569560824855 799.5782632614454 0.26243103256484995
6.354984208374393 0.25188824324980874 799.5782632614454 0.20963808654332292
6.423215891760774 0.2538099726518887 799.5782632614454 0.1839137507649906
6.496273821926358 0.21802600613209439 799.5782632614454 0.23805164756131333
6.413538120828139 0.21685790127417753 799.5782632614454 0.22025253721458227
6.268405159317365 0.28798324413859416 799.5782632614454 0.23972588161038658
6.366202205549746 0.27022996034397734 799.5782632614454 0.22443458384277729
6.270792988273476 0.26032395888880067 799.5782632614455 0.203356837563938
6.344975420149291 0.3011181390027106 799.5782632614453 0.2600671466174516
6.3451924915307405 0.2380531511486291 799.5782632614454 0.18873675383387084
6.454187947413397 0.2703834623106511 799.5782632614454 0.21911991241026962
6.325615606112057 0.25491774710257353 799.5782632614454 0.24750875899265393
6.434111184594937 0.30947104601984354 799.5782632614454 0.18299471039149914
6.350619169537366 0.4172999732978502 799.5782632614454 0.2059685593994061
6.433664251265092 0.24791920185013527 799.5782632614454 0.20612137851436427
6.36681542294905 0.3779073497763453 799.5782632614454 0.22025514422498513
6.307336617191083 0.235754819669805 799.5782632614454 0.23048779940734726
6.4020450724446345 0.18511439825378867 799.5782632614455 0.2878042099584112
6.36841056290707 0.3196679421989079 799.5782632614454 0.28816423149099646
6.447231571207144 0.23163394242329602 799.5782632614454 0.1744174119888945
6.288242566210615 0.20113066267361196 799.5782632614454 0.24649784129334246
6.373669384112736 0.1898487826932569 799.5782632614453 0.2608396574777835
6.400373407804851 0.21898232005618215 799.5782632614455 0.2800881871634093
6.33875000926584 0.21798605138106322 799.5782632614454 0.20169052637272042
6.224700064434807 0.19137295653193817 799.5782632614454 0.2034246816517599
6.347668263963552 0.19125983245146622 799.5782632614453 0.23351661905066923
6.348408238595324 0.39784923713415155 799.5782632614453 0.20046782646854064
6.422100979239808 0.3198893573929046 799.5782632614454 0.21565361569488933
6.334401057994842 0.3451925727836842 799.5782632614454 0.19855437115353916
6.445707866608396 0.25093049364632963 799.5782632614454 0.13223531386456977
6.312155817472207 0.29170224977022435 799.5782632614455 0.1873403390874917
6.381237797799282 0.3382993081003151 799.5782632614453 0.27493003574342695
6.379157124380698 0.22933224096825022 799.5782632614454 0.26161532096500945
6.358142126704679 0.43029298939526134 799.5782632614454 0.21957818742633892
6.282931200457992 0.1857734908132219 799.5782632614453 0.2802305746568659
6.323709968870842 0.36429359321089333 799.5782632614455 0.22272505731735084
6.43485034607898 0.21739473244678692 799.5782632614454 0.2007802959685229
6.363032488335543 0.24242711956618312 799.5782632614454 0.22551614960351574
6.460073291241962 0.19392758925739714 799.5782632614455 0.2501624043645344
6.370414200416622 0.4065096422072268 799.5782632614454 0.18745108835982693
6.247894710815494 0.22684204011049108 799.5782632614454 0.25757330065111034
6.264774899423198 0.2759916286628752 799.5782632614454 0.2678765156835613
6.410467310967507 0.3042728162499733 799.5782632614453 0.27586552924298796
6.39407671489478 0.38289865147575874 799.5782632614454 0.24787047276946794
6.374444750006397 0.3696140485081983 799.5782632614453 0.21464760186643403
6.296441038840139 0.29726037654759807 799.5782632614454 0.17909281700717275
6.306966708901815 0.2654411211777945 799.5782632614454 0.2116505560534941
6.42614753572378 0.29110984842380233 799.5782632614453 0.24829551007716216
6.511365933980515 0.1857961377051892 799.5782632614454 0.20166466721092818
6.482627775754292 0.26220020232280133 799.5782632614455 0.20946506175699678
6.513005044510395 0.22135887128512566 799.5782632614455 0.24148137413161258
6.504857274758012 0.24085171026760333 799.5782632614453 0.26696687917502393
6.524729208205056 0.18768075472545234 799.5782632614454 0.13512954451790932
6.427618358293627 0.3319469293089342 799.5782632614454 0.20908840331658687
6.4953749155496325 0.24644266779714977 799.5782632614454 0.2233440673017598
6.419835660511428 0.35099587042423946 799.5782632614454 0.22402358262845165
6.469142836501662 0.26921656170085184 799.5782632614454 0.18466595546417233
6.502525105468305 0.22749857616528218 799.5782632614454 0.25171042506775376
6.341387761782679 0.4068522814554646 799.5782632614454 0.16512294412175796
6.22845345430561 0.23800886563636886 799.5782632614454 0.2548762801853309
6.221542646498192 0.24659854064345132 799.5782632614454 0.22610212119795833
6.221620043249526 0.22630808299074276 799.5782632614455 0.24294465596026293
6.207878497443949 0.2140668743998262 799.5782632614454 0.2554039160187011
6.3093002784611905 0.36347822524153117 799.5782632614455 0.223409911248245
6.318342611490225 0.37430941725287425 799.5782632614454 0.17437715296507025
6.2785546061238104 0.32336924154842017 799.5782632614454 0.17726787649620293
6.1968544348633685 0.20835353719875288 799.5782632614454 0.165989107439857
6.327284147081186 0.3876516536069413 799.5782632614454 0.21056590646293608
6.286716291440757 0.3346126898502483 799.5782632614454 0.19336666975925668
6.232253158002431 0.25211989656962985 799.5782632614454 0.19904810791131097
6.296171095091301 0.34120467484855077 799.5782632614453 0.20546344684854687
6.2386443292292135 0.2765317256845738 799.5782632614454 0.19159111614014568
6.200450032788702 0.22647335004504063 799.5782632614454 0.19341005610685608
6.289821580799275 0.35032132686027057 799.5782632614453 0.18329533404945134
6.212922815132448 0.2674999394662396 799.5782632614454 0.24776135227613477
6.258319265519757 0.3069884611904477 799.5782632614455 0.2127016092112583
6.272295194353077 0.33513652004922956 799.5782632614454 0.24175952885960605
6.214475956804668 0.255841913843885 799.5782632614454 0.2782968440753544
6.197809858942451 0.2383155316690121 799.5782632614453 0.20266976079752985
6.244330525063379 0.3250650215737174 799.5782632614454 0.20471569816335536
6.199848274077139 0.2737278038612678 799.5782632614453 0.26387373724635554
6.260961908536654 0.3286681056158466 799.5782632614455 0.23931026373080697
6.20823239652781 0.2820574034383357 799.5782632614455 0.2725465456852979
6.276427896662879 0.353903169587779 799.5782632614454 0.20695400736283526
6.224078706475515 0.2852662062522397 799.5782632614454 0.24067675834842195
6.193768755801478 0.26132699894063793 799.5782632614454 0.20473269707206082
6.29928646576729 0.36779899027370366 799.5782632614454 0.16640128450716196
6.31493031437702 0.390585159047916 799.5782632614454 0.18318140806299185
6.2373541773897845 0.3104149851480214 799.5782632614453 0.2150618285219211
6.234916688642926 0.333192989038216 799.5782632614454 0.20782093506459412
6.295101033706356 0.37841850178050057 799.5782632614454 0.20607642029054435
6.209837999236464 0.29655840530505934 799.5782632614454 0.2856158726484577
6.264447402625487 0.34843567061998015 799.5782632614454 0.25477180910219815
6.21745953501838 0.31744380631251756 799.5782632614454 0.24413435204536843
6.197774437468331 0.2973041011567227 799.5782632614453 0.22235615039821796
6.2498562430722755 0.3484727064230534 799.5782632614453 0.2619313806851499
6.2197676138311415 0.3504303824106281 799.5782632614454 0.2336797147655386
6.211408325494974 0.32976750080141193 799.5782632614454 0.2752623539901524
6.279098074276094 0.37727247921695023 799.5782632614453 0.25221358257254356
6.200861191269014 0.3224511661248489 799.5782632614455 0.2517828603379215
6.2186415657124705 0.3392660703713387 799.5782632614453 0.21971017515537547
6.3042853000338495 0.3962658341727511 799.5782632614454 0.2254686599036529
6.26449080822239 0.3888353415907654 799.5782632614453 0.25522114388391204
6.231104342987273 0.38038617028747906 799.5782632614454 0.17579955984394877
6.25236226736337 0.38622786639790774 799.5782632614454 0.2063528354458032
6.221746561519694 0.36498961663433926 799.5782632614454 0.219372804206574
6.315341612125306 0.4092724001804528 799.5782632614454 0.17777235428756605
6.205600556655231 0.35758652057153173 799.5782632614454 0.24906423826324217
6.235693085055726 0.3690745225985674 799.5782632614454 0.1839709009260492
6.275815095485153 0.39182378873651397 799.5782632614454 0.2230868875314034
6.190128980526243 0.3573344243447282 799.5782632614454 0.11752863396798038
6.331937530543008 0.4260253407332896 799.5782632614453 0.20713268021893466
6.26056645745896 0.4079223847363065 799.5782632614455 0.21089468130633393
6.242522122915503 0.3982496237306744 799.5782632614454 0.20782994226776724
6.279474449848269 0.40662906892437234 799.5782632614454 0.18173565705976016
6.218802183253296 0.37699837724463986 799.5782632614454 0.2002325098175858
6.20744808309056 0.3789038711451464 799.5782632614454 0.20989294539303618
6.30483400847951 0.42302960657185007 799.5782632614453 0.23758988336869083
6.224839065631671 0.40693847672123945 799.5782632614454 0.22467718598003233
6.241118353332924 0.4145391621849986 799.5782632614454 0.24589492596746176
6.225380527928767 0.4196240309124876 799.5782632614454 0.23911033064068185
6.2858893766230475 0.42603407019053186 799.5782632614455 0.2245739882343948
6.270839674618144 0.41866435823190806 799.5782632614455 0.2038497325509219
6.207639285903948 0.42142649096602786 799.5782632614454 0.20128296460290712
6.240920229720967 0.4275656163242579 799.5782632614454 0.24064923850491063
6.476117149134032 0.4248395175011197 799.5782632614455 0.23470230552060276
6.525830489517655 0.39709765763772653 799.5782632614454 0.13569534770615305
6.447692487606253 0.41354084946904573 799.5782632614453 0.22608368605914375
6.502315680941216 0.4162789604158392 799.5782632614455 0.254761126134306
6.5021394254106095 0.40396249566429676 799.5782632614454 0.30292833397617974
6.458398236545282 0.4157789395463563 799.5782632614453 0.23357836923611824
6.512675201250289 0.4079316207896694 799.5782632614455 0.2079828754245271
6.4919089038843865 0.42050132704332144 799.5782632614455 0.26956367461317965
6.509153066688121 0.31052337747921166 799.5782632614455 0.2671648561772293
6.515547758627514 0.30044735028795744 799.5782632614453 0.24729961539056036
6.4376580207649665 0.3685803294101411 799.5782632614453 0.20173621346828582
6.501229362936273 0.3233396730585349 799.5782632614455 0.21804410810136612
6.5319108095150735 0.2799896034019805 799.5782632614453 0.13583073352732405
6.417181449515803 0.39103043890925004 799.5782632614454 0.25920951099547607
6.452722064709844 0.3588711053337143 799.5782632614454 0.24030804920960333
6.528474481045324 0.2937293375744082 799.5782632614454 0.14729160395123525
6.492991492935472 0.3332992652785628 799.5782632614453 0.2278447048346336
6.481400002738763 0.3488761810643808 799.5782632614454 0.2179582611563128
6.505628285708473 0.3350462139707163 799.5782632614455 0.28613095288454554
6.531360606669893 0.32573227437876345 799.5782632614455 0.17533200498646886
6.531871153171201 0.30581662800074844 799.5782632614454 0.14817167718291632
6.519689509492009 0.3164481861510629 799.5782632614454 0.2541587800545094
6.464353373925212 0.3924219647833902 799.5782632614455 0.21532521516978784
6.521687641197181 0.36997630877070437 799.5782632614454 0.17574276824285984
