x y z curv
38.00094890967164 0.26852319649464745 628.9094564749485 0.0005181732213344874
38.01141443334041 0.2404434055367805 628.9061225441156 0.0006922155298440564
38.00621206982274 0.25337208245565324 628.907543013309 0.0005044203912933783
38.01291571691444 0.21880106206733277 628.9201848724188 0.0006503465596603951
38.01279186561123 0.22778913756382907 628.9125268783056 0.0008885737116161317
38.024090135311766 0.22044857620723798 628.8999659061036 0.0018100469328016398
38.01956741791595 0.23091541021017908 628.8988792413413 0.0019093173904981408
38.01687659675664 0.24372637853332862 628.8945410697235 0.007696645813067739
38.00539837881092 0.2716248037882295 628.8994222563954 0.0020057226078641246
38.01013915170294 0.26127367198286633 628.8962525030151 0.0027233953249952924
38.02399413967569 0.23573165936287102 628.8884357220368 0.008450017572247073
38.031519889149706 0.21607888888127239 628.8925950608746 0.004617303734545115
38.03770193689881 0.21884192918710413 628.8821799052755 0.02238891360349223
38.03796646003036 0.23144815962470494 628.8725911918301 0.02473580402245215
38.02565460113865 0.2451570750531949 628.8800512464363 0.02355228684649523
38.01838919168044 0.25813973073516183 628.8837566787566 0.016994182820068954
38.01562118697798 0.28085767704494147 628.8784817440242 0.02028807916315185
38.01135290608585 0.2710892294994473 628.889366599046 0.006852150765692122
38.00391872234704 0.2859736620993461 628.8954611187905 0.002148966732127084
38.04067576898906 0.2093761325762583 628.8867436680771 0.014381410064788647
38.048011520211 0.19930850588357601 628.8884167758874 0.010823269634416674
38.03296885719122 0.20634347809760292 628.8994769085683 0.0023261448877486455
38.02211066739092 0.20792305798443417 628.9137876749992 0.0017140108186250685
38.03123776129437 0.19534174718627814 628.9125790297232 0.002571208100976977
38.01547867074236 0.19620688952088863 628.9361843756986 0.00095800321354364
38.02518548091053 0.19239645109618875 628.9246852102699 0.001551092080915428
38.01456128800792 0.20739749383914702 628.9272588768401 0.001082575008469953
38.00931731599582 0.19645828194043266 628.9469156765919 0.0010911628217250044
38.002502670105315 0.20699506056507533 628.950861715407 0.0008484037219593813
38.00760344914117 0.20689010402473498 628.9405937878946 0.0008605603134603062
37.994690438981436 0.1933937202422773 628.9804994696913 0.001032573231298173
37.99758781116769 0.1974930326485811 628.9702735381667 0.0010855138606211006
38.00108192865294 0.18359614861507798 628.9759188874064 0.0010845971552031607
38.00747802283074 0.18434057967952816 628.9628055073032 0.0020695173403797564
38.01544029615525 0.17199682340258915 628.9624523283338 0.00193699315617444
38.01800318715134 0.1801904796648916 628.9491463121908 0.001821900938551329
38.03637828697977 0.18461536928115982 628.9173523428982 0.00199540073287276
38.01281893507256 0.1666023694175391 628.9732461265262 0.002013570447719042
38.024411175231606 0.16826319914639884 628.953057467063 0.0019875816286723975
38.03172421394599 0.1747057683831562 628.934904298337 0.0026749872520937645
38.04499658702318 0.17338240546347192 628.9207195247362 0.002345317638265477
38.04645162227572 0.18060424393641192 628.9103906708048 0.0030363110573541604
38.03359372074266 0.16211912936444017 628.9481342689205 0.001833975725308901
38.03353297886352 0.15466792222607287 628.9576269661825 0.002890867702961591
38.04700475551081 0.16318842256621152 628.9312923027618 0.0027122184398953395
38.05582062513611 0.16512202580485458 628.9205209963131 0.0023950549243962954
38.0591214125964 0.17816947770002 628.9014691472692 0.003243697423450417
38.05816344733989 0.18606879028848072 628.8930483222642 0.005166528629048298
38.070275467168784 0.17899064481236188 628.8923881319067 0.0045984997274322115
38.077081521816204 0.16753676188150246 628.9020711258026 0.0021551719961630383
38.0880953522585 0.172444278991917 628.8914154994889 0.003225927012689472
38.09408304253379 0.1635021356602722 628.8998403592997 0.0030548941381702377
38.109550518448394 0.16504566231357043 628.8941196737112 0.0047129121814074365
38.09924311593918 0.1703812273213649 628.889914225883 0.008424260725465434
38.10375355907522 0.1584836494449252 628.9031432976993 0.0027751528842231686
38.11170382106131 0.15260390392376022 628.9089074211506 0.004275024292139077
38.09702709507285 0.14334474110862508 628.9252729853033 0.0029037003119801053
38.09178220855994 0.1514751513427231 628.9163908927624 0.003786509149139758
38.081251227223795 0.1510976012144136 628.9218171025929 0.002002248044613304
38.06454578087477 0.13632696021697868 628.9530843353658 0.0016100473437450006
38.071319327651494 0.14071597954807366 628.9418551295245 0.0008214618346614907
38.08614801840488 0.139647366521091 628.9353275777194 0.0024336585372499065
38.07367563480936 0.1474095112711063 628.9307651673622 0.0013531470694324534
38.07487645952402 0.15834149507149736 628.9151766224936 0.0017555094278263684
38.052243938108255 0.14097938666723148 628.9564331237476 0.0025129052142249158
38.058372541623086 0.14636564485351872 628.9435583163297 0.0016114713915554605
38.062697540467646 0.1560464255347384 628.926795956409 0.0026240981629548493
38.042560840602604 0.13281640743077716 628.9780127190719 0.001499802697429139
38.04853159727102 0.1522714369614943 628.9443584283858 0.0015093685882174234
38.032842144297774 0.1401139680676009 628.9785042119884 0.0015889722487510305
38.03587820548838 0.1449572285532158 628.9681400004945 0.002312442934944492
38.018632211627136 0.13964796616236236 628.9981735372442 0.0026120534016271534
38.025850949722866 0.14004626911018384 628.9872749291211 0.0024605916117800804
38.0232209680765 0.14936928495731222 628.9786015412708 0.0023043870843793453
38.01065073624818 0.14788862851816434 628.9998834770029 0.0018567815506922497
38.01099524962204 0.1555748779873005 628.98952188779 0.002601734480387677
38.021342769517545 0.158979985305293 628.9689184745414 0.002257675568544475
37.99856109293131 0.1455117818704882 629.0244038668848 0.0024248466515158686
38.00215881724894 0.14990138134735076 629.0122259553584 0.0020736432110198414
37.99036313755059 0.16711125323741882 629.016279057896 0.0015193292485514453
37.99960936011084 0.16319839722549873 629.0011964756524 0.001306310899214076
37.989589706281514 0.1542781702714719 629.0324358849575 0.0020777746816406963
37.979380738463135 0.16814130592845078 629.0434178231848 0.0011157823210951978
37.972794492184946 0.17598617703530478 629.0533508467125 0.0007838437280401604
37.97545964924422 0.17955431780973943 629.0424426796126 0.000846215218037578
37.983832668619726 0.1785146163185558 629.0214506206748 0.0009889582515441606
37.98647120400126 0.16563037656790042 629.0271129051804 0.0016076856526446995
37.98806591085921 0.18448718913795653 629.0046990970418 0.0012891810494934496
38.00048990452895 0.17373844077689393 628.9878427014191 0.0017294075472083776
37.99094407076904 0.1887234372138459 628.9939034626352 0.0013698005845962714
38.08317633315947 0.1304253923474875 628.9506907587702 0.0012291691571135741
38.09922600802499 0.1351380361834877 628.9363516366593 0.0031843021178439013
38.11043177442734 0.13189823273610043 628.9380024850375 0.004076668395959705
38.115785234459665 0.11759843849525294 628.9585922146364 0.00537469476185696
38.10404571944849 0.12087482524201801 628.9568116010153 0.005220193509901656
38.11114617066754 0.1773850305717991 628.8802588337311 0.011171816435503119
38.09508181267604 0.1871576598896998 628.8730240333666 0.019589775973212775
38.0766193220575 0.18493855205513676 628.8820107075496 0.014703131130483658
38.079407564067175 0.19347298596701526 628.8717144544282 0.01955340673087059
38.05934870346196 0.1940456825383709 628.8834492793642 0.020053772694828092
38.04556493295803 0.18917718430735822 628.9016738637924 0.0028005799692643256
38.10455019264307 0.07089521666945986 629.0482896560317 0.0014457199403641924
38.08694253095621 0.06316212835767313 629.0696120494039 0.0012885692046226871
38.09373940581425 0.06743765280280517 629.0586465557667 0.0014687349831382492
38.110577972058074 0.06536705657645786 629.0584098935506 0.002166830390814509
38.080956365186836 0.059122160048696894 629.0816758538348 0.0007358908883819735
38.074438272506555 0.0652356665972689 629.0720632326047 0.0007234059719957988
38.06542046786644 0.06187922783075342 629.0840757276685 0.000840426971769386
38.08812850009862 0.05262474447866296 629.0928861240616 0.0008867052048800389
38.092351696186455 0.057009072952671686 629.0819277324973 0.001004020868082564
38.10235200086943 0.05864934689250027 629.0756769110906 0.0010241075509203237
38.05060759721101 0.048747961791450294 629.1229885493324 0.000896775889159162
38.055300430267295 0.05249074329611432 629.1108116277857 0.0007692599739982488
38.047248165798635 0.044480615910341866 629.1353503061375 0.0014112661942204036
38.05070820317495 0.05799978006870978 629.101990671974 0.0014935028552897909
38.06735663604681 0.049813578596387145 629.1103384025039 0.0009757966435741723
38.0618967495451 0.04625126791086267 629.1217129522854 0.001421803855705148
38.06586187822509 0.056022385518641346 629.0966464932094 0.0009583611361356798
38.03652156089089 0.04859907065713731 629.1347738517754 0.0017634391738581391
38.036745357761006 0.05610732572584691 629.1182054419448 0.00153704506188377
38.0379777264178 0.060187566891550824 629.1081259010454 0.001565086438781112
38.0267464057172 0.06271361745290951 629.1141850046515 0.0023146369987341354
38.02657658113816 0.05640240591011957 629.1276458991064 0.002434383424086971
38.03151492394068 0.03742878981779178 629.1663939084119 0.0017179350586383347
38.03065700095421 0.04268104142439677 629.1543243077703 0.0014664670844964662
38.02274619788935 0.05026096209720963 629.144505731663 0.0022248839480995554
38.05164130913624 0.03646852274653676 629.1511817373548 0.0009564016540256944
38.076610674287 0.03343366004989646 629.1457428906192 0.0005405432840258144
38.06504921983194 0.03524107450917531 629.1471439615032 0.0006837302579857826
38.05397214987363 0.03172595285612297 629.1624216532751 0.0008632640211390522
38.082786853756396 0.043323013005101364 629.1179681161682 0.0005661033827975942
38.07398518988449 0.041594935559844774 629.126675042774 0.0005371510315426007
38.05870850876087 0.04125095640768358 629.1351990593963 0.0011381125797560987
38.02644346697079 0.03183543243212419 629.1872076550513 0.001891886108609719
38.02286687448605 0.03699673099359915 629.1773337743023 0.0012904613539718617
38.0451348443982 0.031545509700151936 629.1694027682768 0.0008208446198874146
38.03496179927888 0.03180801862478989 629.1777232567827 0.0018601788959459876
38.01442671885538 0.03660250435683696 629.1893140271118 0.0021384527884008037
38.01416856427949 0.04399886208182292 629.1705920966974 0.00197039066671134
38.00451536292299 0.04488904924174869 629.1824195253747 0.0025068171568486458
38.01207621009103 0.03076843955880224 629.2097664659702 0.002426423491273039
38.00279169007586 0.039005026236717255 629.2008818204854 0.0023578323535010646
38.02244621065581 0.02948458743803463 629.1987733227527 0.0017702974618573624
38.045852842479555 0.02273233874611399 629.1939177593235 0.0009780467408893084
38.03624921610606 0.023166046465844924 629.2018178072933 0.0013948525829811885
38.05028230742132 0.01532056714436872 629.2140759604747 0.0008447939194287953
38.06868360235914 0.018221411288122883 629.1940077866576 0.0005602604645350929
38.05441563461338 0.01791915104237761 629.203242270946 0.0007805512826251178
38.075704376604705 0.020578627814469962 629.1829703964579 0.00045067942812456775
38.06994978389826 0.02480431391694455 629.1734037677545 0.0005336967146867729
38.061613305851864 0.022761528533555227 629.183969097237 0.0008339616564915632
38.073928641331854 0.02895370028494266 629.1594927723943 0.0004405636459561451
38.10453492064496 0.02777492286551385 629.1538013540618 0.0006259099276610162
38.09244845145996 0.027234567656044813 629.1576071417087 0.0004555099232161723
38.08933339260851 0.031187525493828527 629.1470168303255 0.0005101365119654164
38.09031528281849 0.022225052583279788 629.1727487754105 0.0005508924572763168
38.11221724238329 0.018687869031802643 629.1798208232806 0.0004357999742374264
38.08943196820415 0.017650552927087254 629.1870020437558 0.0004481900608398651
38.10602163977252 0.023932439848770703 629.1647065626057 0.0006010447749647041
38.08727448605913 0.04838131894828526 629.1035873124767 0.0009233188126649214
38.094720463850535 0.035951130031386544 629.132987585826 0.0005682564700593416
38.095674623731966 0.04469929514961076 629.1108075531057 0.0011406460589994175
38.10295291293346 0.039818702588284814 629.1213048112147 0.0009751626886889635
38.1144180443433 0.033826499274866195 629.1346937781541 0.001094075349409918
38.11304327340997 0.02968980725515829 629.1466107872603 0.0007830377472808989
38.110865023880464 0.053120210932637316 629.0861705461051 0.0010359656650863545
38.10279251767099 0.048569384502329685 629.0992060671729 0.0015055474598982476
38.11494798473044 0.04835646447230527 629.0967338742009 0.0016154325690401477
38.098809986011204 0.015071733721373866 629.1936648951091 0.00059546747670402
38.0673235049198 0.014830791933268247 629.2058499989596 0.0005726961183069105
38.078394762303724 0.013836642720133623 629.2027988372705 0.0004317527136436229
38.10785619262949 0.011738170267310616 629.2033548361616 0.0003289667682597711
38.098960171819755 0.010238476221298809 629.2099048146104 0.0004355930320832931
38.10945084780147 0.00767779072226961 629.2170576727367 0.02445827025680105
38.11160893664184 0.003421880020650425 629.2318636035395 0.09230884027850304
38.08365427929183 0.00798133554686553 629.2201748706689 0.031332678961707834
38.09914693661969 0.004646253890350658 629.2294078098279 0.06882420566683434
38.07629818262286 0.006089712818553262 629.2299455522564 0.051136810265067764
38.070006025092994 0.010192502540657674 629.2197552109974 0.013729383021065399
38.04922242381836 0.012122021883779116 629.2255411458943 0.05944878567924959
38.05564585063118 0.006716948316128246 629.2398969431015 0.09026315142544589
38.038395556437116 0.015320088626773563 629.2251997335533 0.08260253123344741
38.03534691099212 0.011633859845159907 629.2413062434664 0.13414789197074456
38.02337174038971 0.01637232169455514 629.2399024610229 0.1192198241617624
38.02284051708977 0.020765602003912226 629.2256868449465 0.0721471405878891
38.010554026989695 0.024095824983165755 629.2335202023855 0.051692262053645445
38.006767587369836 0.02902565224054017 629.224210623463 0.03379184600833952
37.992873219035474 0.04175761802115478 629.213626100733 0.008661507986541918
37.9966238266109 0.03427668807720248 629.2276180412553 0.048408941895348674
37.988910703595344 0.04959926625157849 629.2002431165879 0.0030434497266003395
37.99674820399642 0.04777243310999532 629.1894596481498 0.0020830822070887433
37.981641255593914 0.05031844007946201 629.2175342683959 0.030772879058170558
37.98085560087917 0.05543036502827069 629.2064560526399 0.0034368134784281846
37.98674119725886 0.055941261596132295 629.1901612226529 0.003142269768038028
37.99875013925465 0.05897786523242701 629.1598352913741 0.0033324256673432358
38.00442674285782 0.05116556243843613 629.1673169675965 0.002234558043542925
38.012365588045974 0.05296306482001077 629.1521132323924 0.002902121665754898
37.9898619789478 0.06139479566505463 629.1709187932793 0.0022627922046876154
37.98129758459946 0.06867765762294738 629.1743632956129 0.0016942617446955852
37.986909738812784 0.0697066602826894 629.1603334564641 0.002820589126696718
37.968750038990365 0.06819572479374593 629.2118928813301 0.0067329976525270065
37.97528352796663 0.06461264808118193 629.1993458451008 0.002215370277856521
37.967889617924826 0.07414834150535653 629.2006306733524 0.00198480176733236
37.95915618872923 0.0820321344649755 629.2166121164946 0.017779806351394797
37.96199227179923 0.0823719033336753 629.2050711995751 0.002906215089688648
37.96875407076305 0.08008024155134882 629.1856498589609 0.002547750011682076
37.96135785529718 0.08973129495111104 629.1921572576504 0.001900959211906739
37.95430044721013 0.1015779051148193 629.1995481184176 0.0012901538927613742
37.947414052682625 0.1147108088440241 629.2150141139539 0.019907321586142356
37.95053839175878 0.10165959384031761 629.2163762331608 0.027528261852729784
37.94861892411319 0.10167317904164347 629.2278826105421 0.06049113740593673
37.94441798039685 0.11043631834218626 629.2391501036388 0.08675919041640806
37.942371916528124 0.1268120075361826 629.2260729659811 0.03828685551325833
37.94529505837275 0.11460614370705703 629.227463369771 0.07099583248734612
37.939859866658765 0.13283548673468804 629.2361485074259 0.07165989150856371
37.93879402528749 0.14783927854828294 629.2279461816215 0.06156897371639787
37.93720525249519 0.14710199412652064 629.2418248742131 0.10315281005072044
37.93725701149081 0.1659188410558446 629.2212701580985 0.04323829460438154
37.93609068678212 0.1578354796001491 629.2407691572417 0.10428898348663766
37.934748328504305 0.17198272907169923 629.2415007047385 0.06836472089753486
37.954819230078016 0.08378767110461112 629.2329943135417 0.07209148232503221
37.955134554413384 0.07885647587780995 629.2435767132329 0.0873975543113359
37.96255508800161 0.07248081686338356 629.2248226308413 0.06617633038319404
37.96372662943922 0.06378099056959512 629.2428143074004 0.096262823419346
37.972626016268315 0.05925200648252714 629.2207924007067 0.04144655183255648
37.96828158744979 0.06100643164451734 629.232242514081 0.06503347032042096
37.97585811143367 0.05203374952735691 629.2299138111663 0.06598768643010473
37.98537619996351 0.04293195493814235 629.2280333248234 0.04918233664993892
37.98720929956275 0.03708204663037136 629.2416222057966 0.10868605949232824
38.01108936014662 0.059095562864784526 629.1403329295908 0.0024112420923940387
37.95138329647782 0.49838628946050495 629.2902866334612 0.11925437926074704
37.940625921516016 0.48204558045090007 629.2902866334612 0.08706063532532744
37.9386584639608 0.49813122679093 629.2902866334612 0.11198995962556357
37.946748095557396 0.47284261048617476 629.2902866334612 0.06417690019676758
37.9652570096553 0.5010722049123667 629.2902866334612 0.07221734524544722
37.96004118686058 0.48926774630827835 629.2902866334612 0.07363447468320121
37.94273286766135 0.4577618821502749 629.2902866334613 0.10330901807093927
37.97886579110705 0.5066232247973125 629.2902866334612 0.057569892912662624
38.04185780270144 0.47537590341909763 629.2902866334612 0.01706452784995658
38.05720621654787 0.4617387424259093 629.2902866334612 0.03681053844633592
37.977189536636885 0.4710103512860462 629.290286633461 0.01735149703947914
38.026483717745776 0.4796313433420092 629.2902866334612 0.02251577934162459
38.00453889993417 0.4528624332063614 629.2902866334612 0.08839564250443921
38.00178175869481 0.486905382538038 629.290286633461 0.04796339482515251
37.99482126155325 0.4630644246679639 629.2902866334612 0.05566451146884966
38.06036369431909 0.4467944126691954 629.2902866334612 0.12674871693066392
38.037518945566305 0.4514574592046135 629.2902866334612 0.09239674986812285
38.00843146057781 0.47556890072974783 629.2902866334612 0.026429382454136386
38.01007086366878 0.4642121373086753 629.2902866334612 0.054222090780127435
38.01708284981696 0.48585515096841736 629.290286633461 0.02695217023699681
38.06995434977287 0.46470070455206014 629.2902866334612 0.048125106530157384
38.04237335594365 0.49058239680678123 629.290286633461 0.03403308767028093
37.96949553505147 0.4553573919244907 629.2902866334612 0.07833150740199783
37.9830829198637 0.4573448166046833 629.2902866334612 0.06834710577744664
37.980971089652186 0.48154818512729525 629.2902866334612 0.04013194461888763
38.00962957880438 0.49727332273745906 629.2902866334612 0.04964394620548482
38.024619749835615 0.46706187167504487 629.2902866334612 0.040938291599032166
38.084152158777165 0.46275264063709676 629.2902866334612 0.039647180536050604
38.09436545036078 0.45788866944702156 629.2902866334612 0.07483834265937928
38.026524871828286 0.4517314288424093 629.2902866334612 0.08691116772178598
37.99160745827426 0.4911406511741403 629.2902866334612 0.05265951693756467
38.028892111918346 0.49301931653623604 629.2902866334612 0.04170995408638737
37.99553960902918 0.508540708456467 629.2902866334612 0.04898920853993316
37.9666441153671 0.47862943514977546 629.2902866334612 0.015776776273716073
37.976343455460515 0.4950630552147834 629.2902866334612 0.05330275003177842
38.05521861410794 0.48388675366506506 629.2902866334612 0.03271925387092612
38.07386562862544 0.4839706130133343 629.2902866334612 0.024987041720027803
38.04431123219402 0.5078238683125875 629.2902866334612 0.03879884592161875
38.05869555394443 0.4974590441849074 629.2902866334612 0.044456383765035176
38.08646093198962 0.4776977908119761 629.2902866334612 0.027573410367070835
38.08081534838699 0.5001209318153196 629.2902866334612 0.06308252013355292
38.104910102109784 0.46332063738149365 629.2902866334612 0.03945985962036342
38.09019424695092 0.508371221587631 629.2902866334612 0.07234248879514196
38.10974444683295 0.47325425003367805 629.2902866334612 0.007612177354231949
38.11561440181635 0.4991502610163952 629.2902866334612 0.08852881160930216
38.101559952128106 0.4896904886693004 629.2902866334612 0.042205210131765716
38.116307808678854 0.4575221540789843 629.2902866334612 0.05328243602122166
38.11767568175271 0.48213010846737636 629.2902866334612 0.030610838392228532
38.13060952216318 0.48429181194197823 629.2902866334612 0.033003693386780115
38.13354799365921 0.4988562921560429 629.2902866334612 0.08636642369329561
38.1447005795347 0.49792836400182094 629.2902866334612 0.0817577692254282
38.12629049501631 0.4664048541732154 629.2902866334612 0.02859555157647234
38.15971840565852 0.4888742303078351 629.2902866334612 0.052467416200612016
38.14780805988316 0.4813227328456424 629.2902866334612 0.02663256149158028
38.17995395307503 0.5024477977882991 629.2902866334612 0.07734504451677512
38.190142532344105 0.45902584992774265 629.2902866334612 0.05286583763014062
38.18570860842185 0.4824937488764295 629.2902866334612 0.043861015146100996
38.19812560801972 0.48239286074094323 629.2902866334612 0.03728774366237603
38.17009914192819 0.47916334032391916 629.2902866334612 0.013172677753553727
38.185164735256826 0.4702267733479038 629.2902866334612 0.021762003889636505
38.24433488503206 0.4509174874874817 629.2902866334612 0.08756962029030452
38.230025436754076 0.4596918821963085 629.2902866334612 0.059070278888884505
38.21441394628643 0.4541529108844862 629.2902866334612 0.08762112363078361
38.14258836761625 0.45531360096380596 629.2902866334612 0.08704915309397522
38.20482049266765 0.47233237709242193 629.2902866334612 0.014585612301062586
38.224473241767384 0.4695812516226062 629.2902866334612 0.016784483920473475
38.15476273834146 0.44872395627182005 629.2902866334613 0.10477772769075606
38.19805195875436 0.495887113806354 629.2902866334612 0.050902683339939456
38.2153217386046 0.49795553998447495 629.2902866334612 0.08287159557100436
38.25023252264053 0.4754866167218092 629.2902866334612 0.02797896018141705
38.20843619138208 0.4875960903844222 629.2902866334612 0.04943469717022768
38.23117930949792 0.48541421223500203 629.2902866334612 0.05303917272112975
38.202867960377525 0.4562624073095878 629.2902866334612 0.06536907381532088
38.176140509636596 0.4601273229033198 629.2902866334612 0.04206186129989395
38.24557951798965 0.4636369872918818 629.2902866334612 0.03925049306279248
38.22013083867331 0.4826383714330848 629.2902866334612 0.029930518100872647
38.160203132539806 0.45991482895185454 629.2902866334612 0.052148633246249805
38.27846807376031 0.4500025978278239 629.2902866334612 0.12807432516674624
38.165560482242064 0.4464134480817875 629.2902866334612 0.12000966616969769
38.256496935510505 0.45621742855067643 629.2902866334612 0.073032529400713
38.22637855849759 0.49734502464317165 629.2902866334612 0.06022658895635119
38.154439546352464 0.47099834395097717 629.2902866334612 0.01104692744714279
38.12762247646413 0.4523465014282414 629.2902866334612 0.08183985811688609
38.204219625799965 0.5085353887343189 629.2902866334612 0.0741820261513041
38.28125776932393 0.49606854124101274 629.2902866334612 0.09836155884734012
38.29070938448107 0.461534608440998 629.2902866334612 0.10187249780070357
38.25311663245296 0.4999208061525167 629.2902866334612 0.08632561558323053
38.271869429522646 0.48780826295440993 629.2902866334612 0.05815473726100446
38.26507724893879 0.5090678724849486 629.2902866334612 0.08708619312593034
38.279722940767286 0.4788051029398732 629.2902866334612 0.03801697206921621
38.24094656683091 0.49445456909938046 629.290286633461 0.07518739281265388
38.26885064633943 0.47068977706046444 629.2902866334612 0.048811789218455456
38.25401041214727 0.4862886103769376 629.2902866334612 0.05290376546243247
38.09360909490882 0.4663441553351587 628.8702866334613 3.845069918757949e-07
38.09667601161806 0.43765310558146797 628.8702866334612 3.515519020784176e-07
38.085860497981194 0.4341961774233436 628.8702866334612 3.599982810912533e-07
38.08713141885315 0.45010091666481417 628.8702866334612 3.257803630055824e-07
38.08764594015403 0.39846683266986754 628.8702866334613 2.6728222988543476e-07
38.08692389669664 0.4198806670184837 628.8702866334611 3.0334724725571167e-07
38.077582504685815 0.4603437162197572 628.8702866334612 3.1555140505970524e-07
38.09607740490236 0.48083287285027954 628.8702866334612 0.010938993084476685
38.08308110428861 0.47185721337429376 628.8702866334612 4.7356482143782633e-07
38.07241920584121 0.4407978935843089 628.8702866334612 5.162908828075664e-07
38.06957508877937 0.43007038249595586 628.8702866334611 3.502911188522462e-07
38.064653962444204 0.40530009485158003 628.8702866334611 4.705628402224511e-07
38.07014252232689 0.41580066151363326 628.8702866334612 2.9698373931978126e-07
38.076179163696736 0.4051455309193323 628.8702866334612 2.787577663762488e-07
38.06989986268152 0.39363863488468953 628.8702866334613 3.029193145332128e-07
38.07769466504094 0.37398216981814414 628.8702866334612 3.553770191361305e-07
38.074107505263 0.35846068603860354 628.8702866334612 1.5595342904401685e-07
38.05096396204424 0.3568925663240041 628.8702866334612 3.232913741376706e-07
38.05299621459591 0.37671522768843735 628.8702866334612 3.457180228844842e-07
38.057670622236714 0.36636542929245086 628.8702866334612 2.6432155683234704e-07
38.06313605741275 0.382693077005849 628.8702866334612 3.7457296808848563e-07
38.06831309349163 0.45269661221619506 628.8702866334612 2.8969163916230555e-07
38.05970465237087 0.44186994741128455 628.8702866334612 3.3395311776671726e-07
38.05624165986888 0.42091285501579084 628.8702866334612 4.831514766793171e-07
38.05270276580275 0.3973356380942701 628.8702866334612 3.268205387663846e-07
38.04485924122546 0.4103146875345587 628.8702866334611 0.0005443050883939187
38.044618625389234 0.38815241414861534 628.8702866334611 0.0008375006796557295
38.05867119193266 0.34838071815668564 628.8702866334612 3.4840884371779506e-07
38.053969784049094 0.3343274631758816 628.8702866334612 3.5402640666498713e-07
38.04069408901864 0.33328019807637743 628.8702866334613 0.008390528320076768
38.044610094489386 0.32096735775525187 628.8702866334612 0.0010218100885326003
38.03068582755371 0.3610119256857462 628.8702866334613 0.012975123515334587
38.02928402546171 0.34293252956588033 628.8702866334612 0.020361109303475837
38.03397978823302 0.313010407077706 628.8702866334612 0.02119955701801109
38.03157942329716 0.3255686513525811 628.8702866334612 0.027625563696838294
38.0391626006394 0.39846703645108994 628.8702866334612 0.0009187356127225328
38.02914808208343 0.3868995320322417 628.8702866334612 0.015693001085597392
38.02943197859754 0.37314322662257393 628.8702866334612 0.01919468827208413
38.02268131676162 0.3170736997058688 628.8702866334612 0.026910787051167843
38.01875605819 0.33542897598716614 628.8702866334612 0.023360679605631
38.018631315008506 0.34939080350438456 628.8702866334613 0.027892858574735294
38.03297749952809 0.42722566463557143 628.8702866334611 0.012837681257022854
38.02942226572642 0.41427034366947935 628.8702866334612 0.015134656398744834
38.02715049894614 0.40033910314150184 628.8702866334612 0.02285304236949844
38.01911994915228 0.42211149286709376 628.8702866334612 0.033465311922974444
38.03148322864799 0.4685891449384494 628.8702866334612 0.012720739035128372
38.029622382791615 0.44230257859583033 628.8702866334612 0.019951805866807813
38.0191127064691 0.4563403300616601 628.8702866334612 0.03194379179153177
38.02159462897598 0.4331565668833163 628.8702866334612 0.03137051143642403
38.035602221684165 0.5009434128724403 628.8702866334612 0.07634705348886027
38.024751905933 0.503856822334035 628.8702866334612 0.07465785494786442
38.02756263134818 0.48116219892162426 628.8702866334612 0.0322964635307265
38.013456557800666 0.4934841540063201 628.8702866334612 0.0554507620511441
38.01387981511356 0.48198420859265845 628.8702866334612 0.04629284023306135
38.04169604724684 0.45229675290967475 628.8702866334613 0.00011823355995156787
38.04048027981275 0.48074616400335063 628.8702866334612 0.03582238727863513
38.05296304274091 0.49638367743197476 628.8702866334612 0.06818735654213777
38.05661541518314 0.46571175361818407 628.8702866334613 2.756609120290428e-07
38.043654232373534 0.4344626432214229 628.8702866334613 0.001331275094139795
38.05374304097395 0.47838911442111287 628.8702866334612 0.02533046191191965
38.08392325990964 0.49592713506812236 628.8702866334612 0.0900544127886769
38.07189993641678 0.5011821560651231 628.8702866334612 0.08247128368959607
38.08122232934505 0.5087318403255876 628.8702866334612 0.10352927424502431
38.07188280451661 0.470547706830726 628.8702866334612 3.5739300335467513e-07
38.095337756985 0.49515447495714315 628.8702866334612 0.07969234245180395
38.106109658203344 0.4997342779590912 628.8702866334612 0.10219823340040042
38.11331090119495 0.485056732854818 628.8702866334612 0.0579923555992125
38.10452650386525 0.4731669171177514 628.8702866334612 0.000189816997952362
38.11782127000934 0.5034173073135157 628.8702866334611 0.08057742725403125
38.12523210358475 0.4764120222487327 628.8702866334612 0.00905839656702299
38.12753831770578 0.49393773454633316 628.8702866334612 0.08452690376503906
38.10649638780019 0.4438257843238665 628.8702866334612 4.5962979415430403e-07
38.10583420131516 0.46035038071645473 628.8702866334612 3.4961450799158977e-07
38.116151805183605 0.45563873540454636 628.8702866334612 3.2487243041274766e-07
38.13259932441916 0.4329922373858276 628.8702866334612 1.5122569749741467e-07
38.1378523308524 0.459240208533049 628.8702866334612 3.1681343437096327e-07
38.1397005221943 0.49464399472573084 628.8702866334612 0.08007777820435034
38.124448754831164 0.44282466679755084 628.8702866334613 3.2585275354207457e-07
38.14892122521992 0.4888124523596289 628.8702866334611 0.06357619445657436
38.145094411451936 0.47435125377671505 628.8702866334611 0.002723713512967251
38.15710685046689 0.5002139363095173 628.8702866334611 0.08036523834515742
38.15087027212279 0.4318421686975246 628.8702866334612 3.8858139984454203e-07
38.14582693679286 0.4469363122759581 628.8702866334612 2.795712900420232e-07
38.15496231488455 0.45612323656417875 628.8702866334612 2.7630648487170794e-07
38.140132169934496 0.42373976190149565 628.8702866334612 4.508315443708998e-07
38.14269958966234 0.41007225836472216 628.8702866334613 4.893902770512775e-07
38.151138636393725 0.4198259107127818 628.8702866334612 3.9304015962174095e-07
38.16405206152597 0.4344532961160261 628.8702866334612 4.1196046609170136e-07
38.15554906138889 0.3930405596806255 628.8702866334612 3.5852868945021165e-07
38.16773415818885 0.3936245478984455 628.8702866334613 2.838192870305762e-07
38.165291771862755 0.421175886659014 628.8702866334612 3.396526904215619e-07
38.16805225082085 0.4087595007341357 628.8702866334612 3.3709240922390094e-07
38.163526501871495 0.4663358438300042 628.8702866334612 2.6397600770702463e-07
38.168262566594024 0.45463888623600146 628.8702866334612 2.8077054667818547e-07
38.16234577920646 0.47974915322504197 628.8702866334612 0.024355786151029832
38.174675234112584 0.4826986760089085 628.8702866334612 0.0276651970901545
38.172348931897886 0.4999785131727108 628.8702866334612 0.06416115936038737
38.18858121448546 0.4917662109411919 628.8702866334612 0.06680712664539412
38.17654731598595 0.43893752734115754 628.8702866334612 3.9208180808989724e-07
38.17972433616484 0.4586705656647883 628.8702866334612 2.6837033415101825e-07
38.17750658720832 0.4162425462479758 628.8702866334612 3.3111569967018097e-07
38.16650799509746 0.38123450119925173 628.8702866334612 7.24830841428182e-08
38.17348513872804 0.36665924895731294 628.8702866334612 2.9468899212247996e-07
38.18131647871516 0.37569451241377516 628.8702866334611 3.9784002898089805e-07
38.187053467384395 0.3928283325911128 628.8702866334612 2.9068924826576176e-07
38.18584480732086 0.35675797024383676 628.8702866334612 0.00011484771434825728
38.19046484536966 0.4374631032578326 628.8702866334612 0.0024197859546970096
38.18924927733789 0.4190507946906469 628.8702866334612 0.0023890949476975815
38.19614342970161 0.40775857616080985 628.8702866334613 0.009475678303730452
38.19634168271079 0.37046821382572914 628.8702866334613 0.009351220265417739
38.197350431634966 0.3532354432138283 628.8702866334613 0.01259617973154299
38.19552952067433 0.3819783206896842 628.8702866334613 0.00824126768551938
38.20687463726177 0.3881447090664627 628.8702866334612 0.022196473392052246
38.188733466672105 0.32752293493898077 628.8702866334612 0.0028113233390092735
38.18895610494577 0.3415903424587457 628.8702866334612 0.003008226716862206
38.19489185091926 0.3155197496265602 628.8702866334612 0.01794319262150043
38.19928220788719 0.334121980131475 628.8702866334612 0.023419866998998305
38.18348289283122 0.3104343505568493 628.8702866334612 0.0005408301618641071
38.18631369702504 0.2944742257271115 628.8702866334612 0.007196947294850776
38.197515407248204 0.2907890123714729 628.8702866334612 0.01875501372848251
38.21179921743487 0.29294313007769673 628.8702866334613 0.02688592094789851
38.20793709257656 0.3215144405866075 628.8702866334612 0.030717400385374998
38.197088405628776 0.27216611438800814 628.8702866334612 0.02956145310434036
38.207219243976155 0.2828834575325646 628.8702866334612 0.03396672841144103
38.215406704119374 0.3593809731021912 628.8702866334612 0.03588298314663999
38.2094651439939 0.3692996739975528 628.8702866334611 0.03048038231261284
38.214273207956204 0.34255398652839 628.8702866334612 0.029529809042451644
38.21610249953738 0.3799058814865638 628.8702866334612 0.030447344177565398
38.209052176449724 0.39976341180523933 628.8702866334612 0.019266118776227633
38.21427619517736 0.41949599609791993 628.8702866334613 0.013074120509913367
38.19713307914882 0.4615787051891839 628.8702866334612 0.010643061889945269
38.19709726913029 0.4478992755107347 628.8702866334612 0.01060288454253747
38.205961103924096 0.43668180044342364 628.8702866334612 0.023533743163034655
38.19763988492824 0.42865046689744707 628.8702866334612 0.012279544273322819
38.210281509107496 0.44857489980101406 628.8702866334612 0.02497843825943841
38.213035164762985 0.4764476094520548 628.8702866334613 0.02776690812368246
38.22043876527986 0.4860792150068666 628.8702866334612 0.04873907660478892
38.2110708898828 0.4638286430877535 628.8702866334612 0.02450522869081885
38.20109964203037 0.4907618964064737 628.8702866334611 0.05006743165655
38.21075611936878 0.49659505456671393 628.8702866334612 0.0681578588199021
38.18722240803767 0.47959087568106673 628.8702866334613 0.023382120267477286
38.1944193133711 0.5011808252807524 628.8702866334612 0.0657056776180367
38.19442654134819 0.23816281245173188 628.8702866334611 0.03729298697096708
38.18763261423352 0.2816697200406294 628.8702866334611 0.015098669221991014
38.193120954734404 0.2609118105910033 628.8702866334612 0.021644334307572753
38.18564028929789 0.2485354359703879 628.8702866334612 0.0241606053899053
38.1800426947014 0.21553081084178166 628.8702866334613 0.026780585516590263
38.17810105925312 0.22964799122281593 628.8702866334612 0.03161681928237307
38.15975971515469 0.24970610248563144 628.8702866334613 4.717587177290963e-05
38.166331535348526 0.23498049272865673 628.8702866334613 0.009239542810466623
38.16320987095517 0.262136357840194 628.8702866334611 3.98288678514083e-06
38.17171664178988 0.24683744157133392 628.8702866334612 0.010465837594047586
38.162651836133506 0.21242765988400467 628.8702866334612 0.02539345288927935
38.14311786198912 0.23485658274620902 628.8702866334612 4.07972404835172e-07
38.14761681540034 0.24805387333911721 628.8702866334612 1.3223109469046154e-07
38.148139261352185 0.2056827818106696 628.8702866334613 0.01871862042417156
38.15351389317971 0.21850376299899096 628.8702866334612 0.015274650838598051
38.142753220466446 0.29614997022883743 628.8702866334612 3.9172515581297045e-07
38.14565178040595 0.26876399276686463 628.8702866334612 3.274190961969067e-07
38.15190495116992 0.28174492242147525 628.8702866334612 2.787126133105465e-07
38.15524416199517 0.30547400267710156 628.8702866334613 4.97647808611943e-07
38.15530320616051 0.292519532096967 628.8702866334612 3.712465244749326e-07
38.16507675043876 0.27823175198795425 628.8702866334612 3.1213225184226594e-07
38.17661624645013 0.2722360708324366 628.8702866334612 0.0032876321745760988
38.149776068176465 0.31778354743560017 628.8702866334612 7.571577638219155e-08
38.16294254556 0.32025747648034075 628.8702866334612 3.5536883487825627e-07
38.139362932204506 0.32208809676764183 628.8702866334612 4.774283778795626e-07
38.137520243659566 0.3411421816510565 628.8702866334612 4.278549016711603e-07
38.13518910862426 0.307255883076547 628.8702866334612 3.765367980368492e-07
38.13843241408843 0.2821228002183612 628.8702866334611 4.3446578978871353e-07
38.13337784973687 0.3543331788126301 628.8702866334611 3.0607345133174915e-07
38.14079645843365 0.3805435699977898 628.8702866334612 3.556190858613802e-07
38.13783164569682 0.3684500424989279 628.8702866334613 3.5947408680131654e-07
38.14946339938974 0.3504485674279864 628.8702866334612 2.7938889008413775e-07
38.15618658135956 0.3706706448756991 628.8702866334613 3.008734500459423e-07
38.16327961738512 0.35572284208270394 628.8702866334612 3.196965476484661e-07
38.16109202457547 0.3396061499671777 628.8702866334613 3.3655409774056357e-07
38.130590904532184 0.40908454484677004 628.8702866334612 3.9189338236991627e-07
38.14086420090783 0.3921078859653425 628.8702866334611 3.7373046736458664e-07
38.12195589069805 0.4002481495024282 628.8702866334612 7.531343279547649e-08
38.12581668328455 0.3884045840786732 628.8702866334613 7.666158502542101e-08
38.12434454514451 0.36394062753727197 628.8702866334612 3.63388317055518e-07
38.124837904858424 0.3770198121519258 628.8702866334612 8.010976998236944e-08
38.125786214753255 0.42228671741022206 628.8702866334612 2.8056524380091257e-07
38.11049341881825 0.4015477729491972 628.8702866334612 2.8795924988314394e-07
38.11503545870706 0.3848900812684068 628.8702866334612 7.456385588099798e-08
38.113201397803785 0.37075005631587216 628.8702866334613 3.1447452616071925e-07
38.115749943708266 0.35453371848285303 628.8702866334612 4.129226511137552e-07
38.11294982827671 0.34224740563848455 628.8702866334612 3.509214780449318e-07
38.10337824282165 0.3849433986114709 628.8702866334612 3.247519795986657e-07
38.10184944866871 0.41657822310674775 628.8702866334613 4.3250558781683096e-07
38.094675050494736 0.37474184949019906 628.8702866334612 1.4157504252568957e-07
38.10253271242294 0.35513553471282583 628.8702866334612 3.774190240247788e-07
38.110466362536826 0.43291244467789286 628.8702866334612 3.5009236373390257e-07
38.09814654430127 0.3422742954726429 628.8702866334612 4.6095754782929874e-07
38.087457573949486 0.35057757435811326 628.8702866334612 3.450446917427604e-07
38.08404465134619 0.3638967405910362 628.8702866334612 3.4838444454218947e-07
38.07978705853786 0.32043879335824643 628.8702866334612 4.5743819979091726e-07
38.07919660238409 0.3334016062451073 628.8702866334612 3.296887693667303e-07
38.10178927863923 0.32817273034993855 628.8702866334612 3.5989512380801403e-07
38.093278944131924 0.31880897379563455 628.8702866334612 3.6356362765376844e-07
38.09074840612128 0.30555142693113685 628.8702866334612 4.884118342302027e-07
38.08114422199571 0.2908462452438484 628.8702866334612 3.6342559679694194e-07
38.06988531103535 0.3250902216191929 628.8702866334611 3.414243599727445e-07
38.0643404477198 0.3009062964167335 628.8702866334613 3.51445435099067e-07
38.067989093376205 0.2876612392093732 628.8702866334612 3.708598121486246e-07
38.07607197641572 0.3020118104092522 628.8702866334612 4.894451807808837e-07
38.07547007537396 0.27903365808486447 628.8702866334612 5.021769420631271e-07
38.05750230276128 0.32105371787273623 628.8702866334612 1.4797571500843857e-07
38.05565600658029 0.2888262605757498 628.8702866334612 4.545260696140546e-07
38.0687138822415 0.2673151387890474 628.8702866334612 4.742122781401009e-07
38.05867682593042 0.2616740845273847 628.8702866334612 0.0037684851228998472
38.05866338593355 0.2504701941642512 628.8702866334612 0.007517803066150628
38.06304121024005 0.23654605608906315 628.8702866334612 0.012412320599592557
38.08038452803818 0.26770131678912 628.8702866334612 4.676130329300905e-07
38.07370523914065 0.2498899299522005 628.8702866334612 3.8723238643524066e-07
38.07459582835858 0.23664723125045845 628.8702866334612 0.00023366159271313074
38.06736605124888 0.20358210885261624 628.8702866334613 0.02142796397266046
38.069051554534184 0.22174165476674274 628.8702866334612 0.019460345216921807
38.05499740409565 0.21196351150985215 628.8702866334612 0.02336775386432966
38.08499944104502 0.24767372510041535 628.8702866334612 3.6694513685960913e-07
38.081991985635696 0.2238821020249569 628.8702866334612 0.006755281180794739
38.078558985606946 0.20664591378629066 628.8702866334612 0.026364388784993927
38.10005590170696 0.28000634266833513 628.8702866334612 3.709125149934152e-07
38.09170740455838 0.2716126934052816 628.8702866334612 5.059964871716417e-07
38.09879642842857 0.2919495561452379 628.8702866334612 4.959749707071116e-07
38.09547301087868 0.2531454181757803 628.8702866334612 4.825776193717475e-07
38.0944121682359 0.2306270395240515 628.8702866334612 3.6390569599905104e-07
38.101932619337944 0.24306526036259385 628.8702866334612 3.4225531156876016e-07
38.095597626912614 0.2187993056123062 628.8702866334612 0.00040402666637573745
38.08958149082348 0.20919158274471467 628.8702866334612 0.011655490766404375
38.108581583195615 0.2691659947870277 628.8702866334612 3.47781495966324e-07
38.11180980434108 0.3147208658258407 628.8702866334612 4.998375031341546e-07
38.112565724421046 0.28448050293765414 628.8702866334612 3.577547066572155e-07
38.10719533807903 0.30096449385235025 628.8702866334612 5.229244900591562e-07
38.1197044206782 0.3015433349345591 628.8702866334613 3.965416736346224e-07
38.12100062728818 0.27292358955914076 628.8702866334612 2.867923632881205e-07
38.12396358876649 0.28593475197801704 628.8702866334612 7.555741543661289e-08
38.118284282298276 0.2566610759642388 628.8702866334611 2.997761815355648e-07
38.11289513026115 0.23127435259488893 628.8702866334612 3.5085859431069977e-07
38.12199035636387 0.24538231826737622 628.8702866334613 1.5618146979656383e-07
38.10310990055535 0.2047781307280152 628.8702866334612 0.01554082981291837
38.106308633756555 0.19353896746258722 628.8702866334612 0.02277112448461693
38.11512636180603 0.20186151742843395 628.8702866334613 0.008272529799621064
38.13060643868113 0.1931118346634348 628.8702866334611 0.018348544287484964
38.11833014346799 0.2164344878167239 628.8702866334612 0.00036806888421246436
38.13398372399608 0.2493174037887404 628.8702866334612 2.6194378748896623e-07
38.130165304105006 0.22983869289078304 628.8702866334611 3.517587451504851e-07
38.13679645165658 0.22093120033514904 628.8702866334613 0.0001886514643271572
38.13660769195514 0.20806603827224848 628.8702866334612 0.018181288075156676
38.12793549841772 0.3267731009262256 628.8702866334612 3.5570031627672135e-07
38.12431792572446 0.31232108862014213 628.8702866334613 5.01477396735812e-07
38.114556340678874 0.3274159129549143 628.8702866334612 3.666689534666685e-07
38.14299163103659 0.19388890135773743 628.8702866334611 0.023955494481329814
38.048817035973116 0.2353380950854475 628.8702866334613 0.025788573228309398
38.04685751165026 0.2697433512349072 628.8702866334612 0.009640892894717593
38.04458953762944 0.2549341208863344 628.8702866334612 0.024065813500200373
38.0467143236605 0.3080977768788426 628.8702866334613 0.0009266243224937233
38.03725803785253 0.2762273375225957 628.8702866334611 0.01858539995300532
38.04249203259995 0.29300440617130485 628.8702866334612 0.0069356523385224545
38.03862831752087 0.2430507904430357 628.8702866334612 0.029212310538008573
38.03256232070302 0.2642603610397073 628.8702866334611 0.029601759449750322
38.025865602573504 0.28151812011938615 628.8702866334612 0.02438238470196741
38.02100135605466 0.29637108019629477 628.8702866334612 0.02243507028691539
38.176326711956875 0.32052360360422094 628.8702866334613 3.8051050950160434e-07
38.17301197961592 0.3315978656759734 628.8702866334612 3.6209969903945936e-07
38.170105932607534 0.30589104963722213 628.8702866334612 3.243555889425396e-07
38.17419612844331 0.29407537943020035 628.8702866334612 4.825922105454229e-07
38.09663570939114 0.43987340668670993 629.2562558375926 0.1040197558413873
38.0837511135222 0.4398733258191362 629.2525690161735 0.08150812968726637
38.119599823021325 0.43987366285645346 629.2679348339168 0.15527210079262743
38.116329948009856 0.4398732800138728 629.2504807152853 0.10675123135020169
38.13899055626811 0.43987349000172427 629.2600542399038 0.11683193401640414
38.15036358096273 0.4398734071767577 629.2562781792844 0.10472522944698853
38.0536151723059 0.43987366685716045 629.268117229548 0.1707790288072725
38.01393619717396 0.4398739105906208 629.2792292451544 0.2033269695495729
38.03255189938608 0.43987370634571077 629.269917546118 0.17183801152061196
38.10324525752788 0.43987393475748254 629.2803310329198 0.1870314542042888
38.01524782586981 0.43987356510436126 629.2634782329533 0.1292271165299014
37.975294191805844 0.43987377802832917 629.2731856176115 0.1805494233391473
38.074172472758164 0.4398739313535105 629.2801758429408 0.17309448103788708
37.96201349127915 0.43987388416344325 629.2780244076671 0.23070686196706452
38.04339611400491 0.43987385713323474 629.27679207749 0.21178453664260366
38.09048390171227 0.43987382606680886 629.2753757327328 0.18114696265925073
38.02919678951781 0.439874019849142 629.2842104339913 0.21500148339632463
38.041988756416224 0.43987335979406533 629.2541179620696 0.08347106886773316
37.99102672668246 0.43987388482211043 629.2780544368629 0.17626376370596525
38.0638968098294 0.4398738357277171 629.2758161817452 0.18157439898305974
38.0597224468899 0.43987331208256764 629.2519427543382 0.09146228659694275
38.08474732586838 0.43987360263575004 629.2651893208654 0.14844351872349823
38.1922746244256 0.4398739553955113 629.2812719381924 0.1819033527587424
38.152384633335885 0.4398738539293532 629.2766460098072 0.20523235186476724
38.251220969001565 0.4398737621292792 629.2724607664122 0.17465313421993445
38.179776066709145 0.4398739420649835 629.2806641880984 0.18583450268818558
38.26868835442797 0.43987395078171787 629.281061591427 0.17758517564299475
38.141415372094684 0.43987396432460635 629.2816790232251 0.20834159648946102
38.177357159344226 0.43987369210699023 629.2692683907452 0.13029962534680356
38.20021140168592 0.43987355603700906 629.2630648446598 0.10713710416803637
38.16483150609841 0.43987362839946476 629.2663639105182 0.09616085457660671
38.20679590133663 0.4398738433180478 629.276162231373 0.1765404315601006
