x y z curv
0.7509349163987376 41.10821263810477 701.2566117590372 0.0002501869619369039
0.6466259614090264 41.1082131514909 701.2697885159906 0.030933565429341822
0.8203207438161266 41.10821199221487 701.2444228602324 2.7962631237294677e-06
0.7357007746701649 41.10821433294271 701.2767565193757 0.012205523199160124
0.7555005324177202 41.108211396898675 701.242326568175 -2.5273722094285895e-10
0.7866344867131259 41.10821434973768 701.2733309890128 0.015527480372959717
0.8348375568542984 41.10820975895777 701.218272816867 -1.7755846204435207e-12
0.7961913489319207 41.10821065037611 701.2310420465362 -1.1443547246589062e-09
0.8331873168646693 41.10821125348207 701.2352004681356 -7.389031239671064e-11
0.8930061009198916 41.10820959884736 701.2123440288558 0.030675928935240022
0.6609628698680228 41.108284508091366 701.277684872016 0.016854409215168082
0.8406992850946672 41.10846228529732 701.2792329061499 0.021845793622903814
0.8082355798254818 41.108475605008586 701.2794222721734 0.01475256061402619
0.8922757068917893 41.10833272109406 701.2778130115707 0.0078017536445484734
0.9200573021496523 41.108590761936945 701.2804323826591 0.0746879482579679
0.9080524488648726 41.10851427757859 701.2796620140721 0.0341439254118749
0.7157313027682054 41.10838772694227 701.278662898474 0.012800588335180961
0.6799277144122453 41.10887449332345 701.2834726659254 0.023440948660409522
0.8530858676223673 41.108910224737755 701.283823522511 0.018628633288688648
0.6952581156778672 41.10906795881287 701.2853629810658 0.028374563537440944
0.82836915326015 41.10902472648906 701.284941954201 0.02747178582192431
0.8689599116235514 41.10896920918697 701.2843999624052 0.01877606098870665
0.8841687415381624 41.11027184065909 701.291283312826 0.030233912240137235
0.7809198692842323 41.10985199585843 701.2893097662986 0.140194695201438
0.8085016202824448 41.110325898059884 701.2915793983206 0.146162791838535
0.7493204279721224 41.11023599337156 701.2911790918149 0.13294208165986454
0.6477000800122708 41.109520985831075 701.2877881917543 0.040729320443341765
0.6300561623637916 41.10977659510976 701.2890307252396 0.10126002081696459
0.625782078374992 41.10711615295325 701.2508859760161 0.06347259974874934
0.7337601622531343 41.111663123588656 701.295749289205 0.13307295754154055
0.7933178882593162 41.11217173676209 701.2972340558912 0.20598677539104251
0.7209912430115638 41.11159618001143 701.2955538725032 0.05382755783901003
0.7667304127723997 41.11104004444573 701.2939554488734 0.19875782893573987
0.8653945086748605 41.11186265768266 701.2963495494619 0.03547593379776006
0.8351238168600039 41.110856190134896 701.2934592984859 0.057903318618630344
0.8947577424813073 41.11131417026942 701.2947942102801 0.042047106873715705
0.8224472677242813 41.11387000758464 701.300969284968 0.17198158046753662
0.9212081570856395 41.113120115439315 701.2995381456658 0.10182699364152277
0.7762665738283023 41.11353615469157 701.3003321158614 0.1850664413453307
0.659812412769071 41.11366944561469 701.3005885621241 0.05267439927246843
0.6465406094445403 41.114031277756425 701.301280829543 0.059900802053190934
0.8736326524277929 41.11559503233141 701.3042629003397 0.043201269883410956
0.756557899532668 41.11515127721879 701.3034184656848 0.19011375902891414
0.7100692435699473 41.11490524948699 701.3029496609987 0.03466556178050834
0.7439634673096787 41.11515878244508 701.3034332470845 0.19830567114636616
0.9073144397921569 41.116098169934425 701.3050487391943 0.07631692452459449
0.8466534478126017 41.11627415952425 701.3052631723458 0.04311965401950204
0.8842646085168059 41.11852039340204 701.30811895515 0.043353442661667595
0.6819973966517698 41.11710381791792 701.3062988622818 0.04331192400411822
0.7864092054073188 41.11907114087951 701.308818798658 0.16546351627980743
0.6326467231635114 41.116346139735 701.3053285602294 0.13348154600836737
0.9357176950034751 41.1223958855186 701.3120192883654 0.17644896317764353
0.8570243994937691 41.12193209897764 701.3116180498877 0.04515029315533551
0.6150949969188866 41.11506989783195 701.3053622419661 0.1327956423869366
0.732038070667095 41.12183321856895 701.3115323893055 0.1841268623636975
0.6654699848465653 41.122832780801495 701.3123936849986 0.05464580353961587
0.7007664680989911 41.12211648325761 701.3117761157926 0.04511778323917656
0.8056822904728522 41.12290870567044 701.3124632642088 0.16245169018720373
0.6538391891299771 41.12153159721722 701.3112696779422 0.08592155132859543
0.8440632324337588 41.12485346944145 701.3141409201122 0.06931341980187823
0.7422932146130763 41.12517151350948 701.3143516976519 0.152889994685235
0.6787046072515666 41.12659269652254 701.315280775211 0.045885232596904184
0.8185338335490948 41.12518601675208 701.3143586660981 0.1707367656989061
0.622847384101365 41.13123580983988 701.3177930553202 0.1378647230542035
0.6389049145564968 41.13139182006941 701.3190026905955 0.14139621331297303
0.7715298872011231 41.12651706636439 701.326172723287 0.21894525797447204
0.8333446537025352 41.126607210363645 701.3249798466703 0.18734665634911288
0.8895832266292889 41.12652910651053 701.326104926552 0.04932860601274359
0.8650496122291537 41.12704838243381 701.3195080810328 0.04355191308682478
0.7119264433602506 41.127227754884025 701.3165156567239 0.09230582102998995
0.7828894186339115 41.12720160418576 701.3171988052161 0.09191996444261455
0.8807856987443687 41.12716425603217 701.3181569475312 0.045046018393032856
0.7541021724873597 41.126277892714356 701.3265176594219 0.24369758068611286
0.916801435788339 41.13172781723891 701.3203017037405 0.11031874256180092
0.9420783805595709 41.13031253561243 701.3181974746678 0.11238139063001373
0.9272378499722764 41.12873127395356 701.3164892235492 0.17264389920284814
0.9457977011887804 41.1388666997524 701.3302666094482 0.08264002667629045
0.9421590936786159 41.10761000175887 701.3099265645137 0.10121487543883372
0.9421663050315465 41.05648823330397 701.3111647094145 0.008736142867177797
0.9414969983996426 41.026600162751805 701.308188254623 4.358199477067059e-06
0.9403142247463359 41.097587045314924 701.3000258494296 0.09899128524753686
0.940865435214646 41.039185906812754 701.3044233835274 5.567797599215378e-06
0.9422955861430398 41.084066307252264 701.311228424098 0.032590284187760346
0.9437440182302783 41.043856559714435 701.3205516322106 2.117916832401339e-05
0.9444729856193476 40.94639091524223 701.3275709265943 0.08378359472532304
0.9442649898211115 41.05909737181918 701.3232542301259 0.01650100568428937
0.9439699344718877 40.99893004067729 701.3231282174877 2.2456621473556997e-05
0.9437423027566987 40.97627158235663 701.3223834157034 3.0218278541437038e-05
0.9435513920722429 41.01300627631075 701.3202396079439 1.7066070096971866e-05
0.9431481246274646 41.06965139822209 701.316282189477 0.022427200125330112
0.9440203615343914 40.957724670850894 701.3245530869032 0.08073319220247166
0.9442177781328868 41.11913538265393 701.3212181417771 0.10389167524974231
0.9459959697487835 41.06863731067864 701.3330735078719 0.02649402336159968
0.9467678046484332 41.07935985491805 701.3372621311054 0.04685398359791913
0.9479265547231871 41.09395986219319 701.3435944022517 0.08337575350763846
0.9472038079149879 41.015673612528076 701.3416735959968 0.04911730400499958
0.9455526809259039 41.037904725059235 701.3313885355312 0.00021063370170138846
0.9476653075772614 41.11776877612416 701.3413719817788 0.0950275640421215
0.9451929020044751 41.02403850098527 701.3296961454109 5.011568749214341e-05
0.9457355747784784 41.10059032971641 701.3306172189896 0.07814206691551374
0.9464299518631429 40.96054825412776 701.3387753715351 0.05132360941020518
0.9463269257553474 41.05451569425114 701.33541853048 0.024105485381710243
0.9471620031426387 41.03091067138745 701.3409828427709 0.03904532665491648
0.9449654866208756 41.08346520345517 701.3266265536805 0.0424418128466641
0.9455346490041294 41.00824940184721 701.3321530272777 0.008954835479041688
0.9460965397160054 40.93686643377768 701.3375246715079 0.08721821980592884
0.9454515344868296 40.988207634112435 701.3322558762051 0.004433333889680792
0.9468155414121784 41.164191902525786 701.3359274020011 0.07742412927227418
0.9456995967283679 41.15381727853918 701.3295822875326 0.0771785673206057
0.9453785152176669 41.1853653095409 701.3274535724909 0.08841204231594428
0.947743795691175 41.13195459473208 701.3415640132874 0.09511064241216781
0.9447411897491947 41.199557524955985 701.326715286148 0.10918628889497077
0.8571119047960987 41.20655924355356 701.3243354266319 0.07431624701675202
0.7861686865718476 41.206057744553334 701.3243194348561 0.07030914834487273
0.898778544241315 41.20720340995301 701.3243553703729 0.07472628067599367
0.8450216879485242 41.20658128322003 701.3243359457357 0.14964735631735285
0.8183402533450063 41.199259806284765 701.3241146668273 0.10540060229453298
0.9266966541928816 41.199015708548146 701.3241135749747 0.14204882366029128
0.8746202460720945 41.19750321564601 701.3240623371113 0.07728594336652646
0.9426355897624724 41.16803495726783 701.323804374067 0.08102131523683925
0.6701802225656897 41.202289888403975 701.3242051684082 0.08222662768601427
0.708534258953763 41.197378152023894 701.3240580723635 0.15188596662629042
0.726541197414633 41.19857455603368 701.3240939021159 0.1483935914484724
0.9065769306013493 41.19699740434744 701.3250605652021 0.10679718422515352
0.8865229413176005 41.197081587352955 701.3262580297526 0.08376785104877568
0.8440047261733163 41.197459003233725 701.331682474998 0.19583971903495137
0.9160207259013193 41.19725481016391 701.3316000966702 0.13171627149106138
0.8752901760033016 41.197963306780494 701.3352339812496 0.14404913766883384
0.6416510993518747 41.197696193643885 701.3346266291112 0.153021330124816
0.685961409721737 41.19759726762337 701.3335682222154 0.1442589717057248
0.6533641864759661 41.19699982848208 701.3252970524355 0.08967909467041064
0.6970352613083923 41.19724172979125 701.3286010429493 0.1351225912581341
0.6381786129700652 41.197903147814216 701.3240771620873 0.13038793474942006
0.6273371432128507 41.1851641639208 701.3237292750874 0.1605851744627986
0.6148512607742974 41.18997465923928 701.3238696172626 0.1389127864388602
0.6182710196557886 41.20124923262457 701.3241828926939 0.14945672728663345
0.6172143093772974 41.17876793131456 701.3235593858111 0.12367740714571197
0.6180004029953639 41.163174959186314 701.323153022601 0.07663099404506926
0.6268438240168284 41.15348765990481 701.3228218985904 0.09262580747145192
0.6254371195362303 41.14156475663779 701.3212297971681 0.09536440078949837
0.6094493958059081 41.13160573325108 701.328175468977 0.098907824115235
0.6160464577205742 41.030201828500594 701.2930698261678 5.913776705861135e-06
0.6144346029533054 41.10211840019753 701.3003635079554 0.09254496947999866
0.6154150146207646 41.05464019454366 701.2960109629327 5.804461399642292e-06
0.6141187762524283 41.07694717863172 701.3026740002916 0.036708234439628014
0.6169089862474212 40.99411633915753 701.2891130290722 4.119305294027555e-06
0.6161017963437807 41.068225982761085 701.2919104226394 8.186489281710817e-06
0.6173525971841705 40.9351919835672 701.2879841091526 0.13299065088549997
0.6119253901650582 41.074762600893386 701.3151891443265 0.021255569888181298
0.6094817711469657 41.042916199640146 701.3301960314461 0.0009490050766844349
0.6116713415039513 41.10707631091882 701.3157873112536 0.10229093039658264
0.6103565344171475 41.05452811265685 701.3248181736556 0.011737759824113823
0.6094799539140288 41.028605053929105 701.3305930118405 0.0009990313034400496
0.6094254701941875 41.07471653712594 701.3296632359128 0.027833955566167145
0.6097121204003211 41.11790017187408 701.3268375889853 0.09418842391018528
0.608146478977209 41.08574015684952 701.336770047858 0.04733111485169745
0.6082276557912795 41.107406360834794 701.3357150122553 0.10025818672994949
0.6103404947512558 41.09157907963531 701.3239105038623 0.05763563102506195
0.6125380386290427 41.000583565472006 701.3136454629293 6.153900794835693e-06
0.6106184523069502 41.00613254701855 701.3246087255104 2.593478434999401e-05
0.6124655976789337 41.027206227772474 701.3133459256194 5.364711975284852e-06
0.61124153153748 40.953544418609916 701.3224216136574 0.07570396205001668
0.6120714042087948 41.04838742481652 701.3150560599838 9.151692192696647e-06
0.6122945502549955 41.09144270679745 701.3126015252918 0.05616245522614113
0.6133648678126609 41.06132816203605 701.3072883129032 0.007904149820879598
0.6136646322320448 40.95826039514862 701.3083568772242 0.1004158919765543
0.6129809195094483 40.90063300422982 701.3138084794089 0.0830728609365296
0.6166309502067606 40.947905985335304 701.2917222286251 0.12290489935191014
0.6135904742563374 40.91529101032306 701.3099377956185 0.10037136421952296
0.6154861361655992 40.916741953687605 701.2990897756674 0.1448356203872406
0.6132529987649172 40.97729935270202 701.3101908566334 6.438541399388013e-06
0.6138199120499239 41.039515500223665 701.305281563283 6.658771927643515e-06
0.6150868723908005 40.90443806925525 701.3016979505046 0.10172811671888897
0.6136867604983431 40.94536445625482 701.3085782643029 0.14871315929162188
0.6128649824013429 40.93008167860392 701.3136758672956 0.1623244620216597
0.6153433221258906 41.005278291474085 701.2975179317076 5.82309138010136e-06
0.6144973768124202 41.01860007893399 701.3019824076097 4.799565746981253e-06
0.6161703184566396 40.97214026842259 701.2936955722643 4.454042356689042e-06
0.6144064175392758 40.98884892981808 701.3033028786891 4.1477108168523315e-06
0.6168931320792921 41.10582054576231 701.2884196636967 0.08447855517032886
0.6241390908839762 41.059428102515085 701.249769543134 4.352641510020129e-06
0.6202837879207281 41.06658569068416 701.2697928033048 4.624089590315723e-06
0.6221028093501715 41.029700824671636 701.2607741034149 3.868026292595069e-06
0.6219835714315503 41.0167016993486 701.261562547742 5.092095510926139e-06
0.6215731623522649 41.10007680789216 701.2626370329048 0.06609382632481466
0.6213194988229698 41.08700711888564 701.2641277387554 0.03866589532491894
0.6209941492094693 41.0436764211339 701.2663796593114 4.944606972659194e-06
0.6238689400382809 40.97813825488335 701.2522191626799 5.6020351764366536e-06
0.6190072254018985 41.077566747312005 701.2763126969414 0.007196307173313828
0.6199037779574157 41.02918837238149 701.2722539924997 4.369654384981209e-06
0.6229777459095005 41.0485788167854 701.2559676192595 3.4624650796646366e-06
0.6231644231275101 40.99015384223314 701.2557412010015 5.140126060763992e-06
0.618262562726128 41.09320284823881 701.279997868438 0.07205116957124534
0.6196090507364844 41.017003760142444 701.2740728082799 4.457529401076328e-06
0.6194016900012045 40.97207156834986 701.2761437967272 5.2133904624247805e-06
0.6194372610589106 41.00087987874963 701.2753405766869 4.083378441998897e-06
0.6164680766390422 41.08282492969977 701.2895964576217 0.019291883662899637
0.6220406651379442 40.96792418252534 701.2620151928685 5.659908090820551e-06
0.617822851823251 41.058981608461856 701.2828042176434 4.728308608708487e-06
0.617872810483896 40.96054790184377 701.284624800186 4.378787244102584e-06
0.6176408453607904 40.91809550772546 701.2867756916744 0.1574801900762402
0.620317070103575 40.988927732669154 701.2708546217455 3.691365753709703e-06
0.6201780853982441 40.93673770689652 701.2727113374759 0.09734486330963264
0.6186428946350171 41.04400888257229 701.2787043605921 6.600229773224969e-06
0.6230129647106071 40.95590129863595 701.2570324759315 4.964978959880058e-06
0.620897761192746 40.94934809563257 701.2685665947215 0.04653134842937666
0.6207246242364058 40.92426029392182 701.2701795113131 0.1252525705888999
0.6296992796834459 40.8715701799581 701.2249169099614 0.05684225656964888
0.6243016618743241 40.89170352158278 701.252614621273 0.14870011138051895
0.6270751588236005 40.888336031538785 701.2380954064117 0.14948381811974765
0.6204751553295949 40.90538641824587 701.2722745040129 0.16750395816704977
0.6224021609308471 40.913172993944826 701.261770013552 0.12476359563210859
0.6250800294380923 40.90535765403659 701.2479391958543 0.1433300105448405
0.6254596898699051 40.92067221033257 701.2453025964222 0.06186461206756258
0.6232879453795932 40.926464891170056 701.2565418002862 0.100241166886275
0.6264933447319948 40.85672075538059 701.2417252314649 0.16647464591539446
0.6219607467427459 40.88782433924527 701.2648042142732 0.12170926490047505
0.6242758221302765 40.84697768218209 701.253323028638 0.12533042541412637
0.6234590874443597 40.879361837297324 701.2571526424894 0.1620693433265692
0.6242504938467711 40.861124095007554 701.2532803250207 0.14897820652830707
0.6266910070610651 40.86930354692689 701.2405475196973 0.14139794357520952
0.6206387897383728 40.865116814888154 701.2724796485309 0.1171316363927243
0.622041619791392 40.85582099223066 701.2650828649591 0.11841018059511488
0.6196960832992954 40.89044817983282 701.2765478605697 0.10991042835606861
0.6156930349535539 40.8900000750675 701.2989304965163 0.08193099382034079
0.6179171590172202 40.88418928465413 701.2867810819953 0.09065707694283155
0.6307700728126598 40.988320605351895 701.2176120693799 4.4676008440237986e-06
0.6278987671183042 40.94848573069992 701.2324992012507 2.6836981681097314e-06
0.62852799096737 40.976794984159504 701.2289634789415 1.436038182731408e-06
0.6260637722827131 40.980917416464564 701.2412051612662 4.2526365962586304e-06
0.6253576486685163 40.955415111468845 701.2450855162406 4.269955308799053e-06
0.6313240946983133 40.94194452601887 701.2154942669083 4.0982124613837985e-06
0.6283215100108057 40.961634201895045 701.2302056901675 1.219236838313214e-06
0.6268499825820351 41.02027756570933 701.2367316334906 4.001869116145464e-06
0.625093054483632 40.99484822928086 701.2458556690883 4.429518404743715e-06
0.6243196300502012 41.02283695063459 701.2493252177969 4.5920968554930475e-06
0.6305623831358809 40.967731417843794 701.2189360918393 2.884072423046507e-06
0.6284902007725708 41.002158661434144 701.2287980278788 2.335264295923876e-06
0.6336665647078834 40.92966700820653 701.2039740894708 6.679211900856931e-06
0.6261292204147141 41.04626823044744 701.2399662301785 4.616622289522727e-06
0.6251225304078261 41.075747849234006 701.2445792247936 0.010822298375775863
0.6320784683896671 40.956269489369305 701.2115291208428 3.746115067206458e-06
0.6241710801551663 41.00792700943631 701.2502747860638 3.8341433968000825e-06
0.6246395683407063 41.03750626788704 701.2475235871973 5.2168410670425445e-06
0.6314856587668836 40.89677440281869 701.2153517885865 8.1870752789997e-06
0.6331695287302346 40.915647336067224 701.2066611122195 7.783546445809078e-06
0.6298645159413219 40.88402800995271 701.2236375643265 6.4931956029135495e-06
0.6278826600124546 40.91115263197401 701.2331278969457 4.206529593449481e-06
0.6246431009192496 40.943576084121226 701.2488191703526 3.567017866824501e-06
0.62866668972293 40.92422866571698 701.2290172409938 5.454028120571667e-06
0.6265914054186065 40.93669994463714 701.2391933739991 3.88673910769743e-06
0.6290587579718107 40.90045888804291 701.2274151746756 3.554340622622116e-06
0.6305502564947179 40.91423249128801 701.2197613953857 5.95394377960111e-06
0.6271242111148071 41.10458584535945 701.2360595942613 0.07207249691821047
0.6342880462210779 41.050584617003814 701.200018851641 7.427549812254042e-06
0.6320517719813361 41.08198841814363 701.2106780188368 0.0336447931244997
0.6273704504003228 41.06012398727906 701.2336285361796 4.451400768544451e-06
0.6330584454556869 41.100450789082274 701.2056426598233 0.05649394418254036
0.634464362788247 40.975761595341766 701.1997045606759 6.009914956332401e-06
0.6342407691962381 41.07407714949874 701.2000781834003 0.00886259546365742
0.6341582602638349 41.03072504692948 701.2007951504888 6.271590698691336e-06
0.6316436639414467 41.01405877565839 701.2131589319148 3.5095184880387053e-06
0.6335809668417234 41.00567745624929 701.2037879155 6.554843024350467e-06
0.6316090476456524 41.04026195718086 701.2131369112795 2.0230371761615056e-06
0.6276958425156702 41.0790939663853 701.2319063770437 0.043448038026395824
0.6300144312556053 41.030036883004996 701.2209748304126 1.2987364267886823e-06
0.6305942109605568 41.07344776112557 701.2178364198663 0.010268812157370348
0.6292331677780297 41.089930960227356 701.2243429359252 0.06046854539800303
0.6305093454678192 41.05564122052885 701.2183790886573 2.884219784231965e-06
0.6337684040814002 40.99405959234268 701.2029598442052 5.181192587287226e-06
0.6288422882355629 41.04543314250851 701.2265695701929 2.01523238485296e-06
0.6264199970775803 41.09258940113498 701.2380198262623 0.08936787247325627
0.6303106977573771 41.10635754136712 701.2248854019241 0.08587466182995981
0.6480289717183146 41.10659795671853 701.143556710377 0.0672003535114404
0.6497037695055963 41.104126085866255 701.1318160297541 0.06979959722380343
0.6358949704049336 41.104970603751106 701.1945355148364 0.073515033174086
0.6413405760338334 41.106489278851555 701.1739611876834 0.08112768175730939
0.6347724445422276 40.948514485574364 701.1984479038681 8.576119685804862e-06
0.636801252356372 41.02076867673317 701.1883637243462 6.210246689603466e-06
0.6359364665445478 41.06460431069743 701.1920635159718 7.1335937457821945e-06
0.636377129708164 41.00610209033439 701.1904683095222 5.878706417279779e-06
0.6410709170011525 41.093447551972844 701.1690549205997 0.06845983112617203
0.6376247684487898 41.099679591952146 701.1844052076802 0.08287168152358669
0.6378850574962935 41.041612490246806 701.1832551388356 6.79351665794247e-06
0.6446375790561086 41.0627674286597 701.153171757707 1.7022709530926033e-06
0.6399501721357446 41.0496216185026 701.1740545288593 2.0691150492600083e-06
0.6423195151051585 41.07432127414929 701.1634959879009 0.01737422414681202
0.6399168005825716 41.06911197568148 701.1742000243689 7.860838446027726e-05
0.6374947356240016 41.078115347384234 701.1849879538166 0.023521975827809592
0.6400486324891594 41.0358026712637 701.1736181670136 1.940516475750833e-06
0.6418120024730793 41.05785080666394 701.1657594384371 1.4626685628330138e-06
0.6466470645639588 41.08628864108559 701.1442164378561 0.04973226649528829
0.6438526310751373 41.0979065792539 701.1566627051254 0.07597974596228256
0.6441830769932579 41.08333310744905 701.155193057089 0.028415401175208816
0.6682693693115885 41.10678527665317 701.0335676670645 0.06024893268313543
0.6904621106878785 41.108205172537204 700.9722895726402 0.020362522469611875
0.7486964197489197 41.10820543972678 700.9718947488707 -4.298166829128849e-10
0.6713878132336343 41.10820538941027 700.9946314356525 0.07493658701121211
0.7640997051066825 41.1082061929872 701.0216015101687 8.072832865497929e-10
0.7077732701475273 41.108205443725325 700.9861658178356 -3.6930737541255316e-10
0.7812187721524575 41.10820582521895 700.9889161108853 5.130828067448959e-10
0.7521157068205587 41.10820586183466 701.0015296673291 1.8836960779104045e-10
0.7911544625213831 41.108205955793586 700.9950506618767 -3.332397855050631e-10
0.7417321320833502 41.108206230017345 701.0319444768868 -5.030316107088472e-11
0.8440501409267855 41.1082059691157 700.9779537571277 -1.4196025680899426e-09
0.7108533929620517 41.10820618449217 701.0391704433445 7.951491660391302e-10
0.6973267441984996 41.10820602216994 701.031945805802 0.021684730494066422
0.6778840134801712 41.10820577990707 701.0209084951348 0.07775392705354887
0.6750883052195941 41.1082062312365 701.0547988618968 0.0780404788891398
0.7830615263018422 41.108205588835 700.9710367244523 1.0545042680740005e-09
0.7369789814442921 41.10820551616008 700.9814750569535 1.2918959209385703e-09
0.7560457974340775 41.10820604566958 701.0136023416694 6.636270915666125e-10
0.7716126941245995 41.10820592179655 700.9992451939847 -7.104919259727482e-10
0.7128516524817418 41.10820598053465 701.0236042254228 9.387491287435337e-10
0.7268660649709242 41.10820621959884 701.0362624196058 -5.0571895057017684e-11
0.8218483573017082 41.108205788957015 700.9723909316981 -4.808486417774207e-10
0.8061886832830255 41.108205705955925 700.9716833202665 -4.7901092587339084e-11
0.802600181995327 41.10820603896723 700.9972103450975 -7.006208189580019e-11
0.7120112170835411 41.10820524391275 700.9701370001857 -4.284816550427767e-11
0.7248629534016009 41.10820562384729 700.9934722482465 -8.063577283281961e-11
0.7353251631178364 41.10820598752146 701.0164371686898 1.703113549231914e-10
0.6852740334461457 41.10820596522412 701.031907421884 0.06473217088196603
0.7477188353671371 41.10820565023843 700.9875905874885 -3.548296669210947e-10
0.6836050104904849 41.10820548079438 700.9971267348915 0.070514709666671
0.6901390269545973 41.10820620949202 701.048070776813 0.04600356221199827
0.6992396822489435 41.10820581265848 701.0160034401679 0.028084493712473374
0.7598882419877253 41.10820576092955 700.9915111227738 2.23937879987832e-10
0.7006298406512806 41.10820557940548 700.9985071373648 0.012134878547366537
0.8655893666324532 41.108205966681645 700.9704183715318 0.036396950513774756
0.829888507406354 41.10820593735786 700.9804738474328 -1.3567898137952699e-09
0.7814757355235111 41.10820606400795 701.0062537439877 2.2049160014466277e-10
0.8125712192599919 41.108205866149035 700.981193004628 2.467270711422064e-10
0.7219585686906226 41.10820579137987 701.006689919865 -3.6125758856550904e-10
0.6798670460632579 41.10820562591267 701.0089934928646 0.08055602540046342
0.7911410716588381 41.1082057724162 700.9816734368059 2.9150657117360854e-10
0.6864685024539734 41.108205316790595 700.9841805430524 0.07237197243547398
0.7641181126200516 41.108205521363224 700.9725840702293 -7.698352935592774e-11
0.7733016092093762 41.10820567247059 700.9804739262945 6.071030866896755e-10
0.7277167968836216 41.10820534978864 700.9724981981119 -3.845198576833462e-10
0.8611187449830507 41.108206555286515 701.04557824843 0.04630476844999861
0.7480331313677809 41.10820644659909 701.0591447394196 -1.6385011712841455e-09
0.7916294167346538 41.108206459689896 701.0499853899164 1.0441991393924386e-09
0.7636015727577768 41.10820639840139 701.0486628514157 1.0653666208358466e-09
0.8219039049497571 41.10820627385197 701.0170394530595 4.5010703936534015e-10
0.7936098093461452 41.10820619303143 701.0131198712381 7.905022969769711e-10
0.8263166632499231 41.108206472536374 701.0430293105541 -8.462756559945684e-10
0.8071558111024115 41.108206246839195 701.0170577776669 -3.389739011288208e-10
0.827278056812388 41.108206378969655 701.0300268122311 -2.730110980320299e-10
0.7944674049707534 41.10820655405578 701.0621430569417 5.205886540861929e-10
0.8723711858338395 41.108206091994504 700.9795670415842 0.082135089072619
0.7275276975520015 41.10820644606341 701.0642195220677 2.606446772418148e-10
0.86061289203647 41.10820633508935 701.015673541671 0.05830864863993664
0.8157151540219446 41.10820615531385 701.0024262457953 2.226969820015694e-10
0.8480925130253921 41.10820651463623 701.0433043439072 -5.96019304356781e-10
0.8629478172335925 41.108206249588626 701.0034263069772 0.039937150491983306
0.8056689816059386 41.10820650094227 701.0520870166139 5.147388318585909e-10
0.7879102815916377 41.10820628922164 701.0276696734645 4.706753752323006e-10
0.8834949993735863 41.108206547362215 701.0388799823817 0.08989678959284715
0.8795048163685075 41.108206447898624 701.0263163175752 0.08773414402268358
0.8654757685138947 41.108206448844776 701.0299673189331 0.052535385391856745
0.8719781722351624 41.108206556958464 701.0430800435552 0.0828437829355201
0.8539575744817841 41.108206639533314 701.0588660843418 0.0005924791690253968
0.6983014346367536 41.10820633106054 701.0558719849205 0.00817771464567679
0.8369415395587659 41.1082062606644 701.0114656988428 -3.900976477616506e-11
0.8470588096821723 41.10820617070772 700.9966569938625 -6.108037812161048e-10
0.7745629112624519 41.10820639870729 701.0459527534508 4.961298040535209e-10
0.859775442512557 41.10820615519655 700.9913490145846 0.03770687644972649
0.6847837847954733 41.10820634630348 701.0613444744143 0.045609186274101106
0.7305045485610189 41.108206348976125 701.0502308936458 2.5060329501929703e-10
0.7583489631779705 41.1082062873776 701.0348394716688 4.908545032712304e-10
0.8124866626478212 41.108206384954826 701.0345564481967 -2.7982231000927944e-10
0.8381704078605294 41.10820653938927 701.0491712220385 2.496191305079808e-10
0.8495764696931158 41.10820641831697 701.0297952497251 -5.848830773399825e-10
0.7996828060586763 41.108206314918064 701.0282188276117 8.249225964160728e-10
0.830454876674326 41.10820611640961 700.9934198986516 -5.000467247004717e-11
0.745664185827093 41.10820632917494 701.043724507835 5.263794026902215e-10
0.8069990294490987 41.108206596537244 701.0647908777064 1.5183243623261048e-09
0.8515987101583545 41.108206269792575 701.0090309995763 0.005626549442142925
0.8733032235682199 41.10820666078605 701.0569079690408 0.08186009773690868
0.8708040289104461 41.10820619265337 700.9936888805869 0.06473803430511309
0.7167596650095992 41.10820632888323 701.0509411344528 -3.9071288166407195e-11
0.8825313277850215 41.10820626854385 701.0010951313445 0.08191835191611396
0.7766219050077454 41.10820624762374 701.0248302446826 -5.190666951831372e-11
0.8267286862333907 41.10820656834496 701.0559927746898 -1.3588074447119757e-11
0.6654574722298933 41.10590182855731 701.0632073143728 0.07696427349998394
0.6592800113318769 41.10411555878445 701.0923274755153 0.07919540799911359
0.6678442669570489 41.104978914150045 700.9840942754165 0.08133371361990534
0.6668712786623043 41.041831944866686 701.001899203587 4.88711645268965e-09
0.6664169571695582 41.09378063713796 701.0372687241612 0.06885223917939831
0.6668920814987731 41.07521950727772 701.0070095861574 0.01718864916996656
0.666595031846613 41.08931614189262 701.026396652408 0.06557352178529953
0.6672659732997464 40.99028138437912 700.9699637356225 1.0322334414813124e-07
0.6672791773826288 41.018817738782914 700.9745893797691 1.1444310022469822e-09
0.6668656668293067 41.08640713513383 701.0106027897833 0.058821855414281955
0.6676220902514931 41.097971210728204 700.9701648592978 0.06287829123916618
0.6674877991825945 41.07075673163003 700.9726095008883 1.8222800675285187e-05
0.6662650834354442 41.1005835653466 701.047104748025 0.06816795022799611
0.6671904715367032 41.00647641164869 700.9772645212179 4.707569158378987e-09
0.6673293336599393 41.03430908612948 700.9746786867062 1.4103072998996628e-09
0.667022302998451 41.023523934308024 700.9899461911932 4.516051451543511e-09
0.6667241375757766 41.06711316117899 701.0149455542384 3.4610174070947056e-06
0.666631823161865 41.07744425259759 701.0220901168045 0.02130800350934325
0.6670448122463182 41.099100539665045 701.0028988927435 0.07050795154867262
0.6672438933715196 41.04336603345523 700.9811962407114 6.708146433366399e-10
0.6673349053356711 41.093439157102694 700.9854909406534 0.07266672896229759
0.6670687947047061 41.05442091623104 700.993140728423 1.2666788890288495e-09
0.6668025708743182 41.05610452003673 701.008455507867 5.405416003887236e-09
0.667305405891242 41.05833009746391 700.9805465667125 3.248614427514243e-11
0.667454443079653 41.05173323441538 700.9709091164988 2.2204664794167552e-11
0.66720603418752 41.07871294887723 700.9899800863008 0.025386937223263545
0.6658436161246974 41.02321508293916 701.0506472364998 0.0007178052604473669
0.6658414382764692 41.071661961958895 701.0519337200159 0.004654453981390197
0.6655128876762796 41.08210819439551 701.0554766276805 0.04655257728940932
0.6652256205824929 41.03640154278346 701.0571426372892 0.0009151315674492653
0.6654977704788524 41.05130274888339 701.0548228545512 0.0008053839131611448
0.6661121907887685 40.9859881214583 701.0354960891715 0.00023562832447710053
0.6665313519218437 41.002188672295674 701.0141641766297 3.900269898530388e-09
0.6661074764590331 41.03427429290256 701.0443812002751 0.0004853495345957804
0.667143884213906 40.96891366082237 700.9728333161424 3.7153627458618215e-07
0.6659251559359662 40.98947434016899 701.0469258785158 0.00038949218421721626
0.6661807913433846 40.97414062621275 701.0294187408454 9.230001658260301e-05
0.6666721398383672 40.98700262587243 701.0033199335535 5.326106579433147e-08
0.6664111627328919 41.07639073366548 701.0343446519506 0.017398358446480144
0.6665330236652746 40.96268956050121 701.007022210808 3.75114380833182e-07
0.6660304305418291 41.011589254825765 701.0447870847711 0.00039681428465542553
0.6669010071567545 40.99242063486158 700.9910610471779 6.547036032911877e-09
0.6669677005455754 40.97948056810583 700.9848990265897 1.3664996052384724e-07
0.6669106676085003 40.9646285790307 700.9855456071326 3.7524639470940843e-07
0.6667556292135495 41.005360077499965 701.0017698072899 8.172417488033025e-09
0.6661143337836379 41.000864501760304 701.0380257191002 0.0002728108972754452
0.666651128119571 41.02722236369638 701.011708011904 6.830721560909989e-07
0.6667808364729877 41.019549322367084 701.0028440872527 7.791617472058296e-09
0.6662850117980443 41.04368981125735 701.0358016002483 0.00016207377318293013
0.6664102831753773 40.98046781679159 701.0172859350051 1.8367642910247882e-05
0.6665546560883804 41.05516570017543 701.0222669131056 2.4952978975176147e-05
0.6663090460178576 41.00838378285434 701.0281153109036 0.00011627633692018425
0.6666468981130254 40.97548415832786 701.0027240254394 1.9882772585845304e-07
0.6663817434843394 41.06307085352388 701.0336688317193 0.00013329299819666681
0.666482806684594 41.04131884929365 701.023948959317 2.3191976890366013e-05
0.6660645435075896 40.95686970736556 701.0330556436185 0.00011741582693563904
0.666547245403474 41.01501476709173 701.0155335189625 7.787205668677358e-07
0.666314001175492 41.03059308118125 701.0317903928985 0.000136350160608694
0.6666986538064575 40.92419867417685 700.9971532502677 2.1919282703669954e-08
0.6669975769399085 40.84141602604819 700.9815653243361 7.102364621208702e-05
0.6666887217899694 40.94073887431098 700.9975009179786 1.4419760679429695e-07
0.6671390520462871 40.92159217122779 700.9727141842425 -1.8297040860877002e-11
0.6663308891127238 40.95390921301846 701.0172217028646 1.7950509632923336e-06
0.6672060177269418 40.83756018540626 700.9700306729526 5.73613938108188e-05
0.6665300112017245 40.93290629916965 701.0064165652954 3.21668781429856e-08
0.6669108633114035 40.93038355358151 700.9852852161054 2.9285097823853813e-08
0.6667237917167592 40.869177530692134 700.9964357608901 1.8780250792104896e-08
0.6664330072691693 40.91333773394602 701.0120483099747 1.71289487386722e-08
0.6671672159060094 40.907791739543555 700.9713196156217 -3.887828898647015e-11
0.6665797743960085 40.90234826868565 701.0040287048234 1.7257150040562993e-08
0.6670874025391699 40.93606921032938 700.9754054067106 2.6192076811393528e-08
0.6667994640346409 40.892515708490585 700.9919427903549 1.2896924502084279e-08
0.6670941804499618 40.896065065181276 700.975522702342 3.053799287145892e-11
0.6661244812224962 40.92767456390894 701.0290149114824 0.00012222345812307528
0.6668580180041587 40.95028750974302 700.9879758802288 4.496485631595761e-07
0.666414348966061 40.943220539329744 701.0127161272641 1.3753104302147243e-06
0.6669285732717627 40.864330729352275 700.9851166741217 1.6148841360452783e-08
0.6667123475678096 40.912984258271585 700.996530801031 4.69966359557454e-10
0.6663001217992811 40.90150410534752 701.0195783538402 2.573505428138272e-05
0.6668930647523543 40.876000852835446 700.9869456596476 1.3866195076744983e-08
0.6659870928508679 40.93700671547196 701.0365338373537 0.0001138071198659851
0.6671139954292922 40.95360586649517 700.9737112219822 3.5060416673048836e-07
0.6666439085797295 40.88408086781576 701.0006905549438 2.3009486734797363e-08
0.6671947536117414 40.858881934449286 700.9703933240621 9.536640965675417e-09
0.6640067961929789 41.04595472623322 701.0691904673706 0.0009073358486058681
0.6651507708918812 41.005643734695504 701.0570754099158 0.0007349984566792807
0.6655962957765081 40.95333715173599 701.0512428025133 0.0007319301076378284
0.6640699453194949 41.05769398937512 701.0689467882935 0.000878043995145924
0.6647156886462757 40.993217739675885 701.0608381160449 0.00100227586130577
0.6639938746003871 41.02947368397391 701.068811754449 0.0010408158476095512
0.6651131984123861 40.97451037573995 701.0564852873482 0.000982303970737565
0.6641991807887538 40.96339544406937 701.0648462457865 0.0008112703758261517
0.6641420713410446 41.01726288389398 701.067029562164 0.0010040880904196936
0.6640410127934198 40.92589313021932 701.0661179939349 0.0008305126155447059
0.6639921740558288 40.93871834702298 701.0665942734711 0.0009662539413769389
0.6650931220805189 40.93224113851455 701.0559496431265 0.0005707032240092318
0.6641188414381063 40.87586537900084 701.0653493802373 0.000671368702493386
0.6649033185446449 40.90914642719437 701.0577769051584 0.0007939618547477587
0.6638682517114846 40.90259151482752 701.0677804445535 0.0008099261772967688
0.6662455142938043 40.85448320000797 701.0244615420401 7.052700106638607e-07
0.6662415864585166 40.86983733485965 701.0241095810802 7.304706738981792e-06
0.6658148040086629 40.87112197998411 701.048715469479 0.00036676402127960926
0.6670637535578259 40.82561489527592 700.9782819474045 0.0011950773567877791
0.6660674816379142 40.84941972905617 701.0349370095785 0.00013911666023521925
0.6659252201827288 40.882274937595795 701.0419164845296 0.0003969336120015283
0.6668418053479936 40.829196907425654 700.9909683817937 0.0002898881732435935
0.6663027677910915 40.82756310499942 701.0221690385091 0.0001778757496206527
0.6660069876967265 40.868201249001615 701.0377235377856 0.0003256701654380148
0.6667314032880375 40.84325744812788 700.9968159814564 3.033399974525661e-05
0.6658302284357316 40.82106631662741 701.0497115732239 0.0012915140860999912
0.6661206865152545 40.88108165447034 701.030669795173 0.0001011309768259082
0.6661375413582105 40.90897459951781 701.0286445391756 9.334632948863506e-05
0.665980436183204 40.83199827001841 701.0406222451783 0.0005944206047223577
0.6658205312437524 40.926142264850895 701.0463103085146 0.0005526301738124151
0.6659311069487532 40.89552365226383 701.0410769308835 0.000501710007639627
0.6662478429236148 40.84002881422556 701.0248719644311 0.00021692814118966567
0.6658584370606506 40.854682020112335 701.0468146804536 0.00037389048095950203
0.6665474709042479 40.8316803351994 701.0078778335557 0.00018144783749016795
0.6663804718483854 40.88655884676703 701.0154560505243 8.506329921873498e-06
0.6659309251298482 40.90824015893644 701.0406080112554 0.00032708334539070333
0.665690118447047 40.83795642713048 701.051123395313 0.0008254630922361906
0.6642917674948292 40.84679881373308 701.0637328804107 0.0010790453989807168
0.6644902791269832 40.834399000565334 701.0620419255371 0.001024653422580395
0.6653140374918707 40.89029222763193 701.0540704158109 0.0007272971967330033
0.6619726694006905 41.01902163160979 701.0788611170673 0.0007233774082453594
0.6600452333086282 40.94644150421968 701.0873195682058 0.00026044986426869014
0.662964688240707 40.98738839341528 701.0735935495106 0.0009360321939214698
0.6609089466360354 40.96054449324676 701.0832851152842 0.00027622976126009474
0.6634245810023148 41.00158794960952 701.0715340150684 0.00087545970375322
0.6619506052915591 40.97734145079415 701.0784166662907 0.0003964792229209103
0.6640610708229121 41.08998242386675 701.0695945043175 0.06381172012519133
0.6617493328618469 41.04163368128748 701.0801973441969 0.0006863275585257711
0.6610931853127473 41.08646286424897 701.0838622391409 0.05397289107553689
0.6618806837720445 41.09904226209561 701.0802120102812 0.08068318851118034
0.6616650826545887 41.0651151999793 701.0808677374289 0.0004219755867603326
0.6602575917882816 41.028764338036524 701.0872354380508 0.0003661749006925811
0.6631688614828377 41.0733604860037 701.0737195519172 0.012939821244354558
0.6622738324237376 40.882785201418955 701.0765882391961 0.0007198780989600632
0.6607773117296218 40.906612625929796 701.0837453089134 0.00029477414060868
0.6624857522350589 40.915101804310964 701.0755181091862 0.0007002822983453384
0.6614104449425053 40.89348888260611 701.08072219479 0.0005967893808921435
0.6635436902471232 40.824878721888 701.0705749766397 0.0006552018775179881
0.6626478500710447 40.841080618316994 701.0748562323905 0.0006073778047152136
0.6624503551065961 40.86942129048511 701.0757607688428 0.0007506778616256551
0.6609625135603295 40.93009350365875 701.0828176512164 0.00038876610398284054
0.6600629057500835 40.842647887134035 701.0877795338381 0.0002670157605991103
0.6622008336120573 40.853153772531584 701.0769921932343 0.00047997144106532976
0.6642218412273668 40.8102680501634 701.0652168288414 0.002456339512949577
0.6643030997994663 40.79705884951802 701.0694539202117 0.005514685008451855
0.6620278339349369 40.798312117754605 701.0808538252446 0.0018101579722871596
0.6663092152089564 40.810521886587864 701.045384436153 0.0024919686569058017
0.6667799099640637 40.81708157494971 701.0030352220276 0.0012764311217649594
0.6667454805625832 40.81295281330555 701.02004266117 0.0008000421261888173
0.6672852160043584 40.81527643171196 700.9842345763185 0.0014428330545012602
0.6675311867727005 40.807572628176494 700.9976219356683 0.0032850101193924305
0.6680532158584489 40.80502317143337 700.9732968261458 0.004417471653686906
0.6685477771561558 40.79754168178597 701.0215231756417 0.003734227488291783
0.6694348803596768 40.79613355224339 700.9887030849138 0.006166020544191685
0.6673190306522054 40.80133493068813 701.0338217335427 0.0037989136866394876
0.6669455393837032 40.79961296479911 701.0499718718897 0.004207199900607711
0.6688552782289712 40.78385238879725 701.0558951433738 0.012944305610966204
0.6693466261721961 40.78923687409155 701.0388915564272 0.010147347793121979
0.6724221653067093 40.78630415812171 700.9739346744484 0.011411258896032886
0.670974324481495 40.788801131976186 700.9992189376355 0.006350104164864969
0.6732927104536897 40.78310701336085 700.9851613699931 0.008582968984172993
0.6713704101466107 40.78635269363774 701.0204155143422 0.007893428709766694
0.6672451246860973 40.775095215774584 701.074565059719 0.012348167338255691
0.6727028171007194 40.7780169293727 701.0435048610575 0.010369030914258007
0.6704892026894893 40.77421004669443 701.0623091970803 0.01062753980787435
0.6515937031129564 40.77089141096197 701.1285325587019 0.003414434767551478
0.6634485897386478 40.78615599039275 701.0795291221535 0.008504680629827361
0.6616501859400958 40.77493569526443 701.091334779474 0.0056515725710933416
0.6554783357732898 40.76231586387189 701.1195352680108 0.002902600962517366
0.6581061410995684 40.773988272328154 701.1040332993616 0.004080332724054436
0.6608905157554648 40.75653043248863 701.1090480434824 0.007263822359393194
0.655718565609225 40.74830265419959 701.1305787986662 0.00759107818691125
0.6775694847905529 40.77107112074639 701.0319207301059 0.012434570360672822
0.6772645073443964 40.7731734253843 701.0167302852847 0.00986749462903221
0.6784301502285852 40.77159283116306 701.0011811350339 0.010350119850002452
0.679538504986618 40.77057375351943 700.9864495784303 0.008171354146452222
0.6826400239795091 40.75915798407469 701.0516994363509 0.013859562145313316
0.6772848536346715 40.76067604139498 701.0626668562593 0.017144195779110086
0.6825254035016098 40.767004770882984 700.9723548494778 0.009482909218057223
0.688237085981977 40.75672797906467 701.0370562695475 0.02002193990297908
0.685507456731442 40.76245853350786 700.9994856278714 0.010560178553676131
0.6914944535272989 40.75562216880297 701.021022520084 0.015889956874874062
0.6896008343453124 40.750547854244296 701.0553961072978 0.022561564908653773
0.6809839016166455 40.75178978716437 701.0706672643439 0.019089863091767363
0.6780961231833227 40.745780669651346 701.0849582795731 0.013644796744829211
0.6894583024737344 40.74411809379168 701.0699908208188 0.019086955345929732
0.6996994913663995 40.74975650370001 701.0313662550457 0.016382559772945334
0.6990505850148816 40.74031740269583 701.0646633399919 0.01264028995316466
0.6912518099107051 40.73328230278919 701.0870463526685 0.009752000090512233
0.7088180403384203 40.741973645926244 701.0478623802126 0.012860984903585301
0.7023356415982808 40.749056438467626 701.0162677282843 0.014375173449552033
0.7111212548162582 40.744695007759915 701.0241808714458 0.007259452248553293
0.7211189229132132 40.7406768353215 701.0362358350326 0.0114807887787457
0.7225779728162212 40.738020416026494 701.0498035338144 0.008964267408178454
0.7230555779551443 40.74188154779846 701.0207953926895 0.006443731340783975
0.7236601980240588 40.73302415938821 701.0638747605874 0.008628592048600219
0.7137982048061553 40.731715315183166 701.0720330228627 0.009916235349825043
0.7337831995029316 40.7345266511645 701.0574885653633 0.006531610093589475
0.7356725101735068 40.74020428742061 701.0245375080216 0.004468810421763524
0.7409375426850682 40.73848810323522 701.0375362134467 0.0034955329657647186
0.7727344373855183 40.734328764485504 701.0564091465211 0.0015367113862181328
0.7754036199872831 40.73028290395086 701.0687293937574 0.0013020272439353026
0.7873180647015843 40.73276320179805 701.0612218370044 0.002402166827296823
0.7588093084372249 40.73501179860139 701.054284141898 0.002047875460808107
0.7702525448282284 40.73685608266629 701.0449770307878 0.001388595362107659
0.7506010953089534 40.736772471782196 701.0453538789078 0.0031029553157820486
0.7550980040540487 40.72990963297187 701.0694578652658 0.0022223005210070534
0.7376488563051846 40.718304853216615 701.093633549854 0.0013974343802247806
0.7600988844386192 40.72442298493982 701.0818387649194 0.0013280120597990357
0.77614324081856 40.72373666740292 701.0836025470544 0.0009761030253958504
0.7439987954278191 40.72549067045466 701.0792783584386 0.001867954953584782
0.7496239572853631 40.717915712990724 701.094723362485 0.0004218437207926476
0.807447679159861 40.730419479385 701.0678263464545 0.0014836513878544316
0.7909005828573037 40.722233903075384 701.0864003089988 0.0007998850716949694
0.8004113134087639 40.725440416238946 701.0796625186779 0.0019668013033639904
0.7848604453343904 40.72785008622831 701.0751120165709 0.00210511645757923
0.7568661168576705 40.70089817474265 701.1238755834718 5.1563498263600885e-05
0.7693847790487167 40.70049418139644 701.1247810157854 8.023436654347731e-06
0.7690519812406542 40.71792031051071 701.095128553358 0.00024011881240210367
0.7447399169984692 40.71091330552656 701.1066257873925 0.00025850932909272597
0.7573889832405327 40.70658879747712 701.1142033713685 0.00010762719318975886
0.7659705190613586 40.693552536720276 701.1365311818198 1.5310235308801562e-05
0.7945617024209983 40.69329299320234 701.1369405165225 7.328782433148408e-06
0.7839011258746666 40.685288568119795 701.1507029882675 1.1491913865912773e-05
0.7784653346598767 40.706313253785694 701.115027373399 4.995327519072326e-05
0.7836339979817059 40.6990996818473 701.1272209135825 7.72720843242234e-06
0.7947973512311932 40.68662764419858 701.1482716342645 7.552989568373268e-05
0.780189141500512 40.71757165592957 701.0958442663588 0.0004745661770800506
0.8052900105674748 40.68983649363592 701.1425856025995 0.00011226864597291888
0.7900939965240452 40.70444325734176 701.1180194378354 2.697802498560224e-05
0.7994316956685577 40.71224397076478 701.104456419028 0.00023556541311195583
0.8035575035487124 40.70184188777001 701.122121157067 0.0001114879953368757
0.8201386724389095 40.73510370942531 701.0556455090293 0.0074410348302423246
0.8204038634064698 40.729969308576386 701.0702136743304 0.004112945422889022
0.8218852767402447 40.719512536295284 701.0918289576352 0.0020122855571033135
0.8254853978082055 40.725847573593654 701.079669779044 0.0036613448558841435
0.81874982486467 40.70726970459078 701.1131100131034 0.0009977286578583325
0.8218508429964633 40.69388220680794 701.1362229823317 0.0011459068838206134
0.8167799482913677 40.71283218393086 701.1034813128658 0.0013193958468232395
0.8163885480392414 40.69880990307078 701.1275521504922 0.0009359940876702001
0.8138652541707045 40.6836957317596 701.1533829735688 0.0004808261273292154
