x y z curv
0.14715936718083192 0.3865135592113269 0.42570677399635315 0.2739244815999725
0.18979135585718307 0.3298495015172013 0.42570677399635315 0.19438822662848762
0.3200318738335326 0.3269653168736708 0.42570677399635315 0.2374902135037028
0.25011459856247265 0.34974738928498117 0.42570677399635315 0.2284340100785793
0.168205996183033 0.3628986750043272 0.42570677399635315 0.1699604609870022
0.2988444511117484 0.31018105515082856 0.42570677399635315 0.21582526792137624
0.09410855650313993 0.3531534800352456 0.42570677399635315 0.2561602108904712
0.15078124865247677 0.396526516663977 0.42570677399635315 0.18754720872625705
0.13425585918786362 0.3610475860425876 0.42570677399635315 0.1703318356904845
0.11368569038855864 0.3334635038922877 0.42570677399635315 0.18440722880331317
0.2598527285803871 0.34181793812559236 0.4257067739963532 0.2572584773280999
0.3476536191188812 0.3043057776292823 0.42570677399635315 0.1823854402385901
0.2878702274421565 0.320501820602451 0.42570677399635315 0.20085620293668105
0.12599930310572233 0.33115597987522793 0.42570677399635315 0.1993174054152829
0.0793995960932509 0.3364226157157277 0.42570677399635315 0.22363381678896563
0.30202101419039895 0.3355840711863519 0.4257067739963531 0.2492960759939204
0.2722586071708869 0.3383840018781925 0.42570677399635315 0.25338184691859406
0.07070118183267943 0.34667431409356875 0.42570677399635315 0.2510077794342743
0.2308160831007765 0.3257745526058895 0.42570677399635315 0.23132606633207903
0.20709629062275348 0.36422827687505843 0.42570677399635315 0.1987836512398232
0.10967532476190486 0.3485342606512327 0.42570677399635315 0.1839158943834483
0.22574567573322016 0.3383077208051567 0.42570677399635315 0.18440381697809735
0.21303069436409805 0.39796187472470684 0.42570677399635315 0.20931701154103874
0.24219369635116297 0.33349485095877784 0.42570677399635315 0.21241510686201906
0.29794111438314214 0.3249701910884525 0.42570677399635315 0.2224190451508147
0.22258469163501252 0.3181729286333824 0.42570677399635315 0.24249031566758125
0.11406422670780494 0.3613073653071844 0.42570677399635315 0.2256280892319983
0.10703614072015805 0.37386515563123346 0.42570677399635315 0.21832061303820924
0.1898302915664748 0.38922892665304615 0.42570677399635315 0.24089785387413853
0.17937083239054508 0.3531139684638968 0.42570677399635315 0.20276885598076075
0.0488639836215142 0.33603641424358976 0.42570677399635315 0.219419463547439
0.15891905478465343 0.3350312557383647 0.42570677399635315 0.21137912372546772
0.2514936870243368 0.36937724225790597 0.42570677399635315 0.19959332841909483
0.16186016971369765 0.38966112496439226 0.42570677399635315 0.14873529883968764
0.3107934686632925 0.3179796026711103 0.42570677399635315 0.1831437909169148
0.06262429178853393 0.37319050016799465 0.42570677399635315 0.1770454145899836
0.13435450501528026 0.39235796293028996 0.42570677399635315 0.23852575936737916
0.03758691139695481 0.3972343225923428 0.42570677399635315 0.14917375644533368
0.052786376869392186 0.38139468515146824 0.42570677399635315 0.2071792633655958
0.02276369999179809 0.3701399035197407 0.42570677399635315 0.20025548265475557
0.08721867935584421 0.4008070726705726 0.42570677399635315 0.17542353125421145
0.05994214379526794 0.4057122786931744 0.42570677399635315 0.2088004645720566
0.07836752662528738 0.412930203362853 0.42570677399635315 0.16196133923805214
0.0817363965784864 0.3720945616429804 0.42570677399635315 0.23573224167054865
0.023358709059705732 0.3565893979337876 0.4257067739963532 0.13381920277142437
0.07343533446921434 0.36477953959106996 0.42570677399635315 0.2087034462585919
0.017303544023325124 0.3904624296757732 0.42570677399635315 0.13466896460424826
0.07341125515918848 0.3923548564226792 0.42570677399635315 0.18113300709167426
0.024434114268605645 0.40467467993211015 0.42570677399635315 0.15765546305912811
0.06592121051036204 0.384687889392887 0.42570677399635315 0.19963383703832158
0.10749019787636153 0.4055360171857295 0.4257067739963531 0.1526023134848136
0.13425646558267926 0.4037615823662291 0.42570677399635315 0.21632174292957426
0.12123383409668034 0.40794247253118177 0.4257067739963532 0.1575970395295742
0.04789044052786699 0.35871162087566066 0.42570677399635315 0.21477946887575367
0.09528612405429548 0.4141124411167339 0.42570677399635315 0.12696797511059113
0.04185030373544846 0.3753386300907663 0.4257067739963532 0.20665267124337353
0.10663434549035845 0.3933126311768742 0.42570677399635315 0.23633185922843342
0.11917560321210253 0.38540253323476936 0.42570677399635315 0.18636001166654761
0.1507322969607771 0.4133395093033629 0.4257067739963532 0.12602914439205753
0.11892337191287387 0.3968715323326006 0.4257067739963532 0.1864196254972632
0.026878396449126145 0.3843592429870507 0.4257067739963532 0.16026135478128437
0.09774894805912397 0.3842881395484987 0.42570677399635315 0.18547398820664598
0.08324678737205726 0.3854994346855527 0.42570677399635315 0.21214173787254142
0.03382159492584064 0.3662344812233428 0.42570677399635315 0.1705329533960945
0.12633854357081634 0.3178836245445019 0.42570677399635315 0.23589685205797842
0.07254568869747763 0.3266728535482786 0.42570677399635315 0.21588147040787464
0.2147277110172001 0.28803628812404714 0.42570677399635315 0.22942267211457065
0.32947734064354167 0.29575270220103783 0.42570677399635315 0.2201347247853952
0.15242294454582894 0.32384787072428767 0.42570677399635315 0.20339640291091082
0.09721566683240732 0.29123042745681393 0.42570677399635315 0.2700228578783571
0.17179465550095055 0.3030654431534817 0.42570677399635315 0.24796666017274796
0.08450916608780279 0.3115041533416028 0.42570677399635315 0.2313080368182422
0.1577760289914798 0.3099894503711601 0.42570677399635315 0.2529898236497828
0.04928799381880994 0.2811544138472801 0.42570677399635315 0.25213767347158095
0.09126863204132656 0.27623287295945365 0.4257067739963532 0.26689002569850145
0.2135427289877431 0.30905866680930744 0.42570677399635315 0.24728241933306033
0.13358713867389455 0.27392910802029485 0.42570677399635315 0.2549095660047993
0.05545954288670783 0.2921770169098227 0.42570677399635315 0.19442009095368043
0.026553143468849197 0.29733993897190913 0.42570677399635315 0.18972122779984918
0.03845718336728542 0.2642989954039432 0.42570677399635315 0.23922998965742795
0.030857345366097817 0.3330417759173235 0.4257067739963531 0.17852402094411238
0.16623485847522906 0.2850923687144839 0.42570677399635315 0.2348968525559494
0.04947186466690795 0.32156498431457214 0.42570677399635315 0.21888857513211704
0.1977013757561287 0.3159791210667599 0.42570677399635315 0.23812190987454282
0.23859911532382957 0.3040082428948635 0.42570677399635315 0.18205768758274438
0.30936201750215825 0.29580973823973017 0.4257067739963531 0.1695025388530773
0.06060008942118426 0.2663001451261847 0.4257067739963532 0.24842714187889767
0.02336263251491093 0.26794780003907814 0.42570677399635315 0.16476362894261073
0.36226590167223666 0.30046039178014167 0.4257067739963531 0.18146153363411233
0.01873332332961655 0.33646631991252846 0.42570677399635315 0.11375997413626363
0.19945752799317287 0.2895300007293713 0.42570677399635315 0.27356987191514737
0.07626005556348717 0.2997633223518902 0.42570677399635315 0.23317057997265264
0.18683283454375738 0.2970723970870326 0.42570677399635315 0.23826173557297511
0.06407759157610995 0.2801346664907799 0.42570677399635315 0.1903702485032379
0.05642149403307331 0.30883502556990444 0.42570677399635315 0.26658549192718234
0.0331471529938795 0.27442711458191416 0.42570677399635315 0.16205751463923293
0.1153690062278385 0.2849893712423624 0.4257067739963532 0.24112030879779248
0.14575212249924938 0.2997005779840748 0.4257067739963531 0.2204902399966873
0.017175304507952113 0.2804345924873998 0.42570677399635315 0.1482771810331539
0.22588646770232856 0.291411607494306 0.42570677399635315 0.20019659506189227
0.25488051382929977 0.3104005902133555 0.42570677399635315 0.21082119244044623
0.2960217347304563 0.2965260896157558 0.42570677399635315 0.2171927391205066
0.13713112264705507 0.3253201016117042 0.42570677399635315 0.20552113358912
0.01788902971644564 0.32175304569143426 0.42570677399635315 0.1370405273156801
0.06043717444302978 0.3318108822569148 0.42570677399635315 0.21186437066727348
0.12812278227782825 0.2969407169123076 0.4257067739963532 0.17387538865439478
0.08969567413385546 0.299248757047591 0.42570677399635315 0.2624628634214008
0.2557337361312428 0.29845021096524904 0.4257067739963532 0.21886625166046608
0.027736742203174874 0.3117631541892242 0.42570677399635315 0.17079250287609066
0.1138323477476463 0.299823988212982 0.42570677399635315 0.21186328589063122
0.27007553448791166 0.2921993423384809 0.4257067739963531 0.23353149290316552
0.2856502982441945 0.3066427210305439 0.42570677399635315 0.2039517754442997
0.15614073987855012 0.2907545277831924 0.42570677399635315 0.23596229332997762
0.13834034638557616 0.2888699751558059 0.4257067739963532 0.1996344771798924
0.03925806798426732 0.2986085116325012 0.42570677399635315 0.2098686007503146
0.07833420508452474 0.28705218875730687 0.4257067739963532 0.25333562245272834
0.15678598190158508 0.27628707064823077 0.42570677399635315 0.23476373013736168
0.24164575078264283 0.29277709305416755 0.42570677399635315 0.2204036189583501
0.07010691961531666 0.3125397937401588 0.42570677399635315 0.2767062207681345
0.10271210100864785 0.2803035164263842 0.4257067739963531 0.27142058309054456
0.18389408857660117 0.3111475013851237 0.42570677399635315 0.23207715252963396
0.10556215850150567 0.3132380762709812 0.42570677399635315 0.22554014926721996
0.04269728803993848 0.31117173154701216 0.42570677399635315 0.18234092769993826
0.22302301267886335 0.3019199291234415 0.4257067739963531 0.18657043430585057
0.11883320911942928 0.27334743911901577 0.42570677399635315 0.20011159221236494
0.3672842176768862 0.25062241661209683 0.42570677399635315 0.17321815909022956
0.33055144194707886 0.2689794983429955 0.42570677399635315 0.19535865958024293
0.3090250437492887 0.22110485683867687 0.42570677399635315 0.20344824793755384
0.2794950070452035 0.2199042140208533 0.42570677399635315 0.20898302599300603
0.2681295869763862 0.2636928473665757 0.42570677399635315 0.2711659173752438
0.2602726706503798 0.2869998042381391 0.42570677399635315 0.218462124410139
0.1397659102282337 0.24211262696729557 0.42570677399635315 0.21599485640664695
0.3462980195331097 0.2582550637522462 0.42570677399635315 0.21395385579391313
0.20135515111093644 0.27233431208798903 0.42570677399635315 0.16892568868856592
0.14700368697930294 0.26904693911272803 0.42570677399635315 0.2509663875488342
0.07899910130538536 0.2669121769474731 0.42570677399635315 0.23976393502702417
0.30355712022321857 0.2328476713526404 0.42570677399635315 0.2110558619696372
0.34210108868719824 0.2002146564771145 0.4257067739963531 0.20235092811720093
0.15570334339594966 0.2594175368187112 0.42570677399635315 0.24785011125095574
0.08792837444137855 0.24852582271132345 0.42570677399635315 0.23893471695568214
0.368489581206233 0.22898093306705256 0.42570677399635315 0.13721952500586754
0.2857147174584407 0.2806448424906552 0.42570677399635315 0.2193819497731361
0.33162249227495055 0.23650182115237406 0.42570677399635315 0.21626099856717432
0.3160767288838492 0.2726163627517377 0.42570677399635315 0.16024680803874725
0.23264640940409245 0.2669169971340052 0.4257067739963532 0.20842542670488096
0.17770520987757293 0.27779972321014573 0.42570677399635315 0.24465054920828364
0.18209830375477296 0.2644181415624627 0.42570677399635315 0.22790090992769668
0.2918299730623042 0.20907470783425403 0.4257067739963531 0.1878300611482809
0.24530875892485873 0.2552129322007811 0.42570677399635315 0.18115920333718183
0.3522202821234874 0.2923093666228151 0.4257067739963532 0.20025953969123486
0.08809644292076148 0.2610956770455697 0.4257067739963531 0.2624990328793535
0.11764355603673196 0.25825487805060343 0.42570677399635315 0.22995089802752355
0.3640626055817838 0.277880578282245 0.4257067739963532 0.13908758963636547
0.051137597648700156 0.25633259365551025 0.4257067739963532 0.2556356572001322
0.24916704024221256 0.22864068464159878 0.42570677399635315 0.19599703746186822
0.31618580388716067 0.24066423539209428 0.42570677399635315 0.22880214578832583
0.2149870150511252 0.2764896699835991 0.4257067739963532 0.23741233487716204
0.32081280677649104 0.22690026970920021 0.42570677399635315 0.2223434481955934
0.3538698122047673 0.27358757136788014 0.42570677399635315 0.13541346145181118
0.33639102188077735 0.21199696071091415 0.42570677399635315 0.17944399062579014
0.3176569131771205 0.19808315914115035 0.4257067739963531 0.22676507860074932
0.3240630578412772 0.2602211391090311 0.42570677399635315 0.1927635891194033
0.23396189308233975 0.2178835227147073 0.42570677399635315 0.21861284171138282
0.18072612266248014 0.22618963760324423 0.4257067739963531 0.20865892036350797
0.23711793863533198 0.2331838260155103 0.42570677399635315 0.2238660709871633
0.13080834104155 0.24915297294853211 0.42570677399635315 0.2527377555965492
0.3586929957691343 0.2629767714154222 0.42570677399635315 0.1724709210364608
0.10614971333829688 0.2687055485085161 0.4257067739963531 0.24295453158534755
0.3203361131476024 0.28410105194610374 0.4257067739963532 0.18029473737653134
0.16708316661076897 0.26115805732027364 0.42570677399635315 0.21927813163632223
0.3412515933504997 0.22667913329559913 0.42570677399635315 0.22054382666031086
0.36431731308658744 0.20915004137128565 0.42570677399635315 0.2072113537677274
0.2973920531363494 0.27785683243037146 0.42570677399635315 0.23084120618478526
0.35177450405404764 0.24750959452660184 0.42570677399635315 0.19868404257329286
0.2618135212634111 0.23351391169622865 0.42570677399635315 0.2804090376120491
0.28666138579693284 0.23297665786436156 0.42570677399635315 0.16948177451349022
0.25889892910047857 0.24425017192214238 0.42570677399635315 0.22802341060800052
0.09968008821727123 0.24866118067943155 0.4257067739963531 0.2146134368809332
0.27970508491807605 0.26096197381064495 0.42570677399635315 0.24516996553223763
0.3554728796823109 0.22145636571296545 0.42570677399635315 0.19327911611745843
0.27776580186961886 0.24056989109740767 0.42570677399635315 0.1935566880806364
0.3537939203018836 0.20241315473521238 0.42570677399635315 0.18200075236821991
0.31966326684871094 0.21091454345569075 0.42570677399635315 0.2053041379962338
0.3297714148445101 0.19878079297549345 0.42570677399635315 0.22568366433511203
0.24952330907049414 0.21660667957080856 0.42570677399635315 0.22218856978757048
0.18103561269230792 0.2523122747606695 0.42570677399635315 0.2487496466425734
0.3455797139037005 0.28220757410905156 0.42570677399635315 0.15343527639557678
0.3744661593137866 0.2994922064518336 0.42570677399635315 0.13485873517287275
0.30829655267726847 0.258198694590825 0.42570677399635315 0.2120321553120661
0.36212447667599096 0.19518411209267925 0.42570677399635315 0.15890964076008626
0.18361465165034702 0.23955899995866542 0.4257067739963531 0.2458356070372723
0.19245178569604995 0.2797200748658781 0.42570677399635315 0.21888046624302687
0.25101090998213355 0.27384255199492286 0.42570677399635315 0.19979485037590738
0.2837629671786972 0.24959883367979158 0.42570677399635315 0.24133579268891361
0.20692997120087203 0.2426216372481611 0.42570677399635315 0.18091745903898612
0.3044736892242056 0.24455966773486004 0.42570677399635315 0.19247326469144238
0.22782770487693346 0.27720946076068387 0.42570677399635315 0.2181556654432594
0.21875755735926417 0.25223343346147403 0.4257067739963531 0.14597270703922477
0.19742054454416796 0.2337915278286502 0.42570677399635315 0.20323583339081583
0.14095722277191816 0.25607486679709573 0.42570677399635315 0.23498482401632878
0.32806491313396624 0.24916138517021574 0.42570677399635315 0.24036581694294576
0.3407066612381023 0.24832819384762422 0.42570677399635315 0.22943362286449043
0.19486527821977762 0.24977521356254348 0.42570677399635315 0.23046489163411563
0.21934106262162506 0.2636822170861355 0.42570677399635315 0.19408465355630256
0.2613071345993859 0.2190956842096904 0.42570677399635315 0.2557747160996276
0.221388924814646 0.2248757449332787 0.42570677399635315 0.2518749535939498
0.15264926318032496 0.2386831838628871 0.42570677399635315 0.22743351908863108
0.23035038958540072 0.2495199092652338 0.42570677399635315 0.2157796445959908
0.3740965423360545 0.20202547121863804 0.42570677399635315 0.1434362018232732
0.2583089116430641 0.2560229945533626 0.42570677399635315 0.221324683170458
0.16434326504806474 0.24024947348455356 0.42570677399635326 0.20660304215000555
0.30316706987231573 0.20771910067589805 0.42570677399635315 0.236865458386825
0.2980432583806725 0.264702215107625 0.42570677399635315 0.26697209615769063
0.2697810378276341 0.28067472998506715 0.4257067739963531 0.25260833956841033
0.0737142836352696 0.24879047777592528 0.4257067739963532 0.2629436886100894
0.15632333450590677 0.22341725900745074 0.42570677399635315 0.2109503111930711
0.2168410265331454 0.20375340750678445 0.42570677399635315 0.19945076640234322
0.19559972144288382 0.22101465483798377 0.42570677399635315 0.170590012523622
0.04875489010512732 0.1922675087908935 0.42570677399635315 0.22000939091961771
0.12448678867488261 0.18392853488494207 0.42570677399635315 0.22001225815568065
0.1645006257536865 0.19609221244953706 0.42570677399635315 0.20920955742790767
0.13221196074803476 0.23050833211339627 0.42570677399635315 0.20074606936359526
0.14301158966968597 0.22188541029388553 0.42570677399635315 0.20335627500612632
0.2860008557169762 0.1930902650457787 0.42570677399635315 0.22265088471906677
0.13825114637069627 0.18709915214934966 0.4257067739963531 0.20898392967720036
0.1788947058139596 0.20474020309241253 0.4257067739963531 0.19087252869476037
0.1633715100185738 0.2087844648848744 0.42570677399635315 0.18926439042813706
0.07914544164172552 0.2162607183317533 0.42570677399635315 0.1872079976932765
0.05788291320550188 0.22943159096142052 0.42570677399635315 0.19840958865869576
0.24235303457974866 0.20485626276332575 0.42570677399635315 0.22220746901654156
0.26554690943483417 0.19297733637375925 0.42570677399635315 0.25138931000889486
0.0615500661861508 0.18819698205000132 0.4257067739963531 0.24136683953674268
0.25810030387085214 0.20155160099427555 0.4257067739963532 0.20472808930042963
0.15008284846265546 0.19042229710640282 0.42570677399635315 0.20162553742782485
0.09351041949644502 0.23910095242277157 0.42570677399635315 0.20798244456148596
0.06276930656942052 0.19990601102227853 0.42570677399635315 0.24966981409054345
0.02181713605927751 0.2536719055260578 0.42570677399635315 0.16249914882107322
0.16743795615420043 0.22563073460769556 0.42570677399635315 0.1839259109402359
0.11294706718429957 0.23956249669382582 0.42570677399635315 0.22286093181241504
0.03447459098008328 0.21926840256177643 0.42570677399635315 0.2048490193780205
0.11948932793951449 0.2015865369465411 0.42570677399635315 0.18221364400022255
0.10929525376113744 0.21194111372102226 0.42570677399635315 0.18547885583655363
0.32868502365387775 0.18548753095157056 0.42570677399635315 0.20811725825168784
0.20160527771796574 0.20313704628549495 0.42570677399635315 0.19142437346353008
0.11045056646993612 0.22486786031675837 0.42570677399635315 0.22629697313033428
0.12230492268240224 0.22453059720759594 0.42570677399635315 0.23784438331648508
0.19128228408235767 0.20964194291072474 0.42570677399635315 0.25316350899944795
0.22282773603114364 0.1897989747623866 0.42570677399635315 0.20447790432110338
0.09694723230204659 0.18985873934333997 0.42570677399635315 0.22751431186488466
0.21368441536476693 0.21696516198690294 0.42570677399635315 0.18709403746933534
0.2762610724462286 0.20205463825632305 0.42570677399635315 0.23875332513824796
0.03432289035216268 0.2407329717940095 0.42570677399635315 0.21823370897687708
0.2776205501018513 0.18574803458438108 0.42570677399635315 0.2445737170855637
0.06906944620915326 0.20900360127589143 0.4257067739963532 0.2423069323891299
0.026039355631860463 0.20945670551902032 0.42570677399635315 0.1769055299471518
0.14287218331958093 0.2056608050331586 0.4257067739963531 0.18689047427674907
0.0939906060454025 0.226500163408469 0.42570677399635315 0.18005741129956393
0.05277490119286968 0.24043486921351126 0.42570677399635315 0.27236907420701667
0.1957926260728152 0.1912957156394885 0.42570677399635315 0.2243449080930634
0.09509275726289497 0.20851132355710805 0.42570677399635315 0.19252343950887796
0.25084532869498993 0.19233822053787053 0.42570677399635315 0.20041150987484257
0.03489002073547717 0.19438178549578428 0.42570677399635315 0.17891234681064563
0.08129624629425912 0.22857632507007702 0.42570677399635315 0.2256736772285379
0.08395911246901187 0.18787808764199368 0.42570677399635315 0.23804951148448594
0.11230959030343406 0.1876418480336356 0.4257067739963531 0.21536857947775667
0.062472267242809625 0.24899514099366654 0.42570677399635315 0.22594598488696102
0.3088047724749023 0.18879009907592237 0.42570677399635315 0.2523936871493073
0.023237863328164722 0.231978877623559 0.42570677399635315 0.13512950078703126
0.07774957473490217 0.19838471434193042 0.42570677399635315 0.210447446174153
0.04641021622045239 0.2226820067297574 0.42570677399635315 0.1979807886177969
0.23207354133726935 0.19679322276223332 0.42570677399635315 0.21658652463706618
0.18172575458603654 0.18872480452594675 0.42570677399635315 0.21437883186293907
0.04411229411675572 0.21109346070429008 0.42570677399635315 0.23039277653789253
0.025399805279913423 0.16350986863163064 0.4257067739963531 0.1426024168056005
0.1099075506776347 0.17596879288578987 0.42570677399635315 0.20209715015343693
0.14076880880745846 0.1734045530515096 0.42570677399635315 0.24387863884368474
0.05076587455830441 0.18040953890760084 0.42570677399635315 0.21125192984600036
0.19702481234082828 0.17462921768757556 0.42570677399635315 0.1420895722572621
0.2068203136748141 0.18313730887542354 0.42570677399635315 0.22093976285633363
0.23279001774570401 0.18188731934695285 0.42570677399635315 0.24045711199608485
0.2485504397227488 0.17957831180277933 0.4257067739963531 0.23990809159545548
0.07113456614527648 0.18040370332518785 0.42570677399635315 0.23240428286578552
0.1654026795292509 0.17653342087469825 0.42570677399635315 0.2201048235754616
0.10033378468217707 0.16804515316625768 0.42570677399635315 0.21443119180185582
0.055197760140542895 0.16641455027426044 0.42570677399635315 0.1874982882821118
0.09033408134548229 0.17613507815770138 0.42570677399635315 0.19506058573642407
0.1220403813040486 0.16859428898212037 0.4257067739963532 0.23348417097654445
0.04160447665109573 0.1614372935492845 0.4257067739963532 0.19825735194446478
0.07172149755178922 0.16707224462604714 0.42570677399635315 0.23034463214342699
0.031110043061838996 0.17585136791983208 0.42570677399635315 0.1845708477478356
0.29657828486196325 0.18267715272109886 0.42570677399635315 0.2386315233280766
0.34412750509285567 0.17343646967072485 0.42570677399635315 0.1683914041453651
0.3573872464071136 0.1676393719968029 0.42570677399635315 0.21638928162377094
0.19304756794493183 0.16437686227034026 0.42570677399635315 0.24471137713651697
0.29617796143918196 0.15938332900588079 0.42570677399635315 0.2690350134986022
0.13077891224917518 0.15987646138582767 0.42570677399635315 0.210705521217545
0.2582375219136316 0.15974399449846782 0.42570677399635315 0.23433215027174445
0.2464140935132902 0.15923096700092337 0.42570677399635315 0.21710240140723702
0.2573797821115757 0.171264196430009 0.42570677399635315 0.24562337848993293
0.2067806189716007 0.1645679842743758 0.4257067739963532 0.2066650645828174
0.18077095761579753 0.1662917688389879 0.4257067739963531 0.2316620745171895
0.2345011169556301 0.1701326634496593 0.42570677399635315 0.20027175708109077
0.3314557888956712 0.16488384661861288 0.42570677399635315 0.18483994650036165
0.08247004047635459 0.15980186240832653 0.42570677399635315 0.23305341794766088
0.17028287997276775 0.1603018318153237 0.42570677399635315 0.21120679127965958
0.1183237645865618 0.1579740483208856 0.42570677399635315 0.15471454462004483
0.30936405227654074 0.15996208678631463 0.42570677399635315 0.21872613546605862
0.3058885085597316 0.17514684365795896 0.42570677399635315 0.22813352239564147
0.2826975441319505 0.17454200359377733 0.4257067739963531 0.193094241209589
0.3168776139521594 0.1690904878542026 0.42570677399635315 0.1973520652494566
0.35467419179453713 0.17878831395269543 0.42570677399635315 0.14633489204949593
0.3444188659947425 0.1612588494923359 0.42570677399635315 0.22034559956018276
0.14656086963850734 0.15938928240024391 0.42570677399635315 0.23407581243220713
0.2209417807473238 0.17153084012796627 0.42570677399635315 0.23026845329442464
0.15844662008756383 0.15971263916486073 0.42570677399635315 0.2082551216518598
0.27344377990473434 0.16466074585198354 0.42570677399635315 0.18879074986310126
0.09744267426360605 0.1515854963834495 0.42570677399635315 0.18141338912103638
0.1709575783286514 0.14572161227577238 0.42570677399635315 0.24320105312131496
0.2005376655039858 0.15249077435234662 0.42570677399635315 0.22725518318545831
0.08610856975995959 0.14563646844033934 0.42570677399635315 0.20476849505114225
0.026900456596240234 0.14843878681806613 0.42570677399635326 0.15537809238702294
0.14137724969231086 0.14908464663964882 0.42570677399635315 0.22304933511254363
0.10966454778580051 0.14826012106873002 0.42570677399635315 0.18247507157253054
0.04014550710053606 0.1440079682967006 0.42570677399635315 0.17477434369618436
0.26569311526313666 0.15086960098625185 0.42570677399635315 0.21276630462231608
0.1852732450723742 0.15134309955497072 0.42570677399635315 0.1810102738564962
0.07483356708985098 0.14838583432882507 0.42570677399635315 0.21672042689116902
0.060479110318653384 0.1478247167681149 0.42570677399635315 0.25092510813200675
0.23048696464302468 0.15141031072472758 0.42570677399635315 0.21637650558135368
0.28503791324274586 0.15409652651022315 0.42570677399635315 0.2139418286828025
0.13045182071621844 0.1466321135773037 0.42570677399635315 0.2153019993072731
0.30451086671657923 0.1485874542208334 0.42570677399635315 0.24077751190413108
0.27478406411687956 0.13510280142682946 0.4257067739963531 0.19508245788862297
0.15159970396717287 0.13393643707859293 0.42570677399635315 0.16389518932695324
0.18316342530337273 0.13755866518099352 0.42570677399635315 0.2145489185373323
0.25822679101793644 0.13818348634753347 0.42570677399635315 0.22423466420514332
0.3519282311811666 0.14384698338904625 0.42570677399635315 0.1778415762099632
0.054442782582486485 0.1315228584889342 0.4257067739963532 0.18359836266774968
0.13292642943072833 0.13323436317807963 0.42570677399635315 0.20591860097454123
0.2867109143029303 0.1322627507632436 0.42570677399635315 0.1820110410211474
0.3302224272542977 0.13331975795493095 0.4257067739963532 0.25710836718571145
0.29756500196814484 0.13957819429863316 0.42570677399635315 0.1800445450658347
0.23933206323060308 0.142481052758849 0.42570677399635315 0.20693172107781188
0.20562686256627635 0.14019537049958508 0.42570677399635315 0.2153845125665096
0.22200421763684164 0.14232105680105012 0.42570677399635315 0.20926343424850388
0.32990274959087873 0.14965009597041085 0.42570677399635315 0.25851922545183315
0.3625682344440647 0.1532756746244706 0.4257067739963532 0.19363499482129595
0.2299056240919971 0.1341179890414987 0.42570677399635315 0.12661976877740158
0.11543234753623033 0.13621107121263848 0.42570677399635315 0.21531957598739462
0.31795032549052593 0.14198557401323775 0.4257067739963532 0.24720101368267228
0.19477751150661896 0.12987863438968605 0.42570677399635315 0.20363487048938536
0.11102107915595924 0.1257832351711518 0.42570677399635315 0.19357577965677203
0.04137183728914903 0.1284527333173449 0.42570677399635315 0.1655411834523849
0.13212749267115553 0.12241613434252485 0.42570677399635315 0.22826655953929012
0.21705276507275253 0.12165039057092653 0.42570677399635315 0.16251509254445845
0.07017214829249348 0.12951379901119098 0.4257067739963532 0.23364354745824237
0.09868864193102926 0.12873844113024255 0.4257067739963532 0.22983567141861394
0.08922244979609274 0.11781993488775347 0.42570677399635315 0.23290152424604504
0.043170551113482725 0.10940595358878913 0.42570677399635315 0.15481311469695788
0.06841769426113681 0.11388040693663948 0.42570677399635315 0.196490037046565
0.253885687277714 0.12507110121949855 0.42570677399635315 0.2114735595139032
0.05680183160501494 0.10789314987336886 0.42570677399635315 0.22209359912781268
0.059404091081833615 0.1208767235629203 0.42570677399635326 0.22886325967749244
0.20642582423438255 0.12628736856133838 0.42570677399635315 0.21173756575685582
0.23850861383511043 0.12497338942259746 0.4257067739963532 0.1873673997237184
0.14524063345115215 0.11500739938282287 0.42570677399635315 0.23369352749522018
0.12294906745492523 0.11422109875254363 0.42570677399635315 0.2288968457062814
0.1682632854817196 0.12056324642206229 0.42570677399635315 0.18861083822669372
0.10280126113600953 0.11523782805180412 0.42570677399635315 0.22184348814450652
0.3131353726988299 0.12447542458838384 0.42570677399635315 0.21247238789482667
0.29164955523964153 0.11882902195800661 0.42570677399635315 0.1953091993478474
0.3581983548405538 0.125346366888338 0.42570677399635315 0.16159304991169554
0.18402432972021118 0.1153257347521445 0.42570677399635315 0.22654266258274033
0.3467108932280485 0.1128384976887864 0.42570677399635315 0.1979492839645244
0.23837771432340912 0.11102744119325936 0.42570677399635315 0.21455855066790275
0.2761289500933679 0.12118128281930526 0.42570677399635315 0.20988418047769147
0.22551842325118612 0.10764048564439227 0.42570677399635315 0.1386897561672148
0.2699365860264705 0.11127002715592524 0.42570677399635315 0.20155459871528653
0.28154588533082914 0.10797358194372 0.4257067739963531 0.20905368562271226
0.33040418137552596 0.11947023141470312 0.42570677399635315 0.1590060008229321
0.34190548903791285 0.12333334414353217 0.42570677399635315 0.21044263158565615
0.2515108419567568 0.11145001561923629 0.42570677399635315 0.20097157762188345
0.157554726181603 0.1124009133082591 0.42570677399635315 0.24041378212714892
0.19580859749807966 0.11545641217230822 0.42570677399635315 0.21787206065675235
0.06931847338075378 0.09600032489528484 0.42570677399635315 0.19555730623607434
0.24651721119857206 0.10020494065735464 0.4257067739963531 0.1933545596056891
0.25955483584289213 0.10236407019831247 0.42570677399635315 0.2030825373219433
0.17498175468742783 0.0958061173669391 0.4257067739963531 0.2289927847012078
0.2143699383777823 0.10627892371814271 0.42570677399635315 0.19303736525343848
0.0857190837073676 0.09911000685889226 0.42570677399635315 0.22344330059510784
0.3147491208281461 0.10447596826830609 0.42570677399635315 0.17748351921816588
0.13893043043063108 0.10168652554725985 0.42570677399635315 0.23095196005516716
0.09986327361075961 0.0935423368961074 0.4257067739963532 0.1878449366913235
0.10520755236678675 0.10471964534949091 0.42570677399635315 0.2276440099757855
0.1279831645030783 0.08961489225864938 0.4257067739963532 0.2312742895629297
0.04811574395114129 0.0997268004149918 0.42570677399635315 0.13624692926001167
0.1543859129762965 0.09974047617735352 0.42570677399635315 0.20245370047776653
0.05422657865945214 0.08827155849199389 0.42570677399635315 0.158065557735516
0.1831232198961627 0.10339630339330366 0.42570677399635315 0.24317198882547467
0.32954194277632753 0.10714043471461256 0.4257067739963531 0.1914185413152332
0.11798569940117898 0.09913085292609161 0.42570677399635315 0.2245452109320707
0.20113814357371806 0.09542468343978397 0.42570677399635315 0.2584209277434422
0.30041977263105296 0.10472350858550257 0.42570677399635315 0.21287732299064008
0.2144941764635169 0.0945779906905873 0.42570677399635315 0.20064798478586343
0.2880942920369415 0.097067322352099 0.42570677399635315 0.20223533654179138
0.16501470629682025 0.08792085969099445 0.42570677399635315 0.22729768847569357
0.23622577411333384 0.09704138744257956 0.4257067739963531 0.2286269980715399
0.29384619231110926 0.08483725114630075 0.42570677399635315 0.19417816265733354
0.18570107494585794 0.08440855129609548 0.42570677399635315 0.24194283241031508
0.30657182362535107 0.09041666643613064 0.42570677399635315 0.22055659258676158
0.23427059708806913 0.08518715290063539 0.42570677399635315 0.2722363774170241
0.24810502036921586 0.08685512597475747 0.42570677399635315 0.2028329178332786
0.14137159656839937 0.0899115689123082 0.4257067739963531 0.24876318847186685
0.32364230591235277 0.09569623572216775 0.42570677399635315 0.1737893235426506
0.27724714015975416 0.09539982559802605 0.42570677399635315 0.2038937063986655
0.3380714547493973 0.09387364701385173 0.42570677399635315 0.16849042057558297
0.20665021731858546 0.08468885450711022 0.42570677399635315 0.23607432392466843
0.1485102598165703 0.07101269265243357 0.42570677399635315 0.25824306836492533
0.18085167103631938 0.07246957986280711 0.42570677399635315 0.1943575663594448
0.09839315191503395 0.06592568900324752 0.42570677399635315 0.16837469585019646
0.08919195840666591 0.07193096693944583 0.42570677399635315 0.19327391283587464
0.06629638035978865 0.08043265985384548 0.42570677399635315 0.1658154972772705
0.07336614630480709 0.07131987561062117 0.42570677399635315 0.13389487357389218
0.10238027151364953 0.07811937096436823 0.42570677399635315 0.19452107358626147
0.22345131971263293 0.08247879346671971 0.42570677399635315 0.20948347585666868
0.08078837589858896 0.08190233978549513 0.4257067739963532 0.154714704643485
0.11918404907487093 0.07711148023032273 0.4257067739963532 0.2318551527264632
0.136296270188778 0.07819450960450985 0.42570677399635315 0.24433084781347475
0.19806808767251305 0.0762687237292384 0.42570677399635315 0.2228659421686535
0.2673369504215523 0.08415745940689354 0.42570677399635315 0.20209275986463718
0.3199329518938484 0.0846537269126999 0.4257067739963532 0.16252850269070496
0.2807047369351668 0.07853610740137601 0.42570677399635315 0.18613607937961063
0.260807611869888 0.07343064778906429 0.42570677399635315 0.17635327458240818
0.25232091596438583 0.06504095651084599 0.42570677399635315 0.24289211130165456
0.12105894300206213 0.06309551788349721 0.42570677399635315 0.23525260251864427
0.28008211469326394 0.06402790785440508 0.42570677399635315 0.19218963880349563
0.23899499982906727 0.07236017436398522 0.4257067739963532 0.22018249098296716
0.29604098202466744 0.07377356931381238 0.4257067739963532 0.20547694024110463
0.3348343366669316 0.08308901640718037 0.42570677399635315 0.17604995475143942
0.32022492901477784 0.07008048080477665 0.42570677399635315 0.1940775447020714
0.3086471342060102 0.07817477925158822 0.42570677399635315 0.1861074758800456
0.1663547085724869 0.06807183449313679 0.42570677399635315 0.2250970707534859
0.22728630643090103 0.06827338361623128 0.42570677399635315 0.2258873387982819
0.19620042765943346 0.06385888911617232 0.42570677399635315 0.2185331522118354
0.08516687419193503 0.061012866712746555 0.42570677399635315 0.16690980235394387
0.10665771190699344 0.05732694275439087 0.42570677399635315 0.18346365367200576
0.14270631373612527 0.062107817397766496 0.42570677399635315 0.1984805435505413
0.23594300056791462 0.05765259964943389 0.42570677399635315 0.24305508676035964
0.15967477219429874 0.057501424936047485 0.42570677399635315 0.1930191292563897
0.09161706748620588 0.05113289894575744 0.4257067739963532 0.13368044622558345
0.26626782711816915 0.06103677755559755 0.42570677399635315 0.266898496214375
0.17529080475530667 0.05557290569345815 0.42570677399635315 0.22265133889759992
0.2127252777674027 0.06229361081607724 0.42570677399635315 0.2031230579075305
0.3077487858530127 0.06354012991743323 0.42570677399635315 0.20701528133130592
0.2376982779094701 0.04597517769232144 0.42570677399635315 0.23043983227060075
0.1267793930934723 0.04612597091134907 0.42570677399635315 0.20273166974599624
0.2583987570333913 0.045887201195310985 0.42570677399635315 0.20315464557432156
0.277650313142627 0.051228340224990704 0.4257067739963531 0.26367698336897644
0.29556620683845614 0.06003018031639925 0.42570677399635315 0.17357867677826502
0.20904726794188302 0.04797438004197083 0.42570677399635315 0.20918351446325667
0.13891567230770271 0.04853605568978802 0.42570677399635315 0.20267151190166183
0.13616868006737323 0.03799823701499809 0.42570677399635315 0.2123511538790804
0.22628691344481 0.03998773508900562 0.42570677399635315 0.15941228981234382
0.11968593682238932 0.03247199533114044 0.42570677399635315 0.1274570834677026
0.11176926238554599 0.041996040704246486 0.42570677399635315 0.15820502268576597
0.15651483162360028 0.039326328300954935 0.42570677399635315 0.20999978421572096
0.1821092593419457 0.044955483167526226 0.42570677399635315 0.21557775983673377
0.19473505631591323 0.04218110647772654 0.42570677399635315 0.180648543281235
0.2746203383290374 0.03773105725665352 0.42570677399635315 0.2382512832866291
0.2893715270921359 0.04000106273502119 0.4257067739963531 0.18719208400404197
0.17480232737832024 0.032987057381176695 0.42570677399635315 0.15018291303559078
0.2543803825909232 0.03317391268646368 0.42570677399635315 0.2475389838062694
0.20073455011913038 0.030986508440017033 0.42570677399635315 0.20680452486098913
0.1889738726898593 0.025768814712967478 0.4257067739963531 0.21497566058559975
0.15763233583371716 0.02668484232501092 0.42570677399635315 0.16955703261699506
0.2659144228416934 0.02975871110015355 0.42570677399635315 0.19976769240744974
0.25953220647001796 0.020489700890313153 0.42570677399635315 0.17184632286139473
0.22888741335674018 0.02362082486940987 0.42570677399635315 0.15038945111743912
0.24062846615895034 0.02653617941373388 0.42570677399635315 0.21726518063468267
0.2101594849211479 0.0246472779450107 0.42570677399635315 0.2028706616678372
0.14767208545956198 0.016218803013999337 0.42570677399635315 0.12556480999649575
0.19945583393519256 0.015576934964753951 0.42570677399635315 0.14253016106936028
0.16631541460258384 0.014965948132846667 0.42570677399635315 0.17017338629816445
0.21294720879880366 0.011520949009462508 0.42570677399635315 0.15417064836214092
0.18657883448577126 0.008760508447364826 0.42570677399635315 0.1288370422889666
0.11665035213296879 0.41850215629893517 0.42545550418959566 0.10999804775635401
0.3361514592829411 0.4185629624106898 0.4254303330191612 0.12463412455822627
0.27654197555513504 0.4203232828842162 0.42464329293566483 0.11236967477021462
0.24860285754566203 0.4201665417098954 0.4247635406601984 0.14261169130978332
0.21398815641578067 0.4210864988022721 0.4240577487113373 0.09161352879257194
0.35085938134996536 0.42354971214509807 0.4195326940073945 0.13728724252289817
0.06972110332451521 0.42362296431519486 0.4189755217634994 0.1518456936471993
0.2976346652023713 0.42340202925636605 0.42056317222315553 0.14776113492289983
0.12665777465753514 0.4228499540038191 0.4218955795201132 0.10075099432141658
0.1946908466405446 0.4236533313025885 0.4187457897315795 0.11394202599758951
0.1558168284173203 0.4236016519052938 0.41913798987512074 0.11300712311833282
0.0889441162876333 0.4224145395937432 0.42260683527796167 0.08734890122992414
0.03303387992203609 0.4226227123555678 0.42233556060585103 0.11938655733079293
0.38158405544102136 0.3929942705726594 0.41923882639906856 0.11225612067771946
0.3812257668048574 0.2398768678912204 0.420954153475037 0.14835459873990772
0.38149249297805393 0.36665923827078156 0.4198654546773438 0.11150797985087953
0.38143391254951026 0.405317138197647 0.42034712662985063 0.09506471745861596
0.3804359111740918 0.2232436116557847 0.42244093506666236 0.16120337472679566
0.3804985486013389 0.19305874744761392 0.4223193114506453 0.14764768995642977
0.3798458202772901 0.25304433943641963 0.42333519551947146 0.14895131266616787
0.37503358452517965 0.33843329962786867 0.425655729308698 0.1182585189630312
0.37773628511406315 0.2692292650664975 0.4249526122424914 0.12417418731679977
0.3746977276276869 0.28793761638178883 0.42569638791821107 0.13080622817145718
0.37658744233534724 0.31165150424894106 0.4253804159765888 0.12272692832543822
0.3760378393570799 0.35182477555182035 0.4254998899831568 0.09869426532930876
0.37446641313637496 0.1750506060855319 0.4255990782079915 0.1121501933706115
0.3478707823750502 0.0860951472847265 0.4251537102715794 0.1327596782648662
0.35660866211791853 0.09853172632101112 0.4238988117967791 0.1381210447285056
0.37520383735861335 0.14743453759143302 0.42390154381018363 0.12046072459053615
0.3372054989417202 0.07184426892706619 0.42485211119747307 0.11388535373304796
0.3297525382424204 0.05963819262048563 0.42341002302676134 0.11439252137440237
0.3113188616196713 0.04608899096936134 0.42507975593188396 0.09242335922377368
0.28704526802260877 0.026813044130104824 0.4237411116109637 0.14319075713774643
0.2695813559286525 0.016666366332741656 0.42290199623663594 0.10663039690247471
0.2505194654536933 0.011031660651186636 0.423770224899486 0.11803682753317069
0.23776675101960976 0.00585219532475824 0.4221351888608809 0.09173645637672233
0.2250673025105519 0.004955086207455474 0.42384431178746673 0.12037780623119974
0.16224327654199405 0.004743502344159309 0.42319971420514596 0.11275702701668437
0.10932178442105607 0.027246869978686798 0.42507451723098144 0.12066195285668173
0.07495882925645131 0.049158892746182827 0.4238394434819444 0.09826472430670852
0.03734133056723085 0.09335228109903929 0.4216004268733399 0.12706295115049485
0.03314347581500374 0.10337937190546886 0.42333616408020647 0.11566618370095465
0.028421660429090796 0.11957720871466791 0.4251517168366848 0.10109199142242174
0.36899983933035757 0.13748811966687793 0.425514950149505 0.08943945230842816
0.37867206223758487 0.16106688642170958 0.42157374495718986 0.14266130457707163
0.30064421246676953 0.03884314918413667 0.4254256658247849 0.14362376854422262
0.368279759520124 0.11724539538046798 0.42084807228291976 0.10822711577537719
0.2126371305105502 0.0016670088064990461 0.42099808361469415 0.10313889958307601
0.1261592659371345 0.02101769392170485 0.425549210701873 0.1394879782137314
0.05682654317914474 0.07494053040237175 0.4256871539371006 0.1202952975531779
0.17553220257857188 0.006940911469769264 0.42541080944910453 0.1148257371182264
0.018978042696940246 0.1751910626175296 0.42568768043033967 0.10720229680868198
0.015446836946012437 0.16030436074192642 0.4229062886929533 0.08647331990728582
0.13551463831036104 0.010658487718873705 0.4189602420428415 0.1311956212219582
0.05739086107390347 0.06336442579373941 0.41954988263709103 0.11597344193653598
0.02163695213374003 0.12555355076703595 0.41916290607342765 0.0963174110401922
0.011238409938209078 0.21157678800844307 0.41972133677012313 0.1516507805562706
0.010969130513008931 0.23457747663051223 0.4199734081830271 0.11236677996429639
0.010267616961021648 0.2908964907021406 0.42037893995332015 0.12290763145603016
0.008414698522554456 0.40812864632044943 0.4195277050507457 0.10407885928308037
0.011439267652557454 0.26258994544742686 0.4222007934506174 0.08512781969971436
0.012860261338314201 0.3113123799572316 0.4241363177118447 0.13577395055370367
0.010542465805990272 0.36129387341238917 0.4228359877686062 0.14513337879514862
0.017054900149378913 0.19752540086414636 0.42547187840602635 0.12232156868841897
0.015258479056773444 0.30076558098149203 0.4253998710081155 0.11824185581638227
0.011531971712243797 0.38057838015774864 0.42419425875122196 0.13557454890769752
0.17730270179304952 0.4932553469494023 0.7774473559478335 0.07289058691399154
0.18962407644907675 0.4932304819116919 0.7758031595935468 0.08120030249455278
0.09401311476050758 0.4932888607152995 0.775599885520775 0.07465265341317898
0.27062346647044183 0.493184477204213 0.7690699026715236 0.08681430691835612
0.32148522494448545 0.49317758292929603 0.7514409098676103 0.04583932126784077
0.19703723536815038 0.4932317680276775 0.767388118249225 0.08992822796473962
0.21022027092170206 0.49323053407769624 0.7624159028399459 0.0688875714301369
0.2968240582752021 0.49318729743551326 0.755346437746761 0.052018325240261905
0.334731191611784 0.4931727601862924 0.7490553261092703 0.027392372205530514
0.11662756202836788 0.4932731129300689 0.7730772096134669 0.08682986309216963
0.21956888752472403 0.49320851886199124 0.774291836165814 0.08997358522995384
0.2500326384766564 0.4931917793290393 0.7729202256765448 0.07849715487385113
0.2945912694833031 0.4931623408557243 0.7745232568995285 0.07256298705759671
0.30402683878051157 0.49316826573100114 0.7660043718374151 0.06537365301035562
0.2828793938635831 0.49317669475192394 0.769281577084864 0.08357053504605114
0.347676345986817 0.49315994426479337 0.7526272401171256 0.045566550394523106
0.32883987151061084 0.49315697593319185 0.7631789064074661 0.08415433403249331
0.2307684995484994 0.49321268487149494 0.7662687563357349 0.07882072993511119
0.26410463458585265 0.49320493864771575 0.7570657100499308 0.05702173908658475
0.16259892355572422 0.49325182864887607 0.7681102283751376 0.07313880885670954
0.2756251372709518 0.49319680850449965 0.7578582292224446 0.06551425622577593
0.20689734542397356 0.49321613372821854 0.7743873576626128 0.08870276561941737
0.04983716536338018 0.4932021502506232 0.7548145038782001 0.06708571400105236
0.24648039420983905 0.49319747996995245 0.7537642603220717 0.044198423984663816
0.18959727582578176 0.493216549727148 0.7580526299134444 0.042951548365692926
0.22025881125005364 0.4932151609167206 0.7577403169487813 0.06020874475874376
0.07516468670666174 0.4932298765887645 0.7610495484121171 0.04702965441529241
0.2864673218093947 0.4931753824546028 0.7487950144161652 0.020045171967346346
0.13112014861301988 0.4931877474934073 0.7515756400875895 0.04281354350166633
0.06370515980346893 0.49324189348546155 0.7637518845693075 0.05235994131458437
0.20836741224797822 0.4931817629741223 0.7502298531298617 0.02078145218933155
0.0926363743852251 0.49320276991924383 0.7549538537420974 0.03831102270209613
0.1014964887345795 0.4932568264387357 0.7671099778094987 0.07749038931449002
0.024383050435596933 0.49316904932913486 0.7473708335838442 0.05573333476848232
0.13512787495924913 0.4932493570376515 0.7654302735454711 0.06739260100792782
0.08677423630746935 0.49324873317919316 0.7652899814791028 0.08343823371498582
0.12295432292831515 0.49323957930815104 0.7632314769151383 0.06205906121761912
0.15691166097403453 0.49317676424002116 0.7491057476105878 0.015878780543625223
0.17724666293838148 0.49316725986383436 0.7469684221372452 0.020835325375817216
0.17389438767543733 0.49324869071327254 0.7652804318261743 0.07106163232525398
0.10742714729698494 0.4932040435460767 0.7552402644459398 0.07111988478999683
0.1477657379377473 0.4932201935612474 0.7588720481780642 0.06258977560409455
0.03338140699825272 0.4932036422471841 0.7550327401525447 0.05748808819754857
0.07092996182828427 0.4932785972467929 0.7719247043632005 0.08340667383789818
0.050659242790830714 0.49325405982230686 0.7659158838118887 0.07684728662830237
0.03666304966970271 0.49326904998144305 0.7678740716652153 0.0684282238443799
0.01453761217820079 0.49322200045057996 0.7572072911410095 0.08114674321485175
0.016551831627365163 0.4932848364020912 0.7693036489625769 0.0694551949633342
0.3416522285721076 0.49315255880355835 0.7638739266419876 0.10857063338366495
0.36282216442994797 0.49315255880355835 0.756123142350107 0.07552328472668332
0.1275116683609206 0.4945617949840726 0.7783199264183873 0.08470195774285363
0.15649506792448548 0.4942823835931077 0.7789087371334621 0.07204034154618214
0.23346702630785937 0.49321619321415133 0.7774246062542909 0.08529362029953935
0.31869144498866603 0.4936512635589213 0.775220403026885 0.07876981799593423
0.04695725017289745 0.5166908858040651 0.7744766878247631 0.04869044260018959
0.04524965743273153 0.5276663089553572 0.7743601221887844 0.0182380930183746
0.050023234362824485 0.6271647776345579 0.7746859815214352 0.02236997713270795
