x y z curv
0.24926932257895712 0.06758727068709891 0.27467586161203156 0.002511062704247465
0.24476047833141895 0.07525319213397216 0.2625261415023773 0.002472002967858985
0.26101770115804995 0.06986289933026374 0.2798859180044615 0.0017775937761408678
0.2841631929716665 0.05810183855811625 0.33292268967081917 0.0016048504154284639
0.28438314732828474 0.06608548050846919 0.31845589999992086 0.0015166530068770824
0.2717155020154997 0.0540440565132776 0.32199357893849423 0.001601569592356548
0.27749876826473596 0.04942527115222141 0.33912256391854273 0.0058983108891913815
0.2887155285083288 0.07919704903020262 0.300915954294412 0.00190038279103732
0.27062218036915336 0.06983155364733783 0.2911812177574404 0.0022429861419277024
0.28931217306318846 0.08541841515714535 0.29044891696439523 0.002003154388116952
0.29500363391517426 0.07034648273439706 0.32638677984122605 0.0015816125206203368
0.2793918484048203 0.06969546830765581 0.30443040941442256 0.0009119738488007786
0.2795939585522873 0.08162296250855039 0.28316395240140474 0.002346766017146632
0.2732797895273385 0.08447532841903663 0.2744308952141164 0.0025554499450437247
0.26309265952367933 0.08447226540336616 0.26540072808200976 0.002313861916487053
0.28495893745857714 0.0905654164931594 0.27813539055943726 0.0022243765085747237
0.28154295687994824 0.09763660408449258 0.2674755930313585 0.002186915783228068
0.27283385475942984 0.0990720234144414 0.25821564768228433 0.0020674196202452554
0.3099527269808085 0.09547425932153991 0.31555202970314544 0.0010806715038249074
0.31085834352683145 0.08662439588461612 0.33096480783561266 0.001850567922570703
0.30155139710825596 0.0877174659447788 0.3107118395747342 0.0011062464777799857
0.3162657031763826 0.09644365945248533 0.326659577486879 0.000855307341490778
0.2991398910990962 0.07825177904473041 0.3204518752158569 0.0015920655912964924
0.3004776051154777 0.06959931591016019 0.33642344831578486 0.0013622495259557389
0.2974063704396469 0.09394032852268157 0.29291954788415614 0.0015740424869072668
0.3080951137879364 0.10856816707922536 0.29198600517450657 0.0021438721554050424
0.3152708881526172 0.10414978011604803 0.3129613579274578 0.0011407975172282414
0.3011164301482382 0.1051527861345065 0.2832876160777588 0.0023125794807818826
0.30082882265639455 0.11456413860908507 0.27429693107422604 0.0016318914686814661
0.3088460667189779 0.12035299217238574 0.27857757148038714 0.002728062424793961
0.29089524573473646 0.11116300939236404 0.26562065328011875 0.0017430214437462025
0.2940540366482584 0.12306022330735371 0.2587207341568856 0.0017292633405327062
0.3183089133640212 0.11704061113977743 0.30126734147968803 0.001858889694618588
0.31380894813241145 0.1179045441805846 0.2894756064718903 0.0025922480083319416
0.3245319708683252 0.11898231251184149 0.3138621309937028 0.0021041194782854436
0.326524289416142 0.10436160249531531 0.33593448090704997 0.0011553788923114065
0.32877329257778337 0.11894927022699757 0.3240514829964114 0.0018950682359173093
0.32430964794678685 0.1263430130227772 0.30475576114678626 0.0017967990625060457
0.31915566358335634 0.1288129455360678 0.28956574735260465 0.0019701808179690946
0.3097393106148694 0.1307221069562224 0.2721128302283966 0.0030945079499975414
0.3172119766378255 0.13618224128816656 0.2789303588575792 0.0029657526199917154
0.30916691599053325 0.14416815588983098 0.2621289112889515 0.0030944259790979985
0.2450240176108358 0.029808371671457924 0.34337380211524526 0.0053413423586321
0.2508290807952036 0.02659167873245426 0.3634477387085484 0.009951444314230916
0.2656635989785225 0.0352988482938263 0.3586991915018692 0.014249029830040913
0.26258800638725854 0.03675982357979424 0.3478462064367646 0.007743507585985416
0.2747561936643082 0.04244093529699779 0.3525596187011769 0.011711232587445579
0.19269801554182028 0.04433564884607358 0.28534822329309206 0.0023973283091914548
0.20323474409822107 0.06585215499138147 0.2581038210736517 0.001528745441165478
0.20264944320168377 0.048260838269737524 0.2810264772189932 0.0017350748155233093
0.19353502504057518 0.05612213677958758 0.26960974342424354 0.0025613200406543407
0.2007654543549465 0.03805920381781018 0.30091282827336535 0.001911551806472898
0.20197168025951803 0.024316094530973387 0.33133296419011815 0.0016497839330330225
0.1954602426201621 0.030411838101438115 0.3164937189793672 0.0017965904759174333
0.19514349821668742 0.09652778143962731 0.23008208675754618 0.010297543193093832
0.2922155540590307 0.05865179102449215 0.3453720333341776 0.00444396397380181
0.28398476406975376 0.04926313986208514 0.35307849851113055 0.010916458600597588
0.33263071872083705 0.11007002111434491 0.3467389962820953 0.00392914972120633
0.33398209762813086 0.10287838810649177 0.36764641989221025 0.006987897662408908
0.3391338430944347 0.12421937450472119 0.3467147040027213 0.0028695470348125422
0.34117340967087084 0.12170948648017288 0.36065560608235897 0.006749696565961661
0.32689786069974114 0.09868759510838963 0.34714671833156197 0.0015181003152606291
0.3228129247680968 0.08736293825044818 0.36017501086384196 0.005446904225707521
0.3460183788210307 0.1332510188182307 0.36527847118027035 0.006929185167678968
0.3102110326746446 0.07852086131934596 0.3428662117724891 0.0017435499448514953
0.3201964149470703 0.08863630215438768 0.3492447698927271 0.0026338846484982724
0.31198250441278347 0.07354080226059236 0.3590185775957864 0.012427606987653543
0.304200306592197 0.06290110705269832 0.3638301103766967 0.0106891935666744
0.3061503184521935 0.06997313667385047 0.3502664588938565 0.008155258860259992
0.2955545324452714 0.0538098617529921 0.36735138318559013 0.011522697874831641
0.22644073099922435 0.11194305076311692 0.22348832271309513 0.02428724836196302
0.25011596815411935 0.08399655477902324 0.25636007006191686 0.002063650289046377
0.24038491958395078 0.10419399065233834 0.23575589082090032 0.002305251676110007
0.2694767562045779 0.10994891301986565 0.24774552085082474 0.0012041382107290915
0.2611064112935185 0.09219534130118603 0.25590029546397447 0.001661222645151612
0.2483611421580352 0.12030355589322722 0.2271412822410827 0.019323288374120822
0.2555400274769931 0.10217719208639713 0.2450531950857916 0.001846824174856636
0.24986624298977714 0.10962960930731094 0.23609201201696772 0.003085513599251186
0.21566125948448822 0.07725526723795281 0.2503605080236511 0.0013923219109267988
0.21999398714318102 0.08653597850865813 0.24314920804155737 0.0017250796009590287
0.2144435458482642 0.0936455567931217 0.2356478454864408 0.004650186943587507
0.2609215425866904 0.12955060226841492 0.228147229325636 0.013678165827278002
0.27068840204788996 0.13741647365349668 0.23009626925898363 0.01049574459191961
0.28521186955585753 0.12255264777453265 0.25128192930050913 0.0017919063881314153
0.28006260635908375 0.12953104372360685 0.2427055500565524 0.0022673428586835725
0.29290210585343823 0.13211728519702787 0.2516308182789289 0.0016715708258806022
0.28070566145585846 0.11303382230687213 0.2535176501602462 0.0016897082376284786
0.2708929542653458 0.12386795155679077 0.2388914342484673 0.0017308280466122982
0.1879773099268975 0.10557553194591654 0.22189688185300915 0.031635148950529955
0.19035106479573854 0.07884096422614631 0.24496539062663064 0.0013998290609365592
0.23187536093466066 0.07630274353384366 0.2553134111702705 0.0016951963214014776
0.23255139765499055 0.09417474133013239 0.24058474388724 0.0016465078789460901
0.2320235909666489 0.08547239620826219 0.24768444590369654 0.0015763701941233746
0.22124009545535556 0.10084152545337695 0.23105508396291224 0.005614228234326873
0.29941876137072976 0.15531490008012597 0.2459457667035243 0.0023615561711151094
0.30814020811103987 0.15447692999075432 0.25515691535143753 0.00279698803130422
0.3157141789668584 0.1533994520485964 0.2665201028182601 0.0025807815479646076
0.34289770494026167 0.14360348014721688 0.3368293538197953 0.0019606511159909606
0.3292462358625181 0.1521143261612295 0.29309568212016945 0.0020901312208767273
0.33428238019532897 0.14448759098137226 0.31272728322385074 0.0012623601464604249
0.32908722984716443 0.13843825501976362 0.3040549720592386 0.001895181236707187
0.3407528885597223 0.14830584334851749 0.3277563781077713 0.0019788365197308507
0.33429927576654256 0.15393287854283205 0.3058799003972784 0.0018835212629888017
0.3265150880561227 0.16473199603837196 0.2792715514460032 0.0020355672477734596
0.3188977239224059 0.16532604465309209 0.2663117935593727 0.0019723116273600485
0.34592887115578835 0.1551506842738922 0.33816832294840704 0.0012653806506520797
0.32533786250887653 0.17639012040279628 0.27374995407096026 0.0021532813488168963
0.3362666389143728 0.1655185253390341 0.30485718130295003 0.0007634905534692081
0.342669472580711 0.16633157528973372 0.32352702611461126 0.0010730720950578258
0.3316377115879875 0.168259747213584 0.2900457196800563 0.001577466903379231
0.34765546703363936 0.17132381512052633 0.3366709505676293 0.0010778143131193383
0.3185324351981031 0.19530675485209248 0.25812383492208607 0.002160373931697318
0.32930518956370897 0.1900990792841299 0.27820107281404016 0.00152422982045553
0.3409352128316388 0.1813351739126225 0.313478180803833 0.0006636533134259221
0.3326886469364692 0.1831849793144616 0.2876042441378023 0.0011777711608394617
0.34736903791172724 0.1831133507357046 0.333533982951232 0.0008361285637698651
0.33661185297274065 0.18794758939040365 0.2988182210751795 0.0006365878280345206
0.3244851205378165 0.19876510890087065 0.2685983258736416 0.0019047582221289007
0.3341696506523672 0.20092167121318424 0.2892330290374466 0.0009920182294370398
0.3378147541515668 0.20255412647272647 0.3007105011973842 0.0005077805216943316
0.34568214029010225 0.19399426417797003 0.3270345041417494 0.0005084708549344066
0.3492988333414936 0.19322976227569455 0.33868156046353437 0.0007305328613912387
0.34533867397919793 0.20729301167193898 0.3246233406119693 0.0005520841320923154
0.3424165029638493 0.21151731413078353 0.314706723428587 0.0002054508757787864
0.33078327956154047 0.2098256636226612 0.27919200846997416 0.002086890068218422
0.34920856552758156 0.21402411175520833 0.33660132009006916 0.0008993150755561038
0.339382875689812 0.22008509195230114 0.3040021056797175 0.00010836081828434317
0.3465324780037992 0.22496302693577933 0.32708580847808655 0.0005988482715807298
0.3429298460858134 0.22636259889107058 0.3151895802360073 0.0001632566338299754
0.3383051949929862 0.23161443961790112 0.29955211081760613 0.0005486407029650344
0.3351301848423836 0.23077727621093586 0.289141289954022 0.0010841776537018602
0.33346377549576767 0.21992715044559924 0.284611060908846 0.0012838115819331763
0.32910322713116724 0.23809196938804658 0.2742844942318504 0.0019405211223426971
0.32462599504539463 0.2238275059845482 0.26677693566572014 0.0019633960008199895
0.3215488773506558 0.24644619790805908 0.2596597784792443 0.0013901338606040026
0.346926995362893 0.15022219163869197 0.3477721869654097 0.003207568449357612
0.34987509064827155 0.15513966174875374 0.35846261562142845 0.00527011679900625
0.35052198346472746 0.16431839745050877 0.35344881736546313 0.0040830450209426205
0.29159776417481587 0.17622448695679538 0.23027461460696674 0.007035589736298744
0.3055783201660558 0.17136072033269584 0.2468813104711123 0.0022906565053726342
0.2984679212483729 0.16585568874273918 0.24097373761462995 0.0018945760586323338
0.3117867422731275 0.19160756264922135 0.2494099478093472 0.0013175419501514326
0.3014410447606655 0.13816156469765767 0.2558075550407262 0.0020688958494930595
0.29097834857350857 0.15504567747178066 0.23789658768665434 0.003277924953212691
0.2963864743536036 0.1448441372455324 0.24783668960276836 0.0023610795332840175
0.2810366040321498 0.15270710148355343 0.22971157613352378 0.010763890373361335
0.2947428862973978 0.18616910835292863 0.23104821652148183 0.005711445580859546
0.30634434815683725 0.20104116308557207 0.24207916419376474 0.001026213398546493
0.3519419186323198 0.1772026837810626 0.35653291167795154 0.004708032733285475
0.3501631307046195 0.18059144280587908 0.3455912740293399 0.0018096243399293344
0.3516643387534421 0.21194273909819544 0.3515049256262572 0.0027202148987213706
0.35325002848951553 0.21788854043870873 0.3621937660924429 0.004521958538770798
0.3547483644806901 0.2266176212677829 0.37183678492636785 0.0046559561880468794
0.35059694151283083 0.23722383731915675 0.3400727557150362 0.0006848130841464369
0.35197748819003294 0.23170364542908622 0.3509215776309321 0.0034149734028698724
0.3525060676824785 0.24637285319492414 0.3533729258689532 0.0033596432714348176
0.3535741946649042 0.23279163335550293 0.36250243538235427 0.005038390038007839
0.3462869349556452 0.2459791239088947 0.3248003750332955 0.00036832324625104017
0.35065892112690433 0.2551285945391213 0.33886431829487546 0.0007621491681393852
0.33822880704690966 0.24903256219411235 0.2979814902013228 0.00043139641931121874
0.34229692398435974 0.24712511265806014 0.3115373927766045 9.487026293627008e-05
0.3409623132405502 0.25755823653837284 0.3067508428886762 0.0003657845079110009
0.34494139696060344 0.25890356488606664 0.3198174512381736 0.00042112863666193503
0.33389559611903474 0.2528512952923587 0.2836057433513304 0.0011657385409391842
0.3403903711259337 0.26757785740664214 0.3012439765462554 0.0007004118155629449
0.34856228993428595 0.26461877449594984 0.3299035089462917 0.0006241068003256232
0.32944903513303275 0.26124836240643556 0.2741470615338592 0.0012988351729453598
0.32284805608832345 0.2588576008977398 0.2617460109910521 0.0012971848525041203
0.3037782547329032 0.22857247509425196 0.23760842413081448 0.001402541910541945
0.3181169952433224 0.2238518092500361 0.255354513404635 0.001797396082022063
0.3123385509328403 0.2306019358477407 0.24798724217592896 0.000666120542438982
0.31909185095145354 0.23698597817642825 0.2559623903639573 0.0017125434891253212
0.2952962345912548 0.2398310910331377 0.22666197969978838 0.01197929506569744
0.3136094422432539 0.24619267610517329 0.24881647657594874 0.0008176028012716386
0.3059459839548733 0.2409403333210828 0.23969446287831245 0.0008146371870675478
0.3328902400021996 0.26935906859233527 0.2807405488728019 0.0013119676699811988
0.33715218714098794 0.26852578466220145 0.2911533662290696 0.001050824558180539
0.3019222500829757 0.2641110947855251 0.23371627603464595 0.004378884208963419
0.29032814442100646 0.22831225514781248 0.22118342768401011 0.020380173156626855
0.2984080488300992 0.21814836563326576 0.23039090123488942 0.002637744488742036
0.2947180433966623 0.20487169828613852 0.22733424325084836 0.015039201672213459
0.2869785221190066 0.1983411309870557 0.2195018348511658 0.03793195879741368
0.28758208015805137 0.21136031633301702 0.21874605930303587 0.04797030506340445
0.08312329607798886 0.04524222345454522 0.3762819721845291 0.004838997090623032
0.17314869707054972 0.008910490940361471 0.3771486156643602 0.010166864014263081
0.12179573417547136 0.02193564265904979 0.3761480530860055 0.005847956562225195
0.047266487295070825 0.3823362934895914 0.3802663896825141 0.07587746310435468
0.040456400100879 0.37511095554138324 0.3913820925030412 0.19028027186562738
0.03344973946019874 0.363270775257461 0.39041101949373647 0.2098148530448653
0.031202286274431393 0.35725000253974803 0.38046973953363483 0.10687406903584012
0.05441745822931417 0.3899708960316269 0.3735403862973937 0.004510133208357169
0.05433786672986117 0.39340327660479324 0.393070451577671 0.1262585373810005
0.10453901455619688 0.4288900153499134 0.3624004670648617 0.004161750666201346
0.10247590714220906 0.43400971811890693 0.4002695672266523 0.18351327964862896
0.10564638357376982 0.43348901926158573 0.38648334672728935 0.0833581114171892
0.08681291539374907 0.42106225310420786 0.3808937944267937 0.03894385602391818
0.08115749994837898 0.41943664978887485 0.39613665344509924 0.1990049397339635
0.07767399977238061 0.4135428867565256 0.37733953615790017 0.00707317065481163
0.0969291965665188 0.4259479832452948 0.37102648876318495 0.0011678685688602617
0.06438624013104628 0.4011168184051269 0.37540226487392503 0.007118683797474297
0.06296150427053637 0.4021547130613115 0.38929654365656485 0.09881342814305932
0.062383195488931245 0.4036025354924168 0.4010010189513566 0.2569140297452622
0.12086293370546092 0.4421938918781674 0.39788156691515575 0.23909024970764906
0.11586753812121686 0.437964882683414 0.3842833417559509 0.05809015659216684
0.0721439575468255 0.4107922731996106 0.38902113241621256 0.14557655593506266
0.12990119025047875 0.45312589997901587 0.3821856975209058 0.05323384735612222
0.13123486360775236 0.5097026385713803 0.3776290944224315 0.04705157633408353
0.13208043865396518 0.5617958447522692 0.38055609997006 0.05563280066185792
0.13063759064959898 0.48976321894067787 0.3816776294801085 0.07081763495247033
0.12985616490455024 0.4855277511346328 0.39490277779131533 0.17341536498176438
0.13243259768727583 0.574540068663543 0.3785274037416928 0.05760524925246486
0.13169083190367142 0.539008396275201 0.3796482841040134 0.05194278001684128
0.13147244995269053 0.5254286486957478 0.37884665365809894 0.04318386192846446
0.12990997592658066 0.47247652995460704 0.3891509233365157 0.10719629860752938
0.12942015737950185 0.46271901784344266 0.39486379446533926 0.17336389200241453
0.13066550385024114 0.4708690726599886 0.3742950490020369 0.018604888910349657
0.1307077746603729 0.5121492239672496 0.3884739939160582 0.14551344187465445
0.12885973792480546 0.45062377261859204 0.4010621959627641 0.270436900054201
0.13039896228080125 0.529838196375304 0.40068840252204946 0.20251622731846664
0.13181676616053298 0.5968185460700681 0.39817407505800273 0.2064513786504681
0.1307875081369425 0.5239462534693949 0.39124446524307643 0.1347810785150446
0.13080383276620633 0.553019630283115 0.40143429241010187 0.2092495612244923
0.13267334098029465 0.6416497884067653 0.3982309318034958 0.22627830547562633
0.13162947125290686 0.5834326711281781 0.3968678672944588 0.1350274247693594
0.13102431363106548 0.570909561179969 0.4037418193083105 0.20162897492361606
0.13144619036865193 0.5627520099202115 0.39285221760251715 0.15903994252153644
0.1323408288165884 0.5856964302345665 0.38428985488255074 0.09338155383761058
0.12919251652223387 0.4747379146643387 0.4035121238926316 0.273648546664825
0.13265722244594508 0.6201961653203476 0.3907884114877882 0.15785034381863577
0.13201054819267044 0.60978440595008 0.39920647507752277 0.2657763156630788
0.1301332060162172 0.5004790766626953 0.39509237882770354 0.18878853620359273
0.13280345933241103 0.6098154838790664 0.38428661953952636 0.09870605039236469
0.1307526875937952 0.5422326295825523 0.39850263837213973 0.18468981621270184
0.13360897882330205 0.6402082217139061 0.38010157932804867 0.08579343206351717
0.13387219643681691 0.6611053939228447 0.38269674129705916 0.19056095409010548
0.13326236226876298 0.6292417776943773 0.3826621421952192 0.10474104096709051
0.13317153466124868 0.6598085816300255 0.39541069537352214 0.1830959060829564
0.13737681700209292 0.6476903761033674 0.3715959481512552 0.13867790377032696
0.131748743294321 0.6720424471876567 0.38846285359188715 0.23931540125914594
0.13000984603725152 0.6718531516449952 0.4015731125036379 0.28391540997969006
0.13067249264449288 0.45435863000138865 0.3688138344741109 0.033578895655595076
0.05255584597770274 0.6726496184524567 0.3969916350132847 0.16129095453521153
0.04487629077200311 0.6731671821350252 0.38718711016639046 0.12323280516549358
0.07357789595949968 0.6724895230512927 0.4000444922385177 0.17914804758560526
0.03274506637309439 0.6732855236012979 0.3849341269326061 0.12876129057489497
0.02958845954753518 0.6725361986903624 0.39911367975381096 0.20680793062129305
0.09279554072597122 0.6735331319905661 0.38021225488013477 0.10096025585846935
0.12106902720863631 0.6733932562778924 0.38286761204022335 0.18725782935112112
0.05773320048170803 0.6733372275930614 0.38395374127315124 0.1444258315046686
0.109683738396708 0.6730297465677919 0.3897939397976237 0.1568119413603094
0.06834486634092175 0.6731240525230695 0.3880103774996889 0.14969661448402766
0.09163315741111844 0.672915955745522 0.39196647975792986 0.11285702484231093
0.08001975532587426 0.673179491328458 0.38695104957422677 0.10709874398096808
0.11883787494879926 0.6727242289711667 0.39560964169672885 0.22409852325967497
0.01177995490835371 0.515694405979748 0.3805167618675335 0.09989765923227896
0.013108529153911341 0.3885345731342458 0.38253574582848493 0.17914235529649583
0.01083976253156839 0.6105008505344778 0.3799731975963077 0.11831362696045683
0.01137007773513816 0.5637174160451269 0.3815090232934107 0.10524232887328012
0.011658768684226183 0.5263712719882048 0.38016323476196984 0.1244999618604205
0.01226415420499445 0.47049708291832765 0.3814631037924502 0.10791232192257817
0.01242916540854759 0.4451001352157067 0.3799498670174498 0.09713408949518215
0.01057912197119291 0.6332763129462539 0.37917836572879066 0.12328257225707166
0.013167211332344397 0.4398686443269133 0.39308579978388103 0.15018697058312674
0.013867584889135458 0.38649894979455635 0.3966599988202705 0.20620641286449012
0.013824990717377373 0.37459763840390686 0.3936603674580016 0.22202488766277717
0.012993703709868642 0.41994931548151737 0.38611291180065305 0.13036290730261219
0.013936515004736808 0.3997596815011337 0.40041235633335726 0.21248032933901456
0.012422640646041476 0.490998800016697 0.3882560582518433 0.1223660066671484
0.01185333157599272 0.5512005911168025 0.38844016686165034 0.11479164186290823
0.013354589133327092 0.405930500446574 0.390430896195234 0.1438262491575771
0.01150591266286131 0.541153532432987 0.37995889844410263 0.09138491582064313
0.01397396290699525 0.36230445606597406 0.3942477235297603 0.20975612528903295
0.012892329838666824 0.46395320708602705 0.3922594221746676 0.1415248561992016
0.012499833138416853 0.5228549786539887 0.3955498650276293 0.12314775580906206
0.012629256983038888 0.5341265580197496 0.4000528471065814 0.12366734202460403
0.011875503569239172 0.6013933131491289 0.39798674044363336 0.13230713691061674
0.011137540387301362 0.6246169971274165 0.388214491539294 0.13661777593948848
0.013638661226381165 0.4270365375149751 0.3997281602056509 0.17968015214351113
0.011920302207313065 0.5726995239384264 0.3936206546882426 0.14873147848612983
0.01344154701454597 0.4509875005751285 0.40034389191282543 0.15156778614398048
0.010594657793900012 0.6461922548565249 0.38184180657950745 0.15744316799181673
0.010722617683569791 0.6649610080994595 0.3876797649631314 0.1941769179463231
0.011443781283890847 0.6594136826270917 0.4003464267009638 0.2013387054893107
0.011903731226420668 0.58506709497709 0.3955544416815023 0.12328862221424738
0.01310337056450386 0.4748495287760368 0.398268581987992 0.13673235554713797
0.011881331767871345 0.6269734462251134 0.402746872757099 0.14272689136014272
0.012251776648331625 0.5606472225926644 0.39771549335095174 0.13858599269637784
0.011488052702349765 0.6444292364764344 0.39846224533178654 0.17633725904150047
0.01376240788912968 0.4157135701273887 0.4000165537124359 0.17609510958754906
0.014004039412164188 0.6710260015046241 0.4064824924361881 0.22293870140456284
0.020686237435942504 0.3560752299891644 0.40302601180734066 0.1872710896218715
0.2026764149560666 0.5993785206186071 0.2730940272457666 0.11756150148328777
0.21154778272682243 0.619567419300142 0.26349245775613844 0.07579828980378776
0.2098126842560909 0.6704869989080426 0.2406060538520549 0.1501916297642909
0.21230796190996076 0.38617706405964364 0.11128374631891144 0.14448939711620132
0.21866205744787393 0.38553959649210323 0.12038534586722108 0.11532639237668958
0.21706854474597903 0.39804102864035956 0.11824696169444777 0.06820235528167232
0.21874706579561554 0.41162103082299384 0.1211630949534666 0.039860689974824566
0.20902792675109205 0.40494345851388025 0.10879844083837525 0.04642753387044381
0.22121615290154897 0.40095705595620407 0.12758673937063414 0.07062125294893641
0.2123501266406257 0.4161964683088501 0.11167742823341233 0.0377038930088808
0.20541176470065567 0.4517784700576903 0.1090963916441141 0.0474580980883683
0.2157710315584931 0.43773348492088054 0.11744130381063815 0.024719947965293497
0.22126200285855707 0.439994480300359 0.12970901083231237 0.02505393072148566
0.2223776714165194 0.42470650250328734 0.13443818612803154 0.03125598885192269
0.21713522683721892 0.4141876793802777 0.15668959222142012 0.03716232361445414
0.21690069830430686 0.40017491705221075 0.15710352277324502 0.09698143881047895
0.22133539765949445 0.4044631630672567 0.14678835288913838 0.07252455787972865
0.20782542117387198 0.4007868124757161 0.16728611568520962 0.13173381143228602
0.22278602756648172 0.4343217745921838 0.13973810003870824 0.03338409417088965
0.21993999695568245 0.4304419568561877 0.15259339767819805 0.036704277901668324
0.21818254799633569 0.44218978256641794 0.15736005635400246 0.028448400268342916
0.20723324301281007 0.43062940428763774 0.1686847607684216 0.03254421223890442
0.22234589667338991 0.38471909666586934 0.13154218294326758 0.08345857487917703
0.1947775902459281 0.3913895799129544 0.10102174136482162 0.16462523913987648
0.19870505954462048 0.40114447516212004 0.10260122738745747 0.12392860934127187
0.2209908802384601 0.3938999176619193 0.14891634334492937 0.08690945441133954
0.20431921958118368 0.4125237623571826 0.17026702890052903 0.13173564068328417
0.195044250676466 0.3992094743077333 0.17396575684178756 0.21537041567722695
0.19379004420735257 0.4271617591974574 0.10095233652697044 0.16865350400411483
0.20417647946995027 0.43217463109359017 0.10534407565847076 0.07281980009749668
0.21323586090028826 0.45888308177221965 0.1176528026811378 0.020096279863913075
0.2195330374647881 0.45331001038475593 0.1267195300069146 0.035824625863907604
0.20276207774011917 0.4644659068046247 0.11060987607460547 0.07452503951064167
0.19573006653889602 0.47592261034138283 0.1105677489484533 0.1636401037821059
0.21619460102388383 0.4750831977380494 0.12591135132281944 0.019755974886297743
0.22197522148320947 0.4619395027710794 0.13846581007594405 0.03552601128172213
0.22258798708742578 0.4727544266081066 0.14235006890091556 0.03772456448250236
0.22252623064655924 0.5011178908258507 0.16328668053316503 0.03417236706698369
0.2227350854991617 0.48043681016968093 0.15464625544880106 0.03939459478738976
0.22077725618669627 0.47934690131167035 0.16507485839373942 0.037737319848367465
0.21735635604350592 0.4569085937603797 0.16221561698024936 0.031900857879161054
0.21253620419182362 0.44378418326097596 0.1662694685051356 0.03818060796226007
0.2047251824706794 0.447433120592381 0.17400522481622782 0.07203661518200136
0.19188239797984297 0.4312381550687735 0.1762554276622288 0.15270626327934966
0.19379693713689944 0.41586272381646 0.17462601578363313 0.21066957504197398
0.22173056300855748 0.45177025343955113 0.14916853480210057 0.03003217930276848
0.22183641143753247 0.46352923591538503 0.1528432403694085 0.031053974198173667
0.2085353672014846 0.45823043954752685 0.17382814602238236 0.05275070286074
0.19217235566103708 0.444219219761234 0.17848187712057642 0.18929382328470357
0.22419253015662235 0.6635020652274075 0.3710233376187457 0.2324942644163157
0.2189685511303312 0.6421618840650527 0.3745654794359972 0.23896831023581083
0.18994022793294654 0.47875765815521937 0.19482021943439765 0.1906114619706409
0.19181313752561358 0.5973264735578915 0.30717070798255053 0.19245258685782024
0.1702254860930816 0.6406023920643873 0.2702733387916949 0.23574186725422885
0.1497968722688739 0.6563763770417106 0.37477545719092475 0.24408049510525145
0.1513037950297996 0.6206815212075105 0.37342609102423313 0.20555220298980045
0.17201751950111854 0.6689247158750564 0.25347238623730334 0.15008596641350938
0.158718297573498 0.6831363804898565 0.28965334749587957 0.01838759666571655
0.16472581752817583 0.6768292573033108 0.2593786189640869 0.14335617157565936
0.2089734631166812 0.6004001157027344 0.36616814768338285 0.1772957840962652
0.22899956458505502 0.37542710374397203 0.16399526951814003 0.05251941028904887
0.18884950066982525 0.6898158831110205 0.40947013631124485 0.15900788701231786
0.1755858969666606 0.6890646071326261 0.40942532147809185 0.1899390226159657
0.20325124708968373 0.6922011849606364 0.4096043640449859 0.2308694288103114
0.21843084546895328 0.6768122575368517 0.40876982374932275 0.28957229314536315
0.1588711282262772 0.6880397311203318 0.40937727412765873 0.14337359271151337
0.16673143479860736 0.6787741215325844 0.40888915943928905 0.25968881083676926
0.23093489315958435 0.6988657176357974 0.3701432166583981 0.11616821397661853
0.20831885923297128 0.679209122848471 0.2585874289598189 0.1787287885228817
0.22812880672639715 0.6993637953202411 0.40466022301573557 0.11811502338727368
0.08420341673471003 0.6998867036384008 0.3797146507755466 0.14116560851036014
0.06775258763295913 0.6992637934680199 0.37923302617575994 0.12414175062350431
0.2895814893427741 0.4081979860788464 0.3416629464716649 0.0015055772943996628
0.2977224862511906 0.4038459590706094 0.35232687976877597 0.001444224535302077
0.30934198940177854 0.3917689479998586 0.35063619465590323 0.0011283765116887373
0.31979241619330573 0.3791058399990284 0.35020652183890477 0.0013033710249492137
0.325547973011354 0.3680473494047658 0.3415786318994364 0.0017129090582407643
0.3314188701168528 0.35786155721772234 0.3400328116068949 0.0013712521532198766
0.33636830978947363 0.3528777680478575 0.3514734066294105 0.024820983940719687
0.33690841210508515 0.34693886598519025 0.34076630907750355 0.0022482788297131556
0.3426764204278797 0.33202809147628 0.3403783011034813 0.0015760276072973852
0.34990558110947323 0.31328063380576066 0.35254528374179744 0.008364070213413028
0.3483823984915431 0.3051105027951546 0.335994167589283 0.0013125976519540263
0.35059670582927255 0.29267139334953607 0.3419215363553514 0.0007272424018152771
0.3449958762881825 0.2986001769380424 0.31941544373245934 0.002027264190335483
0.3426554469857315 0.29198287041948706 0.3094052670809864 0.0014102463842524116
0.33476476044719716 0.2974389786810097 0.28919306628654 0.0012159532170592073
0.32470722857986367 0.2881557271439367 0.2656586198562951 0.0008820648891770711
0.318996491666947 0.28870995006224975 0.2563268063543911 0.0017162961802670547
0.3112107730278505 0.2938036256273707 0.24541595037418934 0.0015707619877783504
0.3451444977534348 0.31852580704896527 0.3335416448884323 0.0013993695383812343
0.3378186903918431 0.3132397595735369 0.30423427258241675 0.0013793376082562303
0.34230892772673266 0.3070814253231858 0.31390199410133557 0.0014230693190895904
0.33443686109054904 0.3093954239918011 0.29321087955901326 0.0017404671461823636
0.3294921777570123 0.30624801755503295 0.28012767638807834 0.0017089676724283205
0.323134437687787 0.3146223804381242 0.27124611479546135 0.002159330256365437
0.32205397162868626 0.30393833291496497 0.26475811052862025 0.0017949657678414954
0.34060912456490894 0.3219760137166396 0.3186529156455867 0.0014827991342186912
0.33568761819929793 0.336563145372385 0.3186492727838084 0.0013534519517675436
0.3327162888248731 0.3328467570637751 0.30626400620579564 0.0019189638562336154
0.3318694855264793 0.32458868417152215 0.29661658332931473 0.0019084026531275204
0.3252632612342683 0.32782144216558656 0.28382712040528074 0.001279948731468292
0.31685498734544076 0.318155013358852 0.2620897013172662 0.0015552807662764156
0.33308375139246404 0.34801473463373006 0.32778703791070296 0.0013654027069456105
0.330456318752494 0.34268298421583976 0.31153911532344025 0.0018765377379042821
0.3240253048264665 0.34086129043898905 0.2933805346983974 0.0014894603067624225
0.3166762175328488 0.33957096584094815 0.27714197054836764 0.0016463272844980887
0.3105946058426989 0.32808467845932254 0.2576042484075471 0.0015533626835932358
0.3090519695180388 0.33994473380870954 0.2641085473893109 0.0011958750262507389
0.32617178950553805 0.3617578642933111 0.3296186230115542 0.0015130127632221376
0.32180849626687186 0.35402752667326276 0.303659383472506 0.0011888905659551525
0.3211381093500064 0.3607039538793637 0.31265555374624115 0.0013234998860014624
0.31781324595952676 0.3511902852404799 0.2913621062901943 0.0014643501594348784
0.31211899160803325 0.3516888511827243 0.28096375416747493 0.0019038861720383393
0.303357840529211 0.3493754439644531 0.2638166342216196 0.002477102314467667
0.31570040307475167 0.37414630346591377 0.3224892318397577 0.0014085985205058043
0.31525792314519785 0.37984170755686625 0.3346146209153198 0.0016772877629642798
0.30673763973722296 0.3770969825703432 0.3060246142130138 0.0015905889736840336
0.31379164746663946 0.3683110205408897 0.30657801992489586 0.0015631453869333009
0.3071752568982109 0.36846591054558764 0.2933862742571579 0.0018220584082940465
0.30562952942810206 0.36201509146436234 0.2814544402243824 0.0016627247853417922
0.29562644482653655 0.352737753011992 0.2551792669022732 0.005466035119045186
0.29499328297403754 0.3662037798615138 0.2695600964830527 0.0014139326525989214
0.306548828045883 0.38685100975954834 0.32637073527163685 0.0014642157055904687
0.3032259365769751 0.3848774819575541 0.31384188793432455 0.0017783872297616385
0.29499774249548394 0.38149346406471746 0.2917757705045368 0.001178412214146081
0.29586537268688984 0.38777052142174623 0.3040303064270664 0.0017975026424845184
0.27917584586978894 0.37368236785261166 0.2571775533229014 0.0038895067648122483
0.28631437635595625 0.3739133613345529 0.2673397202090778 0.0018503425760157755
0.293149835148953 0.40002815096285393 0.3262691086376822 0.0014731488604959398
0.2994379006314785 0.398728104566749 0.3382449761698109 0.001019951278650982
0.28302719429745826 0.3932056479274054 0.2930778913836158 0.0017075695197815701
0.2870082165812099 0.39545998322990156 0.3035550733383192 0.002034994514724968
0.2787964683832137 0.38794261452670925 0.2781889900116591 0.0012686954592348884
0.2755827480168328 0.3824558461661948 0.2654501096607157 0.0038903754606609137
0.27899073657883466 0.41767537051347803 0.3491015772785282 0.0014650884110229264
0.2844036630836218 0.4064137652413078 0.3230707627883989 0.0015939297515549945
0.27480044877040655 0.4147913452390949 0.32864506391195236 0.001110023202699875
0.27914031992295224 0.40392845256171483 0.308130380296473 0.001825649894570477
0.2753890606850308 0.4102607956578569 0.31740643301246757 0.0017691586562889694
0.2761951624851899 0.40119743423629295 0.2983492799931017 0.0019818386695206755
0.27332615461917126 0.3967969654987631 0.2860933428868866 0.004994952204809433
0.2686143187818518 0.4230083009254641 0.3441302025552754 0.003148593285888297
0.2596420680726803 0.42844095832205864 0.3466749939220856 0.006640469183477621
0.2647641608607751 0.4206674199982976 0.3287474548854208 0.00511598217337327
0.2594756327693909 0.41690989081583996 0.3111223128149298 0.010405242142499087
0.25034058875626564 0.4225498442869981 0.31387878652144835 0.01816012210250358
0.3547307308689406 0.2817818101409422 0.3672492027935721 0.00566054920174621
0.3548980105756754 0.26484718831930937 0.369432643592568 0.004409762422609434
0.3539142493756663 0.2734718197468219 0.35975634664379597 0.005225895213236452
0.35268575924882 0.26518169973070255 0.3518218470802153 0.0033660566431635034
0.346565915574563 0.2853716571596435 0.32130681754253265 0.0011041080887667708
0.342408579273509 0.28085972677809024 0.3063909542325783 0.0009284452250284969
0.3378623528433925 0.28624958350034246 0.2940761384211076 0.0015098768554674532
0.3299829025430818 0.2791390843652768 0.2750747765784698 0.0015866496523791274
0.3142748732813521 0.2724300408605209 0.2477634091261186 0.001012693541539193
0.3246960100131085 0.269087562706439 0.26451944071650374 0.002059016522610386
0.32069923816701496 0.27815582100215896 0.258204080597357 0.0016545140299214763
0.35510456106215893 0.2924691668661853 0.3738472328217892 0.007338431778824869
0.3554677358025619 0.24004330038751828 0.37576408355719076 0.005034621003057848
0.35670971363471804 0.2747435948257337 0.37710283919305876 0.004909869585907168
0.3578506412421346 0.18880730946198182 0.37882328240412994 0.005423536444376963
0.3581101194410787 0.25362183936988264 0.37871972219190236 0.005760874597648217
0.36171949492389904 0.20106577568067574 0.38033475139431044 0.005554411581382582
0.364503245247603 0.44133968196483886 0.38081802160270084 0.09598522695642366
0.36328623740589205 0.21892139599581723 0.3815567095618278 0.005529467608956246
0.3627475562166106 0.28801235465579966 0.3806024723391285 0.008264655272719008
0.3642669154685167 0.38134021195578743 0.38109000214720257 0.1481521029962479
0.3662188527906226 0.4528894973337399 0.382356732136596 0.09167471173608815
0.36415596014839463 0.2641704491584749 0.38197022352828547 0.005832829255932814
0.3641247024724865 0.23821516969131662 0.3823102075554123 0.017878286940659266
0.3652521661352788 0.34053489760474315 0.382527235291703 0.04409727237144605
0.3691934079008149 0.6553069123596265 0.3844260620769152 0.09821610155192699
0.3680581760365975 0.5378529134913097 0.38443452152582486 0.11230420402231558
0.368606705747319 0.5651373696660835 0.3858661905293863 0.09016366375132538
0.366777400388277 0.3694531804589927 0.3859497163673016 0.13151150369223855
0.3674015423948608 0.43238766632235964 0.39356784119124066 0.10770744502200794
0.3682936978297202 0.5252964879451011 0.3866864276566097 0.0979162996361573
0.36789890797111713 0.4841407170258276 0.3979961418630361 0.09655243466996775
0.3680081191645219 0.4955690198248255 0.38643383187534613 0.07385224654174308
0.36983206864381885 0.6854294551704334 0.3889401206012383 0.15104238808156342
0.368397202189093 0.5359792122216064 0.4046095679984468 0.11264811115652958
0.36931794682768787 0.6317947145343116 0.4112466377795135 0.12727609337078738
0.3670966855192396 0.40066700878866135 0.3906538830776199 0.08522060960888789
0.36779848976267115 0.4737049239744835 0.394541125509021 0.10907310038476198
0.3690619270210891 0.6052422876843442 0.391928043800722 0.10634009090351261
0.3692097119778077 0.6205580071286675 0.4053006271160959 0.13341048761347907
0.3694163039211782 0.642157189875838 0.387211530608111 0.10616012438422157
0.36889247369783684 0.5875873943204353 0.3948058976330373 0.10309854859447395
0.3660971354893664 0.2966124736646501 0.390903554885282 0.066487679761257
0.3687704968480906 0.5748632710378248 0.39992883917298105 0.11245622242777745
0.3676547546726804 0.45872891442506625 0.39710498461569516 0.09793859553729768
0.3686571333879348 0.563037881819487 0.4046470723027919 0.10586320656895093
0.36822158973552593 0.5177470100331908 0.39505902798039594 0.09417303662650833
0.3685114991181124 0.5478748651441994 0.40512886618494415 0.10480992886078298
0.3685800330549859 0.5550663140708263 0.39402347116521186 0.09592761903613364
0.36972535956865177 0.6742885077387355 0.39526993419073153 0.15092174448303072
0.3693624837241987 0.6364850144952124 0.4007357924040673 0.10674176281509487
0.36722733697177945 0.4142710884266263 0.3900211253647573 0.10569160091166345
0.36921564794329403 0.6212397567174687 0.39288044645215103 0.10257073089086349
0.36669886057137 0.35923995327032526 0.3932698670778257 0.13154945090956607
0.36633300320974416 0.32115173669281866 0.3937429594652968 0.045359644558028475
0.3661984673793725 0.3071642474730647 0.3902973846432859 0.032327666645824545
0.36954952718590595 0.6559812651452359 0.39586841078245505 0.1522467361648164
0.3695597505543912 0.6574106660523314 0.40943985163271435 0.14290542799159286
0.3698056007166778 0.6849680858368226 0.39964827181230383 0.15077815275933304
0.36963370647204696 0.6692444952970255 0.4085093854481824 0.1366325122750035
0.3698551364083963 0.6889647266405223 0.4115160267254443 0.1357956759796809
0.3698636313746945 0.6904699747569301 0.4389882106101615 0.15435615191797472
0.3698062053437609 0.6844907592960081 0.4261397118658997 0.12686391253063145
0.3697104163507109 0.6752162799093587 0.433506976959897 0.12005801704404694
0.3679142199917965 0.5262211915716499 0.41499581972684263 0.11362430415049413
0.3687015032071831 0.5886329665117234 0.4140663360353378 0.11099289295635102
0.36530796854970027 0.21716285132768776 0.41318388320077337 0.13579641919471405
0.365863223200939 0.31287694946789196 0.4150105626946885 0.08942316609460232
0.3654977887022884 0.2632897981575315 0.4144546972973336 0.11556448975606692
0.3650768419966567 0.20454958059790554 0.4137361960859633 0.11494103549002621
0.3657028400182755 0.33245861684166456 0.4160230127814684 0.08553543531580644
0.36505475813143606 0.2995609003065334 0.4165202846058069 0.11172336890410867
0.3676298018531436 0.614439032544145 0.4171901465057395 0.15098073062192507
0.3670241977159233 0.5498900263455209 0.41716915108805924 0.11330721647334369
0.36547217646951075 0.38430668492436265 0.4171130549935792 0.153061302535935
0.3646127704142495 0.5641796093972392 0.41932131377003334 0.13284315722204815
0.36523496337865125 0.5373171893953166 0.4187332928196954 0.11630870885683536
0.3629360580569206 0.3635824704582003 0.41915500433208835 0.17761842456840282
0.3663657492213592 0.574841828617972 0.41821842639941675 0.12800912135124573
0.3633948457925027 0.47234958760926243 0.41951250993217176 0.1387203954016276
0.36195190865061294 0.40782613072310125 0.41967631489344026 0.18802049967773765
0.36222209365564206 0.44260516680851486 0.4196889797164375 0.17262186688105272
0.3610994197579343 0.4956749877519946 0.4200136093815066 0.15132160770714573
0.3357429514515462 0.3096241196510474 0.42003111258964054 0.16157445575717003
0.35414092142160314 0.516856873856283 0.42003111258964054 0.11254612977636
0.3358887786009119 0.23678922637360453 0.42003111258964054 0.19457593751159682
0.3526021066559918 0.33253181496793954 0.42003111258964054 0.18439322820207765
0.3573713741298905 0.5840495902267945 0.42003111258964054 0.0954180085128969
0.3525915801653509 0.30357928798472933 0.42003111258964054 0.1975029089931103
0.3530304671834743 0.4575913142598826 0.4200311125896406 0.2235926081303039
0.324006942072184 0.2354338131458386 0.42003111258964054 0.09912709947227134
0.33873857378256733 0.29832074530440683 0.42003111258964054 0.2407274653522793
0.3546587127916279 0.1894662264835151 0.42003111258964054 0.20698139326100357
0.32349317965193186 0.14270941460330355 0.4200311125896406 0.12341327169350691
0.34112181791352647 0.27157809853884823 0.42003111258964054 0.19148798193088423
0.3509514432680083 0.354539706119685 0.42003111258964054 0.19024104617159276
0.360325897323578 0.5070130019008834 0.42003111258964054 0.1417726804226089
0.35317522071677604 0.23427777902945496 0.42003111258964054 0.1874634509500178
0.34937953342295325 0.31703188052261727 0.42003111258964054 0.22347467857080558
0.3294874198594504 0.17175535307270431 0.42003111258964054 0.1829295201814815
0.33830387828175323 0.37764145855237685 0.42003111258964054 0.27792080880016096
0.34177843179027606 0.39277080812311455 0.42003111258964054 0.26858693887429813
0.3265824532338714 0.2242212850251821 0.42003111258964054 0.11876156611333312
0.36170570715089956 0.5970296768526718 0.4200311125896405 0.10777063097540039
0.3566390401260846 0.5459292479763004 0.42003111258964054 0.10401488885624022
0.353195311452269 0.5316239514374348 0.42003111258964054 0.11517692356997683
0.3185525866807923 0.10411777238309526 0.42003111258964054 0.22854876906847693
0.349911925142295 0.4367180667678187 0.4200311125896405 0.2890166851579288
0.3245391476530306 0.12423867601094113 0.42003111258964054 0.19744353653470353
0.35660743632551306 0.4833885414236587 0.4200311125896406 0.1665938367358032
0.318978918395715 0.2016976416732721 0.42003111258964054 0.11740006016430331
0.32243755027772797 0.24888834193948506 0.4200311125896405 0.15902173231603753
0.35399464221596166 0.38957584548223434 0.42003111258964054 0.23813093220893536
0.36183073006931354 0.638846874310253 0.42003111258964054 0.15385632931034146
0.34750245602574714 0.21197350403205245 0.42003111258964054 0.25497455731855956
0.3389571291903725 0.4267491316407391 0.42003111258964054 0.24097210650362713
0.32779141547367385 0.3874271090830168 0.42003111258964054 0.27271541597910776
0.31069955386977816 0.31898680508906946 0.42003111258964054 0.10573153598525588
0.2923467857148728 0.08183634964040484 0.42003111258964054 0.1351766647004752
0.3404433172172102 0.49697693725292136 0.42003111258964054 0.1349331415978702
0.3442232812096165 0.47844611474909654 0.42003111258964054 0.22380665140751754
0.2975082992133779 0.05801479424918314 0.42003111258964054 0.17121030958640449
0.30513303871749536 0.2737870094786483 0.42003111258964054 0.15455330090244238
0.2831009009649605 0.045832133115221 0.4200311125896406 0.24005605562645327
0.3148622841432038 0.35876341405912743 0.42003111258964054 0.17750852311665755
0.2759557369482848 0.07877478076641192 0.4200311125896405 0.1753475227826947
0.29104664366819905 0.1501009316374115 0.42003111258964054 0.18397920699605497
0.34634636224977877 0.5417270001072457 0.4200311125896405 0.09296327439132131
0.32757854318975865 0.4267682300727492 0.42003111258964054 0.14134682422381092
0.3596366502820743 0.622386935199941 0.42003111258964054 0.11758084342570062
0.2963273158769455 0.23912104041184618 0.42003111258964054 0.14980634702884932
0.2742164194775575 0.09249544389954659 0.42003111258964054 0.16654299792457503
0.30279944881033094 0.2947335568389384 0.42003111258964054 0.1349692464687829
0.28095719539002884 0.12929448818032924 0.42003111258964054 0.15064407351531345
0.35389252361456414 0.5698719782883174 0.42003111258964054 0.1180095832160906
0.2953230468892905 0.1727688097478618 0.42003111258964054 0.12123862808976
0.2990225408163909 0.25173700800965054 0.4200311125896406 0.12574851263075365
0.30040282293246673 0.11580603654014157 0.42003111258964054 0.13847397662312347
0.31308756527019466 0.2832814677363961 0.42003111258964054 0.14290362549993052
0.34516570585918116 0.5224625795187812 0.42003111258964054 0.09329062874264975
0.3100096354991885 0.256599265765855 0.42003111258964054 0.16473483186690527
0.28500181251121215 0.11619426719440956 0.42003111258964054 0.15145308137179356
0.2922955550227169 0.1316774527819817 0.42003111258964054 0.19532728218236586
0.32622213544649137 0.36256712397983903 0.42003111258964054 0.252246569609185
0.31676817366347987 0.30090835842504804 0.42003111258964054 0.15941214374061402
0.30473095231753444 0.22088897075086833 0.42003111258964054 0.0991894314528844
0.27563280440010074 0.10524783063576856 0.4200311125896406 0.20237127193450058
0.322339146927796 0.46084362800819567 0.42003110929579274 0.15543445642846782
0.22120502953772203 0.3968067120015988 0.42003107497013537 0.17154020010850984
0.25353117807697045 0.07239631346039513 0.42003110825868784 0.12250353061011608
0.21486973669182083 0.5440868545147122 0.4200310630299418 0.07244813165556668
0.3187476681924104 0.395588169829587 0.42003111215228983 0.2517518152722765
0.340835882060895 0.5705456096929661 0.42003110923286563 0.07740263283462168
0.257433604652388 0.5354773488513478 0.42003107977751486 0.08921982153420836
0.2970174816903605 0.372441749182587 0.42003110538433897 0.13197944285030336
0.20194265522207477 0.5513664762812812 0.4200310576416758 0.00539779286331099
0.24122978316631147 0.47863538153300267 0.42003107729209477 0.23547247978098307
0.2584312430482526 0.28444972787994727 0.42003109640078046 0.13464797512487592
0.24724779906656524 0.5486883390937664 0.42003107504816256 0.11022400948823363
0.3296809189286507 0.5851749449734756 0.420031104043085 0.04520253214017669
0.23395403850887236 0.37170683843524616 0.4200310814437994 0.05357349887370009
0.3070436157975558 0.5441233095059917 0.4200310980887159 0.04154881224271743
0.27234580848026924 0.23859251539853188 0.420031104660989 0.14477357576676134
0.23590147821846683 0.5495041258295728 0.42003107067945616 0.13067093992932735
0.30896049454987723 0.45327084851060645 0.4200311046968443 0.1385938589637111
0.2953681745627401 0.5945116677023838 0.42003109038701963 0.04154166627336396
0.317462643741485 0.5847483500031333 0.4200310994230977 0.03905148108099552
0.3322186342034033 0.5368507431322123 0.4200311081353999 0.05723452651964831
