x y z curv
0.3086323919490332 0.45842403523147846 0.3843095976511031 0.16143300586593548
0.1995071417892879 0.45226100566256183 0.3843142289683543 0.24839310028025333
0.2098637147041013 0.41444421630118755 0.3843045176472416 0.2701401565945878
0.12531345678221167 0.45304798472738794 0.3843185794798008 0.21383532890998538
0.2340791780939757 0.4437977134088879 0.3843102469044117 0.20252152393675715
0.1715038791925719 0.44588276090376633 0.38431425930897156 0.25548043975046303
0.2891272989923867 0.43954836480323883 0.384306134042237 0.22931065220686292
0.24456649358810992 0.4504139350882258 0.3843112562495822 0.228924955144602
0.0901978368222277 0.45263403349002923 0.38432044868588283 0.21473129386673934
0.15702332832095764 0.41569657332656557 0.37119847298997377 0.2575965892884655
0.13470478670069064 0.4118825734251802 0.37122050538705575 0.24656494095904563
0.18009985735950665 0.41003374003925375 0.357448338237377 0.2711128720307796
0.1722768006873946 0.41712432011119704 0.3651364279590561 0.29386813065183265
0.15974994966114847 0.3997883106952014 0.34918960915833286 0.19724729930103233
0.1482738370618577 0.39873618438762626 0.34849423436313604 0.17965197228521654
0.1428204034546059 0.4008066293365049 0.3593359034195248 0.2100526600080644
0.1590133394330688 0.40306234968530275 0.36170905003776405 0.24685423751004656
0.1650209684153531 0.4078716613102882 0.37019392648573357 0.2626789921185736
0.146906661016918 0.4043483354084234 0.36995126159447994 0.24863942594806335
0.12421722520579484 0.40208043782990005 0.3707368044023311 0.2510237707169544
0.13597204695340948 0.3956283857896049 0.3457733842234592 0.15917626488467027
0.12860810053097854 0.3974379136694885 0.35755705153363926 0.188535524206466
0.1241721348013034 0.392862849703463 0.34468109228446075 0.16752881560614263
0.11501812766891653 0.3962950147092544 0.36525321837122066 0.22993088485167198
0.11100445278380695 0.39044329265633915 0.346003970559113 0.16817724165261222
0.10434371762408873 0.3807970834720099 0.384036999573537 0.26157490583088294
0.0699243933891172 0.36137654621891796 0.38397299934410767 0.2266201279652593
0.0834195784107537 0.3664410409246731 0.38378790783917394 0.25600077655675935
0.1307901271659247 0.37170874082348004 0.3732362136866038 0.24192685703778227
0.12765833268363622 0.3673072165358786 0.3327973207201705 0.14725206463943682
0.11802825784938145 0.36850091304723037 0.3710702382801208 0.23146207686222434
0.13523781814380478 0.37182863041074626 0.36297077668582695 0.19925743018324912
0.12672626446524143 0.36807702532388203 0.3437257997680574 0.14276155933771406
0.14546661367169256 0.3668677398821676 0.30228806219780074 0.12784643489576017
0.13830778997702556 0.370142546735834 0.3423098970991517 0.14509999055176265
0.13356084431927426 0.3645772497974616 0.29233019510055414 0.12057298037293154
0.13779769976673606 0.3683180545735926 0.324809366713257 0.13544534179664897
0.1362661979149118 0.3669767513770432 0.3131767856216767 0.12765769319747142
0.14999439603719758 0.3686467577048751 0.3150547007069706 0.1240747759212321
0.15866780172672393 0.3747917854643416 0.3651936165000445 0.184207426106856
0.1593201535224299 0.3709878410242132 0.3275659577347525 0.1649204970374497
0.15967290537405898 0.37263650511390756 0.34316449734454757 0.16937863206218984
0.14532243596519423 0.37386870683891293 0.37114190325248836 0.2511518185398447
0.15026437305761053 0.372111845164011 0.34858139741564736 0.14588016365706494
0.17039500097787486 0.37369957994054714 0.34816847329431777 0.15007229754362206
0.1686169959481691 0.3706067412314182 0.3207430048094441 0.14975409635894668
0.1721559855145482 0.3754250007311012 0.36330314826582044 0.19850102657243976
0.1849653061268245 0.3756096720891876 0.36220974753642526 0.201495469556108
0.1755246631760142 0.3719434603616543 0.331258659747812 0.15123244644975858
0.1876020465114094 0.371734532481055 0.3263462265527989 0.15110984324107357
0.18061103067649176 0.3701843191542286 0.31394482801375895 0.14276792033504257
0.18827309925924973 0.3744511054843226 0.3509609337497916 0.15059555248801457
0.18364011346293155 0.3731782559648489 0.3405027681898679 0.15031977899901375
0.1854389712928822 0.36864146315027047 0.29536710584756115 0.12878753604669219
0.18377407863539943 0.36799830475101436 0.2748280120109683 0.09414854677575779
0.170368708839428 0.36807793714815396 0.29606299545845893 0.12989564370735981
0.155875419792199 0.36641060487907595 0.270590904191918 0.08414295894411986
0.17122612085818345 0.3674034644422235 0.2740798444180704 0.08752370227266022
0.183264810656532 0.3675112527147576 0.2608314873369666 0.12434295675083615
0.15996107976836313 0.3675565245841602 0.2925270275805574 0.11351184411445547
0.1581828832773783 0.3669823120345818 0.2811814377098845 0.10736340052189375
0.16406971616907856 0.3771167044213669 0.37695851841373107 0.26611699930592414
0.18560369143635072 0.3772559254014629 0.37534906384810934 0.25858724268214867
0.17782679208166668 0.3851318121484446 0.38265027669237084 0.2840598275633417
0.18979678891037688 0.3891625278478321 0.3835970804406661 0.27376379316605515
0.20609468621321053 0.39659429172731114 0.23604206684558368 0.13779402018213077
0.21864540751946096 0.40156034006824165 0.23948548311224083 0.16119543758097093
0.19987363235974454 0.4032551922001303 0.24338841052996324 0.1633477847717277
0.23214466147377652 0.4013098566635933 0.23843914723218096 0.17670223829855022
0.23790578282131802 0.4079593230385483 0.2454645985942803 0.16398113710332082
0.24603177182951763 0.39875372911665674 0.23322690249088607 0.11508439574842899
0.27164509210705867 0.4266804458929882 0.23069410356715292 0.020492662126055362
0.2690965620803288 0.4390422019959561 0.23951861097079244 0.020901288561100722
0.2583416992769455 0.4116840316090872 0.24004634011507142 0.024327783462399475
0.27302268094390825 0.40898985817110206 0.2232478956931206 0.0338245327510944
0.20547214797883903 0.3831969757256837 0.23351007506001467 0.1840501479957147
0.21862001720797702 0.3916252178274001 0.23260010916069856 0.19650049189912439
0.246347869386307 0.38697336133621774 0.22660301144214404 0.11436862170310792
0.2589001991251501 0.3831879743437192 0.2214015255853474 0.09922055798173793
0.26958205996125584 0.3915480405227028 0.2176972268185582 0.04946213309361711
0.26049632770320497 0.39482910019106704 0.22470826000765265 0.0634463612339714
0.21953225575023522 0.3795118462681302 0.2317701192239709 0.2031653900935488
0.23636416854649886 0.37912440264873926 0.22968618522328674 0.17050530241983933
0.23718212102906522 0.3686070089180526 0.2343395819753661 0.2375787865820066
0.22088399453359872 0.3688182549292699 0.23881313254041744 0.21991294870159547
0.2458964197365295 0.3745556298378629 0.22664396409611162 0.1866483284100883
0.19626434323447198 0.4342254750351051 0.3010548619012937 0.11524987199574463
0.20994865897419185 0.43510511834637555 0.29827300883319674 0.03727021889124311
0.2501728210325484 0.4419488889170415 0.27386107399217174 0.018578333470545622
0.2218209088173402 0.42462161740875587 0.28114374337173303 0.12901907727559694
0.20819324120361604 0.42316929937810605 0.28553532798369446 0.14245407064146356
0.2412941398055699 0.4156654072781612 0.2556791457407371 0.018351370663148136
0.24590813780218668 0.42392334126992615 0.2632397948473873 0.023440086508507135
0.23305036136815926 0.4281110117586478 0.277308934375254 0.011047890883522763
0.2428911267726949 0.4358468485415151 0.2785845041391317 0.019818885903423983
0.2318889674663605 0.43685112562663275 0.2867119469131498 0.019357747680505574
0.22136614399310037 0.4323308205112856 0.28939204028884163 0.01565796856274095
0.25635158345273296 0.42256567005533874 0.25272984469042953 0.029989166269744773
0.26717818304180013 0.42415669096604464 0.24001964547101046 0.028924898726620553
0.2580398528735248 0.4417637206506469 0.26344153684869387 0.01938322222156307
0.2547607058764555 0.43028395936684377 0.2613214622308237 0.030490046750182218
0.18502252077823061 0.41770835697672454 0.2818719894290935 0.2126891025466581
0.1989025820657867 0.3918272524775901 0.2926161991099545 0.2502911251939016
0.18211479123008759 0.3882379660603572 0.28099059630032097 0.299480319418469
0.21012752498960727 0.39440549825438614 0.30259297416501046 0.2455461579372386
0.19851807009313727 0.39593229082864273 0.30433718381817637 0.23932086196900973
0.21078124686872213 0.39474258637371257 0.31462627808507404 0.1588266634877081
0.19168935194972606 0.40990016464876955 0.26036144000572464 0.2062213439636949
0.20266190333019726 0.4158355349204481 0.2736489000911643 0.2271785561388047
0.21226392689373913 0.40823487757543947 0.25381038872917727 0.18884144731754843
0.20908298492185648 0.4126192281304861 0.2649764362209697 0.18608904409787252
0.19597518730593233 0.42482600484149763 0.2913829865380479 0.1948964080654025
0.22297650532312438 0.4118476852306978 0.256986466670371 0.181536199090191
0.2273256362114322 0.4180691683170282 0.26681472519589045 0.1240779748990926
0.21383366828935563 0.41846898459843895 0.27479594214795316 0.2048927487200944
0.22862503446932597 0.3925332879109009 0.31076311926923716 0.13387303775185852
0.1975747155632948 0.3679547745666444 0.28208790481005475 0.10082120107966823
0.20749966136885944 0.3669282768638661 0.27675138051475834 0.09217500508556982
0.20642421330629304 0.36658215360234603 0.26477082369356053 0.08277927896254456
0.21832973018856855 0.36539153135062297 0.2594874796820928 0.09573080386822655
0.21676313611875117 0.36748313682589884 0.2984384847391401 0.126846613420543
0.21822604703602708 0.36635330049537085 0.2795854502019545 0.09703169973649246
0.20827237851635588 0.36751820994057666 0.28990014890510374 0.11999013645474287
0.19563183898235345 0.36881354690330975 0.29967101706799715 0.1344225067404163
0.2096490459192507 0.36922816364440164 0.3123664123324836 0.14426071615445477
0.20150954800594195 0.3737299815889871 0.34717558627970946 0.16254262021561938
0.19942357420985937 0.3752780315027302 0.35956599609738676 0.20389187358960742
0.20778106932696883 0.371662421758035 0.33268279855393607 0.13652329467213523
0.19714349998658418 0.36992713831265156 0.311140788704529 0.1384750579147174
0.1984275616946738 0.3710789879844209 0.32203279494512793 0.1507484156723738
0.21202304142574285 0.37354011795484166 0.3545378499199899 0.167763556689429
0.2229457394040209 0.370407877343943 0.3346153999566272 0.13377857239221408
0.22002801901625327 0.36934142002096715 0.3211682797040596 0.14439392679199972
0.20843589063932022 0.37533177267798873 0.36860520638259464 0.21669187930471334
0.21442335797615653 0.37218015759321155 0.34353613723628973 0.15108818150539105
0.22329011392315795 0.3732712474372781 0.36319971009151286 0.18222373575779907
0.23096255176441943 0.38268747630503297 0.2788977253112073 0.226725521888222
0.22420552929503967 0.3790227520852608 0.2683131862108763 0.2310143493313327
0.23692507171563 0.37798905922540127 0.2700686225268321 0.16961482787239038
0.22150824157142776 0.37125713787269304 0.2495050500593155 0.21608839374062172
0.23061719423962146 0.37479779903026245 0.2606820883074875 0.18474803637542997
0.24317399759650687 0.3726378275027219 0.2591112586782211 0.15324273891905557
0.24677091259840028 0.3881759522470093 0.3032006303120326 0.12537726458272289
0.25003724135618133 0.38383260638479244 0.2883401635456593 0.12673796435846016
0.22856871111093746 0.3902848483969269 0.2978675625573215 0.22751585502476523
0.23155339190797608 0.37121997991039435 0.35137141286151485 0.15146801641037771
0.23380615358692655 0.36532102005065087 0.29602876114676985 0.12099688494153865
0.22250210735972972 0.36795912794184743 0.3100637209763993 0.13031935178151485
0.2378455784481168 0.36722947675522194 0.3188955367277929 0.1344148525565947
0.2458416417473534 0.36947895318229484 0.3630523205743833 0.18074478389940973
0.24658190128688945 0.36688444845705065 0.3368135032031523 0.13117369402440648
0.2379260196209977 0.3722589170263976 0.3724776052925078 0.23653789542960024
0.25433192784049224 0.3693385655029267 0.25793618522364703 0.12152788691538727
0.25839129339524336 0.3735955465834285 0.2690697542205961 0.0888006662047066
0.26849748814011576 0.36944149866150444 0.26558867907150685 0.09040609184574895
0.2592094619207169 0.37893838430878696 0.2807986367453525 0.11038574658705144
0.2374939370703699 0.38584247550169143 0.28866668906567683 0.10479294876267464
0.1882779727143525 0.40202921150358384 0.35174513590836354 0.2563552615779087
0.19155952186009456 0.4876085778334924 0.32195061210955395 0.17564681188027126
0.1914157912285303 0.506604986788779 0.3281774659021132 0.13365584760159654
0.19139773133489735 0.47062857269829544 0.3318596244275157 0.25719762270874785
0.1881903301049657 0.39668356315314934 0.31717556015125425 0.24823363453515782
0.19784999825382055 0.38804305838141295 0.3236283817572643 0.16085872338418428
0.19827400836041031 0.398219323298406 0.3409186807929022 0.2225877727591289
0.20541237972490595 0.3871042343428025 0.3355387655755636 0.17113225348135772
0.22922063171883256 0.3833483629536196 0.3342142575090071 0.15323225520533892
0.22459798534451883 0.38362475515210653 0.3216524727360624 0.14100077705114847
0.2543347263387425 0.38255492448486095 0.3202774080986478 0.12939541534111734
0.2401111232200568 0.38807095318131013 0.3173802682127956 0.13702600573733417
0.21603366811762043 0.3830514778493398 0.33223047141472356 0.17569146266598618
0.19146624719461397 0.45792548525830346 0.3531286500371956 0.24627527811284783
0.1914170819557196 0.46418580167377904 0.3427035691379949 0.26139647428543816
0.1913910245797112 0.4528997647260566 0.33048816368160505 0.16597652413070493
0.19140715491853946 0.44072687071613015 0.340257755305469 0.11310070743360273
0.1914157754767451 0.428472664573945 0.34600201036671374 0.14163803425792793
0.1913569756835689 0.43511340181898694 0.31382239964702446 0.17736933176629086
0.19136991272598924 0.4447713407911309 0.3198907672031268 0.19721888019261846
0.19137804600642316 0.43472591983930176 0.32517237342228766 0.1405800817282359
0.21653213884097539 0.44145163105276397 0.3712129599253901 0.20466263956281422
0.2279056434201523 0.42885314863609164 0.37124445875458933 0.1996463542411444
0.21782542123975063 0.45369120103867966 0.37122487457451614 0.20806764189551938
0.21550827175948603 0.4256183717641432 0.371191297939352 0.2662039685668356
0.2119250292135473 0.41420264554348374 0.3711462484095021 0.2485802912574747
0.20545760690502585 0.44459023928114483 0.37116515919214427 0.2013554215181964
0.20268145132677365 0.42452590001726903 0.37110820469865047 0.2618727874085176
0.24640106157656858 0.44078459715989005 0.3712406642488848 0.1652195253644299
0.23172814415113824 0.4496473092869461 0.3712608402763253 0.18188311115963698
0.2575551265488039 0.4445397400918666 0.37123470190464225 0.22734969168435668
0.23912304668323697 0.43253414068902274 0.3712393721028639 0.17732177634340404
0.1845741323613918 0.42032555513514175 0.35658289003972204 0.2581134282272513
0.19572047404711895 0.41289245407551073 0.3596784339744555 0.2528639759189695
0.19492981418402816 0.44374143572886343 0.36231663259737573 0.2147918526514034
0.19760535432693405 0.4322793077058828 0.36556981557664975 0.23863265835147723
0.1930199839157494 0.4649511662818114 0.36152776792603525 0.27134983550111796
0.1968577346653581 0.4541383096994628 0.36626785024370606 0.23749942166083537
0.21053411053361154 0.4025904263407147 0.36005907294784384 0.23501786962280824
0.20721977722402868 0.39977008133175573 0.34882053863978346 0.19691175562337251
0.21656766068528802 0.3975495820941659 0.3434522400957676 0.21058990468442682
0.20430517182583735 0.4059708536629176 0.3683060416530312 0.2550332368200559
0.22481077728519483 0.40038902478700866 0.35670611320240664 0.20116840320259155
0.2192772592014411 0.40532624200683043 0.36994271482484253 0.23982892475548787
0.21707178868210797 0.3752949405320377 0.37667309494972223 0.21485922898080267
0.2427082569653394 0.37838898881094235 0.38151216243737973 0.23386490499080773
0.24369047123849766 0.3931019903354871 0.34321021319648937 0.16543466663475243
0.2388916768718472 0.3968206596252355 0.35299870566488845 0.18920043064252123
0.2611768146109664 0.38916065038102376 0.3425169624572131 0.16931798808145282
0.259099538694099 0.39459631425005504 0.3610219766993607 0.23000035729654195
0.24565867032074387 0.39944307556860176 0.368086195216323 0.25165972554013655
0.203512614058663 0.38362908124433903 0.38187957147511986 0.2790983057753502
0.2321763074242191 0.38440887827216225 0.38336062482581673 0.2746634120207598
0.2530952981509536 0.37404371448468077 0.3813172859413604 0.25578184325990255
0.24256884766142361 0.391300743023964 0.38404166395145717 0.2612741124227229
0.284100410564603 0.4259817703922369 0.0002817717028079689 0.00011401725557195225
0.28010756345056753 0.4476752785471494 0.04318700419295108 0.000200553821738588
0.27862673730214205 0.4523519303418505 0.08949560553653634 0.0002952744468753677
0.2790913899862085 0.4562039770241458 0.026967945511012482 0.00015841869488038957
0.2795377532501302 0.45477703648363954 0.013164984110213081 0.00017340154997801276
0.2785131276272903 0.45447286013384264 0.07714891957677883 0.0002709719556873716
0.28221165309454005 0.4341908724601324 0.039098622112913255 0.0001244034994488415
0.279620729725926 0.4496636503870056 0.05434306877106483 0.00017888749800030026
0.28095770604806924 0.4435869058066068 0.029264870308199194 0.00012363139589336705
0.28150850297819546 0.44285105851937034 0.002984520938127222 0.00023006599174995196
0.280435546362528 0.44175765088653246 0.07697820947480671 0.00013507112119418997
0.2792534931995036 0.4455343539755314 0.1135499874535402 0.0002194216381289206
0.2827006969461639 0.4331805175396579 0.01898594985215518 0.00014586532785804764
0.280489370069149 0.44272065774956465 0.0650722167545853 0.0001672359377477135
0.2749585043204883 0.4245206601194008 0.21931183102594196 0.013560743182479545
0.27737567582334055 0.4047921964311745 0.21022026109435504 0.04013396889585575
0.2755293176115149 0.4412814183245167 0.2133890800439086 0.0017981715290045208
0.2785564794462205 0.4226046830388757 0.20170550296317688 0.004129691902585822
0.27968160535224784 0.43703614056127216 0.15309842911430685 0.000356601703251476
0.2810967230024165 0.43349146267628863 0.10445841923350499 0.004557658213177922
0.2797575969253977 0.43452163558116635 0.16698665584149902 0.0004204978144427739
0.28248795714020064 0.41596014497665235 0.15636122739729355 0.0048372808193061405
0.28150877717790207 0.42457878745010835 0.1462427271250203 0.0006240095702945821
0.2805451437000856 0.4395744105618033 0.09004047170770667 0.00017405167242784525
0.28264499610877003 0.4197608984458081 0.1211877032466551 0.012352028101267615
0.2789980079927521 0.4435618756511574 0.14242232240811512 0.0002283218573981219
0.2824397448560094 0.42580172600005417 0.08900610949670218 0.008747761639005246
0.2806039173287011 0.43244814022206146 0.1375676050250309 0.0009020986435621921
0.28242479300006623 0.42978777796836193 0.06148722177070228 0.002140700564977584
0.2805330394583801 0.43509169802411074 0.12249647250979323 0.0008175860986837949
0.2772252790942637 0.44517448926281905 0.1980354607400602 0.0012721860606118933
0.27744834391723205 0.45005065897693497 0.1722120265368518 0.00025694477302459616
0.2814585221034853 0.4217402163046517 0.16866984472773439 0.0012848706606992176
0.2798935080044021 0.42943707853286756 0.1833664350785913 0.0007649849132032731
0.27988707333724355 0.4131005973500974 0.19546244485546893 0.012410382200167843
0.278387957221333 0.43443133674953877 0.19675572274626252 0.0015956503693886287
0.280877600374302 0.4155152951348706 0.18429384757675638 0.0009877659654555695
0.2827217409441861 0.40385260453983907 0.17460540958440568 0.0022790508807376993
0.2831798465912057 0.40039076094442677 0.15287034389450374 0.007911937067514132
0.2835655916880396 0.4081847432056093 0.12537750830444824 0.014515052535436135
0.2813732688310751 0.39950804453371014 0.13614038298716813 0.008783136520591782
0.2845990067086893 0.40597956083456727 0.09590911087310179 0.010254184697152936
0.28442750375172315 0.4138095882690263 0.05835018947605781 0.02224168727301532
0.2843835865014871 0.4177753406308346 0.03673566994706885 0.0050407160756303455
0.2847353459020997 0.4127650639866674 0.04616357098352584 0.016706085061076754
0.2760926122330941 0.39490455623971066 0.09927277657983913 0.007427402559504106
0.27509541464287285 0.3928179821385842 0.0882385537837488 0.007562117757380858
0.28020217608716785 0.3980398041214843 0.07706375928146007 0.01511610821534091
0.27260381595604377 0.38761715157955 0.0788064674479367 0.009746283820121247
0.27480283145255047 0.3887300680584979 0.06657253512258725 0.014475530396649502
0.2687850499840522 0.37767802288208685 0.05459375769300847 0.020538662719485432
0.2687997589780808 0.3797064834969629 0.06886543700975899 0.023558942579917384
0.26970640552389524 0.38361578379698047 0.09545057320018938 0.013748312480227282
0.2770940951003192 0.3861502011358914 0.04869231570678977 0.023110837156725277
0.26683622635386844 0.37496229086552557 0.08737033731096928 0.018931869652490746
0.2701083483567352 0.37528422865569516 0.038600221114132534 0.02744403405664278
0.2682678513614084 0.3769487007574598 0.11248958378597201 0.015912151376858127
0.2656481678489601 0.3683735458702307 0.07778815513678239 0.019652049559743423
0.2656085650651394 0.36536037435111346 0.066219469732817 0.029934383831656274
0.26577561735405847 0.3613877305349799 0.046049465517525416 0.0422836598483421
0.26548181738705195 0.36355121141381597 0.09232828277317845 0.02411969569315002
0.2685138978620185 0.3655335807195622 0.11979872363450657 0.011449982888800161
0.26642911483362214 0.3661087519237721 0.10477601849632472 0.010661925170712596
0.2764135364877166 0.3939589142229767 0.11899643074029811 0.00589940865999141
0.27152540467720837 0.3869732426263595 0.1086377681432855 0.006672024504224307
0.2842505032261466 0.39352913849407745 0.056075869769239575 0.019877937917590176
0.285397838731495 0.40851383102902383 0.02306820175452335 0.018873656397790872
0.2848729271553185 0.4161712767420329 0.012098676896867841 0.00016067814163917867
0.28604803102339843 0.39974166779544634 0.03121216333835746 0.027412976504293033
0.28660763050427795 0.3912789630299945 0.045191534255492466 0.028374552218934163
0.2873557268292573 0.3847473625941226 0.02483165682910156 0.031673476327223296
0.28738692001239013 0.3832176817082112 0.03549537084167291 0.027551158772215797
0.28717209716724246 0.3903923162470532 0.005169432526408125 0.008270436601072552
0.2884260424870168 0.37565997872244833 0.006530515942657723 0.02954347341182853
0.2883418743829784 0.3742534871349029 0.018028354877243625 0.0358274204185204
0.2861184491421668 0.4012626071304581 0.011325582901721809 3.4721770142914355e-05
0.27311160993372285 0.38406384377707237 0.12666790003642625 0.009310932710307357
0.2752621825235545 0.3818886305916943 0.13761922928437598 0.004921395169583307
0.28086628940716557 0.38408289553888253 0.15581122181738868 0.006967978219330938
0.27347330573545015 0.36665181940249525 0.13765109148468024 0.008673523885371378
0.27986716322336136 0.36492519815571095 0.03075225211649025 0.039767177868535404
0.2837434387798009 0.41833259328132166 0.07132374027892366 0.011773939912762032
0.2832682071165684 0.41235751222482564 0.1359978805090107 0.010113294020316532
0.28353415377888075 0.415159655162033 0.10315139969691282 0.012714423990665089
0.25876573298917593 0.386058315137147 0.3071798615849156 0.10649397451741124
0.26089683186844287 0.3824347702142107 0.2944626382283858 0.12760484098119684
0.2722114468854577 0.37878757312566813 0.2933425463858136 0.1280443761062502
0.26575236046104234 0.38349022733607896 0.31765125398707017 0.13303078074597466
0.2745028796198209 0.3763694993324993 0.3217941841498404 0.15821548227134874
0.27849802907433097 0.393559032856314 0.20874492559684735 0.036809363658817144
0.28453885240317517 0.38376948009530387 0.1760814899779574 0.008315702099967482
0.2841288040402796 0.3944458218382187 0.16746424912228702 0.0062914202224764555
0.2834634674328568 0.39444149040862375 0.1805567204716036 0.010804493676501811
0.28349460763837636 0.38818214723997124 0.19090417718089164 0.023240982574590445
0.27107843246673213 0.373548056868786 0.2766583491152283 0.11428418542656248
0.2876229791861597 0.3708497864823441 0.3246788545987294 0.16087679399857133
0.28792533384300195 0.37462968253097495 0.30101450240390454 0.1542812685037211
0.2998107918259824 0.36950436631803746 0.30440005865200925 0.14851833452377167
0.2882350968421157 0.3767238673557889 0.3121280545348558 0.14651037215791846
0.2985090623003632 0.3698262792174579 0.3167865932947348 0.1587884529343874
0.27881777947921105 0.37275779828965305 0.20667655607020127 0.039903665673854546
0.2698590476686556 0.36290387135792385 0.21542575058997127 0.12656939552057445
0.26708168621761774 0.3741391492981844 0.21659596674419676 0.11477564123656885
0.28292337241352983 0.3574543888850162 0.2019389445006645 0.05301185056384783
0.28840710060049435 0.37096299722699605 0.2858170865040407 0.11899729776992211
0.2950024587865999 0.3614217075608477 0.2722373300250069 0.12406466699887343
0.2896419290693868 0.35815851451929936 0.2597807894084636 0.09120024772583647
0.28534228078944335 0.37109335251948083 0.17991206685150818 0.014814371839482691
0.28577619225874357 0.35996767430544424 0.17711466881317123 0.007598033540382404
0.28649608167239937 0.34736294899423303 0.1836994066510093 0.01616794670826484
0.28552867462891196 0.3679068387699094 0.19130395726585175 0.02027244140014022
0.30505469365915683 0.36352806313237873 0.2953946385786173 0.1903955992843997
0.2739581438923027 0.44489351003733113 0.3588421834057986 0.1709585850310355
0.28172482664361187 0.4413635725843518 0.3504427199677849 0.13195015988201247
0.27941028970301524 0.4527134910120061 0.34340593766271543 0.044417683653631565
0.3018391746656719 0.4315853540771755 0.3438455420767086 0.06801679722872887
0.32222138313826504 0.4316799096824008 0.345505723628352 0.11963864941075894
0.2897326550569284 0.4301501363485153 0.3524582228071478 0.126602120924497
0.2926358191099741 0.422837179064463 0.3614672484488889 0.22291910169777646
0.30448992912774725 0.41957567965563747 0.34334845692826316 0.058546260900066004
0.3177186636393897 0.39346807755150126 0.3429278667225052 0.11835644725256272
0.3212733924243977 0.4071923560661167 0.34399612439699023 0.10492103984222764
0.32378390860505185 0.4201293008286807 0.3449353593611503 0.10762245634909016
0.3031145917043093 0.40760210893788756 0.35994554019952474 0.24155882243212493
0.3065463539541693 0.4073570824269479 0.34759322825681715 0.10384228764325291
0.3089553799390664 0.3949349964197338 0.36156973600597875 0.25578937685570274
0.33563552596481777 0.43957097379402366 0.350144614119282 0.11856784817681927
0.34455280663008087 0.3760049751945477 0.34651312957560004 0.10883725420327542
0.32854538685891915 0.47488900851093385 0.3495463984641123 0.09886127928060189
0.3408770455926156 0.4096989456602391 0.34972537586197605 0.1618958568693424
0.33028992140145824 0.4625770292594083 0.34886429136325536 0.10034032535162077
0.33482544901602174 0.39985979051678083 0.34538460137839466 0.12497821910808146
0.3316411152336605 0.38062289394580456 0.34390201265862147 0.10805767940753308
0.33999318890023983 0.387583950034435 0.34583570074834835 0.1328176550740393
0.25755629766599364 0.37797531107264604 0.33451102482742046 0.16310650408198957
0.24379526718684486 0.3839858725298563 0.33742428565364546 0.14716535831635966
0.28225656185759807 0.37258469386283694 0.33653383433206474 0.19152012049330036
0.2940704504411509 0.374520539468609 0.34164980865779343 0.20518364413474718
0.27198009654282906 0.3865636480746196 0.34708106431958896 0.18309422529108604
0.2892927653094993 0.38369399864289033 0.3606340171368748 0.2486055670130457
0.28463186846507454 0.38142322769478126 0.34746648865850954 0.1937060827691599
0.316484944412859 0.38166984655090525 0.3559376198106867 0.22019479732512762
0.29928614176607593 0.3625657143233855 0.3372195911104652 0.283904899063968
0.3104627432773589 0.365306422102742 0.34251126011981803 0.21462795762413336
0.3313471480427588 0.33399986776100227 0.34118448949764796 0.15470973937946733
0.3410843545599381 0.3409132539356913 0.3438245374902024 0.05810867187589535
0.3267928192868253 0.35858173823160017 0.34106004340973206 0.12527105019204204
0.33744252933865554 0.3656553184833575 0.34400150415929054 0.07769106635644335
0.35024539863148385 0.3525295619870068 0.34923302239470433 0.06978724023994572
0.27389258123425503 0.43816792694189 0.37032522561089076 0.2129400812119917
0.25568599216234766 0.40196694611073963 0.3712642159979414 0.2367462958362276
0.24813133026080186 0.4132679964374813 0.37122600703542297 0.23078702725303432
0.2739935977327577 0.42440915312470995 0.3712244598896117 0.25139269384473806
0.29139718122692754 0.3995101837763934 0.3712187978469289 0.2850518106099158
0.2698508594863394 0.4019445970107737 0.37122175798744617 0.26682535331317603
0.24909636928689965 0.4255744971736792 0.3712276453745379 0.21409360243776288
0.2800793870683308 0.40667043463234853 0.37122119166531 0.28108675004444555
0.28577734679100053 0.41754579472302084 0.3712220519133211 0.2823200378868283
0.23585173175246749 0.4163137609939568 0.3712279306108683 0.23817246920887167
0.26269540541664027 0.42105955310903054 0.3712253522320601 0.2161988129891795
0.26163344861614124 0.43310869286195713 0.3712271996737003 0.23915716192543113
0.29580996996490394 0.4118712568680723 0.3695535391488775 0.2612132751662259
0.3420406359067026 0.4145622553469903 0.361916730365311 0.17397070119282354
0.32807173201494405 0.48520206698186197 0.3577207987387374 0.12279470723507635
0.33932127626583064 0.4305422169112776 0.36531074675098196 0.10001296137576775
0.33689318273437463 0.4411923420192131 0.36150391036086466 0.08879705454646064
0.33432844518280425 0.45110236676642546 0.3549517113439721 0.1469410565587833
0.32358181701969546 0.5054451925842329 0.35171960700349264 0.08838769194599495
0.3441358294831416 0.40315496987615707 0.36101159888567846 0.1450585396604026
0.3389958482064296 0.4259255630768828 0.35337922530876154 0.12861373805615176
0.33778275532903745 0.4412085735612836 0.3729394806531517 0.09274680426547233
0.32617100063494314 0.49780326940153113 0.36574769034217003 0.17251583404922044
0.3326124168590517 0.4669053325663853 0.37114298552845854 0.1013406150671301
0.3184686933648677 0.5342587445092704 0.3579083743391156 0.08183566606772413
0.3214132593766993 0.5225440642747056 0.36719099148210776 0.1485049852798931
0.33026693584349354 0.47713420278929053 0.36628796043040274 0.1173023419321912
0.32314772290664145 0.517565576360879 0.3780952840090404 0.2282546716019181
0.3223305552270594 0.5143808916623234 0.357314652415116 0.1114239883319009
0.32017504755783505 0.45647351625219174 0.3843087100181183 0.10963636021049196
0.28389982229008687 0.3834941474944406 0.38429651569870865 0.26654949812153583
0.25454267312615486 0.4065126195542077 0.38430041018416583 0.23511903893802413
0.31982671043369615 0.4446439733830635 0.3843067268436785 0.10597216346515786
0.28596420429091085 0.3995150844565295 0.3842991996590592 0.23757093234901355
0.3011783353349249 0.4122686838312809 0.3843013201930132 0.25375928679254406
0.29985303270407615 0.42378209247844445 0.3843032523378301 0.24641099516272855
0.30402368683524017 0.4412395586534987 0.38430617468464284 0.2200769735631226
0.33233711903397345 0.32082655852966285 0.38429483273857223 0.1860538212456723
0.3232110165986932 0.40835663335810607 0.3843030461755015 0.20035617064891414
0.31805568090637565 0.4337693046277798 0.38430494508867646 0.19074394041703657
0.31807799848238294 0.34983041373525325 0.3842953765827404 0.1852145105672771
0.34249611481058845 0.41498081662374375 0.37667664431242 0.08086252767182782
0.3310701793958265 0.4757114733780306 0.37897445087043435 0.152161154047881
0.32760692808538994 0.49422734958050896 0.3792895950023601 0.19411494436065335
0.34541662811200086 0.3910775484537625 0.3812431386926851 0.11027601338528914
0.33499833752660746 0.4531986086392674 0.37988332229977295 0.07792673373097793
0.3318643587027896 0.4414895524310466 0.38407233247382433 0.057560300124551
0.35307276695190326 0.34156478202915375 0.3515355413057586 0.06388700533922047
0.34592046687933586 0.3907733728015148 0.35581220637595623 0.13456108974309433
0.34964352377571006 0.36457396327235064 0.35231258184359515 0.09013021080363197
0.34764191949208995 0.3833596990926696 0.36443674047121416 0.1520186289308854
0.35407934111705786 0.3405404763711094 0.3638742343674438 0.14286062198075308
0.35247873520722733 0.3530419146862647 0.3680854844877023 0.1381808819864197
0.34964846274816697 0.37228595493804084 0.3692489154122596 0.1360744231681011
0.3461396207762611 0.3959362108220336 0.37039923650530077 0.1607162016629317
0.3447821106272404 0.34295330019653875 0.38427006334615654 0.09364929174922966
0.33810131714696967 0.3568221127249146 0.38429269605664107 0.10107477246362198
0.3339464450697144 0.38469923262390004 0.3843013867359948 0.17398053391782703
0.354524071698083 0.2820314555892185 0.3842484438242789 0.13584978818896237
0.332136008144755 0.4270813482983206 0.38429671666306403 0.07190295960669166
0.3370863835932777 0.3721287717246595 0.3842924423181653 0.11461830247957744
0.3504552074805631 0.2983382245571463 0.38426002949910665 0.14118458636254497
0.33564940720408326 0.40552110802223834 0.3842888047161511 0.1144954129210928
0.277300559545028 0.38898742176884926 0.3625724499553118 0.26233913344858534
0.3003754366274306 0.37797831115873615 0.35920798329838133 0.2413429139740612
0.27089383011393064 0.3829406771924571 0.3842287476872029 0.2833992004996484
0.2568826592935502 0.3849777030756021 0.38404344802864254 0.2637852714649402
0.308134086287792 0.3813714785203939 0.37055502860968226 0.28957461725458566
0.2971907353781518 0.38589573522157955 0.3708906795695902 0.29447221805144513
0.32253213082974586 0.37114626501807474 0.3463684078435567 0.13008945343188358
0.3094051310791005 0.37126836260987434 0.35416188195447146 0.2297615278023977
0.2791655194742541 0.37139851970684457 0.3837754563576609 0.2803948835392728
0.2902057405130204 0.3645612078509858 0.38386498258726565 0.25107260766416617
0.3504833255551363 0.3307859938294564 0.38405725618951825 0.08587324832791397
0.3513914654505688 0.3622710912658045 0.37667568958283276 0.07962113768494283
0.35260858073820456 0.3516728550499523 0.37937700309348216 0.08330363294374861
0.35637552801888017 0.3202474335935849 0.38088760837535995 0.0921660068623606
0.08380166358729443 0.3355242678805734 0.04567238675666905 0.02242437679665821
0.08701742871434617 0.34690937704916947 0.16193955266802468 0.00764280753927339
0.08647852797317475 0.33560039567186084 0.15462244911832282 0.008477368637047808
0.08126547671247844 0.33521787195218833 0.021771962801340115 0.012142284370367162
0.08108371679943355 0.32675155375038406 0.010262124646898928 0.01119507765191085
0.08155423149130665 0.3496515784764396 0.028049224078667494 0.025043592513932872
0.08116709989538075 0.3459976774632496 0.0034375600130841263 0.012085740989680065
0.08082984709703953 0.3182375519571251 0.0013904560696290044 0.00018858704939093366
0.0814764567865029 0.34701930578571794 0.016930713366526996 0.028946327890726632
0.08151443918880527 0.36030753083044154 0.012332216575866278 0.033086238264748276
0.08131993590242309 0.36404590995808356 0.0017668245401201285 0.002624184978574686
0.0811008743897144 0.31696233169567556 0.026615714956354772 0.012384772775822853
0.08087688925735959 0.31403194917798544 0.012269580932632376 0.0005636968620028176
0.08126602753371223 0.32961707736620915 0.03620315929039856 0.019955530292399073
0.08158965792625668 0.3200624139225452 0.05823303234510371 0.015312555951510164
0.0818521428065483 0.3222045681623368 0.07516699938728257 0.016087791304458077
0.08742153938512046 0.3316386315760731 0.05989697016803253 0.016760561625598854
0.08374597115531163 0.3259330360415529 0.18143358693802902 0.026031604546478248
0.08347981662560859 0.33706362995712913 0.1727663311003506 0.004331164979360213
0.08403112566096935 0.311761549915319 0.19048325969704327 0.1343668817563281
0.08325705748904204 0.3228514783238645 0.14104134064248391 0.007724289770918061
0.08403899940995384 0.3456395927559158 0.18796065729177097 0.011390598213988287
0.08437177687825659 0.32243629867498264 0.19329046773743613 0.12474457051215646
0.0847537889022248 0.3336900309393283 0.19534791438931529 0.12512293518134168
0.08139452217680787 0.31484968743407726 0.04657482996896738 0.012569116519925223
0.08120218684019953 0.31067087893006984 0.03610032873571807 0.01074392005894857
0.08179203178326651 0.3083595959900779 0.0664366039912542 0.012539544297988921
0.08250563665332467 0.307951697028485 0.10614579747461172 0.012442186629833594
0.08190272858460743 0.3109033044479824 0.07761415976659525 0.01866041751896247
0.08297907058875924 0.3109375753140228 0.13875832438613675 0.006880816372896881
0.08226611778564044 0.3083840209450337 0.09338614334381201 0.014053905200592933
0.08260522188584506 0.3126453559967949 0.12083088339151146 0.014430752431799587
0.08363917539514647 0.3141788735216342 0.17563275548257257 0.0013414818079050465
0.0832736548794562 0.3199434789845365 0.16191461594908904 0.005193501916742254
0.08258154597285049 0.3195874830177263 0.13019321924496094 0.01332385888873178
0.08309122586882772 0.31430152127135325 0.15072482687778255 0.00531571270316668
0.08184446867988598 0.2995244132506919 0.04631432433001278 0.0022486194655783366
0.08199717461984812 0.28954632671228364 0.02687155465373481 0.0002258763854162657
0.08104296821788888 0.30109970516181594 0.005051509020847013 0.0003814983013766789
0.08235767102078839 0.29944334710840087 0.07535201094038654 0.007984850616273626
0.08130327495301233 0.3019296948128402 0.02223767173417881 0.0003091496608336047
0.08215728978603445 0.2978011285361991 0.05929168264881962 0.0021980869999030338
0.0834169423698648 0.29654040889104516 0.12707363847356246 0.0021942620693548103
0.0842395111832773 0.2889635013073435 0.14798856842484073 0.00021063377586512822
0.08396342623221593 0.2999433272369382 0.16717175516271843 0.000985546835415988
0.08455860417047883 0.2870189431496034 0.1591912914184624 0.00031917232037547506
0.08312807919301021 0.2854357295952834 0.07697571897495573 0.00022951636267213996
0.08361862882810525 0.2972904631486041 0.1403013000627941 0.001979098212661276
0.08332972162597574 0.289536211825089 0.10060684865782976 0.0006351558510650153
0.0843994903018447 0.2821101965395796 0.13534786309807806 0.00014071325057438025
0.08474669398284897 0.2878671794114769 0.17198919478340102 0.0016492383897667045
0.08307029294709262 0.2822066085004501 0.06382415150388632 0.0003129318602128551
0.08405377913461134 0.3027012392676949 0.1806195677541551 0.09221262801831795
0.08367855280893352 0.27934415390860534 0.08780117353068027 0.00019633643648926248
0.08317765642120699 0.3011100836963716 0.19704876905363272 0.1716364772315421
0.08189330043224635 0.30860545002030854 0.2090761513030573 0.146396271674565
0.0750981239374902 0.3097312736925082 0.2222147340515587 0.07321891083379133
0.072239838900462 0.2940961930592958 0.22286284683870222 0.07027039376320186
0.0688366784914037 0.30252538308870724 0.23054240164561063 0.06840355648686378
0.07909589965408599 0.2991801692689242 0.21302757012040738 0.10733622873441577
0.05638203177540077 0.3534238545638878 0.2935486108504893 0.17948069234182623
0.054707245919568145 0.3415531062856789 0.27799942492184193 0.12224032814877896
0.050303166862387214 0.3424627845647451 0.2895864174409121 0.17323754158253132
0.04880934009077429 0.3480785380050293 0.312784258893403 0.17800531419328322
0.06288634128669433 0.3480433487533605 0.27158685395349347 0.1129090670005258
0.07048014689229867 0.35199015334825856 0.26384005653685016 0.10330196365283043
0.08060315574571403 0.3440386515244036 0.2395965255166704 0.0756839105242959
0.07341580717156573 0.3435710039576643 0.24988534264718476 0.07892757291130442
0.06162947014287935 0.334911614024732 0.2586709561725978 0.09237861270881544
0.07787767309790447 0.32416357648163713 0.22625522062351816 0.08993363722996252
0.07707140221227973 0.3328039495956956 0.23359151540600698 0.08279508093418297
0.07004111142596404 0.3315386606561771 0.24343760611793275 0.07103120827671466
0.06905597817190814 0.35777188326955855 0.27521909657572297 0.13078028317742918
0.04370629865188376 0.33361408374109847 0.29915675190016666 0.15141835413931573
0.03903578976583104 0.3274768423111322 0.3099888448682312 0.15634062922971728
0.04457876877832528 0.34084680492911645 0.3197595288300885 0.20676300221983884
0.06248360967688212 0.3108445864188795 0.24430502150226371 0.07276455754439112
0.0552748772833867 0.3087719934812634 0.25563813398816193 0.08420692654804836
0.05702786811476135 0.3208399405866097 0.2585824509445184 0.08137045035877394
0.06805831014443638 0.31991824686267745 0.23922347511637349 0.055114739861545255
0.04419020140077273 0.3086621035527711 0.2752388996468121 0.12918464387163553
0.03895539566088961 0.3123993651075041 0.2898091135287792 0.14769289435398242
0.04217059958666748 0.3240191476886304 0.2920135603942877 0.16793956856023964
0.04869875169028282 0.32910327440837406 0.27966649406756033 0.1467547397716794
0.04803664643329228 0.298988107600744 0.2646535480435045 0.10834562922864344
0.039354628202769915 0.2966818498296949 0.28069921355134897 0.16284384424051473
0.037962259802758705 0.2832342083697689 0.28031549487249907 0.14364786577963254
0.04328432094021778 0.28153037766359496 0.26992465495930185 0.145210170923996
0.03510472454178484 0.29623389013718104 0.29088177683929606 0.17454621555934025
0.03410920593653846 0.3067256723903165 0.30026143615733497 0.1522354649086406
0.03437875718484773 0.3172287586987906 0.31385586651578373 0.1593038288495605
0.03039634144883834 0.29852275362395686 0.309272878083473 0.12984813917443774
0.035066612759234936 0.26928738904937377 0.28561412415323545 0.17443145625695122
0.032521631141384656 0.25721900889108884 0.29034719284388133 0.1566571531475373
0.024703864267608355 0.2604269004367902 0.3103715131070399 0.17181195692309892
0.02867968581420783 0.24582556326509397 0.29831339904033766 0.15899081352469224
0.03323752486196669 0.2796180065675543 0.2902453792002272 0.18856482245744655
0.02965869346120731 0.2855163677276646 0.3035123720107234 0.16335263654735724
0.025791328030543688 0.2799456823149625 0.31393292398881845 0.13549747137726673
0.027738160134284907 0.27307116806188897 0.3043393059203863 0.1602441253990452
0.02216975621060288 0.22807046815405121 0.3117876942081117 0.17540632514233664
0.02377099345249726 0.24173463162652226 0.31011553545631537 0.16688032387504503
0.0660908682762241 0.2896995653102721 0.2319991974952509 0.068701797791342
0.056813334446991964 0.29657529345352934 0.24873244172160716 0.08521032650881039
0.05230431776236956 0.2884967020991598 0.2550868824902325 0.10876008888779287
0.06001518521028801 0.2872389748748131 0.24187327585674434 0.0762710842056172
0.060037122884698 0.2614950040668521 0.2400782209249168 0.06466918788697108
0.06450694391384051 0.27530987237673116 0.232951754810363 0.0653999580216412
0.04749679145648421 0.27450885395004193 0.26106497687106095 0.1055113845350001
0.07529963678033016 0.2815320011963104 0.21522392668145174 0.09853301516133578
0.07778926060428605 0.2674550990102933 0.21187019483701344 0.10456311552073815
0.07135614669386706 0.27003857463298353 0.22166470749986078 0.07502016201597475
0.06169112524407805 0.35844872249694043 0.3218321223180727 0.21810736198877034
0.04965132047130434 0.3365690171406309 0.32981378066357964 0.24893322862375328
0.05622716324097565 0.34545368760223005 0.33097178659334847 0.24590361858085022
0.06015121697660336 0.355567299016434 0.3393449424699314 0.25098596734569634
0.06887211669466263 0.3585073471428272 0.3313904827397827 0.21360910406796066
0.04623153802752365 0.32395992444979094 0.3324694434325201 0.2705675850588482
0.04294811369452932 0.3128740366469266 0.3270912852729112 0.23427140844015445
0.034191225641913625 0.30892735823960515 0.32165870345657654 0.20825246445166395
0.03926264206012617 0.3235223916778699 0.32149771002399863 0.24464652706294546
0.038583707280283805 0.29278649309687743 0.32824406282522123 0.21503330302584972
0.040666201239534905 0.3018763001623323 0.33536488078774457 0.2583532008363881
0.0191072408902952 0.23946454851291069 0.33934179197866254 0.19951551356156388
0.021350539247309022 0.24157864004772767 0.3242719775212673 0.1853567548594901
0.030139028421557724 0.26935068759613384 0.3273964417953943 0.19564142340407037
0.024524650900570145 0.2522330435076427 0.3288590267928888 0.190674571345183
0.03509463111099209 0.2815765301925073 0.32868591757598464 0.22031811366199
0.04588909566153954 0.3527901759551366 0.3405387921436822 0.14529728156957927
0.03315978048065575 0.3630613116188265 0.3439288431868113 0.0863221518021973
0.013580280531272517 0.31162745672835074 0.35852465489488783 0.10460501546765803
0.012763161359943386 0.29354998437258245 0.3512074373801659 0.06672731646571943
0.013768408747344068 0.31978703890410026 0.37439248297849975 0.06999473606759891
0.012628257022651398 0.3082941886829432 0.37440155620343507 0.08327609002397349
0.011821696523117216 0.29743255930437623 0.36513844095263565 0.11495919313070886
0.0169743762740137 0.3145987380026311 0.3482193068390389 0.04407050793619918
0.01691262116166316 0.33433813841147747 0.381762607415595 0.09124077299659072
0.02254362227453402 0.30416108468717673 0.3442779224724122 0.13715835303038176
0.03724614977067523 0.3116492082358686 0.3410602191652852 0.2595032168210097
0.03297693192745345 0.29697614477823076 0.3416342922680765 0.2633435291215067
0.04021330051125285 0.3415223906562038 0.3412974566576079 0.17696920533809304
0.03639000252892701 0.3246990943317731 0.3416374888602506 0.2142091112631261
0.02217463789018133 0.33892691219145604 0.34555396550147455 0.04580597324275395
0.02423978151278122 0.32479733239723585 0.34456831003786126 0.09207882613615254
0.029442198874745737 0.2889179727642058 0.3842708710758749 0.17973711111265325
0.04636455345137853 0.31798858470133756 0.38387252223561386 0.24487300070045367
0.0704579823730222 0.3358562995032103 0.3776716619742684 0.2671652736737981
0.07112604240839758 0.33137245483434613 0.341786898416359 0.171251744909115
0.06903425634362528 0.33018539875320063 0.3682239079153995 0.19285229122351963
0.07495344210935051 0.3354135437217215 0.33211015037924996 0.20032811213922472
0.08209206951354776 0.34183255116690514 0.31039424412069083 0.21808909376067723
0.07570559373592015 0.3348723721164827 0.3180306885959054 0.21787070422438318
0.07329774802001876 0.3357632041377103 0.35495204416612086 0.1574616043804033
0.07449076399774728 0.3305979600396529 0.30636610453926894 0.2240613463091898
0.08328368080814248 0.33868723546277735 0.2899922272619054 0.18399936687134638
0.08263536485566587 0.34769146871574425 0.369183320306965 0.22261641992615652
0.08231562704306877 0.34331412659967847 0.32355941052979836 0.20420183372435605
0.08163126881125338 0.34491292432696785 0.35042901264523474 0.20468402943373876
0.06738828661285119 0.32072942709456576 0.3109547759288179 0.20840772209175729
0.06379611662358578 0.31997387565777746 0.36100773424852733 0.17025910174444683
0.06877542345658764 0.32541899238836236 0.3247821199753039 0.21123304739889942
0.06500853205665193 0.3201723680659642 0.341315134824004 0.16911439812764917
0.06258372973224366 0.3147381866678368 0.33212156962546036 0.18281781975404743
0.07671036743133589 0.3301523614571999 0.29305664560810074 0.18975746738413768
0.07685371921599872 0.32818395419010754 0.282188177736398 0.15770561951804732
0.07644957329360194 0.32827421157522263 0.26239843834027343 0.10294742541539435
0.06889539320019117 0.31368648181070397 0.2945311934374545 0.19149295228550026
0.06369019917304194 0.2925715942775514 0.2944444520340078 0.20187324942930468
0.06232997259059741 0.30716131362007343 0.30915706476856564 0.19520466777098755
0.058981439225464644 0.28918432524095405 0.3048287451590884 0.19340174122530407
0.06821999042054791 0.29865941520658856 0.2736624380077961 0.14602953960543338
