x y z curv
0.0218282433155369 0.3340278681765167 0.38885435804519153 0.11385712745963078
0.03442131141311816 0.4012221513526922 0.38885823972581085 0.12969606202516315
0.04925189540606771 0.3672957716269824 0.38885300310639603 0.15479318633126726
0.024739218997905984 0.3468214382780961 0.388855017725226 0.15425360089377851
0.024147604050897765 0.36088955359574043 0.3888563296333226 0.12603044999555588
0.04343490272154052 0.410733854849584 0.38885767095882534 0.14457503053344825
0.046218992861918266 0.36118662071807234 0.34818970789304143 0.10388113740638286
0.0629433751853796 0.3668190244093794 0.34434533621059454 0.16495896876993574
0.07223310455275761 0.37777330902335265 0.34572393535273327 0.17570707784353906
0.08252686155077125 0.3739778263572861 0.34013235512834306 0.20795619366515822
0.06085480669105045 0.35901554767324795 0.33524595635901944 0.23134722132530114
0.07848087658405656 0.3712763581233367 0.3284201375248196 0.24083326076727196
0.05383743705713249 0.34792553137245086 0.3346440424285288 0.22196992254992748
0.06128396749982189 0.36283050548161666 0.3005896522350806 0.15568258193557086
0.08083157066889358 0.37396962109133963 0.29746389802159484 0.16674386665191954
0.06883910359387634 0.3708085479506198 0.3119544243660253 0.15947795829355008
0.08240779104634907 0.3771479766593796 0.3090083295742925 0.14711620281313248
0.0902475043572122 0.37823351885713397 0.3004121901814617 0.1408893053602995
0.08941174383358391 0.37444975558769356 0.2882709696092685 0.1323756293054226
0.10182056215946518 0.3800170230437895 0.29245809173151877 0.12843109452214288
0.1057011728209688 0.3856901819597289 0.3107272969796845 0.1409080689040466
0.070078320340626 0.3671712247133056 0.2919553560410475 0.15477979688445537
0.08246308125283025 0.36936006358800644 0.2819373911930206 0.13286489409066457
0.07451902877842449 0.36294507382788443 0.27556415535981704 0.11520502051793054
0.08989451552079056 0.36442913078424877 0.2638627171886265 0.07776086628395931
0.07574338852767169 0.3581988482032141 0.2641109285737088 0.09528550607723672
0.06013255076047421 0.35546474280377305 0.2839396586721813 0.1300142985292963
0.08998609167893504 0.35335686042017544 0.24344896607255184 0.11301101457642125
0.08274242198949124 0.35605653145407673 0.25421757805339706 0.07814436389562518
0.01639322124259765 0.3596105320456517 0.3648873796937346 0.10886219758618389
0.014032333304456251 0.34473102180936904 0.3690922711902669 0.0825649340089232
0.020001940143039947 0.385480009011506 0.3732578221037599 0.13611694192153578
0.014472197097786877 0.3421742569267872 0.38580624256133655 0.11786479534845115
0.012258676760113954 0.32751174686390094 0.3848235192364539 0.08219261501623762
0.027930855765439987 0.3082180432753522 0.38885232262860564 0.23483668839568148
0.024896587236051735 0.2930191492484099 0.3888520771224167 0.24526723347680604
0.03535888736582764 0.32713062702845397 0.3888522915233421 0.21972376172749347
0.051362009884035234 0.3437941505827141 0.38860531589937947 0.17705386354069708
0.05594275471889852 0.3552340993304053 0.3886875416493357 0.14860367274371042
0.07262969176853296 0.3661479056585031 0.3887254021521189 0.1708316941219562
0.08254844861010659 0.37386273184148544 0.3887931220971778 0.1684239173612343
0.0947002037167334 0.4004845817806154 0.21994101432650864 0.038657956530676385
0.11421272122582701 0.4030465266744554 0.2360653548121775 0.05107887855636436
0.12138265672180241 0.3951548292669796 0.2313106125498401 0.1111293865681926
0.12438865826363445 0.40417794675403595 0.24123676631302315 0.08843796281586493
0.14415840385522755 0.3949070203580738 0.23556244985795893 0.1512179874853797
0.17240285849471762 0.40016526411291453 0.24279632414484636 0.14059642093719263
0.09796146317521351 0.38306366374437967 0.21771660063517217 0.06160187966446975
0.10299350663432359 0.3938615111459487 0.2235045287567703 0.04856485978879197
0.1083704983357061 0.3794254628153493 0.2240697723801276 0.09768466026133275
0.11667161017666514 0.3859738398857013 0.2275705961948582 0.117934415997689
0.13422607860896074 0.38737831720708804 0.23245819457165112 0.121994434401454
0.1764440467269552 0.3857853661010486 0.23767791058521842 0.15390074696303363
0.1656804959941613 0.3895410142336473 0.2367058431667466 0.1612093925782641
0.13164701587904687 0.373916010128432 0.23267674083961604 0.17420360298446164
0.1227301089732954 0.36699247387464456 0.2337888122100083 0.21244296343166758
0.14809245508040986 0.37342845543561337 0.23655641000213673 0.21789456299691828
0.17703011648851918 0.37332831656764515 0.24007322915237006 0.1964639216936894
0.09081224738345642 0.35820365700188794 0.21371109033248964 0.1172290053541425
0.10030057992305347 0.3649730885862988 0.22063041928896843 0.16077327975390518
0.09878273550636436 0.35362910437381007 0.23616980619491654 0.17388404811167904
0.11295269557809107 0.36849883475787965 0.22739957518801854 0.19461640315614706
0.11303162687817264 0.3603078278285566 0.23812509500150641 0.22950792318130755
0.13778655166777015 0.36674595645818886 0.24265790964386552 0.2502282724204668
0.09973806551558077 0.4247536463494287 0.2556255311103956 0.0686636982642642
0.10828584138643835 0.4197437135079354 0.2619341045589494 0.03317900746703748
0.11662796684885024 0.4260181467302133 0.2819808746730567 0.049441159063482905
0.13760673519029648 0.4212975510443623 0.2835249274264878 0.19229590376954656
0.14958294976926534 0.42150567736531663 0.28729773035536094 0.19780182342786792
0.10339781564070079 0.4132815335685741 0.241924676702309 0.04108227428991844
0.11641253245461947 0.4104024807733448 0.24778465764116842 0.04229846840706345
0.13385784684456634 0.4161754156346604 0.269226144747413 0.1958587795238779
0.13516192250783476 0.4118531965252782 0.2595163098608102 0.1864825348896055
0.12182350202980048 0.4158953706079532 0.26255389807241847 0.08470771514518319
0.12325101166089768 0.4201225055033688 0.2743387978403511 0.029169529098175516
0.13676071445280027 0.4034533233772549 0.24377081110588641 0.1716343434102025
0.1536805116867059 0.40188265268126117 0.24346203230357766 0.1433295830425593
0.16418439151739622 0.40474917873958877 0.2507965952767536 0.17248361422604042
0.14644530104014492 0.41198732217097855 0.26386587895906644 0.21467911076807292
0.1526881679246015 0.40815521095756246 0.2551255789298376 0.18897464178859408
0.17168839318324344 0.40938649389264264 0.2622643814327794 0.19311939244159296
0.1586192942108372 0.4131360376746913 0.26938137831993125 0.21620283106749463
0.16890309138449408 0.4143201184974694 0.2749767445642902 0.19514173131525203
0.15345584662285922 0.41694724555974255 0.2783139334221167 0.24718424103097503
0.18661142524436203 0.4023835618699799 0.2461779887035579 0.14353434305348223
0.1761566998849278 0.4050029527427707 0.25228665330570604 0.18661315746109575
0.1573445052116415 0.3720961856806333 0.25303932767436144 0.24602306349484665
0.15009219108527624 0.3798927285020526 0.27134162613139207 0.28231611688241093
0.14661250301375414 0.3748734886707587 0.26129892258054466 0.2379481065953798
0.16116184859878904 0.3818594111373995 0.27320414555130706 0.25990356896011463
0.13592711167985705 0.37011409700342124 0.2533531829666514 0.2027795274844603
0.12948460752600488 0.3731754291061462 0.2622734332095713 0.1744177623538782
0.13697755502302825 0.3790527622293131 0.27349910952882744 0.2210595744043698
0.09834880624541162 0.3735885283303285 0.27868857067695796 0.10902135013531142
0.10962852408986817 0.3773419931681561 0.28074018137936746 0.09507321955687205
0.1434897162811384 0.38419149850123413 0.2834352855557625 0.28002171927715763
0.12529053513135652 0.37878686243327664 0.2766876956842001 0.199415113046809
0.14504658566778408 0.3886720710070965 0.2949758539305366 0.22843756433797596
0.13351581904032392 0.38719272280401473 0.29479442299874675 0.21950225127305553
0.14591742581867032 0.39291251067999566 0.306664940456026 0.20448484469327313
0.16555113442413957 0.3958038652202035 0.3093824753363503 0.23342818189002124
0.15763447664949584 0.38783231442936 0.28831375861135106 0.30617689708711326
0.17611204015537843 0.3873440112008746 0.2836309837399561 0.30200043199859067
0.17145454959929862 0.39084901600804195 0.29384388202796574 0.3044244127743001
0.16773369454500375 0.37710353413822945 0.26176037961555654 0.26707555457126303
0.18404038848190327 0.37667061226841786 0.26079313667181947 0.263481540354495
0.1870522424077336 0.3715423324967292 0.2499796454062262 0.27595723124882804
0.17182204774972754 0.3714823839612035 0.24905839691258694 0.22692288108210631
0.20323599709998885 0.3813888991483336 0.2729663791827817 0.2594549955048073
0.19254855290143397 0.3840825745669744 0.27742737309266136 0.2762599272892891
0.11137212818970703 0.36579871490783056 0.25437758727988535 0.12092991239312906
0.09919939528243782 0.3624103545839941 0.25352424868931844 0.1030563918412914
0.10186796429076397 0.36979222730046296 0.2680672838039444 0.0874557288187215
0.13136129768345886 0.4340091944210351 0.29718041065814665 0.027271634212051657
0.14235794482214612 0.43406132449895046 0.29966997990984523 0.016132494721774655
0.1717206834876958 0.42560661995519644 0.2978011998550782 0.21521785876809793
0.15865232552072428 0.42806156676478885 0.2978041527560021 0.15149912002179436
0.15499185775836086 0.4366487199345455 0.3043166254823289 0.05232873989036733
0.15388112964363657 0.3951412697302361 0.31494114585601635 0.23788880475936322
0.13215198080139104 0.3909972194569177 0.30856155090571885 0.18362364323350763
0.11787692244472192 0.3879767938906596 0.30772201263546584 0.1236555419618207
0.1659316384874518 0.3898035616981334 0.3224379236560432 0.23289538779482072
0.17420766566936474 0.3975175636652291 0.3307361809406761 0.2552459779705297
0.11381788949064564 0.38450043152733904 0.29865799949792216 0.12703716474604923
0.11051375948679926 0.3838669824106311 0.32228552756939133 0.17039018385951968
0.12232333036919543 0.38482056669712916 0.32313118576758826 0.1873527130099364
0.1375773592747451 0.38503755129403694 0.3240074177776266 0.19064033195607658
0.16547148165532063 0.38436506549023935 0.3350249484061874 0.227474935572163
0.140137704284807 0.3827885683463027 0.33625464924503845 0.24576789807541427
0.08913235498691126 0.3778235374302362 0.32298160411181165 0.19513381999295784
0.09830343735850988 0.377144942031321 0.3345214576239297 0.2336191468538418
0.15521513529583847 0.38319883000747534 0.3282559249422595 0.2026290069062677
0.16667957032766278 0.4585625512236175 0.3434410609515377 0.1598567053631603
0.1669811032608197 0.43193881514505095 0.34302591564919244 0.1435647211478004
0.16294858112578775 0.4431931042011943 0.34341987359213594 0.150754752189357
0.15710555180794417 0.42276940698739995 0.34344123597410176 0.06617427168354131
0.1449176662540756 0.4575948490698941 0.3446440582416144 0.14073969780533474
0.11993405475051028 0.4091831717502792 0.3453175595672069 0.04264636527641081
0.13207584803698877 0.40747611075122736 0.3446127481340196 0.11590423893093318
0.1598430865564109 0.4760623909166236 0.34408531691792466 0.14790585029459455
0.16096575853045691 0.41027246265107586 0.3430383288292497 0.11487522228882761
0.1518480279766026 0.4663423008178057 0.34438719484759783 0.15604632802584267
0.13486077785645326 0.41932731496861725 0.3446342320359863 0.0022227425734728788
0.14734404067869863 0.4396213595241584 0.3442394410880941 0.11817204747977733
0.12465633650671563 0.3969318857281781 0.3448700983914284 0.20621861022419508
0.1463122565193629 0.4134939640113996 0.3439063134191897 0.041629689260928686
0.21399854872967417 0.4379403618138191 0.3888647136323466 0.09589933178995398
0.12747298904272641 0.44784169911845995 0.38886152109614963 0.09721950161627059
0.26423924605702076 0.4501828093381956 0.3888728259886528 0.09223764765757587
0.09705561239134028 0.4513150114151488 0.38886039620254376 0.10328918815943101
0.2173098192700115 0.4523277962283828 0.3888699724806059 0.12655435831726658
0.24976523254930422 0.4591525155647389 0.3888748360071793 0.08300675332711888
0.10936496859136362 0.4474565295094611 0.3888599981538703 0.10297202492571683
0.1895893323811087 0.46444094036030026 0.3888720599296692 0.12014559943268369
0.19986421191115322 0.4158539391173932 0.3888559464169131 0.1313725607588833
0.1794697193830222 0.457423331799208 0.3888688425471293 0.10664757038730893
0.19030210616227916 0.4412751315130432 0.38886405606674623 0.09795265822740738
0.08787730307330928 0.4664365108461729 0.388864952405548 0.1344379349708717
0.3110634080165186 0.46536552763082856 0.3888816990957386 0.19244004443792184
0.10977303059823551 0.4612752795677374 0.38886483649026043 0.10867122085534717
0.12277649348839151 0.46408456733676484 0.38886681115485777 0.1500072271208044
0.06222516871123134 0.4664337112469744 0.3888629838127712 0.14804832676707708
0.2254843513298038 0.4446893414069339 0.38886794236079725 0.11251836474021823
0.14588033598951788 0.44718077087949903 0.38886270309885734 0.09559564474737366
0.17903299270870576 0.4187406514886477 0.38885535276242095 0.11378771726680774
0.2028909467809592 0.4432275896527772 0.3888657008685861 0.12241066251979806
0.08285613983846746 0.4567837521983507 0.388861209421929 0.087183267570686
0.22178143338221376 0.4627167796826184 0.38887392941727505 0.13918370685548154
0.2283720662653034 0.40952614948165744 0.38885593187470213 0.12537175266110012
0.20750298862679953 0.42682132114909066 0.3888603474909809 0.11259811403181018
0.1781779447174912 0.43641027347397515 0.3888614337904807 0.10331606006535912
0.1997556372478441 0.45624252640810836 0.38886998779736537 0.1132936728795829
0.2381601045510145 0.44791147547625043 0.3888700355028727 0.09976657400227792
0.28997588559148707 0.45537643837661845 0.3888766067625315 0.1006268643560018
0.17278340304427275 0.4662089017793728 0.3888713858581978 0.10720390083663586
0.1534787838648644 0.4542718756882404 0.3888657526648347 0.0934952139782252
0.1741655484250204 0.447532855915872 0.38886499516260287 0.09478722369598641
0.27732271443036804 0.45228378556705195 0.38887456039437074 0.09814883744428665
0.13719985851917688 0.45616846923973586 0.38886516376303004 0.11652712294722997
0.2521561439774644 0.4458344386310236 0.3888703865288053 0.09096637454603393
0.2379701503986477 0.45948983703232626 0.38887404862007824 0.1233926280579101
0.1666847154171796 0.45646878150300185 0.3888675298343421 0.11902092857891725
0.24725639997539414 0.42169169950605195 0.3888616123256251 0.12396734821985593
0.1467483722517748 0.41303553546391814 0.38884398006665094 0.13144874317023508
0.05051869692771807 0.4651163205050947 0.38886145332342353 0.18018550008831358
0.1904788232721997 0.41000948798035125 0.38885256942763646 0.13171910528827604
0.1026395058132947 0.42296538229515573 0.3888408240386162 0.10597501419845451
0.15923254746325555 0.40893002068012585 0.3888438362232412 0.13292467140027237
0.08475267170042364 0.4336690611385132 0.38884489120293364 0.09569471309022114
0.16510793744584912 0.3949345353714342 0.388834108103798 0.15417979689557484
0.07012348013516799 0.45385033083179643 0.3888573684866461 0.06892297028948477
0.13679730116454122 0.40752883127559314 0.3888370642641724 0.11299619163316042
0.10751946063508457 0.4357388791166297 0.38885228209869555 0.09679925902273799
0.056669031928678726 0.45548154065013263 0.3888552865386108 0.13206522271883675
0.12719332164931607 0.42754015145771584 0.38885067095092857 0.09171201416398733
0.10801748254588323 0.39485289564158177 0.3888196656240681 0.13502970278185109
0.12236555273913333 0.417579153848043 0.38884147830944993 0.11775491527306887
0.07600501192637617 0.3822075888858614 0.38883689006874717 0.14439541970761938
0.0673799212351894 0.43280287886072083 0.38884596092877405 0.0959299782846091
0.08120640194351565 0.4111555089488437 0.3888351125690599 0.12232620370434844
0.06569529742981466 0.37398575429553005 0.3888434660812187 0.1414520799957928
0.05352949968933893 0.39038500515547636 0.3888528469989094 0.13491006005525397
0.06520972673182311 0.39503716318438503 0.38884510723890636 0.1134018475473802
0.06341352091080726 0.44522715964325965 0.3888494589327738 0.08294720681510369
0.09024911155335259 0.38436339807040415 0.3888272329355391 0.14900365375694521
0.11479534879457833 0.3916897231239227 0.3447369280393331 0.20694484016083634
0.13619743606073093 0.39313460610890893 0.34384559967711426 0.23443196985143572
0.09771441075134346 0.38824257394768585 0.3456906217757131 0.20175040925448082
0.08414211874629554 0.3867049029911148 0.3468186568211842 0.13836525933384836
0.15674801318691597 0.39249984077605116 0.3426669028469195 0.2660326929078301
0.1706254610889176 0.3932448167867242 0.3410900471027887 0.23166740443904515
0.18633990328721112 0.3908555846059204 0.38846023722241674 0.2006856785097334
0.14324753914855007 0.38894822309728716 0.38858756174273024 0.18392942813542235
0.10757014132419489 0.38116104129510614 0.3409212802974526 0.26988006779185364
0.10900039534158004 0.38146213808643065 0.3880712471872297 0.17352904116672485
0.12242597173212474 0.3844896138073093 0.3414107839308076 0.25868137533941993
0.19268760094472484 0.38117208282478937 0.38556834306016846 0.24666145090881547
0.15071773128708332 0.37548780421062433 0.380185822919923 0.2778147658295524
0.16389853906017252 0.37630066265283835 0.3795053569698417 0.2660036017027289
0.17452501693888042 0.37603086445099065 0.37419620513618224 0.23399940878753858
0.17574797259176345 0.3699954234712037 0.3167793090109896 0.15740218292100547
0.16532417037303052 0.369806158209292 0.3199541120772036 0.1521284151814069
0.15916177146205257 0.3746219650046197 0.36647227051012143 0.1250930644992176
0.15050817694583885 0.36772868078422755 0.3099163308904198 0.14098835373647162
0.1625712258701541 0.37170226190389183 0.3384569611545968 0.1677620752402006
0.15106933769328124 0.3691311559675913 0.32211137541062035 0.14675548915523112
0.16028705465406212 0.37321494813643863 0.3532687432831959 0.11944784033839646
0.1685721101743781 0.3682175292074944 0.2999390747624945 0.12373413345728536
0.16582896294525018 0.3672556398181908 0.277050528022328 0.08131195122795556
0.1603399937712986 0.3665416494378329 0.26565416804028513 0.09791419800006215
0.14326086954094502 0.3648681179287785 0.26585221507239637 0.08363133560005165
0.14973021899607977 0.3667172805969606 0.29016605468484447 0.11457152539916916
0.14760854658037678 0.36585490151169475 0.27702149463021053 0.08624220052759092
0.13694434326135219 0.36463170483772195 0.28009346068149865 0.08922578220034108
0.13668478057638594 0.36510843610812704 0.29257211285176227 0.1159023830104136
0.17830845304586806 0.3678078173934898 0.2821789166158622 0.09441749429007268
0.174745884348883 0.36680078173945496 0.2614857454294485 0.14946572265074068
0.18467609566618542 0.3672742732558696 0.26859228709559435 0.10106156590199715
0.1861947324978044 0.3681666732865471 0.3030351351929146 0.15221602038589088
0.18886171837654978 0.3675922761098497 0.28630890491972594 0.12355977674369126
0.20022618129534817 0.36701560631242514 0.2837256616317091 0.10375455739624706
0.19420525481303116 0.3669962981627587 0.2738807985383057 0.08228730531264
0.20926652363348364 0.36686175598180315 0.2938957453855084 0.12984188215283005
0.20390461399433074 0.3661465604297614 0.2675226039525551 0.08805425407903124
0.13086237452197438 0.363254299649303 0.2700418495274943 0.07502185609098072
0.12236134082385655 0.35865299752081087 0.25342810437261787 0.11798325080391192
0.10923226561599508 0.3582337984997242 0.26480756165291697 0.0782629693667925
0.1001193717952551 0.35515744586292797 0.2728602372932994 0.10391270968875665
0.0929393156183412 0.3510323145829143 0.2623783435629212 0.08766959349012805
0.08974122752284931 0.34861539878936 0.2798914321058237 0.1408983182880291
0.10948259771365546 0.3586887117637292 0.28141121834215954 0.10892332075454915
0.10346653511652797 0.35273814266463643 0.25191631361652306 0.09395710756991495
0.11055215671231967 0.3495618072506287 0.24063436743609268 0.1395156255277265
0.12177665944277757 0.362062467562492 0.27663469834004073 0.0829125959410426
0.14226960000702366 0.3598309365772423 0.25001259981299173 0.1224341031600853
0.0923036765050228 0.35186805724825354 0.30198834951062303 0.17354542236864134
0.0905215052859315 0.3490958076306831 0.2909328615530548 0.17232044465889723
0.1005334024233201 0.3603390544720235 0.3450801884888589 0.1539330537447436
0.09714945886352852 0.3574803045157031 0.3332482641245007 0.1858677862945218
0.10210060049946608 0.3563952329575096 0.29082156592536473 0.1512536784227704
0.09624038455958933 0.3557156317473138 0.3187669470353336 0.16671816053156324
0.0909224370807903 0.35539698795178015 0.3516904266390881 0.1397947417826792
0.0960976783463515 0.360446048303449 0.3771565531923467 0.27093481925321156
0.09852290539743067 0.3609973736219104 0.365477560652731 0.1983704053086862
0.08414966681790238 0.35420569751267683 0.38171235479265186 0.28557469674555414
0.08050131642777592 0.34608457999022413 0.34435487573094475 0.15970271056729496
0.09197400282196679 0.36698136784808716 0.3869232333365842 0.22631479939836385
0.10484261991808327 0.35900039775228987 0.30809374613227863 0.15555841703934165
0.10921645865886266 0.3618619509388773 0.3220809051048181 0.15390265639641543
0.11408305839023995 0.36517961435831936 0.34109348295548536 0.167606246840516
0.11458695895420912 0.36681388166477014 0.3583055986852559 0.14095062996204422
0.10657403662420156 0.36536589450720186 0.37441274072157704 0.2845575768639812
0.12586299373266413 0.3652496606212009 0.3111595270767462 0.1304091436227062
0.12510413449456884 0.36377405308491373 0.29674091649675677 0.12205202218485955
0.1286088017948057 0.3680525653281702 0.33529140439800553 0.14289882376593974
0.1297191547082477 0.3709566857399465 0.3646249212384355 0.14538445887540688
0.11694579842009427 0.3689948043394717 0.3748256511583293 0.2356228435438374
0.11370797664735403 0.3614952213146838 0.3000925042369494 0.13747304810407346
0.11928198540436072 0.36537899436055626 0.3290381916218788 0.1647037908325107
0.126599808745958 0.373158921177878 0.3839517792998811 0.22248229658730925
0.10945529893439673 0.370252322428557 0.3846089454052416 0.20978111449019196
0.13416525301292714 0.3675144697971733 0.32360367525194594 0.14156039818778127
0.13648113419879634 0.3707702907646073 0.3537356037659014 0.12275375258509609
0.13805703427276583 0.3668661327211437 0.31289485438466924 0.13487548430564342
0.19530387008510192 0.36878070930606843 0.31187115328942033 0.15691904426198394
0.1964794102355074 0.3699951100602019 0.3237929597554997 0.15653264504733352
0.2034787547867864 0.37199953819305953 0.34493985424019424 0.14042051876553036
0.20711144561357064 0.36850486029876395 0.3126701158098643 0.141776724270428
0.18507940628991823 0.3702247394402748 0.3226716286742421 0.16349999246741112
0.20315719070077065 0.3732387140933484 0.3566630903532947 0.11463386663091976
0.1863119291258434 0.3745893062455451 0.3608591732195425 0.1173797240952856
0.18639720406956833 0.3717433725732534 0.3369498169955195 0.17229278437502663
0.18058555582117625 0.3735753959490859 0.3493504989678452 0.12849946898146863
0.18544839799737473 0.3766066563912219 0.3773902109726046 0.28125883747539465
0.14035737502914847 0.3724295519811468 0.36571950051448643 0.15793807772591395
0.14184331744409906 0.36931496863575625 0.33327423693074654 0.14213439306293177
0.14832014038611976 0.3718017309940345 0.3503867968358615 0.12914493739766997
0.195636198983956 0.38876293193520595 0.23690068191404196 0.16259348282977634
0.2077785367580081 0.38381690753398817 0.23534847105509044 0.15369628441396874
0.21851550677555107 0.38264135240718455 0.2340272839311891 0.14866219878823989
0.1881697054782732 0.3800371470775561 0.23736000217468994 0.18621245651412588
0.21972326518030488 0.3953516281778884 0.23525473446911055 0.13222006296815858
0.24257553431346918 0.3914359898264675 0.22861185069993392 0.10513980436759614
0.25666666221253465 0.38988056405078186 0.2228776628095785 0.06871524862771465
0.2295973650227926 0.37560454414335304 0.2325755889447603 0.22349476441546756
0.19968867990183004 0.3751676176136742 0.23771986562459801 0.1842206618736973
0.23062619268000592 0.38673964573577657 0.23178639071909074 0.1323038892529977
0.23933257676631195 0.3717817872428581 0.2303382358904966 0.19101879870853786
0.25544923551753074 0.358191227157563 0.2281206121761183 0.2365684399326148
0.23993218641417727 0.4281214296170333 0.2871709014520941 0.053574988688808715
0.22900722709974367 0.42019233064033157 0.27842761094492974 0.12709618321625935
0.2161802832247733 0.41607118720756814 0.27254647190875225 0.20959388767658063
0.2227761967422186 0.4253462998927692 0.2904679825249183 0.13251541469078942
0.2502323242185135 0.42028995186873624 0.2659276464800048 0.039984821398345666
0.2603685629119774 0.42767913201755914 0.2612287285683711 0.048420723538079205
0.2687796679600825 0.4183630932505082 0.23033958356726822 0.044478190387835737
0.20194059339978415 0.40687249791505087 0.2533271603424778 0.16259790876744898
0.18993830378120524 0.40776244851744375 0.25711942246243563 0.1773180378115611
0.19487904374453896 0.4153520638810453 0.27840295754671385 0.24628228532663313
0.18043890139597715 0.4163780847690564 0.2826380502628403 0.20804105581699345
0.20028217657208663 0.4006768274544695 0.24266831082039844 0.16104560230870021
0.22433166252743222 0.40311346931440606 0.2430370349158703 0.13642176991186034
0.21137854476758436 0.4012201387134983 0.24155788037922588 0.14534245860506081
0.2021606094332024 0.4116692355467105 0.26638050823740583 0.17694191234415954
0.21274288550580203 0.4107789085907568 0.26118652930120234 0.20552520292463114
0.22577512537718442 0.411849745022797 0.25977298027624734 0.16220669195176393
0.2394223332440018 0.40723270057555694 0.24447695411555465 0.06614566390938784
0.23817401606971883 0.4129975626844349 0.2552010773198461 0.02034833007714191
0.2344803240044691 0.41568677394659714 0.2655062785607271 0.1353890945069629
0.2385605955289239 0.4000891811474056 0.2346413173886137 0.1091673684410391
0.25672395985161617 0.41142301994074726 0.23998300507723996 0.04606219033696199
0.2497851602846487 0.4123433154953985 0.2482886547878681 0.03575458603021707
0.20819436790081666 0.37315975332253704 0.25554981328218507 0.24434267512244895
0.22121943590530935 0.3673490096938915 0.2458415943800779 0.25094175538320146
0.20749467840738348 0.36905115470317407 0.24470847901948573 0.23056546510609602
0.2187198049366781 0.38442695382751707 0.2848462564116046 0.25704538359545276
0.20448672217887806 0.3875769528985786 0.28806406440085985 0.2686612003442817
0.22780806518258376 0.37714299286583897 0.27038133711568146 0.21834736768447516
0.23047918298700149 0.381222121212211 0.28085051650234577 0.24579398028813385
0.21329626464411555 0.3659084024666621 0.27750258386095106 0.08283586990765116
0.23128132894598852 0.36363484705039567 0.2857206203542397 0.09959946295007782
0.2269255903133981 0.363751765629155 0.27023753667035355 0.07648087202190884
0.2390105492751346 0.361666789212984 0.26575337135062777 0.07402277254251337
0.21980298732262846 0.374653934732213 0.26194552615821876 0.23698007362578682
0.2312064210462927 0.3710749595444738 0.2570950166211842 0.1828017603192012
0.2432796001512401 0.36116153660829964 0.27803353928378177 0.08888597988829118
0.24011357590078933 0.38295254558809105 0.28890781121486997 0.11453879606461587
0.19569073839883938 0.3649157443580724 0.2576713621587923 0.13153431719804914
0.21104018321613258 0.36147731255166116 0.25202759395842206 0.13777768605405427
0.1846848041562647 0.36132762234553284 0.24912081889744161 0.12495796162954904
0.185825889454989 0.3544983091551351 0.2350261642625005 0.09147799678967884
0.20042709404175357 0.3536432285797806 0.2345483152535685 0.09285926910163758
0.18094662399182532 0.3458400074345138 0.21659369826416763 0.009584250257816784
0.19154520477381834 0.34991304928291916 0.22600376371027298 0.04957330652465737
0.20972202657846256 0.3553893931795055 0.2390054226918253 0.1226064284231886
0.17326404744782678 0.3405994185890083 0.20576277831302436 0.0011173841308830385
0.1675451645481748 0.34692379710809934 0.2198024436203042 0.029922635784752863
0.16193550961061073 0.35177013220589315 0.23067827623589723 0.08327803444557307
0.147680233751155 0.3496075332575271 0.2274270423146672 0.04812938862342669
0.16982231085789642 0.3594855276298742 0.2463851064194565 0.10540071692729683
0.17441834768066297 0.35450134725485066 0.23531207315821895 0.08318888812961706
0.19339215549502042 0.33687809818160547 0.19838331357473143 0.00275780913304065
0.20428177705133682 0.34699647051056726 0.22082536769952155 0.04730294720846902
0.19854542885223891 0.34120014763507156 0.20799865451860916 0.002072065879542069
0.1842020429946329 0.34081906975863374 0.20634133099400495 0.000846386630233505
0.21432442023655504 0.3493036764214752 0.22710539121559967 0.07362979629946015
0.22707059190553186 0.35015528956014036 0.2315200373862502 0.12933255687274853
0.2254172440934607 0.3452191554212682 0.22153793368169625 0.047109429489533186
0.21856750317480816 0.33871173426092693 0.20851002199152457 0.007525389466029691
0.20870904940965818 0.3348394402916281 0.1989712777249565 0.007718410024957756
0.2365083397985565 0.35241195055198454 0.23943790058858055 0.13711545850712012
0.22342690733805054 0.36219280058180225 0.25645411106136756 0.13950441753944817
0.22557746313047938 0.3553937922947081 0.24270434591037357 0.12928227508795098
0.231715712314491 0.36539151898077815 0.24203486766981408 0.24923994246016679
0.2446732327063291 0.36243208032163304 0.2341835801229721 0.2247721587961521
0.24944534216249312 0.35894620573963354 0.262668809628353 0.07199193284680268
0.24157743350490907 0.36849671102834436 0.2558004505948336 0.14446079681180848
0.2507727913924214 0.363376809631542 0.24971841603465142 0.15549242565429305
0.26406967169975154 0.3596799870888001 0.24875139345723266 0.11623273840156695
0.26196770917093914 0.36901328364217445 0.26802793689128057 0.08006785598568199
0.2586296977799928 0.3651837669790531 0.25767880242051533 0.08780597943260982
0.18627357313626453 0.42995982736307325 0.32245757273258424 0.2442353389730857
0.1841829622005984 0.42855347301797403 0.3350304384037003 0.24333091163506354
0.19807278592231176 0.4293925203364377 0.29949381442397505 0.14575005997985105
0.1762515399627534 0.42644926306207426 0.3148196850662261 0.2373735143252107
0.1825628717834329 0.4225093146030142 0.29964951987307165 0.19465828308927424
0.18459923173274154 0.3925920030402782 0.29784754793493784 0.286261766520649
0.19261033698301294 0.3887083245709342 0.2884639106206252 0.29494716483163347
0.19291085491860296 0.3962052098797787 0.3099542455359712 0.26076253516208175
0.19631029675934658 0.3919538187770219 0.29798055847540883 0.2535769392040136
0.19323697633225248 0.3903850717712438 0.3221428574440469 0.1842148707038101
0.21193129695943505 0.3928186523444879 0.30532829013598817 0.2497911222676778
0.22513173598656477 0.3890458127263258 0.29929442943730517 0.22676263242664266
0.22993551670336781 0.3912038113204898 0.31019261205982185 0.13385997717658957
0.2075197305135677 0.3923286816532857 0.31969271959674306 0.17698628363962396
0.22007886975860214 0.39216809614297804 0.3189295874944664 0.16592408111826737
0.24541146524726545 0.38806151565856273 0.3190843094511145 0.178123988235007
0.23201815959069566 0.38484022818515967 0.3236911315549682 0.18518996378098668
0.2518828718691858 0.3822841759425035 0.29465747160578715 0.13040753059859161
0.2422006844000706 0.3856619433335479 0.29907627783812235 0.12232414872777443
0.22100790261989497 0.38137921551922216 0.3295851836001149 0.19786249542406933
0.18107191131172576 0.3970768329779262 0.31011882954551795 0.2524757678819467
0.19129073257306906 0.4158252900114241 0.34264161357764356 0.14316922340255633
0.2009332279601564 0.48488453339712695 0.34425112138491254 0.1467474732745771
0.20484737335923128 0.4962542337932405 0.34464564373647866 0.1413439678706442
0.23412384203736541 0.39775733112176814 0.3447735791221611 0.1687680830020443
0.21346848838276494 0.4399286316549108 0.34426403717857473 0.11737338642822695
0.21249708782722332 0.48546888440407987 0.3449085190425268 0.1484826353171532
0.20035926524310513 0.42620469925445226 0.3433192930400631 0.12873133267342668
0.2135730807165458 0.42472395166086396 0.34403655655997484 0.015765519709278128
0.21954850384361085 0.41198665852550787 0.34417571435521205 0.048379619488607396
0.1966165653145993 0.43789057725112324 0.3432890346297945 0.14307131600252856
0.19736721591311 0.40332253038289895 0.34280057497047745 0.14327051029863397
0.20892547776655807 0.4718079724825689 0.34449885853726625 0.1460201482985567
0.22974955974840142 0.4388742680751907 0.34515961377792853 0.06065823070846631
0.24105573981136982 0.4066126718073332 0.3452976708477964 0.0737101351835919
0.2218349858818333 0.4600958127378772 0.3450420646394252 0.17154922997991354
0.22675044471746822 0.4241290890504695 0.34476537395049206 6.07817402921929e-05
0.21003014686015517 0.40598207384677015 0.3435505271505077 0.12371116200286186
0.20582927207090662 0.4541139031394108 0.34405392652370703 0.1642944498834236
0.18755801317661494 0.39652508844103074 0.3341257683845906 0.22848114503531833
0.21763885527738458 0.39081852158332614 0.34305326319958585 0.24825008486334368
0.22814959846652932 0.38805456734728766 0.343192380907117 0.24780345871020756
0.20354538853342535 0.3945618793211684 0.34287127926523703 0.2004976941567243
0.24904938120792772 0.39198083614305884 0.3449315473979993 0.2258935866406872
0.20462259377610786 0.3760137192890938 0.3800672562501416 0.283605287610212
0.20000088689833412 0.38360082637295745 0.33466151493292706 0.21890571680666462
0.21242655889347778 0.38312170621746366 0.33587059296455124 0.21754327346230098
0.2402785638513481 0.37934776174050494 0.3313041754313734 0.18373873308105002
0.21118296405614745 0.3703446668879796 0.3342903856461281 0.16991260703435063
0.2189354777290791 0.3709153784455708 0.3489919429912052 0.1361344045426542
0.2203832491291392 0.37343501946891855 0.37500493044885624 0.2571256799635621
0.21274180006287657 0.37350604276108373 0.3666229622123679 0.155831498561344
0.21851114317049514 0.3687270385140933 0.3268956753541646 0.15296601006642985
0.2310353579662518 0.36838578603556893 0.3370339523999172 0.13274919059319146
0.22569537620460858 0.3716887447056782 0.3643156411736445 0.12586674062979936
0.23137215539087896 0.3656552686508567 0.31006750526576454 0.13843831144838778
0.21666124702678446 0.3665899864416616 0.3035029859849217 0.11719815308479427
0.23523273869262362 0.3663731676812048 0.32434152492558793 0.14238897753146534
0.23198435929559472 0.3693048277821046 0.3485619988488746 0.16554839696379847
0.24332350885915316 0.3692792052049999 0.37652371016055497 0.23494085589978084
0.23499177276880417 0.36399491912166404 0.2975291191936381 0.12723157061107662
0.23725121727441612 0.3694093729654453 0.36283320819988774 0.1382202037043678
0.24590300453654715 0.36363542900924384 0.320653283000356 0.14729737301847162
0.24433974434271855 0.3613618751318173 0.2916864244423282 0.12985174468580152
0.24277062423155404 0.36631667653448446 0.3424669965805432 0.15089973935248058
0.23235020084800995 0.37397325724668057 0.3836545323866026 0.29646282381397215
0.254879251838583 0.3668847398546506 0.381749814141312 0.2753320091068606
0.2558806018954711 0.36015087885468344 0.3207214954230046 0.16862355781399815
0.25370819583850324 0.36319534943908427 0.3464620159926034 0.18181280057144583
0.24947879597532213 0.3608524733534725 0.30126856724926765 0.14921174059255365
0.24567417461242977 0.36667595651629414 0.3542471685531933 0.11949862483327543
0.248294817469776 0.36678414261755615 0.36638874557919965 0.16222509823191134
0.26244435639372493 0.37584542677825145 0.3879153247136329 0.192693138106057
0.2614775927652854 0.40509881883514826 0.2286110192632742 0.05314247241850771
0.2726846550674434 0.4251948134769947 0.22260856845385796 0.03567572071806305
0.26720196815945785 0.4251767379924324 0.24168947235037372 0.06188541374164522
0.27630923942815555 0.4296483711235618 0.08280816680990774 0.016981293343137135
0.27761469754742263 0.42630317476452445 0.031767960030269174 0.011185262841921974
0.27471951717247123 0.43276817866719985 0.1496050980552894 0.023919954947498538
0.27626709134992944 0.43456280755999777 0.06106054016373447 0.025698592116017074
0.27573332651511134 0.43152548069693963 0.10337135775098452 0.014320439357975652
0.2807252082159611 0.39071428363738425 0.030789556350097363 0.030237716763418226
0.278138100482412 0.42292361731463185 0.019886314915958467 0.00414273427640046
0.2790129620389889 0.4112380127613398 0.02826227115190694 0.010641193132006115
0.2807266361748286 0.3948252721510489 0.0052945975954245775 0.010111748279100366
0.28150576892320095 0.3846124655918007 0.011711401736584625 0.025267669584480634
0.2792466186521235 0.4123880339088404 0.004745584197835659 8.209949290160076e-05
0.282328238729384 0.37666351133835746 0.0005425003829826775 0.01214145278368841
0.279809742234052 0.40156976014166085 0.03484478505529272 0.023222425089461863
0.2806071686727578 0.39332691270914166 0.04191703928838017 0.03012516838796473
0.2785413569291851 0.41520230881491504 0.03960901932639478 0.009153679345607032
0.2790243039077738 0.4059951511060801 0.06658891981275099 0.015265541049746886
0.279538703433651 0.40264842101259035 0.05367317936036791 0.018734148805553047
0.2783825008509003 0.41037430101318806 0.07871593933615094 0.017313829911403202
0.27743296883716223 0.4050491917081007 0.11085978554041803 0.014061770326580889
0.27375425110915647 0.39861067847364595 0.12577197030397397 0.009904266979235996
0.2753900543509013 0.40061973229850406 0.09053287440223606 0.01097579238642505
0.26977043334349976 0.3877895850252158 0.05762291668721117 0.019505448464619372
0.2691605521198993 0.3921566052800344 0.08854061176690906 0.008787268974057719
0.264782013157702 0.3821556760232489 0.06807352883571566 0.013428249812004888
0.2618834942903683 0.371449234123165 0.04065406447829868 0.030143576297721016
0.26319419769593266 0.38084990897961646 0.08647352405651129 0.010515759518291224
0.26020739152252903 0.3715037034424133 0.07863329046866098 0.02252633006593101
0.2613490788250378 0.3758984380512881 0.09894466512972988 0.016900547936253396
0.26244058182185676 0.37711744865333724 0.1137461100054861 0.01117620155152879
0.2602086518676857 0.36087553074319195 0.044272911626576365 0.028920340713743282
0.25971004770851125 0.3598222716056759 0.07608571529732408 0.02673057743437877
0.26014533848538257 0.36997380722438944 0.059739692787897106 0.0293809435218164
0.25979150508869875 0.3656497751567958 0.08972800198646136 0.02627424136553019
0.2604353013194537 0.36363827094905454 0.10468824642638867 0.015270277490749346
0.26195418024247846 0.3641770621749651 0.11646269873495244 0.015613293412961868
0.26004843291108876 0.3565748859895175 0.05580723120653384 0.035918009834277814
0.26229083845118434 0.35014767786137047 0.10407339912635426 0.015131386626193122
0.2640257436075155 0.35105699852496686 0.1209545711672087 0.013685243224455941
0.267105239558973 0.3885544108156441 0.1089952841259842 0.00709175632752985
0.26866742963309664 0.38660387844915034 0.12930116949318046 0.006537799308029871
0.27537543379023444 0.39795558045947577 0.07532649186282979 0.01517315477509701
0.27568473916938807 0.394629557865156 0.06327051651307969 0.018555936141105626
0.27648795142134774 0.4029934630054019 0.13924793032576263 0.011578237493985554
0.2705554740425387 0.3792158199959441 0.1450359172674134 0.00729233417588583
0.2645238611365268 0.3754232341495818 0.12635842086038865 0.012090849998420654
0.2716901734715213 0.3775629194489796 0.036749277995171734 0.030937989518386808
0.27331775249750023 0.3857135819609018 0.04697234803334793 0.0295229685548477
0.2815551833100943 0.37093507790419045 0.028983321379324103 0.03189771542593308
0.2738026766866526 0.3610152155020825 0.031692868407058435 0.03206383653328678
0.2833274835357465 0.3623612194452838 0.006685350579887057 0.01218483323384874
0.28311495436152156 0.3561713835932438 0.02542605429187791 0.03170709674623517
0.28292283045343186 0.3640383078729776 0.017943448603867297 0.036124762580715966
0.2775984343602088 0.40925065227898816 0.12804880331902824 0.012861614577792503
0.2779280841009537 0.41246858534677966 0.09037283023188082 0.015273898495370154
0.2756379573439067 0.4195818698965499 0.17603570010828462 0.0038857640269304664
0.2748166980982186 0.4224776454644586 0.20431000887000839 0.013069358258945073
0.27716020439267275 0.41766182135361485 0.1027951207370634 0.010791867508897365
0.27494775856376413 0.4277609900661674 0.16507819406259536 0.0127770737978477
0.2778050870554072 0.41726317236973953 0.06926121396269831 0.015499782791466094
0.27364741049126684 0.43199665106199914 0.2119579275330171 0.026871141740506616
0.27574609452951493 0.42190984581075125 0.15594072519231655 0.004234701038192631
0.27599501533215165 0.4136287886694563 0.19210913100547916 0.005744231498730697
0.27439647906826514 0.4307240234093237 0.1778985797788899 0.012247543137271116
0.27688879453071835 0.4137606047685749 0.14149724033609434 0.007136589963335135
0.27805670717097725 0.4180001250330254 0.050783631952924776 0.008073160543436205
0.2742047866798866 0.42970912977227727 0.1947156415269629 0.019846883449397112
0.2757001748542478 0.4256558109469508 0.13586334088599247 0.016167248816066324
0.27703359754192713 0.4079894710941515 0.16830132905048578 0.0038479490612109307
0.2768206622361279 0.41827369272577525 0.11802219169407487 0.012879376235371859
0.2740144077142096 0.4122861550001734 0.21120090474539932 0.0159789622004415
0.26603080039283195 0.398466177774202 0.2193984402195679 0.045351541178918944
0.27445089701621145 0.39365000106607506 0.14697125380675705 0.010378109654580952
0.27336882147606184 0.37981160448635437 0.1552817013239975 0.0074534630155080155
0.2770217441164201 0.38836363984283473 0.1662864983641347 0.006348208245690829
0.2756546912315835 0.4073212330829371 0.20061084738982204 0.015288075414485174
0.27170294126352823 0.39285029769591806 0.21151822271037268 0.036750846343002096
0.2773096392642679 0.40192119679393085 0.1870398978597761 0.007110347165552343
0.2775672116101629 0.4043226498505902 0.15776402948626145 0.006257881805803161
0.27782772953365165 0.3985150091997691 0.17579262051934635 0.004850953062671113
0.2782157625484092 0.39057883690723916 0.18689993673422475 0.009882892489124473
0.278718396361753 0.37376232839101964 0.1962780976021267 0.01784289996982437
0.27652328402984366 0.3944526571940174 0.1984062607766495 0.018986032935811848
0.26787323623856446 0.3748994560148155 0.2140097975264456 0.056533648247845986
0.2659476538607195 0.3621080179026674 0.21637311936045794 0.09588000104763697
0.2676143122300577 0.3706305325314884 0.1384485153129842 0.006230208544038644
0.2701144269910088 0.362891125994042 0.2600403241901567 0.07471445565958058
0.27839712168819436 0.37664349342890324 0.1751510083557329 0.007493207114834395
0.2791949848984586 0.3601722752513149 0.19901370422111037 0.020199843707697326
0.26913769996722015 0.35593043041447464 0.14180650544643797 0.00867557589204015
0.2744782217267607 0.3601280402929969 0.15841264587726114 0.004329708540564725
0.2656784005075292 0.3620942381610202 0.13230041773649504 0.011677332964676396
0.25937382163725026 0.3553402541715251 0.23827402403943024 0.17254890787439103
0.2705438815292187 0.3446720800027621 0.2281934399507891 0.1510354273486007
0.27060521463578163 0.3504151276007807 0.21536312605459904 0.14901014359875353
0.2773665005056402 0.34730008643092714 0.20570108356150485 0.06252261619357585
0.2772836050804759 0.3548046349801587 0.25119390366379213 0.07975901872365451
0.27859719523591053 0.3652487846078794 0.17566554111582103 0.007753939326380836
0.2800707789196604 0.36087063415842124 0.187538106622092 0.013653484412743753
0.27970964397331105 0.34389326433757106 0.17080617205120802 0.005674151084307684
0.2794206405496721 0.35389540789682905 0.17500939082152928 0.007251518540711223
0.2807021683002576 0.3457634168332473 0.18446992620386704 0.011815012227982364
0.28039991223604044 0.340861117306662 0.19426747904009178 0.032511849888696494
0.284665560634716 0.35604228881754535 0.26050509612995887 0.08249985065916991
0.2772657473243083 0.3465257917684099 0.2378270470497724 0.12771015043126852
0.2653530478775085 0.3833756115128436 0.3149388661774258 0.16311267868936039
0.2536657085539217 0.3858235680595694 0.3092935693969114 0.13937550163147247
0.2700862235393538 0.3791648472420204 0.3037110727196372 0.13435289863530078
0.24951640979359957 0.3801468148020999 0.33708172864621805 0.23798115866037534
0.2599295813552479 0.3793328900979451 0.3407887903041607 0.2890133428608036
0.26900094427569937 0.38729958005691334 0.34613540546105337 0.21320960912709974
0.2691920980957481 0.37694380755958556 0.3247637599122241 0.22465139410842627
0.2643931770479666 0.37309442719418406 0.2786565793291912 0.08877789559492634
0.2516439174112137 0.3762427011697325 0.2783546086084791 0.09694839041391337
0.2702220928065035 0.37567942496761986 0.2907231093229296 0.11742019926877403
0.2797781859596835 0.3716800950312164 0.3335891699689537 0.23390590398652975
0.27780827397780805 0.37895503224486543 0.31571839793632056 0.1498969278780868
0.2899379314224583 0.3694707856098809 0.2995358951482021 0.1563811028982203
0.27997123793836864 0.3742910114079401 0.2989456940277248 0.1536662835878683
0.28714026364712253 0.371162322564484 0.32323135544979853 0.19321426789290252
0.2916662389003818 0.36749236198717367 0.3406188673591883 0.18190734397245056
0.2848339013038682 0.3766908371274875 0.3447082435499408 0.14598214910761714
0.278538884928074 0.36939993762564927 0.2822161094505008 0.147536016434096
0.28892587031802364 0.36605463383258585 0.2866444320946784 0.11891428278293942
0.28318053526796005 0.3639553912143111 0.2741827117225083 0.13157952749233873
0.29616521158411774 0.35884935107886357 0.2812910820562532 0.13030034261098972
0.30596001081849233 0.3582538465935935 0.310823517691945 0.15625354264265925
0.2990882849092398 0.36459346230038686 0.32157908471988766 0.1795226653133128
0.2614159406143031 0.3546955227539366 0.2758838617679977 0.11072162331644805
0.2637877615882888 0.35351508369761625 0.2610957466640072 0.07589735970999255
0.27194302519542146 0.3479563530751921 0.28541745740871044 0.1541854439127892
0.30006922483625525 0.3599088184047272 0.29198115926150914 0.13608899079469616
0.2699973655080339 0.3510472021188846 0.302716685071535 0.17831796763840124
0.305137563809854 0.35717064969546575 0.34365791417093583 0.2537281884091821
0.3101500525224645 0.34219793216773403 0.3383775655527227 0.26248764127216234
0.3048050231752786 0.3550790475461543 0.32765084299560276 0.22897280192297007
0.3161975375259558 0.34985395549719966 0.3464330859814935 0.21762988789810228
0.31889883756873727 0.44656924776675216 0.350434371383461 0.10328418320391194
0.30926600211736877 0.5019036850470123 0.3510893375267675 0.07219297800245195
0.31810590481120377 0.4577220651285762 0.3506284401816201 0.0999637835911824
0.26461221539424373 0.40756945623146124 0.3466728237064893 0.06260317923911977
0.2553713279085952 0.40081655814558237 0.3460300921196957 0.14440682871531652
0.27035079823869385 0.4280547150473055 0.3474180321230661 1.7169897011702234e-06
0.30234939314663145 0.44052259302333474 0.34941176090759046 0.09058416849761397
0.3152561093002174 0.43173912650365687 0.34992252976195026 0.10207589435171184
0.3095937507910357 0.47044939265437186 0.3504388858513342 0.122041392259564
0.2808474153899344 0.4570440223220231 0.34860096209247393 2.0013382845950603e-06
0.2754697480796123 0.41787563366195213 0.3474783822254466 1.7212355544359678e-05
0.2857920013478759 0.4313170687388069 0.3483216195404527 1.316993410682336e-06
0.29638844781839424 0.4261239553509095 0.348783831778105 0.0050722197273016115
0.2906538546190729 0.4687169561897925 0.34937876304839705 0.004885141622866394
0.29567053487310435 0.45253178636943064 0.34930600469966855 0.009585569933684514
0.3040191423269993 0.48759473462968594 0.3505018955740058 0.04722542065274006
0.3054197608988244 0.4584452739976064 0.3499583708344115 0.12355755275207714
0.28620185390709085 0.44513494801214076 0.34863728669888905 1.4467491130071524e-06
