x y z curv
0.9461729933690873 27.89767113378934 1976.4816891416972 0.027689055915991464
0.940382459556613 27.890917758934055 1976.4870229527094 0.02165745033770377
0.7732608645944206 27.726731947614113 1976.3981979308196 0.0017409155996892097
0.7719508131180814 27.72465792588583 1976.3873983655558 0.0007889320730113135
0.818697888818361 27.778652322452835 1976.4867499391332 0.03113606816332623
0.8682963603091474 27.828960706253874 1976.5110469215297 0.02631009467239232
0.9150459224197778 27.872148800604933 1976.5024050504232 0.02463431512199614
0.924092559878231 27.879937888861743 1976.4991427731356 0.024808006428328134
0.7586901873039084 27.705296233447047 1976.3109461036456 0.07509717754725083
0.7681070432822686 27.708883598716724 1976.347796688802 0.11249461436916144
0.7586649748484785 27.69078977286259 1976.2582589118786 0.08650765438426859
0.7560860396518281 27.68475013963361 1976.2246640432909 0.1351984372558485
0.7615918161325914 27.694298295692285 1976.2719681576345 0.10847972751534785
0.7531318687750124 27.678304104991142 1976.151020177791 0.09360218802525502
0.7482671735093855 27.664044182016404 1975.9617618340874 0.11333067945720177
0.7589060333373621 27.69031188668511 1976.2391232478444 0.09196979077573479
0.7437652022945151 27.66888966399215 1975.9922878879777 0.05002311820316802
0.7435812037801788 27.671019880305657 1976.0243134568218 0.06202888889487682
0.8560478622189995 27.816606976394482 1976.5119709553328 0.0317477808381933
0.8041153601416184 27.762605796894462 1976.4699990534086 0.003866194508073487
0.7981536292836124 27.754295563856182 1976.461709844399 0.002699129090870073
0.40017232242509615 27.813382711768412 1977.0176468105467 0.03076220107990852
0.40261052896290916 27.826290298578783 1977.0163534307017 0.018587374762035966
0.4004596374258769 27.83824855823163 1977.0156141980792 0.016326046443216925
0.387046500626614 27.84903625175193 1977.0171627146929 0.004055155412484057
0.3987074966600061 27.848261844134438 1977.0147954894712 0.004379160900965899
0.3764103495170899 27.87641819739095 1977.013199526512 0.0074746447803394865
0.37427639061452234 27.887687296380644 1977.0100686561018 0.006268847247718532
0.38615107548461225 27.89241879911085 1977.0075934267818 0.007085740507297431
0.3698454714112975 27.905656387146703 1977.0046374535277 0.005088735113209299
0.38184552954143686 27.9221251346095 1976.9985311126234 0.008684490971891121
0.36686590166332445 27.942154985320926 1976.9893146366628 0.0033980524630525155
0.3606344419234102 27.95095512104947 1976.983972859018 0.003658502850538016
0.37732697565796297 27.94230683962278 1976.990227452335 0.00710343106571738
0.36042750512190563 27.96131406513978 1976.9784398021134 0.0030752444314776015
0.36628747782339666 27.98284513412483 1976.964853467308 0.0011292398971352708
0.38981825987683805 27.83813743670793 1977.0175118779377 0.016297370088008443
0.3949832101132615 27.86768996022318 1977.011032712608 0.003992333583732464
0.3799436550176443 27.865910911717123 1977.0140726933141 0.006627322230483349
0.39250009994008406 27.857617694200574 1977.0136338734562 0.00398645128180531
0.3869657544883861 27.907371530403605 1977.0023427154365 0.0008193535525388089
0.36853420601174375 27.923775003254207 1976.996610630295 0.0042554288181492214
0.3719581162909174 27.95641521168743 1976.981379764348 0.006453719501260206
0.3612779444506865 27.990181486257548 1976.957418522644 0.0006518742648425037
0.361137210160256 27.971734065040696 1976.970186495352 0.002004940318635606
0.3931195472508349 27.884239322906758 1977.0082488806238 0.0015423087735591146
0.3803827569777389 27.932277239165344 1976.9940097394933 0.007506556494101699
0.3707289749472238 27.966966698384628 1976.975555006609 0.006079532252265918
0.36288208387036486 27.932185168386884 1976.9930108379765 0.004529846872096918
1.0217246171876315 27.507063551126187 1977.2048686791113 0.02255500445556752
1.0399527879831434 27.506898726102783 1977.2132795929124 0.013409370505702099
1.032465991858893 27.4969634447925 1977.2101534251137 0.011146359141317565
1.0685497229635392 27.493233343572477 1977.2224397194855 0.009601835601291936
1.081976820490086 27.495802505053227 1977.2255694184782 0.007889279683597678
1.1015085626471293 27.50532485931562 1977.2290067475267 0.0016369506937900496
1.1138062233225514 27.49028705396489 1977.2291720438661 0.0010122939056747909
1.1033655984731474 27.49003792428811 1977.2282617690912 0.005287210669633778
1.12620944519792 27.48670456492629 1977.2291209635596 0.0008282374690270889
1.1494028903688818 27.501710618147648 1977.22943534611 0.0012141499632428569
1.162641824559589 27.498190689733313 1977.2277782562237 0.0012717240801265167
1.1907571212974886 27.49549571324525 1977.2213942726953 0.0012289117324622086
1.1843709487372645 27.485115652162158 1977.2225493615629 0.0015619188708278784
1.0425941831521226 27.495559885909795 1977.2131631845966 0.007860412940514191
1.0623682424157117 27.50937230206126 1977.2202549833196 0.006018113022644177
1.0723089571997293 27.50455754150203 1977.2227895263918 0.007490859937670838
1.0930402166446613 27.496420199237672 1977.2265317357546 0.007005726987002983
1.0893817642888832 27.506564640923155 1977.226209325096 0.0016204933493309448
1.1183490720237 27.504946623703376 1977.2290841528827 0.0012076996360348567
1.1275390538043089 27.497811287309403 1977.228908151991 0.0015495541547685735
1.1469176584138463 27.48539417282013 1977.2273666002936 0.0010545825820816453
1.1730482513164464 27.498637833542364 1977.2250922955075 0.002324676910900842
1.1724650103426946 27.485141004639907 1977.2239489390727 0.0014694973225999287
1.2112810750624836 27.488248006625327 1977.213562237211 -4.099768378047186e-06
1.1604560830514299 27.483864161441815 1977.226384400299 0.0011677356646257726
1.2003650530596233 27.484750695332195 1977.2168936931573 0.0025213002539440435
1.13910588674324 27.503954428480725 1977.2293840009536 0.0015553613357759527
1.0505305134642593 27.511047972447813 1977.2173328222689 0.008724332902584727
0.9799720578043916 27.9036399295445 1976.4599562616208 0.007836056505352131
0.9926974723607049 27.904382811731978 1976.4526826154467 0.008381283709567157
1.0147159078913817 27.909608578801617 1976.4346170038991 0.0014699585096522457
1.0401465747390366 27.910532303050484 1976.410739250139 0.0021019723706254107
1.0747391720519541 27.902497411501052 1976.3693307789567 0.0020095893971528197
1.0696856026794435 27.903778990937965 1976.3778624004276 0.0011504620295552477
0.9548665694501042 27.896182644199186 1976.471486226432 0.0167542098606545
0.9660999832720161 27.89748383508278 1976.4671648464578 0.012734096982506327
1.0063674093847363 27.90706352741787 1976.4414952107877 0.0033910500144504504
1.0235712383685982 27.909731700987113 1976.4260622225943 0.0017043297411119941
1.030198540154822 27.89972322904359 1976.4293355861905 0.0032498104397784048
1.0378223014448966 27.90186228199701 1976.420723130961 0.0014707717921349903
1.057839120825101 27.906672688030646 1976.3910710043276 0.0023969836747312428
1.081506283985744 27.898245031596034 1976.3577117521809 
1.0487503519434995 27.910317068466412 1976.4006968751157 0.0022788651285036298
1.0588256458540413 27.900392149179783 1976.3999759914727 0.0004610521261499983
1.0154548584464547 27.898576711876327 1976.4426642374156 0.0019146720430239326
0.9858638455397777 27.89549982645488 1976.460817669874 0.004796688090545876
0.540441032579576 27.892895343705867 1976.4154315185547 0.010785628444715502
0.5242546470210061 27.90491000395712 1976.4103740514663 0.010668429218616231
0.5245117199877629 27.917334679197726 1976.4039778495426 0.009268483427110475
0.514198327966917 27.921296871243293 1976.4006054819308 0.008799605618018657
0.5015205464166097 27.94702316287346 1976.382611091287 0.0052343328693274255
0.49619393299139514 27.956133626340204 1976.3751431452913 0.005437677714449927
0.4751602293876236 27.965045172615056 1976.3628069412669 0.0042689145618919535
0.4836276666107351 27.95566524395499 1976.3727570676851 0.006384338489437461
0.46341912656310436 27.978182734909034 1976.34596455569 0.0006691709294212947
0.4738609760482116 27.975003861475443 1976.353129145066 0.005755427403649994
0.45157640951266564 27.988115362753977 1976.3290615820483 
0.5397747746074515 27.90372861386619 1976.4103403922816 0.006731052511046612
0.5167257849922375 27.932101182058368 1976.393325391858 0.005155358058880448
0.5057253646160387 27.93060453332146 1976.3926918257052 0.005479571417562193
0.5100003722155388 27.942268855093783 1976.385802782625 0.003865096265959682
0.48549729768738603 27.96650749324656 1976.3632883403259 0.0030708911180628924
0.6372656952238669 27.75920798364824 1976.4312318979557 0.14662839482471993
0.633115477066115 27.767026730048055 1976.4433143686856 0.1936640737353216
0.6467812561365357 27.76651042557539 1976.4398538878372 0.11326714945902339
0.6457388584271087 27.791510279056034 1976.4688660387226 0.011438874512967951
0.661073827499888 27.807982219220023 1976.4812648001225 0.016859890867844857
0.6710919682770956 27.80374426516592 1976.4770155896506 0.019450973420859597
0.6666677024312898 27.831576689957718 1976.4973581459076 0.029478425896593885
0.6804204425605277 27.834895738747456 1976.4986735632606 0.03304045275555349
0.6917040223528775 27.882951093082436 1976.5162837747416 0.034280176417335204
0.6934762244662482 27.87113166516996 1976.5133948071652 0.032508457899050165
0.6988589787694499 27.89834201732363 1976.51755570536 0.021080405581510992
0.6973536325780011 27.90885326617742 1976.518335534718 0.0440630506900631
0.6386760851107457 27.774597451518027 1976.4501913724957 0.13713628149096949
0.6533542588137375 27.77484971989525 1976.4481157452583 0.08105299557555888
0.6540302053502514 27.78166284320413 1976.456122152861 0.03894726020785733
0.6408085467278911 27.78285031583114 1976.4596311227638 0.04658379463402393
0.6633993537569244 27.792515760835194 1976.4659535458586 0.019090356737022217
0.651324015091372 27.802839928668792 1976.477376195725 0.015763971111393115
0.6688874378922878 27.818465974026765 1976.4873925378836 0.02965908225739178
0.6770305768545515 27.826545290990857 1976.4921776811564 0.038663908697163955
0.6733170632444556 27.851354316250756 1976.5062517825177 0.02857786641326849
0.6823738770181482 27.844583822216073 1976.5023357925847 0.039883567295013855
0.6739636736739693 27.86183495836052 1976.5106289397554 0.03170398590712317
0.685899052947035 27.86415195526323 1976.51033740769 0.034835514690262644
0.6826048660364885 27.876577942019807 1976.5146021576097 0.035023930807746274
0.6879168405774614 27.895099619065086 1976.5176451214115 0.024381731522377686
0.6884977992851145 27.852171810963956 1976.5063660117596 0.035206335860238684
0.6667854549383441 27.844174081851197 1976.5035115115656 0.03044683428649622
0.656068446671874 27.816814478596005 1976.4873986937364 0.022911761046876932
0.8542830109022594 27.651380883939854 1976.4415470504623 0.01993428140040408
0.8536786879533024 27.63801283893076 1976.4436241848969 0.019998392131810747
0.864092684872976 27.620615992256056 1976.4551168196717 0.010300072191281635
0.8703781263346769 27.610662626714753 1976.4592444049888 0.0018808953487425306
0.8668816335932634 27.57954483095093 1976.4513286699612 0.004053501408179006
0.8742634139832179 27.57038880046661 1976.4536957373334 0.002311488618532052
0.8796289469320633 27.58715338143687 1976.4616663609645 0.0043434399248665455
0.8891680854282671 27.54188811236321 1976.4496848049168 0.03704378242301855
0.8982804993558057 27.520823516326704 1976.4409349253463 0.08986152131201491
0.8908609015909082 27.531990890359506 1976.445263968666 0.05526066858888888
0.9082354571131296 27.514334610699237 1976.437637664332 0.08640934016415586
0.859138225489273 27.612293041966897 1976.4487598283586 0.0022731257315998284
0.8572723695260019 27.62353422844126 1976.446969971992 0.019048894326183594
0.8748372264925136 27.601193670680132 1976.4599450931269 0.004324172510010311
0.8706603758554442 27.5905872565667 1976.4550063190384 0.004242935671697166
0.8848363148159697 27.567841424555006 1976.4574307809994 0.00454193007474521
0.8928189497731596 27.554258528607143 1976.4560787994847 0.0028088373363056606
0.9039712535559079 27.534072552369757 1976.4496182967735 0.035308839846209486
0.9171801749530477 27.509947227939783 1976.4341421925362 0.10174344964850034
0.9086091805129841 27.505739271554553 1976.4301335694904 0.09396038533866811
0.9161017287033345 27.49793402855983 1976.422039721372 0.11645432203183516
0.909150459971546 27.524054396527458 1976.445897572012 0.06387940360240942
0.8801292291504594 27.54801347685246 1976.4485316422918 0.016057877806792166
0.861990134558746 27.59337271414988 1976.449388981988 0.004090005497448925
0.6415467191398079 27.968156951869926 1976.7680514270123 0.056252670056141124
0.615317158025067 27.986322890632856 1976.8030724895154 0.0037023458922204344
0.6083081810770608 27.975260233866877 1976.804053472742 0.0012869774876553464
0.5896662196835905 27.97948104903277 1976.8236365391192 0.0018087124519061048
0.5944769088682293 27.998182069641658 1976.8264097290419 0.003174045997190055
0.5817849922342129 27.985638473086496 1976.8332725191037 0.0024371555096268753
0.5720923457546092 28.011520445204138 1976.8494444839644 0.00302932509704225
0.5644875478944494 28.01781740302997 1976.8570790264835 0.0028225863917546155
0.5416017899821237 28.031889111455225 1976.8757032455965 0.0025495084238798516
0.5433330080476153 28.01712830400375 1976.8732214357988 0.0006468832882521685
0.5337296922216256 28.03550002125042 1976.881088000377 0.0028397230933082584
0.5196118106380966 28.03236742518099 1976.8896047652888 0.0005181090632780637
0.5160333614620671 28.045360472590232 1976.890853885892 0.0013154138899933194
0.6337824014262767 27.971330757275474 1976.7768688458382 0.032824486096328535
0.6251771510173258 27.971375239165987 1976.7847233685782 0.016548010540387792
0.6160382185246199 27.96882342201998 1976.791904700855 0.003238091733206631
0.6193014043628077 27.97791538346834 1976.7942222338277 0.009580588189121428
0.5967958307593751 27.988327984787126 1976.8194098401505 0.012058231912355447
0.5834013157772964 27.997225275972177 1976.8341107601316 0.009894173922063562
0.5672836301755778 27.99322683551187 1976.8477420789625 0.004686074694845059
0.5646942545108631 28.003436055519035 1976.8527351182533 0.007377577778015486
0.5565262123160652 28.002036346623342 1976.8594106051123 0.005238990999734353
0.5502686336907554 28.008074530789617 1976.865961685859 0.00818020180628331
0.5333323829507535 28.0215563868637 1976.8796559273092 0.0019494340530837335
0.5057347005197242 28.042782872049155 1976.8961594138723 0.001595174465879441
0.5981188255548612 27.974696270999395 1976.8132560690437 0.0016540295308830498
0.554030571692736 28.025058684072352 1976.8657882077414 0.0031383761363770486
0.5802246594274377 28.00785322932294 1976.841613386803 0.0027845016345855755
0.6085732007479393 27.990739261411818 1976.8110339259858 0.004506863965423251
0.4942815171113031 28.050894418330437 1976.9011378860082 -6.4876821226273e-06
0.36386618034474394 27.739755814781475 1976.8920179493184 0.03204047152222345
0.365448762546733 27.72202947425039 1976.9015365084838 0.0031423496081376713
0.36956277785726693 27.728686243728774 1976.8933577920777 0.006681192439510084
0.3586524323718661 27.73430500611017 1976.9006017407687 0.010824907978698183
0.34521076806631457 27.709333932262822 1976.9262495629932 0.003245640376796088
0.31659206999113704 27.706171330791452 1976.945829399129 0.0013665228295291435
0.32623868953161267 27.693822969525186 1976.9476970055277 0.003843381907348731
0.31222034401468324 27.695619224870335 1976.9542711133129 0.0016032955551727114
0.27538764267697163 27.675601718348723 1976.9767413852176 0.002158581605030691
0.2627711097879694 27.65922525973822 1976.9857339238295 0.0007838706402951086
0.26733763036376257 27.667194201430775 1976.9818439114438 0.0023624767360454087
0.37422981474685396 27.736110103420494 1976.8824497046144 0.03597875033241101
0.35272578042165637 27.72801083440369 1976.9072887702127 0.00410979211320541
0.34732842547516757 27.72234769755931 1976.915150851933 0.0031361577427518354
0.354544721617138 27.712215429674295 1976.9155724870047 0.002621942620458613
0.3242494808648594 27.7107371058168 1976.937495103762 0.002181409140434387
0.3321938011358937 27.715463912579082 1976.929848176269 0.001864972493473636
0.299945134932808 27.69396548379609 1976.9592585067962 0.0015467688585672492
0.3135063562371332 27.6850053641594 1976.958334545289 0.00295768059986681
0.30027641106937986 27.675873754176802 1976.9686422293641 0.003778858422112281
0.2511547960326745 27.648616168742727 1976.9896915185332 6.257426611443106e-05
0.3420112757091767 27.701442909412492 1976.9328048804718 0.002586686303720966
0.278515397480023 27.66276186472369 1976.9813952770442 0.0032650998363012644
0.289911111038076 27.68713588552166 1976.966497212526 0.0009503741212689821
0.33818941113131085 27.7215600458283 1976.923640842334 0.0017167971405982066
0.37455838251816853 27.745508455249524 1976.8775869916108 0.0619799872155369
0.2910234313733107 27.670093440787138 1976.9757828475776 0.0009551327205513539
0.9489224802840028 27.738895600937617 1976.8808020562378 0.009617266158471329
0.9379714156191461 27.750369916175764 1976.874644704397 0.013657334186962864
0.9417090083832816 27.73219485770899 1976.8700564960727 0.00749134506396084
0.9569033177848207 27.720155410126527 1976.882276684988 0.010117751163497774
0.9579270715014536 27.73346773725432 1976.8881676339176 0.00671197131741515
0.9665204814485631 27.722487744524596 1976.892793336272 0.0088456511113092
0.9830038829839226 27.697129626199278 1976.901962484073 0.0058830842339876385
0.9910987699024686 27.686485012263965 1976.9070904031103 0.003627159811104569
1.0332871612468277 27.661833183899915 1976.9324187920301 0.0009347420818226881
0.9172895888920021 27.766446435988037 1976.8582394051814 0.017308059699729667
0.9102266385528742 27.771554505018486 1976.8529623313948 0.015354774324957743
0.9313143749866108 27.74535150787387 1976.8628935632619 0.014390730126769585
0.9279865421028106 27.75909006356891 1976.8665726252436 0.018104059394448643
0.9506846231133423 27.72893418666051 1976.8772324824859 0.010325914611703598
0.9682213565240373 27.708280902236197 1976.8886149015034 0.006117859382360942
0.9829998178808301 27.70928669440604 1976.903381449286 0.0026356283523643977
0.9762535244027376 27.700213347035863 1976.8945927248708 0.004572778059468759
0.991153785638687 27.701253537566878 1976.9088570261242 0.0029462757728535884
0.9973459366562126 27.69333889059053 1976.9124044691612 0.0024731311489279515
1.0049094803472944 27.684743955799878 1976.9166282980923 0.0014969933185092603
1.0195400177845773 27.673161786048144 1976.9250431395858 0.0031393347925550226
1.0430632319916062 27.653405123663074 1976.9353384313338 0.000677654967961175
0.9760185669892648 27.716997182359716 1976.8991688452938 0.0005611590873200441
1.0508940582948185 27.645996447889615 1976.9384733915435 1.1457393916133172e-06
1.0234230720831718 27.659665428837567 1976.9256882602983 0.0009747559043524987
1.004623618354234 27.672538965228398 1976.9154649451611 0.0029358949568023874
0.9211214332156281 27.754230816355403 1976.8568366933073 0.016081509279366125
0.23607014875256765 27.856169704213666 1977.0069959696636 0.009749954483367908
0.2163507121920289 27.84692699636659 1977.0163891399234 0.0028787407979682347
0.2061328315253986 27.84388581028144 1977.0194022174176 0.0020339542778912527
0.1786350736189401 27.842027484355242 1977.0177065977614 0.0032148737037980234
0.1916513595555887 27.842105665104228 1977.019572203581 0.0031817558171358526
0.17050900051856901 27.848759125319056 1977.0087285433792 0.0013863876445363583
0.15108666318429392 27.847585834585445 1977.004253648026 0.0015506051669316357
0.11674351155641811 27.838705628582286 1976.9970085435987 0.002011835102553604
0.2396991362776853 27.84668786208034 1977.014619499138 0.004665566890409363
0.25091560328532914 27.847042380240175 1977.0126799806667 0.013295203665711608
0.24699211423665618 27.855968595798736 1977.0047606571911 0.022615516755460068
0.21589223611008246 27.854800188933297 1977.007357327962 0.002246936431372774
0.19674000096784017 27.850672844445224 1977.0102027422004 0.0021762757802081386
0.16538531296731843 27.83850657568706 1977.0168770673345 0.0034396209049832134
0.155116474897917 27.837061779310176 1977.0155208932788 0.004453970885290425
0.12716254354969325 27.838961895080704 1977.0010453820962 0.003067662522132066
0.11928734868854532 27.83077743985262 1977.0061907213703 0.00211695141170054
0.10155375840939157 27.827151356256877 1976.9975905641493 0.0012690138331240518
0.09148335729547058 27.827779313933732 1976.988137093325 0.0012086625967641484
0.08131529537596525 27.82026086067542 1976.9875175424888 
0.22850251656468365 27.84334819349823 1977.018779488316 0.002103787565024502
0.1424585851192048 27.834844928043697 1977.0141500752043 0.0028910083416725197
0.13961483947521633 27.84530630164862 1977.0006154518537 0.0016902823975654426
0.186221444239426 27.852243987866473 1977.0070993610016 0.001781471165097285
0.25842015670142726 27.855790555670403 1977.0037568345292 0.02288796670258242
0.7457733032935263 27.578371072608743 1976.3405385580113 0.19384208399861116
0.7549526045331361 27.5665010125042 1976.347750898531 0.036827243225152934
0.75676567871172 27.578358510117724 1976.3463455359304 0.03177838191925845
0.7891753467949895 27.55781554952901 1976.3587193873066 0.002320146259104054
0.778503856139105 27.559189679451947 1976.356249915889 0.0025692389640504603
0.7964001954975356 27.570605315379805 1976.358661419089 0.002650933162433348
0.8204478558064079 27.572080277747126 1976.361842148428 0.0012065974808030673
0.8443747145171284 27.564870416794438 1976.3628637622844 0.0009857927464503183
0.8710606438200954 27.562757302327846 1976.3608691864679 0.0010621026811568925
0.7347033724889656 27.575950262782975 1976.3339226202565 0.20744684792274906
0.7315940963706501 27.56553083784454 1976.335376132072 0.18648294004989807
0.7440392144039262 27.56447709256777 1976.3419481088115 0.03478606410901571
0.7653243894119796 27.571922455870983 1976.3493944582665 0.026117395406407607
0.775433349342198 27.576856179133937 1976.3523366273516 0.0032485492330668565
0.8059869860096384 27.574067488179367 1976.3590064832915 0.002043102910531315
0.8296184325251175 27.564854548067277 1976.36150894879 0.0017635170353392559
0.8362599728482398 27.554188842492167 1976.361849505863 0.0015406155923999754
0.8244553575326201 27.556437669131842 1976.3614825211957 0.00150483797737922
0.857324365417475 27.56631164317653 1976.360983605798 0.0018884691251989047
0.8637830037504965 27.553649137430476 1976.3606594049834 0.0021572050727758285
0.905447783978792 27.55208370083052 1976.3531576164385 1.146119843407898e-06
0.7868498194600455 27.576865618459067 1976.3555839650655 0.0013888441161977504
0.897020357783625 27.559368580059452 1976.3556495583853 0.0005824807880594055
0.8518127762792767 27.552179755583285 1976.3618876719395 0.00150752615883154
0.807620469638694 27.55537441108911 1976.3608740609548 0.002014098675943808
0.7636634882082229 27.56055556732246 1976.3514647195088 0.03581584955472679
0.886041958972044 27.551065398449058 1976.3574685641638 0.0011085404618814086
0.7286637197392396 27.471115027211894 1976.4340040242655 0.01914943795776534
0.7163566663939003 27.4754697774979 1976.4347159445788 0.01325335377577232
0.7215773549154144 27.450289407539298 1976.4358996212618 0.02772788837612271
0.7046833619174634 27.441443073989056 1976.4375682243426 0.021173337547477775
0.6956005625670094 27.40248553890452 1976.4303398989773 0.04440329348736843
0.6927678458624977 27.389331205988743 1976.4252040724577 0.0469224646266874
0.6849539057113863 27.377657757076207 1976.420393237213 0.04175869689274426
0.6747368572632625 27.355899742649115 1976.40711931012 0.03609165072271865
0.6699272436145755 27.36482737510121 1976.4141619522845 0.07076953421658853
0.6626858932149244 27.356170765294614 1976.4088120834463 0.006772849110723008
0.6534297175223405 27.342592541532365 1976.3962054032388 0.0017589607104605907
0.7345132640863364 27.484585837766236 1976.4302193256808 0.028909809874717852
0.717816487487915 27.462196636159987 1976.4351187217699 0.02275002526292863
0.703497306736236 27.454735650629505 1976.4372751044625 0.020184485989212016
0.6951252220930619 27.43593030783857 1976.4371678744371 0.024945542410343646
0.7095112637337956 27.422545891536593 1976.4330671693037 0.03881976434510079
0.6942426375807846 27.42328346778869 1976.4351880362742 0.03509398506220571
0.6794461121398725 27.39397076021457 1976.4280406266234 0.04735386020698438
0.6626599453037235 27.34816502795063 1976.4005370048658 0.0013363229866110268
0.7175663698718853 27.4373865994826 1976.4350435800059 0.02323096262826418
0.6825925619938302 27.363044173609403 1976.4114423632723 0.03425988698912048
0.6731329101061077 27.383780196041336 1976.4247255853911 0.05825038901656973
0.6840694089665449 27.409334483654145 1976.4340755331868 0.03367667522106129
0.7256985561680508 27.536953293525038 1976.3767562269902 0.02356406481387439
0.7188712380545093 27.52127505852939 1976.3903139296226 0.01828913985632955
0.708131810514204 27.524905667223024 1976.389181169814 0.015165081829256936
0.7089944454754056 27.507826289832764 1976.3989067829523 0.007890254275685193
0.688645223980271 27.49525535083274 1976.405671629178 0.004539980076010372
0.7022614284249588 27.493717719916386 1976.4050662567806 0.01891187593577307
0.6794942609284131 27.484141352388683 1976.4095441335742 0.0023622535486769024
0.68719241456077 27.471640730790373 1976.4118368405843 0.020582449952230627
0.6794691459925262 27.45043349334838 1976.4151481638721 0.015165629123544966
0.6527014685804898 27.40647328296592 1976.4145644576015 0.008903337144240742
0.6617838470088967 27.42043069504229 1976.415881209223 0.01163703585038663
0.6487945665344637 27.420987527406147 1976.415172273129 0.002763187417380487
0.7231242426631515 27.528884214752868 1976.3832245377537 0.015852509221405704
0.695095551197497 27.50590383461477 1976.3999459079616 0.003630988515351877
0.6910723924338594 27.484769204960664 1976.4077366401057 0.02664257326714364
0.6822312467629535 27.46205432856729 1976.4123179113524 0.017916328560902486
0.6645118571430211 27.456965164297085 1976.4140038837022 0.0013732056656764772
0.6714314214683785 27.438690279199566 1976.414624768898 0.013088250593301182
0.6518117046592274 27.433383014918068 1976.4147803082412 0.0009947268891934377
0.6610333299674535 27.441038621762402 1976.4145823846434 0.0010773649671901447
0.6378063095336194 27.385640979826114 1976.4091840205206 0.009526176295172687
0.638515750941013 27.406101175396444 1976.4125834014535 0.0008815162900557223
0.6730276726962192 27.47407415531292 1976.4119575024374 0.002046254350590604
0.6263366392597373 27.381227042018455 1976.4070920815975 -6.947205037719833e-06
0.751280686668709 27.811600427716428 1977.1204487432624 0.00731694146379851
0.741801592696038 27.811529767944748 1977.1144509142864 0.019823998819621477
0.782201636913709 27.810875462093414 1977.132127059761 0.005093033104710814
0.7698506629278743 27.808594070211942 1977.1236119364635 0.004554137893474933
0.7985180006139001 27.815282523599492 1977.143306644145 0.00501612193093598
0.8119134756350157 27.81528830067825 1977.1442155635532 0.005596162059097776
0.844046756477846 27.82424504563517 1977.1540957927505 0.008202952181237014
0.8496599938778949 27.836643197992434 1977.1675239679425 0.009303890495871185
0.8643803386371216 27.837851476986742 1977.1634802343065 0.0065421148346099444
0.8550851326074506 27.829781102435646 1977.1579188002493 0.005446076759535162
0.8827828552891668 27.85533784764769 1977.1692943850521 0.00207606929308929
0.8927194969283803 27.8591451007823 1977.165740437867 0.003219094171041095
0.7401091537073583 27.80951991142171 1977.1039075222795 0.01904391309918581
0.7597062768489686 27.81314479775754 1977.1266944675856 0.0036922944069297764
0.7519581725836781 27.807373589767842 1977.1072187214077 0.005230311239564847
0.786230432713221 27.816190962180336 1977.141995817558 0.002682562917305306
0.7924960774707319 27.811247136973513 1977.1337946896388 0.0057868459429460195
0.8043518080446952 27.81134458588727 1977.1351822956271 0.004060016340265472
0.8161602112660041 27.822830389995847 1977.154158281652 0.004778496391040774
0.8279039584868916 27.82507690677529 1977.1565812483905 0.004773430048448605
0.8396269421248834 27.832029935981616 1977.1633638111211 0.007547229248258094
0.8728150711252095 27.85127313990527 1977.1703996386818 0.0038823915110530634
0.7620124036134691 27.80660165190332 1977.1121709581848 0.00421273945367867
0.7799353750852647 27.80637887400561 1977.1219834050871 0.004703206597556173
0.8321734766854532 27.818267737214633 1977.1477678800618 0.007276467983037276
0.8768198004215022 27.844273452700705 1977.162694163244 0.004643584563547314
0.8029641081936789 27.8208547030096 1977.15195779113 0.0031977349592535913
0.7685107214093025 27.814700924879133 1977.133540477108 0.0027430617517524404
0.7701836009067213 27.490839947920406 1976.6866603728713 0.03638239278207315
0.7861695910764568 27.47564696030807 1976.6943885646187 0.0003636812749838282
0.8093625235473236 27.47139715442796 1976.6918859928658 0.0006547642546483746
0.8182050911790304 27.443647184865334 1976.7067302263008 0.0012179737483749092
0.8127535852953461 27.452704001005277 1976.7031768414413 0.0005233003063323823
0.8307211771075886 27.450221793594153 1976.7008121164738 0.0011743734475986273
0.833275710019574 27.430713471213004 1976.7099774537046 0.0014671003763231064
0.8600766166253624 27.423125436010444 1976.7083522555508 0.0009411691087873122
0.87387834469796 27.40716825393781 1976.7104836457947 0.001921821774072507
0.8997608561518255 27.37445680367334 1976.7084987693675 0.00018884142401409676
0.7823454069547716 27.48867727984444 1976.684029636233 0.00446608314543954
0.8037331750111252 27.46158503261119 1976.698411941657 0.000794594821873177
0.7966479900574428 27.476799582638847 1976.6898960374483 0.0006697609821831903
0.8213242473877256 27.45770863016768 1976.6973807171398 0.0006843722127367078
0.8419360906933228 27.42449034937446 1976.7099937188746 0.0013110312650750089
0.8510092643595472 27.428605750457052 1976.7066287362213 0.0013506850488569572
0.8550013138291191 27.409167064225546 1976.712737499475 0.0023042700858913173
0.863505790043194 27.399917335317163 1976.7131027690107 0.0024725260838444818
0.8725947271267419 27.394693140934745 1976.7123752308069 0.0013585059666626415
0.8840582028840996 27.383273879825538 1976.710571658969 0.0014362581501834927
0.9055521801482476 27.36508169837891 1976.7054908557107 -9.186728535537058e-06
0.8858553757359486 27.393652404533878 1976.7098726713064 0.002166814255597712
0.8425711614354132 27.442023828111626 1976.7031097288254 0.0015488123154335078
0.7647313147064922 27.499233215813923 1976.6804795482697 0.03384149830895906
0.69659728193407 27.395411318993872 1976.7864851750812 0.08551873948956693
0.6939460857500631 27.38780567178806 1976.7957931922228 0.08371840996314671
0.6575539271531979 27.394424407727954 1976.833595718171 0.09588049376750823
0.6493417733996073 27.397571174626233 1976.8423936069144 0.1308812904307596
0.6382278753172451 27.395115122277875 1976.8599023485413 0.1224280291689147
0.6111706819696515 27.380946879154386 1976.9049587882287 0.0007138977906944692
0.5802780201681925 27.36139661520896 1976.9472075007668 1.8303014148009894e-07
0.6851622545051939 27.39421609006328 1976.7986593149471 0.17483059762480332
0.6637637584044871 27.396402533861224 1976.8224356360556 0.07358191800791064
0.6716423810091787 27.396502191751026 1976.8121741441144 0.1808668769181232
0.6586133912501821 27.384983189555914 1976.8366045989903 0.09160321415872281
0.6475278833142865 27.379693797466768 1976.8540019482195 0.09045249175510499
0.6371979008114493 27.37987559238705 1976.868070986782 0.0787527923310077
0.6304851888084784 27.38295379790214 1976.8755512946523 0.04104847801081509
0.6205926557175634 27.385157493453022 1976.8884076133609 0.0003361464612156422
0.6164320482033231 27.37166598324803 1976.8995910168665 0.0010059965579701903
0.6103026912631376 27.369368614220235 1976.9079573003987 0.0008522959343982402
0.5974178120777369 27.374708774613516 1976.9223535095186 0.00022631018527942293
0.5895288271398106 27.365696850955857 1976.9341482179357 0.00029081588192240185
0.679011488196186 27.3835106447333 1976.8138976522719 0.13314214240748698
0.6683901650520674 27.381932645809428 1976.827335303227 0.044750346938142505
0.6285840577164176 27.3738652457514 1976.8829025640161 0.0009668517482043209
0.6037550335853014 27.366963833289546 1976.9178139872329 0.0005675906222302754
0.6037736216458519 27.37954684115894 1976.9145805329722 0.0011635526922806523
0.6312087807103375 27.39359045363203 1976.8703688512853 0.08172073628195352
0.6272511440034994 28.0171743644006 1976.797688834859 0.04680906478443908
0.6060394619889911 28.015559467489748 1976.8119841975636 0.0026218622415938994
0.6202081424168336 28.02338254709544 1976.8059694602264 0.02101466665517232
0.6109484002054115 28.026982031024396 1976.8133540396764 0.0034564389104668534
0.6018875697719743 28.023011568967167 1976.8177499778571 0.003016327541995531
0.593396741976311 28.025295884424516 1976.8246595411736 0.003721891569062743
0.5567170609428733 28.075347123648772 1976.8587460662673 0.0010681501610953735
0.5483747831936471 28.08107390040398 1976.8631722464793 0.002170330443590383
0.5137856384623716 28.10044196872928 1976.8775346501016 0.0007775208085447151
0.6324533280955131 28.005778547670634 1976.7863097274687 0.058950566855504545
0.5918832650339458 28.04752754394979 1976.831400989061 0.0013293508576701558
0.586917030991349 28.038750934283595 1976.8322855493147 0.005615768994085035
0.5787180701831486 28.052721327209106 1976.8411584976384 0.001322684459701862
0.578192253022261 28.040281654620337 1976.8385197390771 0.003860615291633582
0.572744791154315 28.062563820561106 1976.8466119684138 0.0009600935907793375
0.5620794880972603 28.055379312048732 1976.8524820833718 0.004009565334757004
0.565590103968782 28.071111271840728 1976.8520878256777 0.001250683142454689
0.5541975698344981 28.062533906328245 1976.8581147610269 0.006400701517904695
0.5408469961627229 28.08759577601508 1976.865846865946 0.0022040236115242673
0.5102545194925124 28.11012327511235 1976.8763724788307 0.0013799840746991597
0.5292376037315785 28.084986816689334 1976.8719690635014 0.0019127398490150032
0.5218256532888169 28.093445080860704 1976.873992386737 0.0015840525559560532
0.5706252161895129 28.04331521534506 1976.84528139453 0.0034585416546179955
0.542980418893965 28.070596676579083 1976.865937932072 0.003902710017629759
0.6011371880296846 28.040514979089785 1976.824120169408 0.0016218753634142113
0.49400420420287844 28.116245036270904 1976.8804975694918 3.833879400967438e-06
0.7191589347099889 27.5688782089462 1976.8193842076396 0.007842672222033489
0.7138607345538431 27.588524998959002 1976.5449386718512 0.013145671283687732
0.7156758768703423 27.584471032445983 1976.642874887825 0.06219194473507385
0.7112445479100039 27.58669228601997 1976.556012362438 0.012957302730896752
0.7093936047839069 27.585984705619182 1976.5898465211317 0.022238159988131414
0.7113250346192167 27.58866163717191 1976.506402993352 0.004063693093895575
0.7106587207230098 27.58343218904396 1976.6313015593582 0.05416134211717716
0.7142479102712695 27.59159060435858 1976.4658575870621 0.009285006267816785
0.7153597751960923 27.59284849903557 1976.3870660404218 0.008202734504890877
0.7184479917723785 27.59340756537909 1976.2981673082802 0.11410816949849677
0.7143091946831955 27.592296834264424 1976.3598307275458 0.14895066265380413
0.7182794238055137 27.594947698903074 1976.349478631733 0.11086626963047168
0.7161143444991861 27.59317721014581 1976.41997637216 0.019405786320894694
0.7164283792537468 27.593951872372358 1976.4311400508118 0.016420198407528258
0.7151313748913569 27.592253497856902 1976.3258641589634 0.2166196825098676
0.7122715385755223 27.591958184300996 1976.3767082098805 0.19961267199903007
0.7090356379476036 27.5922347136407 1976.438570487445 0.018006786769725728
0.7108302646792348 27.592271803772917 1976.3978803849677 0.005353606948306738
0.7269322381666218 27.590819096907538 1976.098355229616 0.11412494232840442
0.7281392225893663 27.593637410330203 1976.1163324439608 0.10020467647289645
0.7302438914077158 27.593524826037317 1976.0625284708856 0.2698059000428351
0.7258265477663954 27.592492426165354 1976.1548366406348 0.10625139241234494
0.7211926289983088 27.58918009073315 1976.0876306790017 0.16202930881502275
0.7191404499604827 27.59045071761167 1976.1651700985624 0.11655702730866507
0.7203549961799305 27.589671770013844 1976.1393706907538 0.11609585268697632
0.7193072517441064 27.590389407877048 1976.1275807687803 0.10593374940048592
0.7178194716819412 27.590960029025954 1976.2104632042563 0.12489782560494399
0.7168253407056284 27.59167827715889 1976.1993239859005 0.15385705163870286
0.714668544963458 27.59282432338886 1976.2240265745372 0.12695300331466117
0.7148208658476334 27.594161898019877 1976.1874996537485 0.1343897326633288
0.7118089882660781 27.595942069606878 1976.249033751323 0.07776611498188772
0.7185659499000243 27.591272400407775 1976.071694718733 0.2618501659850505
0.7221078550513205 27.58866792029469 1976.041677489821 0.27003123859283124
0.7083887692334486 27.597018606871714 1976.3423501927525 0.17493395444955762
0.7111417101960847 27.59506271909211 1976.277983318321 0.06058401132000669
0.710456200040168 27.59462529593811 1976.3086915244726 0.10152246907571882
0.7053978256896374 27.59373325384706 1976.5205140680866 0.011029550676227995
0.7090203974315755 27.60123647288304 1976.3683843653516 0.026316757814765532
0.7077778223345594 27.599414197094756 1976.4056359639474 0.009814747570767904
0.7062081745572768 27.595899952659785 1976.4822461115123 0.016211124921782026
0.7073327533076286 27.59287871319013 1976.4572807430022 0.013309746152462585
0.7066534237688152 27.58790358981423 1976.6162103920701 0.04126970891238249
0.7083827151610516 27.583252156599343 1976.6629284195997 0.055468349869439874
0.7137026145681035 27.56916104380108 1976.833859566957 0.023082932831585214
0.7112625235695201 27.576530034506586 1976.7310028205827 0.0048110370517838045
0.7192430569513987 27.560211751550888 1976.8709327048477 0.08450689349485717
0.7234492592090158 27.553259803321 1976.9016608820546 0.1301603247947314
0.7367447382345909 27.533657033703342 1976.9445237524387 0.03589768030121493
0.7448945392858386 27.52497878510767 1976.968862527476 0.08848471910196261
0.7676169565322385 27.49132932974563 1977.0067769908128 0.0809474915334326
0.7781940916537695 27.482099150818044 1977.0203580934513 0.11420338260538483
0.7818215722072377 27.472115320475694 1977.0250278816998 0.10759791537033477
0.8007941332982016 27.447481216945544 1977.0416142539307 0.025778517089252686
0.8220936446259659 27.41998012632103 1977.0552992617365 0.023680117843660604
0.8428805217862856 27.392758981541856 1977.0631898196914 0.028384941700701168
0.7959529676867956 27.45211951475731 1977.0321703849163 0.030228244355646052
0.8314051523300104 27.402059666164647 1977.0578744067298 0.016557573254721947
0.861363834886081 27.363093033896796 1977.0662443721712 0.059266286480179106
0.8913713914262497 27.325081970928835 1977.0663336666903 0.029872024442470876
0.8730610185741049 27.35256188933851 1977.0669530874998 0.040761265092865887
0.7149826156561994 27.571948158525995 1976.8468908656 0.0180578198849982
0.7107917015438431 27.580565508574175 1976.7575559957504 0.005918359462467889
0.7086717395955406 27.583299050836118 1976.7071227215688 0.004015098027040303
0.7265003733339027 27.56149782949593 1976.8915990724252 0.12290770151587371
0.7164798772840217 27.58044068448151 1976.7760955003732 0.011050813947223136
0.7168392448183943 27.578625335844194 1976.798003882684 0.006871899599775756
0.7082734140697827 27.596181465239574 1976.5501344312684 0.018130743304727137
0.7061987011681341 27.594483757862704 1976.5362878436845 0.015629880453415994
0.7066769209443026 27.59722005522854 1976.494456487668 0.015674385998360588
0.7080956538155583 27.589315610763265 1976.648753155853 0.05275242618720727
0.7065884881055794 27.5925784997781 1976.573011964069 0.012805606199744735
0.7098272324716504 27.600491145963474 1976.4732290796592 0.01418820089638518
0.711815819950124 27.59549801264728 1976.583137614027 0.013166428697307865
0.7154350771433658 27.58309556047667 1976.7465481463864 0.013269791565411413
0.7152828881611316 27.588670480283618 1976.6713661752344 0.02063318168079911
0.7125145565162171 27.58883293219953 1976.686843805082 0.012064965662026665
0.7120639982016339 27.60296696166684 1976.355656141287 0.02741255875912518
0.7099423305751494 27.60180617232062 1976.394080947142 0.007056952226208368
0.710561708351085 27.601623266277244 1976.4256458370253 0.01727974075509144
0.7128121615928484 27.603343182215287 1976.3811110854385 0.011342335439207755
0.7160225211309403 27.603741900026872 1976.3048486349853 0.10350496318905042
0.7167621017611461 27.60329652598481 1976.240492411996 0.18321593027739455
0.7251338833243166 27.600616553681835 1976.0954539898355 0.1095279161028787
0.716242893028807 27.595596210439904 1976.1106084391447 0.09279792512890578
0.7109094993565029 27.59910038209474 1976.2601970668632 0.15135421399062912
0.7096895849826781 27.599313595476183 1976.2963737967495 0.07981623626149839
0.7107522805203003 27.602094593426475 1976.3200059996093 0.13113360387438988
0.7194967552023601 27.593846023445305 1976.0299112838634 0.17052756977461783
0.7256047032358746 27.60039518925848 1976.0755985267365 0.25624624906298205
0.7209523384834875 27.60145856400649 1976.2679383374207 0.18256283961878114
0.7259386858410646 27.596277167788116 1976.1954716624957 0.14968618512649381
0.7261068125598229 27.59780055249693 1976.1778116734718 0.12071914932975877
0.7274665018828441 27.596630699559405 1976.1414765181912 0.10332265183223402
0.7274443028498944 27.597524542124084 1976.1285919343422 0.10578512115919314
0.7215042250151407 27.598246475931553 1976.285412589698 0.07367368045118562
0.7196362542076485 27.600126045571294 1976.3154285456126 0.12925079012512436
0.7169779350791592 27.5972082643992 1976.444355257755 0.0167345711563646
0.7158216235737198 27.598728983753723 1976.454890758851 0.018170434380762348
0.7187192995637658 27.600685520382214 1976.3352549711121 0.13775794288736523
0.714728284557455 27.593319872499034 1976.5946605151466 0.020594718334850024
0.7159564330426444 27.592836779936107 1976.5624379528604 0.020542196433859454
0.7165431590063169 27.59536227649355 1976.4877442602733 0.020897586152381617
0.7163393625369675 27.595213178173974 1976.4989112154744 0.012874153003095454
0.7160446555187217 27.59420739666973 1976.5312722316203 0.013732437532667566
0.7199771374654939 27.575376486822677 1976.8106452167483 0.004913073991997639
0.7195087076951461 27.578210420002655 1976.763398501525 0.00409283130355355
0.7154409827662748 27.5913776452133 1976.6085641567813 0.03866269584650618
0.7166377493470174 27.588904524996863 1976.6212912839164 0.053645436779560685
0.7164097264266002 27.58526730607629 1976.6546768192184 0.05379252861629847
0.7456711032341319 27.531733089383785 1976.950243871207 0.07514135849691658
0.7236224883494623 27.567693774887875 1976.856370961318 0.05308142440652892
0.777733210430199 27.487233691592177 1977.0100834283226 0.10332906372801678
0.7903876063538484 27.46547504626682 1977.024075403745 0.08292083404876997
0.8313136536529039 27.412006545906507 1977.053307551716 0.020021770901621334
0.8516736989804956 27.38433513197794 1977.0614497611166 0.045630743619391324
0.8118575613252346 27.43899113666156 1977.0459056769453 0.015841997517898693
0.9196009255734252 27.290745143255478 1977.0543400427593 0.031605464057060176
0.8854455356368871 27.335306747885227 1977.0612914522924 0.03264659583116929
0.8548205516454055 27.37248740034756 1977.0624727789718 0.06563820487172438
0.8988865557601278 27.31616481390857 1977.0596311691327 0.026828428197137662
0.7668740440778237 27.495134184838136 1976.9960605127749 0.0771164125176336
0.7349794843494616 27.543042743082303 1976.924347819357 0.1709856016066394
0.7265164437931811 27.557749634233936 1976.8816451970522 0.1197069943420176
0.7274280870851298 27.54906028510566 1976.909972736647 0.20093348210728176
0.7104422925618005 27.58032245923813 1976.680657021514 0.08373237084787759
0.713983804428471 27.57194689189739 1976.7828788721004 0.0060680400644636074
0.7118576197170076 27.578790488525037 1976.6970664254975 0.042050888606095814
0.7140697145874829 27.576601117818292 1976.7202272668287 0.003029056664261725
0.7307018667828903 27.59358982443104 1976.0478840319397 0.2360311091194768
0.7301567547075765 27.59585800008328 1976.0379747341658 0.23682010886704924
0.8398873563112108 27.778137187423752 1976.4975506188362 0.03263431851105202
0.8502120494258727 27.771880375660416 1976.4988068255118 0.019818368354404883
0.8801773713543088 27.7641679659104 1976.506920307435 0.0010910475884101265
0.9038440364299456 27.761318359419718 1976.512411800008 0.0015779311745292741
0.929465304722703 27.7680638512084 1976.5173900976033 0.005529109187584521
0.936641786461817 27.757083873870975 1976.516217417872 0.0021839291495365674
0.9678316116166941 27.755718466518882 1976.5172068412776 0.00228719468729282
0.9804298007185261 27.75688822565042 1976.5164185953288 0.00546818261510674
1.0042583965051328 27.7515367434279 1976.5143184964586 0.0021780522520626717
0.8284830016006587 27.78145065505166 1976.4926789709798 0.03694825820094474
0.8627922502348633 27.770169736003684 1976.5023952314205 0.002576058064448523
0.8701047948487313 27.776513170630583 1976.5077370264044 0.0019113089879264473
0.9001951120425931 27.773314039174657 1976.5138905133267 0.005289337887105147
0.8927243385081093 27.762876159330872 1976.5094402083437 0.0018944196813850305
0.9410385440460592 27.7662258815013 1976.5165397566718 0.005299699807197668
0.9504543704323313 27.755227377001113 1976.5158257169876 0.001897827658447418
0.9916434496576139 27.75514082122695 1976.514349204507 0.003822325352958253
0.8553660085645044 27.779877067611245 1976.5048460372861 0.01059495493184847
0.8879567647670381 27.77511415109246 1976.5127099904184 0.004317678308179922
0.9201472013353403 27.758094628609538 1976.5139556180634 0.0021050440238240364
0.2829930504888055 27.831359780748393 1977.0361169646471 0.0012679331985654902
0.268382180996204 27.838358522968186 1977.0325888148684 0.007516304810832184
0.25831180297651274 27.830352551649774 1977.0426864719434 0.004499461328211847
0.25361667331397975 27.82303590593194 1977.0517668464745 0.0006398969877011943
0.23048690403153982 27.826503614251507 1977.050032033516 0.004137811287878495
0.22670024647541437 27.81958684230264 1977.0582473341915 0.0005807734216704265
0.2014150324134774 27.826224380023564 1977.0504381352387 0.0025460529202453487
0.21201637953286 27.818291228996557 1977.0597457291483 0.001153550217744507
0.171196288001081 27.824080949105426 1977.0487920760088 0.0013873614983517444
0.18901153375484384 27.82619118318055 1977.0495317998157 0.0020122603918933807
0.18306402671514171 27.81422570053113 1977.0617262332155 0.0016789874405636243
0.11848790466554529 27.799955373275917 1977.0506100691323 0.0015524719358753882
0.3032757978032161 27.83490650848799 1977.0236963351178 0.017461775347757863
0.31346179924096623 27.838128327541963 1977.0161063900887 0.02022548337431953
0.28192623576614223 27.83893106916195 1977.0265125723295 0.01353974019775197
0.292464706306609 27.83934111415314 1977.0229546008802 0.019995328137188597
0.2664780259735323 27.82366690696956 1977.046941184279 0.0013074921699779277
0.2387205917561522 27.81989844761003 1977.0555511019 0.0015541456255933166
0.2129917299907806 27.827965573268248 1977.0478133120182 0.0028284538109463373
0.19976901341661507 27.816749372436703 1977.0595205760173 0.002086487696881681
0.17422547539453376 27.815126230203674 1977.0572589376125 0.001778279274511352
