x y z curv
22.501854320673647 0.7460867686194826 1567.218141067527 0.0960161693027512
22.48916982662552 0.713929604189883 1567.2179101921492 0.10902211420353461
22.47982928797105 0.6634225980723544 1567.2189682519838 0.0955374158137098
22.533977894984204 0.7630872696589942 1567.2012438415918 0.12232401462751044
22.522185890324206 0.7476322131619817 1567.2014439483046 0.11475871083031486
22.502164118398785 0.6944349765423241 1567.201408702494 0.11774841247529332
22.485255197086175 0.6581392759767437 1567.206986269746 0.11442105640505758
22.49587714249344 0.6641217005982952 1567.2015969990657 0.12594265458180673
22.49830890212408 0.6815976666506034 1567.201554032417 0.10283581190993786
22.498323048771702 0.6542420225799312 1567.20124388097 0.13226778174934165
22.489009984377528 0.6328121853693265 1567.204436853118 0.13361135979072614
22.48501376888602 0.6238997131639743 1567.2089615032492 0.11459913869339425
22.48916509929856 0.6079473416518465 1567.2070134024527 0.12412003229759053
22.49836936598085 0.6088255175610693 1567.2019128141626 0.13634697499473028
22.489761362861564 0.5880169667705757 1567.2131652051835 0.09390539983331615
22.499337800896647 0.5915204480404452 1567.2029756278932 0.11262548933894334
22.50079239434146 0.581347446291833 1567.2038686114356 0.11864794449947376
22.500202871735205 0.5612645585871859 1567.2120776297118 0.10308408246903442
22.502915886456304 0.5702552906900501 1567.2050356649531 0.12363189745414585
22.5040209900484 0.5524193738232959 1567.2126955547305 0.0927530421504261
22.50996049890817 0.5628204892172077 1567.2030020388042 0.13022440274453967
22.509566867442793 0.5430735329768973 1567.2117034438274 0.10250962296359281
22.513949734610723 0.5523300871611554 1567.203563035418 0.1226446213249242
22.520742138661227 0.5412328170621544 1567.2033410572753 0.12327944170296444
22.52934571503304 0.5275987225927363 1567.203508798685 0.1285249293052924
22.525845630502637 0.5194452124065546 1567.2103195654809 0.11617677602284705
22.532680431204245 0.5100658268943994 1567.2112234030765 0.10679508445706375
22.54472720150508 0.5109422999071416 1567.2027074501761 0.12345148665467424
22.54041325527715 0.4995535352938563 1567.2135271404495 0.09689503076095793
22.548243268743292 0.4921667469276048 1567.2128601673023 0.09809450620754248
22.5502973123039 0.49972927215469637 1567.2046542996518 0.1117459873633266
22.56189583731868 0.486245932384912 1567.206422391566 0.12495594703976001
22.570372755414844 0.4795807885322655 1567.2063594259416 0.12002071780122178
22.572053306535373 0.48937019067404947 1567.2017908280816 0.11987339823065261
22.577030318543855 0.4723273858002073 1567.2084400651693 0.11541453143633174
22.587972094330045 0.4700840695776747 1567.2046307629546 0.138548187114151
22.595677001441707 0.45611847552906515 1567.2166539409386 0.08961739978447367
22.599599342989343 0.46890664952817435 1567.202342847365 0.11240305729163029
22.60645139308829 0.45077822515101285 1567.2164675252895 0.09210352090232549
22.6020779450682 0.45760067073402366 1567.2082517131084 0.10333764134249254
22.61629105705018 0.4552879972320246 1567.2046963683792 0.1261231059533555
22.620137235871656 0.44487722863092766 1567.2166857189206 0.0970822541657636
22.624323548737596 0.4480997705816857 1567.2080370086742 0.13307457369897577
22.63814593868414 0.4439111311172459 1567.2075172525929 0.10316562271213187
22.649551495914324 0.4376941154138959 1567.2118819619554 0.1151287605614265
22.661872418713205 0.43429183796646975 1567.2136657128276 0.10860597990211882
22.662322131897533 0.4431276195993 1567.203838337933 0.11448556334939373
22.670567173163597 0.4375593693723507 1567.2068601358856 0.11489348875539207
22.68123158242082 0.4334251228473064 1567.2105862932199 0.1081078435473373
22.681968998561196 0.4437874163030131 1567.202399952836 0.13139785622578537
22.48147767829926 0.6183999945833152 1567.2200550206662 0.0977882170254276
22.47971459907723 0.6356799229085554 1567.2199439650553 0.09691451025160924
22.4931107491487 0.57282677260692 1567.2198502535703 0.06649628084512978
22.484483347559475 0.6030218509797989 1567.2180317082496 0.11581275559013235
22.48030455428716 0.6478351874307431 1567.2146843390794 0.10057834415465128
22.488607306959437 0.6467440343163711 1567.2042776977246 0.1315894541720275
22.497411137808182 0.6401189829342906 1567.201398533733 0.13846672432973842
22.497239842680457 0.6269479498175758 1567.201531309364 0.13901021310191264
22.53980330323889 0.5270535761288644 1567.201301945318 0.1362300194970771
22.585267470840535 0.46135076352706855 1567.2209364250546 0.09019942054604985
22.56506941488257 0.47557910779456813 1567.2180895729882 0.08657368446801915
22.576697327498852 0.4671189556442893 1567.2185334171118 0.1153552750300659
22.630325656506653 0.4408159060840737 1567.2191203349948 0.10214440752085799
22.56149577216327 0.5020036332800363 1567.2013857277166 0.11542796082388386
22.582618604258638 0.4831275876060501 1567.2015316452475 0.11619489288740763
22.613047421244715 0.46726216346336524 1567.2013652379255 0.11545510815654324
22.63436529289637 0.45642101192116186 1567.201584300283 0.12280494853402499
22.648994726025883 0.4532082702497969 1567.2014765783026 0.12935146016875176
22.692901553653826 0.43103992844572653 1567.2140501640542 0.09463314428785428
22.69260267396492 0.43849926614894985 1567.204642486651 0.12278155352011438
22.71205181849013 0.4371346584865906 1567.2059992416825 0.13124936527922085
22.721519326111675 0.432262798225613 1567.213598273976 0.10494643965974257
22.719723368726015 0.44509194499527815 1567.2021015171695 0.11172946987789178
22.735918991610877 0.4342881796457063 1567.2134763960494 0.10989326775753297
22.73176311630711 0.4441236570237137 1567.2029653170655 0.10857361777524169
22.746897769636195 0.4365382981822538 1567.213307344858 0.11204013902566008
22.75423589053348 0.4462594168689458 1567.204351951128 0.12110492914480141
22.759831707520963 0.43905713710536404 1567.2155479293028 0.10976578137647028
22.763872592613765 0.4459241158583423 1567.2067088852727 0.12165173864782088
22.77347452320559 0.4437352305256297 1567.2149361261363 0.12762441402272218
22.776555495705132 0.4530287918771867 1567.2046764028958 0.12214574735823347
22.78449743024226 0.44824825417836983 1567.214377292369 0.11485742494187896
22.792997665000215 0.4535957048390221 1567.2114255508031 0.13176317135540055
22.7933153596683 0.4607268455084072 1567.2045567614473 0.13348481189391678
22.8041467310694 0.4639298959534264 1567.206374587874 0.1205625089866143
22.811009388135794 0.4617586427548289 1567.214089606914 0.08910978914355627
22.814486267796415 0.4691095941387971 1567.2071177852308 0.11866392010649933
22.819819380913078 0.4834856081118877 1567.202030060951 0.11151152441327537
22.827948552750218 0.4759310404119283 1567.2095895050936 0.10098513043393438
22.840238480001474 0.4854299429943003 1567.2099405342274 0.11136287706114424
22.83085889503913 0.48806110750859877 1567.2031529188362 0.1217985394049009
22.852036314723946 0.4938465773623857 1567.2131729771072 0.09790763170242454
22.838029229342297 0.49752996729512716 1567.2022302735263 0.12175299293750898
22.85540772410696 0.5042479615635393 1567.2064801115457 0.12483829362310617
22.86741187799715 0.5100510880136392 1567.2140751689349 0.12399002550301676
22.865503842898676 0.5158238747455531 1567.2065041361993 0.1123047583561688
22.8797729675702 0.5281576408114843 1567.2120909947014 0.09385893513689711
22.87209343064016 0.5246896651256407 1567.2063973860875 0.1108783588431914
22.887203446127337 0.5370688885665298 1567.2159134077683 0.11130474834037468
22.873533672390835 0.5366696806179253 1567.2028121833134 0.11412323247444278
22.88768717111857 0.5494081244967266 1567.206559570577 0.12055675956584187
22.89055243342656 0.563226191620483 1567.2039954699515 0.10297324332171882
22.88796123926602 0.5725906030155018 1567.2016184552974 0.11871584266067155
22.902743276573972 0.5765584040996634 1567.2097556852582 0.08526390021840234
22.897851389862844 0.5848434733261841 1567.2034856542102 0.11095618234596907
22.90157950155705 0.5945364311677606 1567.2039101272521 0.1144417231017252
22.907128649881706 0.6054505473617158 1567.2058582454065 0.12368287597581433
22.913827375168786 0.6145446320339591 1567.2119017201728 0.10874245610376397
22.90069317431355 0.6138081550157489 1567.2018596093562 0.12408858052413518
22.916675035084143 0.6250128065490246 1567.2152409347518 0.0903281273614238
22.90722217972155 0.6229972462634144 1567.203897491529 0.11431880577092016
22.916467813582706 0.634354751058667 1567.212527800822 0.11385167451008367
22.819485244112496 0.46569441846892234 1567.218603872383 0.07234601788539516
22.846184739729914 0.486217133321876 1567.2189323539844 0.07420587750194539
22.83726507895448 0.47860548335249636 1567.2189854927483 0.10380890407186798
22.703989315882296 0.43036468961852675 1567.2160836610399 0.1035273462266752
22.705191537174613 0.443404994902622 1567.20229801058 0.11470878322324679
22.743001867134755 0.4517869773798356 1567.2014675077587 0.10866278350754481
22.757670346753713 0.4572294744567979 1567.201305998826 0.12079140562375697
22.797590217865334 0.4734764834978217 1567.2013806090022 0.12979650117030345
22.786891839459663 0.4681224573285091 1567.2013605488569 0.11429958431618416
22.876050089375607 0.5190975924852219 1567.2193890209423 0.09711588255380854
22.893061139635176 0.5461711470602023 1567.2190021780186 0.1098908771627955
22.899105039871223 0.5582624950443911 1567.21943293222 0.08034988072284324
22.90523310331172 0.5729002234594489 1567.2202289998672 0.07929586909805307
22.911306075050895 0.5929681908279181 1567.2176285797254 0.10965026852019233
22.84547742351527 0.5102832238885008 1567.20141201271 0.12468307824893524
22.861156319841147 0.5262204997804953 1567.2015810601265 0.12944406668078917
22.890544410210612 0.5912132178122415 1567.2012084584064 0.13194954022409894
22.87516017671529 0.5495399408715173 1567.2014557013658 0.11485553705081757
22.915450637146815 0.6445328522476147 1567.2098224391136 0.11080275492486359
22.90623115306671 0.6465455656654147 1567.2025791083975 0.10471069991867042
22.507104240932442 0.7037202252207899 1567.2011921945787 0.1197370323829784
22.51594583566723 0.7243826882560478 1567.2011921945787 0.12323978011778527
22.509489580517965 0.681995473511574 1567.2011921945787 0.10713322134726655
22.581665096904292 0.8045512846132487 1567.2011921945787 0.10446741662749368
22.555097213752205 0.7682254423646362 1567.2011921945787 0.11508843157336554
22.54282711860185 0.7494066150237448 1567.2011921945787 0.10976587549638166
22.51641803716091 0.697516712938556 1567.2011921945787 0.10310410231520954
22.521731773329464 0.7317622993351418 1567.2011921945784 0.11345777144247489
22.565101537257537 0.7719342912592569 1567.2011921945787 0.11730276802080143
22.57912212519873 0.792956933068571 1567.2011921945787 0.10863891114925969
22.532198730294198 0.7518855197737785 1567.2011921945787 0.12555687914802552
22.53758368575231 0.7392726139716219 1567.2011921945787 0.11168524118987144
22.53497653865844 0.725432729127493 1567.2011921945787 0.10747108516743696
22.547967388648843 0.7611383846544072 1567.2011921945787 0.11388837979233837
22.517803285020825 0.7103442225106764 1567.2011921945787 0.10854336396444389
22.50976117066625 0.6461662598237763 1567.2011921945787 0.12318402252579387
22.559862349484952 0.7575374936975777 1567.2011921945787 0.1152956271272018
22.539097247537626 0.6997700419851266 1567.2011921945787 0.1038985496419646
22.548795788892164 0.7335409377834026 1567.2011921945787 0.11216208045169576
22.556345130644925 0.7476346961847888 1567.2011921945787 0.11214310347985197
22.504393424231868 0.6200335448615962 1567.2011921945787 0.12987196006669868
22.536486304352774 0.7119208612735369 1567.2011921945787 0.10603410086987476
22.57525211002924 0.7762066997683756 1567.2011921945787 0.11717204552930727
22.508739742907036 0.6634538582775921 1567.2011921945787 0.11957066235595891
22.52546486921044 0.6863259724524189 1567.2011921945787 0.11680871611013115
22.50661408506609 0.6346886301216407 1567.2011921945789 0.136761327182208
22.528914488580853 0.7032417382500777 1567.2011921945787 0.10751775636527061
22.51926220516976 0.6759221090181343 1567.2011921945787 0.10735393635625522
22.515251960689255 0.6547391753886629 1567.2011921945787 0.12134799212192801
22.572938282966696 0.7552613015692609 1567.2011921945787 0.11502421425608066
22.598085803836018 0.7839328789552629 1567.2011921945787 0.11567479924574206
22.58529088116784 0.7673729874644736 1567.2011921945787 0.12250060125225477
22.60862933830274 0.8080104043736752 1567.2011921945787 0.11237144581098414
22.55662484232294 0.7204014789078845 1567.2011921945784 0.11739367895350708
22.597024960100306 0.810591249886218 1567.2011921945787 0.1112294926252195
22.560843693332462 0.7307498161213721 1567.2011921945787 0.11662583476221933
22.568095848786996 0.7418754105831095 1567.2011921945787 0.11927518616312142
22.607232469510375 0.7941066255221764 1567.2011921945787 0.1199938652102408
22.554112835539506 0.7090701794131853 1567.2011921945787 0.11439021094495207
22.5365164537181 0.6764720115867836 1567.2011921945787 0.10670211028546754
22.529095788343064 0.667792750920064 1567.2011921945787 0.10192311968025633
22.54228635746064 0.6871783290867116 1567.2011921945787 0.10899694938377923
22.609364240110665 0.8201209106973721 1567.2011921945787 0.11032806978729724
22.594486748505844 0.7939038045320341 1567.2011921945787 0.11209087002248573
22.55922103784254 0.7827650013232373 1567.2011921945787 0.11035082282823039
22.569272338283255 0.7987303830593075 1567.2011921945787 0.1171659231170431
22.54361250298988 0.7742367773776375 1567.2011921945787 0.12379767103562295
22.755788765555295 0.7927806187320623 1567.2011921945787 0.12017505186626731
22.68283282570557 0.8205422474329424 1567.2011921945787 0.11941881869848327
22.707008937861872 0.6833060186768765 1567.2011921945787 0.11501974205634291
22.710161479349534 0.7749086050462175 1567.2011921945784 0.1225425631523352
22.622948198377163 0.5864661823969584 1567.2011921945787 0.11565381950495011
22.641457457741748 0.5884178861345116 1567.2011921945784 0.11467147078263121
22.75135888900386 0.7301017648795906 1567.2011921945787 0.11458635656439468
22.71224240483829 0.725621368877508 1567.2011921945787 0.11023422258090777
22.648403874176932 0.8317773503407113 1567.2011921945789 0.10742240930901964
22.72771873470963 0.794159487260243 1567.2011921945787 0.11648421004975194
22.730982534187984 0.6917536389924879 1567.2011921945787 0.12533289965217315
22.813671160230328 0.7541311001511508 1567.2011921945787 0.11559842646084449
22.678562289109255 0.7419467412487127 1567.2011921945787 0.11823308011483355
22.65491738831682 0.6812473479427095 1567.2011921945789 0.11748094315477864
22.666012919135895 0.6762974605968464 1567.2011921945787 0.12375465417211465
22.720062869159882 0.7798049807093277 1567.2011921945787 0.12733984058021636
22.77319442874569 0.7276055873289725 1567.2011921945787 0.105608117817451
22.723978637009175 0.7008987699088337 1567.2011921945787 0.1259798546626935
22.656312194108224 0.6674613872002217 1567.2011921945787 0.11050720042027318
22.728978211967554 0.6362617809184894 1567.2011921945787 0.10964425474474933
22.631865389155227 0.6104227077077251 1567.2011921945789 0.12182457306397448
22.62475742219137 0.6823066407580928 1567.2011921945784 0.11291274816201895
22.656758794479245 0.7410459271948747 1567.2011921945787 0.12791816279864154
22.747579981539026 0.6500434980293031 1567.2011921945787 0.1255854406307306
22.779677651653145 0.7088008595128376 1567.2011921945787 0.11552569903986354
22.625282121806954 0.6389630995807329 1567.2011921945784 0.11927446733604057
22.753671139384316 0.7553914082253785 1567.2011921945787 0.11359255811056014
22.66562880269143 0.6417604536331495 1567.2011921945787 0.11514240563242747
22.72476401797892 0.6479262756340894 1567.2011921945787 0.11499995488851633
22.656411388924788 0.5890083752260473 1567.2011921945787 0.11439988985729665
22.81114706937347 0.7351837543949218 1567.2011921945787 0.11065367910920099
22.69557523168034 0.6610188063458308 1567.2011921945787 0.11468833761110286
22.784098100437173 0.7220890857022069 1567.2011921945787 0.115943959449823
22.75221786410527 0.7716073592423933 1567.2011921945787 0.12098886634847114
22.83375842177635 0.7306964998156006 1567.2011921945789 0.11365640122984418
22.61247906078721 0.596820997231017 1567.2011921945787 0.1267635284546233
22.815985796331447 0.7128483588460139 1567.2011921945787 0.1175898796862936
22.652349611025755 0.6252948022650032 1567.2011921945787 0.11604400817811468
22.79609944347892 0.6953874138402996 1567.2011921945787 0.11945150789337404
22.667869166646636 0.7197948238456136 1567.2011921945787 0.12014090146099261
22.62931593461365 0.6932230786291134 1567.2011921945787 0.11126287943232446
22.676229679382605 0.6752520713736968 1567.2011921945787 0.1199480156323897
22.631983251720126 0.772786814914999 1567.2011921945789 0.12164941233322675
22.690433553944303 0.6999903210136859 1567.2011921945787 0.11941837563461212
22.62724414076567 0.6214624939667746 1567.2011921945787 0.11743370223152225
22.69554797082793 0.5834772578108988 1567.2011921945787 0.11171061639552048
22.729186614576825 0.749683150179199 1567.2011921945789 0.11450590245964137
22.670403151999565 0.6883933704286898 1567.2011921945787 0.11970130038245447
22.723342695658012 0.7255384982082405 1567.2011921945787 0.11913875388768326
22.647639412000558 0.5408013891539987 1567.2011921945787 0.11371808678760245
22.673888729691537 0.5630660753638215 1567.2011921945787 0.11791196978813923
22.636540379727624 0.60018775637891 1567.2011921945787 0.11442734082517961
22.70586269936439 0.5915045311186573 1567.2011921945787 0.11675621892177818
22.68201816902161 0.7669797867657688 1567.2011921945789 0.1197761899739533
22.822412252359058 0.7377977796872223 1567.2011921945787 0.12028343458414696
22.812825768490075 0.6995948837099039 1567.2011921945787 0.119825523635912
22.81535241959469 0.7237809152603883 1567.2011921945787 0.11934888920030881
22.678896071169888 0.6263846713762798 1567.2011921945787 0.11447805050765304
22.723806723676937 0.7603246718085798 1567.2011921945787 0.1169554626570231
22.830867116471243 0.7499263783078357 1567.2011921945787 0.10909035242871126
22.705340317840573 0.6457369470539702 1567.2011921945787 0.11718920192779397
22.700455998330607 0.6339556454757213 1567.2011921945787 0.11269534209310621
22.610266501016984 0.5414426983439014 1567.2011921945787 0.1271597501004753
22.717719889534546 0.617944738717223 1567.2011921945787 0.11538897471015282
22.67788593151025 0.7867647513017789 1567.2011921945784 0.11648273092937379
22.73677660001745 0.6724724778362121 1567.2011921945787 0.12219416269495927
22.820282768549706 0.6937917771248999 1567.2011921945787 0.11941744918975312
22.67574015384229 0.6431950243585692 1567.2011921945789 0.11597632134183986
22.637395000968713 0.541756333633788 1567.2011921945787 0.11702465250067423
22.744441600397437 0.7875977605695001 1567.2011921945787 0.11767143491545448
22.722310049233368 0.6832259745674263 1567.2011921945787 0.12042912748338709
22.638935965295907 0.8031203051603876 1567.2011921945787 0.11804040054038313
22.633826183118927 0.6747975971213822 1567.2011921945787 0.11634661548640776
22.63637334527467 0.5719696521728603 1567.2011921945787 0.12361671412993572
22.654242949470614 0.7289802241038646 1567.2011921945787 0.12031657894007668
22.6285050168882 0.5324697884619495 1567.2011921945787 0.11622170999166538
22.754409445867427 0.715432940699575 1567.2011921945787 0.11764197487423186
22.64035325338505 0.6222357585270961 1567.2011921945789 0.1165950699447452
22.84139591366466 0.7146501764582103 1567.2011921945787 0.11298503921466387
22.61572111998386 0.5286034360837213 1567.2011921945787 0.12488966038891489
22.645562503498205 0.7773077828793309 1567.2011921945787 0.12232764111452879
22.746007054307036 0.7453782941398824 1567.2011921945787 0.11951540836187304
22.795301298402542 0.7328285200188699 1567.2011921945787 0.11071876553367616
22.76942420869785 0.6760764985571988 1567.2011921945787 0.11038969589321151
22.657380368314215 0.6138761379499196 1567.2011921945787 0.12019627995899815
22.694916989262254 0.7119255547556063 1567.2011921945789 0.12302985634442778
22.83085510956448 0.720103771475712 1567.2011921945787 0.12368872840843433
22.784753397109846 0.7612947108239361 1567.2011921945787 0.11643371765217624
22.851669445243687 0.7452001331676299 1567.2011921945787 0.11108217686487146
22.62815772792515 0.5568785299688219 1567.2011921945787 0.11824404841384192
22.774940769785864 0.660391080934702 1567.2011921945787 0.1148899069694415
22.713266550031673 0.7036625266117132 1567.2011921945787 0.12177101557663667
22.73068020426046 0.6614444387151375 1567.2011921945787 0.1215827895863073
22.636756158357976 0.6318468678396252 1567.2011921945787 0.1282008531241495
22.745621224727856 0.7219627087576437 1567.2011921945787 0.11192751630466614
22.60148495677088 0.5335204395996107 1567.2011921945787 0.12841490114113743
22.60353317930195 0.5024948020308552 1567.2011921945787 0.10739514748595275
22.740343256156187 0.7569940110376354 1567.2011921945787 0.11298259453981373
22.610783273468954 0.5529373062772539 1567.2011921945787 0.11938669663767588
22.660014345009564 0.7530089032934183 1567.2011921945789 0.11865794909784709
22.712266245907767 0.6310503398178429 1567.2011921945787 0.11671479416055357
22.624520350391734 0.6618649681283431 1567.2011921945787 0.11546445443054161
22.65321722894886 0.5507832757078205 1567.2011921945787 0.11106747241557094
22.73568979594009 0.6462699878362879 1567.2011921945787 0.12186559165199042
22.64818776624088 0.6595697112070784 1567.2011921945787 0.11902909804483616
22.76635764500297 0.6966282047321053 1567.2011921945787 0.11600072197100775
22.71238699210194 0.6737430315601072 1567.2011921945787 0.11186257916243678
22.648377673497755 0.5997894110872879 1567.2011921945787 0.11900672685845572
22.742771627407194 0.6867550447122279 1567.2011921945787 0.13182174088034068
22.773820855201194 0.7383155972393641 1567.2011921945787 0.11200646405221229
22.853485701101953 0.7341408083103507 1567.2011921945787 0.10974924803255076
22.713986115466405 0.7634586350890843 1567.2011921945787 0.11466103768482204
22.661850997678044 0.710290864601755 1567.2011921945787 0.11983568213528664
22.635331328710016 0.6420647395425436 1567.2011921945787 0.1258019460826883
22.760910915046182 0.6652463835396569 1567.2011921945787 0.11505646091150568
22.69538897036046 0.7433809149916604 1567.2011921945787 0.12492972897637214
22.649743337465065 0.7060440108815202 1567.2011921945787 0.12252915043660119
22.805759110881013 0.6902991973162091 1567.2011921945787 0.12456013956493149
22.78550145514903 0.7375076307290559 1567.2011921945787 0.119041467424001
22.635552894108265 0.703542645940207 1567.2011921945789 0.12095137523464292
22.785366115585568 0.697124467145861 1567.2011921945787 0.11591957902677417
22.607935360072503 0.521230883429455 1567.2011921945787 0.11891777798011546
22.67022752905089 0.8166258762302472 1567.2011921945787 0.11579355573065783
22.66689755537106 0.7934817925664884 1567.2011921945787 0.12268153584977964
22.766598850722367 0.7531885234985913 1567.2011921945787 0.11603990961032816
22.735168710529894 0.701880335679101 1567.2011921945787 0.12461029933456289
22.647646212592345 0.8105455854303093 1567.2011921945787 0.11256708234120859
22.612177852236837 0.5811207623050846 1567.2011921945789 0.11605408286391321
22.845524912888244 0.72674722750808 1567.2011921945787 0.12776472657622812
22.654696487310588 0.7881527792269766 1567.2011921945789 0.12314783259846425
22.714480271634812 0.6041145904976586 1567.2011921945787 0.11823707465184048
22.645941489027276 0.6108322054537121 1567.2011921945784 0.11776400934843706
22.74713760764353 0.6986455890617947 1567.2011921945787 0.11795507913078625
22.672418320282585 0.6016000623942329 1567.2011921945787 0.11588260965841055
22.704141052563777 0.6062267844800384 1567.2011921945787 0.11117627145422772
22.619297511236773 0.6729290348098254 1567.2011921945787 0.11084938003969344
22.64820708092166 0.577047316510914 1567.2011921945787 0.11415398863461633
22.71764399981321 0.7946000581956811 1567.2011921945787 0.12239645360957915
22.681966588541176 0.6658984253516211 1567.2011921945787 0.11841568862916522
22.793333549706837 0.6830439573468965 1567.2011921945787 0.1238156649195249
22.695400206107504 0.6726903513766805 1567.2011921945787 0.11688480205453455
22.716649303552096 0.7500560824581812 1567.2011921945787 0.12049067793759169
22.690602057150524 0.6874436007907974 1567.2011921945787 0.12002286042945821
22.622016790540822 0.7009657649920874 1567.2011921945784 0.1181462100729049
22.685023642717525 0.6140447922914317 1567.2011921945787 0.11481707137728468
22.658218421562434 0.5703459427020077 1567.2011921945784 0.11144567825539126
22.618407514551013 0.6291459242120461 1567.2011921945787 0.12161149909277387
22.674508791603117 0.6118822589766595 1567.2011921945787 0.12194956560487684
22.67685969808148 0.6561651907400687 1567.2011921945787 0.11497678889717222
22.703779445803775 0.7642153469952614 1567.2011921945787 0.11899593367374384
22.62559904478384 0.6505741663917014 1567.2011921945787 0.11974634630475882
22.71490161916438 0.6507225045587816 1567.2011921945787 0.11625198174267476
22.630976532390505 0.7523661506626388 1567.2011921945784 0.12316180906079213
22.65637134801212 0.6495678040757015 1567.2011921945787 0.12251103825069704
22.596848117132115 0.49084836580396873 1567.2011921945787 0.11286684243005583
22.663376272158477 0.6054875265763742 1567.2011921945787 0.11559432044852774
22.787056526033282 0.6646360570803935 1567.2011921945787 0.12483847538233186
22.62150932992538 0.5174660861655956 1567.2011921945787 0.11978371571410304
22.651451052182747 0.7571771792735825 1567.2011921945787 0.11749448162727719
22.70123925479499 0.8027474715198974 1567.2011921945787 0.1180688234249533
22.611590187593276 0.6533687771758089 1567.2011921945787 0.11821217497931118
22.680674821084484 0.6954242082658102 1567.2011921945787 0.11620575936326732
22.723278267812567 0.711866412706981 1567.2011921945787 0.11960044880696008
22.802159330018174 0.7643837623018337 1567.2011921945787 0.10802155933126241
22.840731862026306 0.7487093672155859 1567.2011921945789 0.11571677173098584
22.73543471141787 0.7830516262362315 1567.2011921945789 0.1150995612607445
22.80251669465942 0.7518582111693869 1567.2011921945787 0.11271071347431454
22.791626048150345 0.707800141138236 1567.2011921945787 0.12204025300270563
22.696596348137636 0.7770085354491467 1567.2011921945787 0.12426948901894848
22.664904773685894 0.5837816337337695 1567.2011921945787 0.12059246163162379
22.694754020332724 0.6448092761112201 1567.2011921945787 0.11276123557104156
22.683788000665977 0.5992165785884283 1567.2011921945789 0.1122926123434495
22.658840358364078 0.6932312831489373 1567.2011921945787 0.12137598843473613
22.683127233639482 0.709529779810881 1567.2011921945787 0.1101344518494975
22.637329005484094 0.7834592976184448 1567.2011921945787 0.11933625274931718
22.70640990250616 0.7391449945516579 1567.2011921945787 0.126678039789578
22.65701668960554 0.8236853653643859 1567.2011921945784 0.11048780328862666
22.766967362807364 0.6489858985604516 1567.2011921945787 0.11922925719721619
22.675315248116117 0.5908699809801378 1567.2011921945784 0.11332458700020329
22.598099260751773 0.5131848418785414 1567.2011921945787 0.10771884571847651
22.686645307248615 0.7527180492916357 1567.2011921945789 0.11390479052507897
22.73473164645774 0.7351502115865896 1567.2011921945787 0.10590331159361945
22.6248970653259 0.600925668420113 1567.2011921945787 0.119766702288802
22.64112554727006 0.7505103466784163 1567.2011921945787 0.12026880414461423
22.66339855557906 0.8059532717342995 1567.2011921945787 0.12024811160767433
22.80325253268432 0.7230741553716665 1567.2011921945787 0.1197465610381626
22.60584087492268 0.5643587814733394 1567.2011921945787 0.12206278173909298
22.703481428265263 0.6238412389180223 1567.2011921945787 0.11108353619651987
22.69505540351558 0.7899522351631549 1567.2011921945787 0.12403530818063165
22.776472827722277 0.6883004630010652 1567.2011921945787 0.1140881020861817
22.76443628434521 0.7216790835748268 1567.2011921945787 0.12050163546562517
22.739583138959503 0.7127237960930972 1567.2011921945787 0.1256094912697986
22.690080568599022 0.6315032490624574 1567.2011921945787 0.11082471931597301
22.637914702397616 0.6840955667368379 1567.2011921945789 0.1142734357469075
22.70784904520477 0.7856805870157484 1567.2011921945787 0.12087863630412694
22.658970570354242 0.5592488147046504 1567.2011921945787 0.12210202183430911
22.6867063693562 0.73540472094117 1567.2011921945787 0.11619579280069844
22.652320266644903 0.6383425447338896 1567.2011921945784 0.11777888375682997
22.719524333580694 0.7371652560279895 1567.2011921945787 0.11410615829191756
22.826237864527855 0.7073090559467382 1567.2011921945787 0.1326490514619508
22.767435471422672 0.775203952347068 1567.2011921945787 0.12043657543897751
22.646204679324185 0.6477001054459076 1567.2011921945787 0.11464242772010828
22.780233468946122 0.7761131106005654 1567.2011921945787 0.1210076562560486
22.649117341257313 0.560735594618016 1567.2011921945787 0.11236157863541556
22.630193316532555 0.7375131307828942 1567.2011921945787 0.12686830565565727
22.619556318867343 0.546226951897412 1567.2011921945787 0.12398983783872221
22.76255199893211 0.7653738571223041 1567.2011921945787 0.11632727187506961
22.70337771140199 0.6976332724838581 1567.2011921945787 0.11799217305497561
22.726916310142997 0.6240101739523026 1567.2011921945787 0.11002690367004343
22.73967140601824 0.6302140921121195 1567.2011921945787 0.11606737843924639
22.642808073740863 0.726140835821973 1567.2011921945787 0.1153090566864135
22.740123662654455 0.7680180572351569 1567.2011921945787 0.12149188044573433
22.641429681960535 0.819433288914212 1567.2011921945787 0.1104822358428637
22.723118820007777 0.6731313326680531 1567.2011921945787 0.11325718919214182
22.755304942444223 0.6838160411537092 1567.2011921945787 0.11515180661079066
22.622431179775084 0.5745208057268893 1567.2011921945787 0.10935867969091165
22.712763532154582 0.7135777862279885 1567.2011921945787 0.11703027694278254
22.685275834980082 0.7765257209557125 1567.2011921945787 0.11886394256814654
22.80576848976952 0.7121118085693944 1567.2011921945787 0.11678380938689568
22.69622435429791 0.755292232287984 1567.2011921945787 0.1286817108222701
22.669203378330277 0.7588944658807715 1567.2011921945787 0.12279752345613207
22.63450208396236 0.7160516680346019 1567.2011921945787 0.11771220219175045
22.736502709786723 0.616807292391236 1567.2011921945787 0.1183812958569219
22.68886880389264 0.8075056628247872 1567.2011921945787 0.12302176992900977
22.678184350404074 0.5799733864727211 1567.2011921945787 0.11106769268780228
22.677115173073183 0.726471159293719 1567.2011921945787 0.11692479710599665
22.692872676143825 0.6207433715479314 1567.2011921945787 0.11479645492897077
22.636280056527102 0.6580283273602741 1567.2011921945787 0.11643485118412734
22.790727356315053 0.7479879172437963 1567.2011921945787 0.121825986535987
22.69712710058202 0.7310370661501934 1567.2011921945787 0.11277496677674412
22.710237797413722 0.8070737336332027 1567.2011921945787 0.11518073066946397
22.766127052680513 0.7100957402153858 1567.2011921945787 0.11950264757597713
22.66367935125552 0.7802724902085727 1567.2011921945784 0.12301031807333387
22.757409225549313 0.7039759946029497 1567.2011921945787 0.11563813060635841
22.667682497010052 0.7007817554600988 1567.2011921945787 0.12038339764107449
22.707134045489703 0.6586798340183977 1567.2011921945787 0.12196226188709423
22.65191501240784 0.71752887399219 1567.2011921945787 0.11447346590758106
22.647185032569848 0.6937154124884599 1567.2011921945787 0.11692444137236493
22.611873341005893 0.6142216948603919 1567.2011921945787 0.10669557562075323
22.74524097942891 0.6399043402080082 1567.2011921945787 0.11708272087658453
22.756134028481547 0.7831996046775442 1567.2011921945787 0.11298180933519311
22.6886326336395 0.6531611389771358 1567.2011921945787 0.11645926895746928
22.746392212443034 0.6716199559712004 1567.2011921945787 0.12325994562073106
22.69652059679488 0.5991138293976045 1567.2011921945787 0.11479574581965118
22.66607506060525 0.6227793527107399 1567.2011921945787 0.1120945224476092
22.793461372981934 0.76919456547294 1567.2011921945787 0.12449362074556354
22.778789905793346 0.7484549241601677 1567.2011921945787 0.12568353097434345
22.654771131257835 0.7680421122729947 1567.2011921945787 0.11953818785280212
22.728770798815308 0.6077533683191041 1567.2011921945787 0.11716337727392073
22.610816860534715 0.5115784283265898 1567.2011921945784 0.13091417759291266
22.643185966347914 0.7930293829786611 1567.2011921945789 0.11974465533563429
22.641181574357788 0.7654396548150479 1567.2011921945789 0.12624082336388226
22.75796060018077 0.7378930854120385 1567.2011921945787 0.11621872777558209
22.638862165216455 0.5582588320370373 1567.2011921945789 0.11810831429258405
22.6290889312071 0.7262097317541091 1567.2011921945787 0.12317504401383982
22.7417862410042 0.6620067810719883 1567.2011921945787 0.12817968064484897
22.677793578806185 0.802342512639245 1567.2011921945784 0.1270725967781894
22.816023954536043 0.7654006731754541 1567.2011921945784 0.116151865775411
22.61928407538987 0.7574641445690538 1567.2011921945787 0.11867632634509001
22.601354153927925 0.5744379285566642 1567.2011921945787 0.12157552547474736
22.60357711893195 0.7517716567301047 1567.2011921945787 0.12146480457567745
22.515192785417028 0.616805245249511 1567.2011921945787 0.11556810765343814
22.567160391406116 0.5240126895381111 1567.2011921945787 0.10243958287268404
22.53608109399197 0.6048499674549148 1567.2011921945787 0.11830697902199871
22.573327646241356 0.5505246632267102 1567.2011921945787 0.11534104746244986
22.591463590372832 0.6072123998322732 1567.2011921945787 0.11311024914767705
22.59908780634847 0.6516820282188477 1567.2011921945787 0.11374988500787007
22.59365074426288 0.75950815229791 1567.2011921945787 0.1172791396379936
22.568606811098427 0.5731545530383451 1567.2011921945787 0.11776217571639197
22.556843628137724 0.6512510123118047 1567.2011921945787 0.11512021556979805
22.538131493740337 0.6274672976054467 1567.2011921945787 0.11679817027257197
22.59402983345951 0.5842391944175416 1567.2011921945787 0.11893902340905688
22.524158742376983 0.5888035031163126 1567.2011921945787 0.11425053403619764
22.526252207361352 0.6125827028025044 1567.2011921945787 0.11691247201358372
22.570618072777414 0.7258646058329266 1567.2011921945787 0.11219200090508488
22.563403250782052 0.6704613087541531 1567.2011921945787 0.10601306576938088
22.571597856415703 0.6322579019112636 1567.2011921945787 0.11707828675129767
22.547806874184143 0.6191666132933584 1567.2011921945787 0.11279906101934264
22.58159929104647 0.7474699091694108 1567.2011921945787 0.11295354263507086
22.596822694464258 0.597752247160753 1567.2011921945784 0.11624978807558659
22.581684999302066 0.54109315159354 1567.2011921945787 0.12288582087518134
22.598278550575728 0.7709066008063201 1567.2011921945789 0.11810814333349356
22.58483012107807 0.735871667052722 1567.2011921945787 0.11371677239108516
22.60199483076823 0.608561585230547 1567.2011921945789 0.11192998221398193
22.57830879265003 0.5987768659626806 1567.2011921945789 0.1159904889125477
22.592792204170326 0.5409797346459715 1567.2011921945787 0.12756883145268674
22.619676732744562 0.7675314592399364 1567.2011921945787 0.13104373056252333
22.58510034690007 0.49633998830228027 1567.2011921945784 0.12784330693342413
22.565099759983582 0.5969783549271718 1567.2011921945787 0.12701218988365132
22.528155678066355 0.6384939533989161 1567.2011921945787 0.11603121694136222
22.554211811845523 0.5976331631349199 1567.2011921945787 0.11727227123940086
22.61417664513527 0.7843943619633347 1567.2011921945787 0.1244115481735362
22.60226156141557 0.7018370844000676 1567.2011921945787 0.11114665717071028
22.53435265400588 0.5829058858178917 1567.2011921945787 0.1134970163659541
22.528030883296527 0.6551006153412301 1567.2011921945787 0.11279183999116875
22.55828802604566 0.6096312434568655 1567.2011921945787 0.12237267164943685
22.57083580516671 0.6063298502139346 1567.2011921945787 0.12305930102648328
22.594537130094352 0.5523951517346415 1567.2011921945787 0.12347509533488868
22.589334762641958 0.6304800426992623 1567.2011921945787 0.11816755841706086
22.567129674602057 0.6601275595544008 1567.2011921945787 0.1107105751226937
22.5457569479065 0.5625370046266309 1567.2011921945787 0.10943681788740278
22.54107501614933 0.664594014297966 1567.2011921945787 0.11343573857219456
22.60564466661693 0.6730951316079815 1567.2011921945787 0.11919065274973668
22.58081701777956 0.7234624662789096 1567.2011921945787 0.11793123533307596
22.623188875644487 0.8172100706302569 1567.2011921945789 0.10787928356032099
22.521253826866968 0.6294639092870683 1567.2011921945787 0.11882409895518645
22.57615154601017 0.7109364193932664 1567.2011921945787 0.1210475036860604
22.556226416714757 0.5665616903388139 1567.2011921945787 0.12143052918885228
22.54859424940983 0.5789107359133487 1567.2011921945787 0.12029304030376002
22.58199023674829 0.6382862742949803 1567.2011921945787 0.11871424945186762
22.566066093070432 0.6405401537569653 1567.2011921945787 0.12777328860933762
22.572009290567287 0.5888910117588857 1567.2011921945787 0.1241762470373447
22.616106141735237 0.7987658000114284 1567.2011921945787 0.12429276293235943
22.565591447288064 0.7029995274359389 1567.2011921945787 0.11404784375438448
22.625241260526977 0.7937934209288499 1567.2011921945784 0.13056407415786306
22.605351054849944 0.6243659724473906 1567.2011921945789 0.11593847060391656
22.622052142056788 0.7447098627778882 1567.2011921945787 0.12377421540927445
22.512608742290325 0.5986876750110867 1567.2011921945787 0.11668656172627316
22.553644770408447 0.693497009469759 1567.2011921945787 0.1105673846095772
22.558854419347597 0.5856111550234815 1567.2011921945787 0.12356041873199924
22.566894074338236 0.7148816718103145 1567.2011921945787 0.11307345713374432
22.629563203560508 0.8096064659789951 1567.2011921945787 0.12096800133885312
22.595844165920713 0.6630569125785513 1567.2011921945784 0.11227274580670185
22.5860118650135 0.6807880004097508 1567.2011921945787 0.1177347622574742
22.567004431785698 0.5363589669012534 1567.2011921945787 0.12213540793432495
22.61380373982925 0.7090006984879018 1567.2011921945787 0.10308868536695684
22.619301941364363 0.723211217815389 1567.2011921945787 0.11880785501118811
22.557292339407944 0.626550104149871 1567.2011921945787 0.12351765168627597
22.59547491882594 0.7354095944924843 1567.2011921945784 0.12125084467870967
22.59996183515709 0.7256753834290534 1567.2011921945787 0.11960843369390645
22.58707673372379 0.6189638769400653 1567.2011921945787 0.12151860665965766
22.574402641933915 0.6705963249766026 1567.2011921945787 0.12098438230229562
22.598147635705548 0.7129828836020938 1567.2011921945787 0.11416582700110717
22.590028276664672 0.6458940177399711 1567.2011921945787 0.11495198977986675
22.608306400355104 0.7434470655836661 1567.2011921945787 0.12506160772385308
22.624337673509526 0.7816871432143601 1567.2011921945789 0.11656801158904778
22.582205421942252 0.5127656438466526 1567.2011921945787 0.11159973079633614
22.578744641135515 0.5721275708579103 1567.2011921945784 0.12291149854954972
22.568538572945492 0.559202073910993 1567.2011921945787 0.12142556361982833
22.595715858485157 0.6740322535942112 1567.2011921945784 0.10873589972769215
22.58475926599891 0.5288140620780051 1567.2011921945787 0.12227165764539909
22.602929885196275 0.6412567331246395 1567.2011921945787 0.12081775160557937
22.632073678691686 0.8333509046407994 1567.2011921945787 0.1255767994519095
22.522427884166248 0.6029276816061588 1567.2011921945787 0.11561602901627684
22.58683173234187 0.5910836783184379 1567.2011921945787 0.1113656937631956
22.585091734695126 0.6635017827849287 1567.2011921945787 0.12223530372868177
22.54384832119431 0.5953051198872821 1567.2011921945787 0.12406484803237477
22.578576678025843 0.6969191193985914 1567.2011921945787 0.10802907829198699
22.57471776213764 0.6864340037890587 1567.2011921945787 0.10772277103005434
22.612497549497117 0.6872364077835507 1567.2011921945787 0.11643212386355783
22.60892422905232 0.7617971977754465 1567.2011921945787 0.11361091961833238
22.59322175241671 0.6958372777036326 1567.2011921945787 0.11415107672004528
22.610008080244594 0.7177536821380949 1567.2011921945789 0.12544901300389297
22.581861745553823 0.5598503324508611 1567.2011921945787 0.12293569762650265
22.576561087589873 0.6180848083625883 1567.2011921945787 0.12129130367449448
22.601175510233595 0.6904242359526842 1567.2011921945784 0.1072300369946379
22.559947930751406 0.5448948266518122 1567.2011921945787 0.12144619202183599
22.575641355609953 0.6468803738761508 1567.2011921945784 0.12060767688930758
22.613178980833826 0.7335730232072449 1567.2011921945787 0.13748622887275164
22.550647198583277 0.6359205518858211 1567.2011921945787 0.12073323839613405
22.548293577806895 0.6767792285403484 1567.2011921945787 0.11100818311878698
22.56263098915916 0.687267934857298 1567.2011921945787 0.11329553733015094
22.539172697532884 0.6464862594265884 1567.2011921945787 0.11462666291651548
22.53115243596404 0.5679821646863914 1567.2011921945787 0.10806399136273977
22.52060367717091 0.5794459468339637 1567.2011921945787 0.11748564408145765
22.54466309872297 0.5418506124949721 1567.2011921945787 0.1200817989271744
22.512532397195276 0.5851155496368307 1567.2011921945787 0.12524308598941747
22.57579519936705 0.5028352702752806 1567.2011921945784 0.11330090381069945
22.520081043311635 0.5665252754222205 1567.2011921945787 0.13482789965998332
22.560374802077988 0.5152927560232812 1567.2011921945787 0.11353011630209203
22.528704756752532 0.5499548628337373 1567.2011921945787 0.12023172836495909
22.553499715446485 0.5258906427840285 1567.2011921945787 0.12200716971615556
22.53304090930687 0.5385358802385061 1567.2011921945784 0.13483738650770466
22.700793072480163 0.4556297744486523 1567.2011921945784 0.10954365951145445
22.666429219509787 0.4604100085261523 1567.2011921945787 0.12384012264596604
22.67739753476046 0.4584264375358052 1567.2011921945787 0.11616517573326068
22.626695848591964 0.4646609766216901 1567.2011921945787 0.10323237666794229
22.857302032341014 0.674377487611382 1567.2011921945787 0.11768487138644289
22.69676894330047 0.5585494715430454 1567.2011921945787 0.11699714120614979
22.707033432030215 0.539997011252431 1567.2011921945787 0.11608773850050443
22.86794010991322 0.6388174331559704 1567.2011921945787 0.11973055648428682
22.71748039679241 0.5707589200694173 1567.2011921945787 0.12457215201772652
22.854592833118673 0.6092306115619965 1567.2011921945787 0.11061445911053991
22.8109931208519 0.6125687154316969 1567.2011921945789 0.1121227528136096
22.87809300507163 0.7225399625404382 1567.2011921945787 0.12308769945310251
22.881256386269243 0.682602272461655 1567.2011921945787 0.09781078134785315
22.843322153669142 0.6048209058721999 1567.2011921945789 0.10910851264241386
22.76442057213366 0.6094946091059623 1567.2011921945787 0.11564521047540048
22.812161850633263 0.5828917889247417 1567.2011921945787 0.12423755648826909
22.744792351117145 0.5618643033044759 1567.2011921945787 0.11037987327890258
22.742087640272608 0.6024942218246677 1567.2011921945787 0.12144725793883719
22.7832607668012 0.6485604246042971 1567.2011921945787 0.12150701516323469
22.662732252388 0.5388549762835723 1567.2011921945789 0.11236480743836856
22.755397412467577 0.5850173560703088 1567.2011921945787 0.11272071188870898
22.808223404663963 0.644906358170921 1567.2011921945787 0.11978925341337537
22.884582149345725 0.6701870794147813 1567.2011921945787 0.11022094782564777
22.72249434277657 0.5944751522690246 1567.2011921945787 0.11677923423848638
22.774336535643492 0.6014699391594364 1567.2011921945787 0.12567162019026135
22.709285513858003 0.5773113571079127 1567.2011921945787 0.11418124164946712
22.73331809186466 0.598324703482833 1567.2011921945787 0.12016407829861744
22.717266018898012 0.5564677306163694 1567.2011921945787 0.11933835661323444
22.67311788039562 0.5496271940482382 1567.2011921945787 0.12235938418370548
22.874669009643178 0.6687817568734177 1567.2011921945787 0.11020793655337284
22.68661682247787 0.5689882084428877 1567.2011921945787 0.1143967345101583
22.83729101761639 0.6421996224388089 1567.2011921945787 0.11053541142519402
22.78892421717931 0.5759005593641421 1567.2011921945787 0.12927893527854806
22.839276163352213 0.7032264272114571 1567.2011921945787 0.12807286174926485
22.79348362905273 0.6031659563539428 1567.2011921945787 0.11813884692213766
22.70529703715701 0.565578338343329 1567.2011921945787 0.11241993538317828
22.671863543040526 0.5313066122033869 1567.2011921945787 0.12065975980558526
22.74799631753047 0.622243219000451 1567.2011921945787 0.1155149142994826
22.805497954055948 0.6587644610326429 1567.2011921945787 0.12355052909832819
22.82541860219146 0.6241320554827596 1567.2011921945789 0.11138028405146005
22.696905833493176 0.5331102846025533 1567.2011921945787 0.1138442663339668
22.77965884792614 0.5730403705958419 1567.2011921945787 0.11640728842857807
22.762190142178017 0.6258307153350116 1567.2011921945787 0.1188903446078419
22.608533406839232 0.4915944009031229 1567.2011921945787 0.11358364519652712
22.833487277023224 0.659266873573926 1567.2011921945787 0.1138273401822106
22.889284262261032 0.6117901139744203 1567.2011921945787 0.1255485219697334
22.619081190703774 0.49555865652372405 1567.2011921945787 0.11836512971248875
22.87944068834071 0.6170628512576758 1567.2011921945787 0.11313439218282083
22.88622732020442 0.6313759018147161 1567.2011921945787 0.1127396114404912
22.72667719803913 0.562907284519832 1567.2011921945787 0.12167617177321825
22.788412155561034 0.6214143111645728 1567.2011921945787 0.13312586225613526
22.817483813308847 0.6505911198592196 1567.2011921945787 0.11454383380019723
22.862536028427662 0.7276095927385952 1567.2011921945787 0.1135102581268159
22.80059486612692 0.5836483897348766 1567.2011921945787 0.12121727284021203
22.88433666184875 0.6562884864050944 1567.2011921945787 0.10186618547380444
22.816928851415636 0.6677276046003472 1567.2011921945787 0.12525557047312164
22.77052558234225 0.5817140279802887 1567.2011921945787 0.12129899684085478
22.853295856274304 0.6193373030362638 1567.2011921945787 0.12008208745447119
22.848802891851214 0.6505375379752232 1567.2011921945787 0.11673496103718417
22.845098797798805 0.6705832412987618 1567.2011921945787 0.12261977179803975
22.855090511316867 0.7114540132686938 1567.2011921945787 0.11501375741006316
22.717577315259586 0.5405738550590345 1567.2011921945787 0.11270908357373383
22.626290284708947 0.5024600801741702 1567.2011921945787 0.11629356456823116
22.764942227003406 0.57296461200173 1567.2011921945787 0.11197808365586241
22.76712756011503 0.6372928431065437 1567.2011921945787 0.1257685829275796
22.867794823598402 0.7039495817716053 1567.2011921945787 0.11344247604685388
22.867083888442448 0.6802602016743349 1567.2011921945787 0.11573050411615307
22.777980289916805 0.6253091863466882 1567.2011921945787 0.1269746090713334
22.737443724881636 0.5722635053760788 1567.2011921945787 0.12353132777497564
22.79517801864059 0.6498934035055484 1567.2011921945787 0.12027269748663641
22.77979481953262 0.6123696605366712 1567.2011921945787 0.11713230884089224
22.75400382054439 0.604993289752915 1567.2011921945787 0.11439270468792874
22.696353415474647 0.5708920174759368 1567.2011921945789 0.11171044060593467
22.83617458410637 0.6262577459646713 1567.2011921945787 0.11468981496237121
22.84397933316341 0.5926731886876128 1567.2011921945787 0.11116356729046001
22.686259708534404 0.5451409633041863 1567.2011921945787 0.11358613691835928
22.73578112634173 0.5851708502617143 1567.2011921945789 0.11917973813255477
