x y z curv
0.3857949548596773 21.227421672724684 2078.672177174533 0.014290762449105413
0.3342215942433249 21.24011113653082 2078.6721771773587 0.01520400500302688
0.31451671093461586 21.184666369398624 2078.6721771784387 0.014820167861401652
0.3003243206852158 21.171814003257673 2078.6721771792163 0.013917019738548848
0.4113926799173687 20.99562455623409 2078.6721771731313 0.014081011465266418
0.38865969863592315 21.339271653954732 2078.672177174376 0.013290881739417034
0.46322332010868916 21.139911136061073 2078.672177170291 0.01469283768488215
0.3762364032130825 21.172841764058994 2078.672177175057 0.013461260663761715
0.3871094629642226 21.37408711928662 2078.6721771744606 0.013861024264443531
0.4824247896409152 21.317850433985317 2078.6721771692382 0.01255458544190126
0.47379083008737805 21.347150022819584 2078.672177169711 0.01492695000667296
0.2659889014914426 21.140541704819967 2078.672177181097 0.014024775977681536
0.42513360725077204 21.024317275490894 2078.6721771723783 0.015904517483437002
0.2401777266806796 21.26960063183959 2078.6721771825114 0.013064847227808632
0.21294860881484914 21.276708926592676 2078.672177184003 0.020088166423116453
0.2978302315431515 21.10455517172437 2078.672177179353 0.013176502419742595
0.2223998373948065 21.267943197140625 2078.6721771834855 0.01373615198465618
0.33466571869253 21.280152304549354 2078.672177177334 0.015869210412901763
0.4642198682468447 21.012777542927065 2078.672177170237 0.015340909374047357
0.3209218743888692 21.213164912927127 2078.672177178087 0.013481923521451297
0.34914356999500556 21.223078748970245 2078.672177176541 0.013772310793451883
0.44660104355903446 20.987368494215637 2078.672177171202 0.013445124380625189
0.29704516718524726 21.158136791567664 2078.6721771793955 0.013733226372064226
0.4533647276336092 20.99532235850287 2078.6721771708317 0.015563268566879656
0.21141233269053278 21.21915766714796 2078.672177184087 0.01330854728316201
0.37936759355515975 21.31610408392936 2078.672177174885 0.0140160023043272
0.37106798890884884 21.162639385126457 2078.67217717534 0.014063484854628118
0.23300789659802362 21.279732686571826 2078.672177182904 0.012300121664834482
0.41658338966375486 21.227880372090652 2078.672177172846 0.014730234378970676
0.43308473241026113 21.333892844624607 2078.6721771719413 0.013866353336086143
0.1993911544796966 21.221480567346283 2078.6721771847456 0.014208167726422253
0.44092966999161703 21.16081300494391 2078.672177171512 0.014565013453199499
0.2612504986560659 21.219274738340086 2078.672177181357 0.014895238434899968
0.18188134006750212 21.262240142903625 2078.672177185705 0.20803014114077886
0.45199183220899314 21.28434386845837 2078.672177170906 0.014297763728378527
0.2794904659462969 21.280793551351035 2078.6721771803573 0.013804198187563621
0.4189018920757333 21.36523650114209 2078.6721771727184 0.014110330445137903
0.3235293705611729 21.24186999341017 2078.6721771779444 0.013498534902807996
0.40046392757579136 21.10335235656771 2078.67217717373 0.013628889352384837
0.37356343207022186 21.207435070673842 2078.672177175203 0.014630967463410008
0.4577931942323956 21.18628115576607 2078.6721771705884 0.01514081543884881
0.5051246940831546 21.286319715809594 2078.6721771679945 0.013916365135723514
0.48654895693295125 20.95058986638386 2078.6721771690136 0.013437845821712894
0.4259915298605219 21.11551967528294 2078.672177172331 0.014730925783480146
0.4843729675106979 20.97430808287365 2078.6721771691327 0.01339116465730654
0.4205084691815684 21.267594017441454 2078.6721771726307 0.013135598122200607
0.335531116987856 21.260228735831863 2078.6721771772873 0.013764428679746478
0.4922324581125108 21.310504022198323 2078.672177168701 0.014868108848201495
0.40772401506335487 21.068669078248835 2078.672177173332 0.014031337929615998
0.4124646259679904 21.260479621250404 2078.6721771730718 0.01406045468484436
0.47644744560748487 21.397396204539042 2078.6721771695657 0.013655372576539626
0.4345944572657555 21.12228645194966 2078.6721771718594 0.012504643454271755
0.2428078057932695 21.166842792841887 2078.6721771823672 0.014194515760241673
0.41541594019498473 21.20773074824187 2078.6721771729103 0.016099058504800815
0.2708501240788831 21.187506132361797 2078.672177180831 0.015065980235760902
0.43778482021073994 21.00954567224294 2078.6721771716852 0.014728910346380764
0.42341254263949357 20.96468702992058 2078.672177172473 0.013144078011849884
0.34332199759845045 21.331221509676656 2078.67217717686 0.014733254417323984
0.40876192795658745 21.115541715368362 2078.672177173275 0.01375790135651371
0.3342357272232228 21.33596712716274 2078.6721771773573 0.014831829592447174
0.344126809232651 21.163601634451904 2078.672177176816 0.01568071312892587
0.2487322232645927 21.177127506044368 2078.672177182043 0.01467125124166967
0.3814898683021278 21.111471972777945 2078.6721771747693 0.014981833867174955
0.26328914832489403 21.17535368113243 2078.6721771812454 0.013325882398162636
0.4371867086909055 21.301854375415836 2078.6721771717166 0.014343134027165371
0.4638911295312209 20.949901448819574 2078.672177170255 0.015956421848713223
0.3541353631547352 21.176921875071546 2078.6721771762677 0.014718705705597808
0.4060525822301241 21.37760732321507 2078.6721771734224 0.013022064689823436
0.48441814535909655 21.105864649658006 2078.67217716913 0.014135730441251246
0.4563391154259413 21.220515185783675 2078.672177170668 0.01459477641151819
0.18625369643807 21.22462008362503 2078.672177185466 0.04491121528947468
0.4928172513454824 21.039422766924545 2078.67217716867 0.014745697584909529
0.4283955357882769 21.394136284018554 2078.672177172198 0.015124573888509523
0.4663452107654115 20.99348381690432 2078.6721771701204 0.015568947638487651
0.493558052022045 21.292615725977157 2078.6721771686284 0.01299154257734247
0.4464082700165679 21.051828986836913 2078.6721771712128 0.016259042276719076
0.3569873307291606 21.089316172050193 2078.6721771761117 0.01440386740779009
0.4558932374433852 21.347908532875763 2078.6721771706916 0.015339215565035688
0.3594235614063686 21.062567747126227 2078.672177175978 0.01400102806002379
0.465425483996742 21.027286871574056 2078.672177170171 0.01450978676539005
0.3936705390669808 21.130974548644804 2078.6721771741018 0.013881682144387264
0.33957988498725356 21.14032502519441 2078.6721771770654 0.013048210712178343
0.401126700440101 21.21563625037186 2078.672177173693 0.014624787965749335
0.2307713139901617 21.25403624041832 2078.6721771830266 0.01252027214805877
0.47901895045381715 21.25633520964204 2078.672177169425 0.014906508969189866
0.3334054941302168 21.151746362588796 2078.6721771774037 0.013743359495936476
0.3413962295330252 21.291195129660817 2078.6721771769653 0.015260795719040585
0.47119341059033215 21.184725718322277 2078.672177169854 0.01386314785592467
0.3732348403586624 21.192722334110087 2078.6721771752213 0.014392251954983663
0.23275597134170103 21.209206480128845 2078.672177182918 0.015001681650406141
0.395465092743416 21.02818845070212 2078.672177174004 0.014243034913312557
0.39277142191222864 21.319161852342567 2078.6721771741504 0.01419513859622367
0.18860964228129834 21.24622800857967 2078.6721771853367 0.08266579597308028
0.4710095042615297 21.207143499084353 2078.672177169864 0.01330898284716137
0.449622586952429 21.11339572163749 2078.6721771710363 0.01418887152529663
0.3927061129871132 21.19537029091217 2078.6721771741545 0.014125150237694284
0.32311893089528515 21.25975746249069 2078.6721771779667 0.014864515444092499
0.42132430183392194 21.25197398832603 2078.672177172586 0.014408049675032087
0.44070709230036 21.382475851264598 2078.672177171524 0.014778363132025976
0.26076898374203483 21.252206883122195 2078.672177181383 0.015787507513904002
0.44836568396764664 21.358786549745936 2078.6721771711045 0.014981920309381848
0.467037701524202 21.19473182508729 2078.672177170082 0.014409420834359813
0.44512874441300093 21.401012495911804 2078.6721771712814 0.013786092185802146
0.4835803945747106 21.343442277733516 2078.672177169175 0.015011810285111083
0.3990061006295078 21.12217300134572 2078.6721771738094 0.014362417705426653
0.5019330319000811 20.907368104144346 2078.672177168171 0.02969444279931118
0.39897578888567886 20.998522209027154 2078.6721771738116 0.014013080088367007
0.4102464746734186 21.153038737714034 2078.6721771731936 0.013858497894271
0.37334254652623444 21.02779368107453 2078.672177175216 0.013737753124000532
0.3545453985186373 21.145282119992434 2078.6721771762454 0.015308383557574998
0.4948776215820765 21.27029469198399 2078.672177168556 0.01511094483234683
0.48920207482258576 21.23264324655956 2078.672177168867 0.013251233578914227
0.4641001448568369 21.357371279357622 2078.6721771702423 0.013668810458823679
0.4383256134739908 20.96758274966559 2078.6721771716557 0.01421025889328994
0.46222704104160695 21.36986687538492 2078.6721771703446 0.014657837980491716
0.36907454213153285 21.11813334736711 2078.672177175449 0.013480827084465678
0.4633477240452876 21.045099710487122 2078.6721771702846 0.014872967836548324
0.31080252257358937 21.10213749601187 2078.6721771786424 0.014241814338289301
0.5028565687335421 21.0136266162637 2078.67217716812 0.01246218045110342
0.20174593430706994 21.233763892300324 2078.672177184617 0.013124002222172368
0.49402210624970505 21.06290769815456 2078.6721771686034 0.013724431244636886
0.37033597978074223 21.359323782448673 2078.6721771753796 0.013871355779599675
0.2807081638352786 21.19936942103609 2078.672177180291 0.014988561211718005
0.48540750768922325 21.328568717043304 2078.672177169075 0.013155918619882736
0.2959307620326376 21.27339018376944 2078.6721771794564 0.014135454714863799
0.4224865578577526 21.15561549177447 2078.672177172523 0.01384885071685492
0.47613583564018114 20.941719639362862 2078.672177169584 0.01591797644217797
0.4938059508872249 21.281206624476326 2078.672177168615 0.015133682374034322
0.4057609648088262 21.200325831548486 2078.672177173439 0.014532224866203541
0.408503592998833 21.165714808080622 2078.672177173289 0.013311927792941365
0.3684154086720071 21.138840405998877 2078.6721771754856 0.01530362219989999
0.4970152034204265 21.101464104404748 2078.6721771684397 0.014702032124259606
0.4900201285831185 21.08302897724398 2078.672177168823 0.014473635084533832
0.43913075023765036 21.134640444942768 2078.672177171611 0.014299865401248085
0.5025204958143838 21.241342648802476 2078.6721771681378 0.013786701000568597
0.38589514328466135 21.158642569616774 2078.672177174528 0.013304917062731784
0.3955569389746344 21.238183317611913 2078.672177173998 0.014463219977143324
0.2080954574591708 21.264609967641128 2078.672177184269 0.01854299753389302
0.29960979389480313 21.129950312931438 2078.6721771792554 0.011346676953482083
0.4210778810858667 21.328113602358044 2078.6721771725993 0.014510492669935735
0.359319919593988 21.33388685096353 2078.672177175983 0.014687164432432809
0.29082361994519174 21.320042864273532 2078.672177179736 0.015660314196116975
0.4126237609109835 21.12991319211922 2078.6721771730636 0.012527802041078553
0.35939761103925416 21.161699980074353 2078.67217717598 0.014753593304500613
0.4456414267061854 21.325764046436667 2078.6721771712537 0.013282797132486784
0.44835607747667244 20.97297000700181 2078.6721771711063 0.013822821260061286
0.5025132555118308 21.297807117744686 2078.6721771681378 0.014300456081358067
0.22452274403489236 21.180229791770547 2078.6721771833695 0.014060430392876062
0.30241938870545393 21.193978196885837 2078.6721771791013 0.015177232951391888
0.3595202766134349 21.353481180866044 2078.672177175972 0.014318126599373968
0.3343201085930607 21.09821308366605 2078.6721771773537 0.014926913319312965
0.3311566979961896 21.06624381551382 2078.6721771775274 0.012928135830760518
0.4583854638757583 21.294865838881393 2078.672177170555 0.014723512624476852
0.4779097944393181 20.999807872503744 2078.672177169487 0.01364880584439631
0.45589599805923253 21.20829284433456 2078.672177170692 0.013663143155812267
0.4803318853176142 21.369349607121606 2078.672177169353 0.015320238053074007
0.4051032041972438 21.03305196423698 2078.672177173476 0.014244252731337018
0.35602339124730603 21.20685561215248 2078.6721771761645 0.013602323728706268
0.4988358473194905 21.344970315092112 2078.6721771683387 0.014801624778256174
0.5025908823017409 21.125546061517532 2078.672177168134 0.013808379933296961
0.35711736468460553 21.264667807058096 2078.672177176104 0.015480568289722857
0.25231854880483173 21.301271744504938 2078.672177181846 0.01521310750524215
0.319758924656079 21.328687905687993 2078.672177178151 0.014998050355035077
0.48366708842577893 20.931611612695086 2078.672177169172 0.016234823008597524
0.4833608536872951 20.897275989691572 2078.6721771691887 0.08388494899500483
0.4272404195873712 20.978011748607294 2078.6721771722628 0.013114677264285377
0.49663079164583507 21.33202530908246 2078.6721771684597 0.01377872389272533
0.37654598964246355 21.33367497984949 2078.6721771750395 0.015379773534852826
0.3561564218058145 21.074819198501952 2078.6721771761577 0.01347713279707001
0.3836640284053081 21.08471997277002 2078.67217717465 0.014291754346492132
0.28149264096576104 21.214876489245352 2078.6721771802477 0.01430222408573594
0.2447606490529309 21.28168227529787 2078.6721771822604 0.013884802519433866
0.30300502906093807 21.25501694093557 2078.672177179069 0.014241817018860197
0.5004954259827243 21.19005846841982 2078.6721771682487 0.013849665345276015
0.5034222259404288 21.359900284157575 2078.6721771680877 0.014957451045517258
0.4770759206758743 21.38396070817709 2078.672177169531 0.013205588532322262
0.23377807572763443 21.22102752524725 2078.672177182862 0.013115035838945396
0.4807789026682316 21.244808016744276 2078.6721771693287 0.015785579063825793
0.470099419245621 21.064281926022396 2078.672177169914 0.01584884663396707
0.4487864018942196 21.373553405814157 2078.6721771710813 0.013964795062296392
0.4418602181884479 21.032858477741392 2078.672177171462 0.013166050445385066
0.2656174952088109 21.241854365427386 2078.6721771811176 0.014479257170324802
0.2202686662682895 21.224359133298293 2078.6721771836023 0.014025491838028793
0.22505683692038686 21.20076990944331 2078.67217718334 0.015091759081843747
0.4499119375963579 21.13983940441223 2078.6721771710204 0.013917077339030236
0.4251856448715054 21.23583574134576 2078.6721771723746 0.014081087623338435
0.3633805212238979 21.220692192402907 2078.672177175761 0.012751570466992913
0.16318408133426157 21.24472644411778 2078.6721771867296 0.21052879586584808
0.2714579869273761 21.224817940375257 2078.672177180797 0.013822423104579474
0.40744014174697396 21.310454027576988 2078.6721771733464 0.014086150377330091
0.38202132916107634 21.355021421380656 2078.6721771747393 0.013432160979381425
0.31347512491241813 21.202114044667344 2078.6721771784955 0.01388181928680235
0.4138647640651939 21.24006189435773 2078.672177172995 0.01465347602178906
0.43171267651728606 21.195107586880724 2078.672177172017 0.01523865468021952
0.30690906309243815 21.288112626302546 2078.672177178855 0.014696560171546118
0.3634084759564461 21.149831367812283 2078.6721771757598 0.015002388154393717
0.44829125355887706 21.255054845396756 2078.672177171109 0.01376487556820834
0.4895009327162441 21.399875797772 2078.6721771688503 0.020740820330088748
0.42374290126254177 21.011911120394842 2078.672177172454 0.015063846380477508
0.4575262360323534 20.979272098080774 2078.6721771706034 0.014133598800755199
0.399115343596518 21.262906046650393 2078.672177173803 0.013642677545227522
0.3627008013832251 21.240072676776606 2078.672177175798 0.013585413921564083
0.31588477619099525 21.0769106714683 2078.6721771783637 0.014928621770768237
0.27777756629197 21.142041270205233 2078.6721771804514 0.014640296228995351
0.4867004841966692 20.919862237261075 2078.6721771690054 0.014111364049268922
0.4472659292243155 21.294742485023953 2078.6721771711645 0.013210404938968051
0.4091871028143518 21.297344812501507 2078.672177173251 0.014320688222091307
0.46241155398160527 21.319130335074963 2078.672177170335 0.015236938055579451
0.41306459784339833 21.008378554314934 2078.6721771730395 0.01472946016555025
0.50272064824321 21.073111611747436 2078.672177168127 0.013262429191468016
0.2545223727233399 21.199811985781267 2078.6721771817256 0.014435462533166226
0.44971464170170244 21.338073144139774 2078.6721771710304 0.014614744444477785
0.46786083202366857 20.961448467829445 2078.6721771700372 0.013973405894648265
0.4802388749880612 20.960655404579555 2078.672177169359 0.015607132179547423
0.3620978557920039 21.046064401912027 2078.672177175832 0.013541621105669678
0.2931437947301953 21.117379963257314 2078.6721771796097 0.01323100935141522
0.3223867300933681 21.172679457536283 2078.672177178007 0.014456746973223801
0.4515136585974313 21.154921036701648 2078.6721771709326 0.014633258758295128
0.32194364890688687 21.134418905745374 2078.6721771780317 0.013871868081256707
0.4931185523171686 21.158794535900263 2078.672177168653 0.014790765256101417
0.20581929069531063 21.24931998321278 2078.6721771843936 0.012799083534005566
0.35626196241057834 21.30297752066043 2078.672177176151 0.013985629812322644
0.4186696263043859 21.344774828106477 2078.672177172731 0.015206282775137667
0.38918180896168386 21.30681316697508 2078.672177174347 0.0140552262589719
0.3824336411158282 21.200839637422654 2078.672177174717 0.014516656838351738
0.4389620638025826 21.23452804643619 2078.6721771716198 0.01430779339598089
0.27537554587979346 21.31430389131454 2078.6721771805824 0.014146837951989953
0.3532325681005789 21.321389065692557 2078.672177176317 0.014514555687567442
0.4129270162864637 21.276465851483202 2078.6721771730463 0.014761129308990855
0.3728539526231961 21.10368160176173 2078.6721771752423 0.015166620113393477
0.4196516238622883 21.291667666242198 2078.6721771726775 0.014055552734091706
0.2837661760085075 21.260016155605417 2078.672177180123 0.013864194959211804
0.46590401820531213 21.253560354763266 2078.6721771701436 0.015578000118070789
0.24225069450055514 21.25418299007385 2078.6721771823977 0.013100894620591719
0.38421166448956573 21.024400897011148 2078.67217717462 0.015459492627653367
0.471188192746789 21.09746496620816 2078.672177169855 0.014321548716006834
0.35590480462648133 21.286503826855967 2078.6721771761704 0.015290150523679324
0.390187926144805 21.006854984100606 2078.672177174293 0.015653607915647967
0.26911946306480816 21.16259885516286 2078.6721771809257 0.0137252490683069
0.4984688734797238 21.423171334196933 2078.6721771683588 0.2081297463415053
0.4876378478410686 21.147758641705714 2078.6721771689536 0.014996208994327747
0.40567952531684875 21.016351257835716 2078.672177173444 0.013583663573031798
0.3425113143501466 21.19739057302247 2078.6721771769044 0.015916408276545554
0.4889021075264455 21.352253746530906 2078.672177168883 0.016324406562714045
0.4518482977682255 21.26481827377726 2078.6721771709135 0.013878616273792325
0.4533339981771251 21.311072397125493 2078.672177170832 0.013662911185340191
0.3456063402213402 21.34633371308951 2078.6721771767343 0.014801852290543779
0.4186346851898546 21.05968748852168 2078.6721771727343 0.01341821174480062
0.286531368124013 21.295551494886162 2078.672177179971 0.013561624533760828
0.4116079087601302 20.98075862953819 2078.6721771731195 0.012768832268448282
0.47247659905748746 21.03508943240452 2078.6721771697844 0.014188586368574197
0.46862113587908016 21.26472746855089 2078.672177169995 0.014679774763954516
0.5738884236948185 21.403737691311306 2078.672177162077 0.2094980972244635
0.6252402677732953 21.363666609832276 2078.6721771606412 0.22158041239205695
0.6010564644216574 21.384501444689825 2078.6721771608663 0.22492869095712872
0.5895934713144653 21.388360012998245 2078.672177162355 0.21055140397324285
0.6153253395345613 21.37814075457463 2078.672177159371 0.197790916369939
0.5408281178170915 21.41910131454439 2078.6721771653974 0.2647440099285979
0.6258678474163459 21.349859509586985 2078.6721771667503 0.18120377388488323
0.5805844921779224 21.355510528824105 2078.672177180245 0.013573660241211994
0.6272383415867032 21.29324913208176 2078.672177192458 0.014310177539165718
0.5967093065398861 21.36384509083722 2078.672177170652 0.08860080790637266
0.6639991112731283 21.257809332617306 2078.672177195779 0.01627701663098018
0.6553410127843919 21.314400010238145 2078.672177172673 0.13896319665358958
0.5896639884191677 21.32789355250056 2078.6721771897946 0.01478774755497807
0.6577088207624493 21.282617713632995 2078.6721771865373 0.028412613252543108
0.6282064086130921 21.33493800093754 2078.6721771728226 0.09217570099364664
0.7016421645806808 21.196272604181537 2078.6721772108626 0.13149723498543955
0.6522056870606056 21.251741721995998 2078.6721772027827 0.01369399470708479
0.6852552512817911 21.200875244483115 2078.6721772145625 0.028832487833697407
0.6627753454942519 21.33173624869856 2078.672177162006 0.17043395594212427
0.6118425452454139 21.304921722638852 2078.672177192534 0.014630229066948197
0.6163551563821098 21.342450908719464 2078.672177173563 0.0586453477878304
0.616248941392199 21.325236847599335 2078.672177181566 0.014061168998794059
0.5689040592805327 21.36176775361847 2078.672177181505 0.013601403057836732
0.5496072280349923 21.398629806654927 2078.672177171313 0.17456498975266455
0.6022946514271165 21.31198010138225 2078.672177192665 0.014755273833883028
0.6899632016436956 21.224972618424466 2078.6721772017368 0.08292027943321725
0.6710235702800599 21.276466831699867 2078.6721771846464 0.12622293130473047
0.6511544685196536 21.332578688676215 2078.6721771657503 0.19153748492207576
0.5592830157504435 21.370550315766703 2078.6721771808643 0.01471938803158638
0.6223930719519652 21.309526303037327 2078.67217718665 0.014636473146214846
0.5513588071938603 21.380361198460356 2078.6721771791435 0.016800555661877076
0.7042703785009125 21.17845073449506 2078.6721772181745 0.13655698608424857
0.6315036812847065 21.283137346932513 2078.67217719562 0.014092249161100242
0.5926823842447546 21.352479316498695 2078.672177177344 0.018839046589616087
0.538873639681852 21.40572357447365 2078.672177171849 0.17945134928042392
0.5211201131734696 21.427807389400535 2078.6721771679463 0.21816250764938686
0.6739673503045135 21.230526028595676 2078.672177204858 0.01920844134154046
0.5774793110642661 21.393653570894895 2078.6721771637 0.20324672524973897
0.6788488132578276 21.262967233836505 2078.6721771881093 0.10998221527875532
0.5767686170516866 21.34464981991248 2078.6721771866282 0.013968380704233624
0.6457395885845659 21.34896949473971 2078.6721771600924 0.2021491118215041
0.6694223418583395 21.302982255477332 2078.6721771729467 0.21456675916943435
0.6631054438264528 21.23403439876287 2078.6721772070987 0.014411420665605617
0.6849473816948035 21.251835892204955 2078.6721771910907 0.1509229496696352
0.6564608573575483 21.304224353725434 2078.6721771769835 0.12491562438869705
0.6670880022964941 21.319478514237495 2078.672177166144 0.21701488402326263
0.6619147076276934 21.246537932592325 2078.6721772017363 0.014584108447236802
0.5786933526071101 21.32670293680923 2078.672177184655 0.01483892370375562
0.6174464946706328 21.253655655529684 2078.6721771907924 0.014891673732946299
0.59218129481417 21.28070547374274 2078.6721771827133 0.01404671029160245
0.6796942318275634 21.147747066234132 2078.672177202916 0.01366624588673205
0.6594356578567855 21.165354039450726 2078.6721771956277 0.012821148966812433
0.6352302661657316 21.09692983049487 2078.6721771691864 0.01536157964444907
0.5399967526478042 21.353266822893946 2078.6721771693337 0.0144277047074951
0.6507961359886572 21.140713269041992 2078.6721771861467 0.014247354584669738
0.6918411645266513 21.080809466392537 2078.6721771961084 0.13086446393357692
0.6529785198194014 21.098787471823446 2078.672177178997 0.014907698771161547
0.5688878902877617 21.249858016161447 2078.672177164206 0.014157262413620406
0.6798498737841623 21.08240934229128 2078.6721771900466 0.02544443930755488
0.5245742913976695 21.385651183359734 2078.6721771675484 0.013475580394798868
0.6710811254682509 21.10754998085016 2078.672177190365 0.01327844884353408
0.5306483768734533 21.368584274017728 2078.6721771673965 0.014467462861490338
0.7106661555800691 21.12234916107506 2078.6721772143587 0.19457096447240782
0.6086167300979203 21.227571988702866 2078.6721771809243 0.012911249219588701
0.6133312639794822 21.194479866008805 2078.6721771768725 0.014260263616957636
0.5630794588105178 21.346295204705726 2078.672177180232 0.015056357670611354
0.6363289143443014 21.13444194671176 2078.6721771772063 0.014406588449874894
0.6181023135243294 21.219719144508502 2078.6721771844145 0.013155421569733186
0.5799097065587692 21.242809538498783 2078.6721771686725 0.013230530412107578
0.657076642276035 21.03819529368196 2078.672177169166 0.019149192109084476
0.6221213720531622 21.27608676647786 2078.6721771977263 0.015495162990916567
0.7009507324329093 21.11590519537856 2078.6721772079122 0.10872645889129658
0.6615416024631646 21.153633281192256 2078.672177194425 0.013584963025618497
0.608566698328677 21.242955902909863 2078.6721771839475 0.015217728838652111
0.6508595230983596 21.12073192640141 2078.6721771822195 0.014872739090389891
0.6537037616971911 21.087742281364974 2078.672177177193 0.01470136393431593
0.5776761000054663 21.26349215028878 2078.672177171584 0.014645361832491079
0.6390062682749273 21.12379035702799 2078.6721771765197 0.01428784188665242
0.5861393034311879 21.254355314270356 2078.6721771742755 0.014445224492882882
0.5845473082118482 21.312056848724854 2078.6721771848665 0.013753835539000168
0.6307019686907578 21.262965516417324 2078.6721771996904 0.014822126518451025
0.6384291728448885 21.25166015418379 2078.6721772015603 0.014227525627836765
0.5850795996878162 21.213766292564 2078.6721771656653 0.013313281194569766
0.6541087173397797 21.215037490785036 2078.6721772026426 0.014530586590333013
0.6318829045142325 21.08685163599069 2078.6721771654074 0.015602293651791367
0.6864594299996594 21.097722140118716 2078.672177196598 0.04317955934470788
0.5193959102165168 21.405991878161284 2078.6721771688253 0.0983618530608425
0.5891057293704165 21.292051184305098 2078.6721771833254 0.013507707773778951
0.6534277404680396 21.07741856269375 2078.672177175 0.013975804388196686
0.6367258291171027 21.184401812379924 2078.6721771873213 0.013208859408088277
0.5812691607247026 21.275683101518307 2078.672177175912 0.014989809616709692
0.5994759909077843 21.25890681304061 2078.672177182273 0.01498452863277175
0.6551170798061993 21.018513195437755 2078.6721771642215 0.07609642260955862
0.6395264328653921 21.170154764837726 2078.672177185987 0.014075355310751957
0.5529616596591116 21.305157761251802 2078.6721771666944 0.014416526454782863
0.6467888501428612 21.238071783853645 2078.6721772033143 0.013093019435684958
0.6156522789823807 21.235659663260606 2078.672177186271 0.013062072077349014
0.6915678754750645 21.13385847701042 2078.672177206479 0.03325154216776084
0.5539795257473688 21.32409032363121 2078.672177170989 0.014276494796714565
0.6729640561078063 21.02988079578641 2078.67217717597 0.14800836442621496
0.617730588447478 21.104476557764514 2078.672177161372 0.013725656925079748
0.6486292826053772 21.198097987538507 2078.6721771963694 0.013834572795728674
0.6385870595816623 21.145951575047924 2078.6721771806897 0.01465355624957363
0.6463646023897879 21.22548234085026 2078.6721772005926 0.015336212532434649
0.5671923876915638 21.260739464248125 2078.6721771654607 0.013111231431616766
0.5227872588652424 21.416211774674082 2078.6721771726557 0.19436667448961836
0.6824920381031292 21.11987321323431 2078.6721771988787 0.014814912711727463
0.688459593483708 21.17309567904959 2078.6721772126034 0.033052950957625116
0.6259972827834968 21.160856667100184 2078.672177176946 0.012737654967050609
0.6077253721632352 21.282224538913123 2078.672177191284 0.014390632059758225
0.6180341037550267 21.133793912996712 2078.6721771673447 0.013805278281615855
0.7016327143246358 21.141933992620157 2078.6721772134347 0.09704463747259828
0.703138535614837 21.079555201524155 2078.6721772018705 0.19558670530164773
0.6823579699232993 21.067218371621927 2078.6721771883695 0.09166208589553596
0.6702835301034689 21.074463669195165 2078.672177183382 0.012028987766626937
0.6002673468633976 21.17383159611728 2078.6721771658295 0.014177150671079367
0.6989951484127248 21.094574784917175 2078.6721772026435 0.1210495849657523
0.6857093966424617 21.157724851658838 2078.672177208093 0.013218210702435519
0.6890604675893548 21.044498371754443 2078.672177187431 0.2089375018336766
0.6763002929156614 21.183694419159828 2078.6721772082356 0.013221541217452901
0.6225542768343965 21.18601987073243 2078.6721771801026 0.013639131058417879
0.6716163379024427 21.04147271545019 2078.672177177551 0.07511518317520247
0.640729749079985 21.07918963747309 2078.672177168595 0.016323969102202757
0.6679601181448043 21.129001186040377 2078.672177192957 0.015309138738392037
0.659556313844007 21.19359893557516 2078.6721772012907 0.014612459809537464
0.6647863621378864 21.00079455781012 2078.6721771658536 0.1994629634377191
0.6313280920372912 21.2209917949466 2078.6721771917028 0.013623384867806272
0.5669948563616349 21.280769172929073 2078.6721771693265 0.014127521505912123
0.6557092216991852 21.066693244939195 2078.6721771740877 0.01579978318198836
0.5947568237511497 21.269412013211465 2078.6721771818447 0.013913346492310862
0.6484288039969325 21.16408515609958 2078.6721771895204 0.013518208669349895
0.6522341199145144 21.178353962498324 2078.672177194373 0.013230386316489262
0.6201744654026137 21.263904201121125 2078.6721771942757 0.013827186980512034
0.6277857263539519 21.14401610457891 2078.6721771745592 0.014949512393963159
0.6997979479983583 21.15751433038032 2078.672177215547 0.09740466773614367
0.6473199411448199 21.03548336879272 2078.6721771634375 0.013399806167926088
0.6069477390024289 21.13826717954393 2078.6721771623334 0.014133436461195126
0.7042365045882739 21.105443277432922 2078.672177207586 0.19769224848955516
0.69357277740245 21.105742852556332 2078.6721772019728 0.06903173723668066
0.5812604202735132 21.29847822289238 2078.672177180426 0.013981973003330058
0.5944406401733734 21.236275398616474 2078.6721771751077 0.013476819565595037
0.5499583574738263 21.343814890507133 2078.67217717276 0.014355559827265801
0.6599724777182816 21.055567541767317 2078.6721771741504 0.015251798855267775
0.6893275286580688 21.1916998758424 2078.672177216754 0.037590254031815824
0.6618655212752287 21.20460523020417 2078.6721772047013 0.015037793319086924
0.6264130622272635 21.242315941118378 2078.6721771933153 0.015271906314463487
0.7167082589847488 21.151558394352275 2078.672177223363 0.21702597282717956
0.672573756238652 21.01338259158716 2078.672177172492 0.19043926417112084
0.6158354426409494 21.1444276948464 2078.6721771682833 0.014274098384817153
0.6338532604772962 21.19890183906465 2078.6721771886673 0.014420596543812926
0.5476999327256293 20.894733880023814 2078.6721759835755 0.23520028876006194
0.5765149722320626 20.909096674574727 2078.6721743015305 0.21493406054138095
0.5876299625415031 20.921094858626134 2078.6721763586365 0.2443125549696972
0.6124971684559957 20.93699762462735 2078.6721763768223 0.21266705757243382
0.6257748419574597 20.940600741043873 2078.6721743383964 0.20445357273924966
0.6043935518333127 20.927898371357024 2078.67217472967 0.20216454729323577
0.6800757614575741 21.001311360012544 2078.672175524492 0.22079972662222325
0.700902152404941 21.037963227762262 2078.672175041719 0.18064289236813594
0.7122462550406543 21.09186054548747 2078.6721776549157 0.21562790371101595
0.7051901946463953 21.060732167044414 2078.67217826506 0.22534522261408838
0.6847827497963426 21.02885911196536 2078.6721772122473 0.18182136723306871
0.7001924016353113 21.05014912755808 2078.6721781417773 0.2194259364956581
0.7129157839145314 21.18654676484911 2078.672177213529 0.20950698287824598
0.6954583814447136 21.2428463284562 2078.6721772040996 0.15863301542863942
0.7157707783940863 21.201350727500483 2078.6721772791666 0.1800298506593873
0.7165227687119554 21.17639104206412 2078.6721772194187 0.220229301983151
0.7138288868371737 21.217679486036033 2078.6721773049885 0.20195281411406837
0.7102253177826425 21.229239313791474 2078.6721773028776 0.22288402258337475
0.6997861775309272 21.22968903057587 2078.672177208572 0.1796719801946019
0.6787156008013739 21.291293247560883 2078.672177180247 0.20184427180965075
0.6915487441779187 21.270795893885627 2078.6721772429396 0.20938769989747624
0.7008915303538865 21.25614930894982 2078.672177289318 0.2231084379169043
0.6869790835664296 21.302646564727716 2078.6721784876163 0.1731889413718624
0.22111991000649384 20.986405155667182 2078.6721772304254 0.16740222938473595
0.24457986786894584 20.950935757765958 2078.6721772315423 0.19328771320297977
0.25078285081206286 21.062302108230362 2078.672177202586 0.01440712576481598
0.19860456009806965 21.098575743063787 2078.6721772104256 0.015271241407826935
0.24877376190636927 20.995179094985446 2078.672177219488 0.015696097723193393
0.17390035432820164 21.16798726295359 2078.672177201482 0.06719634793617295
0.19542916142962857 21.121588721943183 2078.672177205862 0.0135806861557186
0.27379210113739516 21.036983786134048 2078.6721772013884 0.014069564959375065
0.22596103836826972 21.1455922242253 2078.672177190318 0.013556154450243463
0.2059022339211443 21.08344394435562 2078.672177211766 0.013026026660231258
0.4435821833559201 20.90050356466166 2078.6721771803486 0.02617523557640525
0.47056391242935175 20.900117960763886 2078.6721771718444 0.036476654272476164
0.2140882147298374 21.154104316935413 2078.6721771920397 0.014316399925377536
0.3419393699793619 21.029252621870782 2078.6721771815464 0.014136531348191327
0.2062617690488551 21.02159481886783 2078.672177226635 0.10366124927479904
0.2918877373059955 20.96625804146826 2078.672177212756 0.015681158379768523
0.38005731371241114 20.92728286995076 2078.6721771941034 0.014014833940938729
0.3596704968071385 20.969906304991362 2078.6721771902735 0.014702469818607419
0.393871576658937 20.959207740506216 2078.672177181967 0.01414520870386949
0.2185485597399298 20.966469081541465 2078.6721772360743 0.21972490496277822
0.2630204249009088 20.985690741563893 2078.672177217247 0.013765503859221154
0.18022729570441337 21.189587529636068 2078.672177194233 0.032111944344731656
0.23249865494200825 21.096713666872763 2078.6721772000765 0.012530194908439679
0.23686657932930788 21.0501979588971 2078.672177209953 0.012231147324493097
0.45493575419011034 20.895423707622328 2078.672177177961 0.07253711597512993
0.23751832809627918 21.151373526651373 2078.6721771852353 0.013689071744125609
0.25938734199069363 21.05031063055307 2078.67217720275 0.014795912568102063
0.22959410436267366 21.13405338120095 2078.672177191956 0.01298750188071425
0.19819559518829133 21.061536160624236 2078.672177219529 0.01826720071268042
0.4059007539316174 20.95409525417176 2078.6721771793727 0.015316531848431571
0.25186545299853513 21.091582888502327 2078.6721771951484 0.013995172847930346
0.34287333575538903 20.96753444171832 2078.6721771962 0.014824651515210556
0.2537208811325792 21.019599782816236 2078.6721772119954 0.014058896404060914
0.3909077310860078 20.92717757784575 2078.6721771906714 0.014985672655803032
0.29765369407116193 20.992494585976686 2078.672177204563 0.014995880041430456
0.19188228386166983 21.208772951673232 2078.672177185871 0.01432316547921437
0.27172294730872476 21.08300205181444 2078.672177190899 0.01701935206171325
0.40516755245953234 20.928228758205424 2078.672177185873 0.016249892540517227
0.19714014025518406 21.1973972268891 2078.672177186952 0.014033373531650385
0.2653996883226235 21.126981378990653 2078.67217718226 0.013714144178484045
0.32990104858582664 21.047956669543062 2078.672177180851 0.013955108317137246
0.42305300661183454 20.938386303069187 2078.672177177713 0.015573325404406747
0.30920670352478163 20.96374332972284 2078.672177207847 0.014596267700119228
0.28414174932169034 20.973283478598027 2078.6721772135224 0.014862600848102132
0.2714516982997897 21.070891916603472 2078.6721771939197 0.01613315499760131
0.2247436819325726 21.024982874841022 2078.672177219925 0.014135828778817928
0.32821068984630364 20.945677436170996 2078.6721772061683 0.01398061430573743
0.2307926462065789 21.1602466331909 2078.6721771852285 0.014110033090385356
0.23780555633974 21.061374374268034 2078.672177206947 0.01417910985641421
0.19423238080399774 21.140433031696546 2078.6721772016786 0.014079522858613159
0.3391353516300568 20.927469985486297 2078.6721772070973 0.013425956338144193
0.31229342946418776 20.93318817968926 2078.672177214265 0.018428859725462394
0.41269935188320217 20.911328022191014 2078.672177187567 0.015044751790955924
0.2908504698041571 21.044941243860038 2078.672177194025 0.014565913129045479
0.3235242633109382 20.984400694468192 2078.67217719828 0.013686152569449814
0.25606139117788174 21.031991246057054 2078.672177208248 0.014791268532785137
0.4246418416415575 20.91128647721856 2078.6721771837715 0.014324865815316608
0.43265071570305036 20.942924524017297 2078.672177173555 0.014498394737246484
0.3706194770765684 20.945381457162085 2078.672177192726 0.011997250748912369
0.1865973788891479 21.17861867687957 2078.6721771948605 0.014504169195310064
0.20554171227016382 21.161963852214804 2078.6721771928587 0.014143088372140327
0.3212963954660235 21.05657126687658 2078.672177181506 0.014203337442563892
0.26792592437781765 21.114350602154488 2078.672177184515 0.015172626255266886
0.27898637941402604 20.982586252382617 2078.6721772129113 0.01418625870637366
0.26023221097104876 21.072134006849502 2078.672177197194 0.015222202423013557
0.2522646444806881 21.12157742058578 2078.6721771877546 0.015571765412846687
0.24268698103990838 21.02715019953714 2078.672177213682 0.014595807917613316
0.29068977119160166 21.02222325611043 2078.67217719958 0.014974013994213454
0.48345968266409345 20.886020250440996 2078.6721771711505 0.19247059960027119
0.3259771235031251 21.028561823197307 2078.6721771868 0.015779802885427057
0.24814358251783886 21.136540676260235 2078.6721771854427 0.013828428382289044
0.4573308654155148 20.908181360780443 2078.6721771741077 0.014728290134696915
0.22184174314640429 21.165862776186803 2078.6721771867205 0.014946386980983791
0.3015359943530034 20.939683746830077 2078.6721772161195 0.02399739282862083
0.24135270117679924 21.016758235832256 2078.672177216625 0.014051642098836557
0.28891098961172024 21.009429549326676 2078.672177203246 0.01460559520416007
0.2138146270294533 21.095927519048892 2078.67217720622 0.013868232404693676
0.39035492020752394 20.982274020569523 2078.6721771774996 0.014412326701750819
0.32474040211113847 20.96896344904549 2078.672177201632 0.013761165917513508
0.18510299377436723 21.20012759910542 2078.672177190126 0.017048061346756696
0.3733675260022026 21.01392784208562 2078.672177175244 0.015434511241481489
0.33737868490792966 20.95728709173447 2078.672177200434 0.014922639921087964
0.271013989148768 21.017601587876563 2078.6721772069695 0.015433445927191263
0.39771607126444253 20.948057710375075 2078.6721771834436 0.015359237432117978
0.2774328780260112 21.00668138142707 2078.6721772075693 0.016083058514593192
0.23337450145145466 20.99040746802463 2078.672177225551 0.061481870740217624
0.3279052624086237 20.994304921801138 2078.6721771944844 0.013896172012015406
0.3783776958920133 21.002521161608563 2078.6721771764114 0.014968219952789253
0.43176300478746993 20.91940115851888 2078.6721771795364 0.013364708672567886
0.3423529833158197 20.940621215992984 2078.6721772028864 0.013744949258877887
0.2888166884026335 21.07238038695825 2078.6721771880257 0.014206176780980725
0.22132349368467352 21.10392654941404 2078.67217720189 0.013975860519758344
0.3040782291241607 21.000820608871564 2078.6721772004985 0.013512837130040088
0.3264383504677194 21.008702119290497 2078.672177191464 0.012654929247353047
0.16615650552483593 21.224410181460357 2078.6721771902803 0.16904642008303225
0.30377153938731716 20.982151188636927 2078.672177205119 0.014367809706211213
0.27901317197494296 20.99611197385886 2078.672177209626 0.014683510902850114
0.18932329617862964 21.104763221244657 2078.672177211884 0.013884881259904678
0.42273146283739205 20.899759001300488 2078.672177187173 0.02769564154630387
0.44664969711709357 20.933915225193083 2078.672177171277 0.014000677526491005
0.21157691348800123 21.17280572033619 2078.6721771883094 0.014578842693792716
0.3605512351303008 20.98796772720633 2078.6721771856173 0.0143726683109148
0.26738946346806325 21.00003430874424 2078.6721772123797 0.01480173521660184
0.39013832162953627 20.939478815046968 2078.6721771879365 0.012586320382392017
0.38079603859275407 20.964552045094024 2078.672177184839 0.014307093207329346
0.3547011394634919 20.952888093888596 2078.6721771959797 0.013360642110232426
0.28692598436455796 21.10800575046255 2078.6721771799976 0.012933257189518097
0.3740092605516646 20.991306327030543 2078.67217718052 0.014069150660528539
0.3504052298736075 20.918940395114873 2078.672177205573 0.01523104838265971
0.23761925470346623 21.03740141359011 2078.672177212814 0.015029609599194846
0.28628784867542506 21.0335379505477 2078.6721771982416 0.01335801966233371
0.2556703842817623 20.95409931814958 2078.672177227242 0.12391256685459452
0.2985280858869769 21.055055554507135 2078.6721771891284 0.01404388765435821
0.2161101766646584 21.060249731666477 2078.6721772141327 0.014274549888724458
0.24680501313509645 20.966445737288222 2078.672177227076 0.09270842284153917
0.3504520748818104 20.933729938566294 2078.672177201975 0.013709954937014624
0.2881481101899055 21.057691956767613 2078.6721771917973 0.01500471179747241
0.21894055974565196 21.041948127323657 2078.6721772176643 0.013953169790725752
0.23550913770458348 20.96034027887248 2078.672177232155 0.20134469130727695
0.27721706537249413 20.956695664396833 2078.6721772197475 0.02261446519700024
0.31532745227348646 21.025288746631794 2078.6721771909865 0.014719185735984476
0.34576941067193656 21.002995525553807 2078.672177186687 0.015315153309730569
0.26870757263377226 21.099593073518466 2078.6721771878406 0.01607513386350746
0.307147408533441 21.064099218410526 2078.672177184191 0.014749454646890146
0.2763674827057109 20.945700515486163 2078.672177222682 0.08407565769763058
0.2385682344282467 21.10567850439459 2078.672177195971 0.014317148481119757
0.2925340244517949 21.092580115501246 2078.6721771819475 0.013774252642888892
0.3074913724862236 21.042771198356782 2078.672177189248 0.014240227422909915
0.36467519198481163 20.919283973382274 2078.6721772009423 0.013439970666963069
0.34307756735899997 20.991062127755328 2078.672177190436 0.014922093498575473
0.31610233547900934 20.947226697852763 2078.6721772096507 0.013464517660187568
0.384880907251025 20.992539532591874 2078.672177176757 0.01498693403133095
0.19018846215351018 21.163871123693628 2078.672177197289 0.01471353467331956
0.35750897480040555 21.002984863831138 2078.6721771829484 0.015015492918735699
0.3139337921271919 21.006428463965655 2078.6721771959997 0.014381944189755738
0.24813806351335718 21.074451576516818 2078.672177200486 0.015085411462130686
0.44498532030223314 20.912002781312516 2078.672177177116 0.013630446333587204
0.23247116835203357 21.002877156059515 2078.672177222818 0.025986714548512
0.22943204443344795 20.97366205083565 2078.672177230864 0.15699238025819365
0.3275041165314314 20.928640196787313 2078.67217721052 0.012590709487624214
0.3462390400829124 21.019222315479354 2078.672177182606 0.014368013896677873
0.211663082138968 21.008496024250945 2078.672177228087 0.14177080462881167
0.3397624310972285 20.979181054287608 2078.6721771943703 0.015253272098611534
0.35166687742812197 20.979090391830155 2078.6721771905986 0.015591373904078939
0.3867357081104267 20.915430124468166 2078.6721771948464 0.015437479996486276
0.2522894537574007 21.04234586534406 2078.672177206941 0.015172422217684585
0.2577164245590336 21.103078524719972 2078.6721771904986 0.014839238045695641
0.2928203073651431 20.94807611705322 2078.672177216864 0.015469289478225618
0.36483020474056166 20.934764483631774 2078.672177197143 0.01289721122281334
0.27965053669983575 21.0966016181498 2078.672177185079 0.014380996410921462
0.4110517422776684 20.870966559560145 2078.672177944337 0.22139646146091801
0.4386632213784307 20.87219884992426 2078.6721772798633 0.2280075837679351
0.46169208534063855 20.866817309303716 2078.6721787522733 0.2044469990165756
0.38554049117237704 20.880839103449112 2078.672177062202 0.19919443564799144
0.3641771212203291 20.879189296908542 2078.672176735028 0.18562737881658617
0.3252045024467116 20.89212200917684 2078.6721775411625 0.21978821455041977
0.3465150524994005 20.88315356006229 2078.6721769334426 0.2332377724716565
0.3403845918789319 20.89245192414385 2078.672177699509 0.2178153569314797
0.4523824296681806 20.875267904932308 2078.672177141314 0.1943524036929076
0.357043672359878 20.909133472973515 2078.6721773522777 0.03999278022448015
0.3159996805000799 20.921428789950255 2078.6721773701192 0.08214259437798811
0.38765638308903994 20.90155310654594 2078.6721773055747 0.05559251016160074
0.41305573103201415 20.88510510665625 2078.672177480174 0.15023538891962956
0.39908281593452655 20.901739117102483 2078.672177224813 0.030608419512567136
0.2640125232592426 20.92891717830079 2078.672177562521 0.22888156572384627
0.27795883809327016 20.917923050773084 2078.6721776996133 0.21639364050551832
0.3053859757645138 20.925173396188832 2078.672177362865 0.0995660614070386
0.28572966032951874 20.929111501750462 2078.672177412368 0.1652710817840107
0.46270392021443146 20.879743269378288 2078.6721772588435 0.18561492344778333
0.4307439867833467 20.88771360058155 2078.6721773064173 0.13637648203071917
0.4413372489355362 20.883124044811566 2078.6721773315553 0.1811427050541411
0.4089287361325772 20.895440731216 2078.6721772908654 0.08964587118049784
0.25955178694659253 20.94230808399669 2078.672177311291 0.17259905589343033
0.29239738269964916 20.919661748883417 2078.6721775659826 0.18298855209014375
0.36943631111147157 20.907449617127813 2078.6721773042873 0.02922968379950207
0.2999447263083014 20.90121179934625 2078.6721779027007 0.20047700704108143
0.28805897950814796 20.904738744712606 2078.6721779085738 0.19266825654230355
0.32255649784038765 20.913541081851736 2078.672177491674 0.1000312607786643
0.3352964424000137 20.904058455001415 2078.6721776051368 0.12712096253153363
0.5642022265252564 20.90124897546554 2078.672175183611 0.1816767252624863
0.39335407339402295 20.86726668148878 2078.6721790861543 0.1707504884745321
0.18854007753209318 21.094180305632285 2078.6721772162264 0.025308428856801565
0.19012885471710345 21.002854852046458 2078.672177914196 0.18686898180386996
0.18377275466020332 21.04374218074717 2078.6721778290716 0.15432465165518236
0.1822927166047832 21.061644236178388 2078.672177739322 0.13730419615986522
0.2077124961254094 20.986140764212717 2078.6721773454046 0.2061468450441533
0.18139161374128082 21.12902213161083 2078.672177213458 0.02839053563604712
0.17418695399239045 21.15344265970588 2078.672177299901 0.05497776287235652
0.17790492166047117 21.096044418076772 2078.672177629042 0.07663589521509463
0.1665082229073232 21.190724632624196 2078.672177298131 0.1417896966160605
0.16834815668793762 21.058844037087866 2078.672178324351 0.22066798613170166
0.18574043980004723 21.08249824215566 2078.6721774264597 0.06334855977470935
0.20350841880358705 20.99990404097882 2078.6721773999066 0.20119620379255246
0.18992663689424563 21.021059119764956 2078.672177770456 0.20650603971120418
0.1627505637733093 21.174482213070444 2078.672177585001 0.1448252016229702
0.1658279661483735 21.160300125817734 2078.672177579374 0.14916657209752757
0.16661196541905357 21.073527556530514 2078.6721782717723 0.1990071035320396
0.17009982285092679 21.12742175326462 2078.6721776816266 0.10168860252977578
