x y z curv
0.3227242505706278 0.24536569098177993 0.34391190024392365 0.00047031926784336724
0.32962371079313435 0.12452842415266951 0.4158125925838448 0.01237932575906868
0.3348728128993055 0.21649283363495517 0.3538911857126094 0.00826654901701183
0.3236879553344637 0.17398237564202 0.24996013691179303 0.0020829234154926364
0.3274073935996148 0.17491890007228095 0.355744795965364 0.0018628113080732193
0.31909186576094917 0.23578929309115118 0.04364322480659579 -1.7972094838453908e-14
0.3233518268940351 0.21787718366613906 0.15255323380799546 0.016383025349061924
0.3234709095953852 0.17183447185297304 0.16007929929626558 0.002105164323332365
0.318407660329684 0.17352061063053068 0.11602754062012445 0.005708379058770257
0.3320320972562489 0.22800283902070284 0.5165109993642344 0.008382363682890363
0.32834398390162095 0.1176182811751404 0.35926797586485293 0.003363719812674971
0.32959202407620547 0.18786848134134812 0.498761454579192 0.009357062056395752
0.326842199487468 0.2099743102327802 0.38207387155293415 0.004798527852658818
0.3284326407078973 0.08142702638556507 0.31026113649073694 0.01024019261768633
0.3269339716733784 0.14887004259554135 0.23939486427727089 0.0016223971762330505
0.32876295734953687 0.1294056955591085 0.41888490666297434 0.014515738015472757
0.33193333828103094 0.2234456007723854 0.4793444829220192 0.012372410402147446
0.3361983414103826 0.16205716426896066 0.39709653721413063 0.0029409195399339246
0.3326273230692289 0.08311647278146281 0.36352198428313315 0.0005072290677853943
0.33023475542809033 0.1698401330798504 0.4353048983266188 0.002731538360560078
0.3216389683097715 0.2188141336690025 0.08962697692490122 0.004912555905589012
0.3293649814193229 0.14844439147523744 0.2024506843027804 0.0003388710528213041
0.3261284899610556 0.10725601764025275 0.3521873571274534 0.0006882336462530878
0.3315490553903669 0.2206413550559772 0.39856948772963463 0.008540209955049605
0.32236850467885636 0.15875609422026105 0.15325658809624265 0.0077553606679449
0.3302979621412328 0.23608028170180728 0.5943753514551008 0.018467247337684466
0.32344680383009566 0.23848138787723466 0.5336264383820337 0.013882518131160475
0.3284773515631845 0.16100927666670936 0.23378284132778832 0.0007859020054060053
0.3299257413241912 0.07439221757429906 0.2725970798464824 0.0038646027512079513
0.331820495123324 0.1653446543940696 0.45042696271880095 0.010354695625446515
0.32941844600606596 0.20510437626374295 0.5414710813979181 0.006921197649710073
0.33484500268118916 0.1955657029538337 0.4613593565098967 0.0031631576507729973
0.33216800273145897 0.12067673812736929 0.2935615131273919 2.4370985177299903e-05
0.32413688933881746 0.21241749698793425 0.25782562804467857 0.006297659896525554
0.3237248990160125 0.13533760016146495 0.37546590215385617 0.00640287761931971
0.3303622972877951 0.21698039146398007 0.4260979751621284 0.00799154306812
0.32473302443649565 0.1308797806276695 0.2508210269348294 0.0013401728068797767
0.33095832075891163 0.14723458301603326 0.28230343772118777 0.005204768045470678
0.33341759403378984 0.2142107247203108 0.5626530141008015 0.019393696955555945
0.3186649315648417 0.18093348459858033 0.10194992417569489 0.0030046667433795133
0.32902921903918575 0.22207209424295804 0.3835347993723667 0.005216181876937372
0.3213483652619191 0.165427350307512 0.1416204397728507 0.004197913053502493
0.3325104589640229 0.18501064106610768 0.42243450431376944 0.006774832170840947
0.3308918370295908 0.17405430383869763 0.4532712081151529 0.0029571397823315746
0.3214010630373413 0.19968147180969004 0.06107219953160827 0.002497214565964948
0.31959870231527376 0.21683984806993994 0.051481567730811625 0.004877106465185033
0.3260411081842978 0.07903097090519634 0.29686140731959254 0.008966106509107
0.33193306687376006 0.21523887722138887 0.53169935980597 0.011574004620826224
0.3285551210890027 0.08651067520725027 0.4796524531289014 0.007047168189887476
0.3285196446114133 0.10352262350334875 0.4735445286665668 0.007474525336793942
0.333927999722247 0.07472571820416324 0.4425352589413613 0.00423503568180962
0.3339573409744861 0.05314631063809762 0.38950649420446953 0.0034744378726102904
0.33307569951059185 0.1166043159330318 0.49068809962292476 0.0035818283767710146
0.32499019685223696 0.07792623874243829 0.48543597938674815 0.005900039678892004
0.33028133670373055 0.0997297395676999 0.48970183611701856 0.012413323731573268
0.33377795263807836 0.17553940988908673 0.5636262186910496 0.016420851130614627
0.3272955225937863 0.07053245391868368 0.5151361770606132 0.00844952618840119
0.3323307261522724 0.07347401070145718 0.4657382009437956 0.005624793205570901
0.328248105210331 0.20462706943698944 0.5920761175607244 0.05123072961070788
0.3359152317201416 0.11428217828739329 0.5157081903647602 0.0007889176821730985
0.3283251341688779 0.06948636325114221 0.5210372906702248 0.0022983175204925074
0.32506330696780744 0.08024969019609245 0.4999060963208731 0.010550605315351999
0.3408310957472786 0.19888902644492248 0.5815952568848035 0.011964887426106754
0.3289718730407882 0.1420098492791964 0.5500432163364554 0.021593175369668833
0.3483841844147122 0.1379404228481687 0.5297682094098315 -6.204219306115983e-14
0.33448336331604844 0.04969660659304491 0.5159513918605165 0.02546464586925589
0.33621475652263944 0.17883249243524907 0.5581476444904778 0.012355788062709658
0.32850854392191403 0.05740270136666899 0.49064181575582894 0.0035166364558053987
0.33603392688293304 0.035094254122326266 0.5706390544402393 0.030371802814376198
0.32833449660826874 0.1959190043879012 0.5929737581474954 0.04961256530043989
0.3294058572361525 0.1499810709963891 0.5824995821435128 0.06436945475529235
0.3369934985840703 0.05352487039120853 0.5502994507711158 0.017347524686662445
0.3343427828170911 0.06307682557288095 0.5626468520634372 0.017514773911052064
0.33599806835931945 0.07691461559482088 0.5468103867200447 0.005635258110804854
0.32659936159234654 0.15731500819055724 0.5672334755764747 0.05352349438087112
0.33435756126035854 0.09352014018436416 0.5581192710586492 0.013693908575535985
0.3302672562334987 0.11961399994185432 0.5757615910398622 0.1323945160376315
0.3331869055625447 0.09798553041431937 0.5865018808806128 0.06418796050701779
0.33265172431998896 0.07629239650562356 0.5796775971076166 0.045359042501790396
0.3351294913174628 0.04908603027497352 0.5312670683347158 0.020030897130038916
0.337030377246994 0.07635579905035979 0.5788835424820201 0.03884142922187069
0.33483649375371255 0.13010173158838864 0.5799200766150369 0.050435605910863025
0.3302476494029547 0.16474507304723265 0.5816745817079401 0.04791064000887429
0.29612833734878014 0.2457273194718227 0.4870450533494574 
0.3125837518622958 0.2373606514059511 0.2600983088339817 0.002969528939793689
0.31874745266262666 0.23950583952970697 0.5588411278528758 0.009866940337148007
0.28534422001349785 0.2420766728957346 0.0462761631716003 
0.04487426954970853 0.2463771548918689 0.027874233681644385 1.086135422688364e-06
0.31880358077745097 0.24395665157073546 0.2133267589812587 7.692938994257984e-14
0.33165482655790796 0.23953429772492907 0.40953645776650655 0.0016251922049725493
0.3338783223862893 0.24245176847776423 0.5027894925555312 0.004706107029456642
0.3260546299051727 0.24275837818229665 0.4250524266325626 0.0017562900223534175
0.324137465336868 0.23783627320377076 0.20088515107348923 -8.126477772856956e-14
0.31014162308252224 0.2405806327055038 0.15379288880616498 0.002199519083669473
0.3210091713459631 0.2344338246479341 0.559619480292029 0.010541237629357334
0.2657454379645477 0.24777400973366676 0.017693602570740898 
0.32483646711611364 0.23683074156415534 0.4518229914146845 0.0006010120761508118
0.3209025183654814 0.2420683939766593 0.2986872659168659 0.0013183567509971123
0.020857252076052317 0.2427676700287086 0.20171230706725904 0.0033085687218241807
0.02716534063696827 0.24325370499930024 0.11741911390083776 
0.009674619479412356 0.23634906142421966 0.16711047499155773 0.007742900520273816
0.3056765916211924 0.2386948544257002 0.605012483397273 0.05060699717110592
0.023430631380154186 0.2379920123627267 0.04351476492917786 0.021736040183713237
0.0012524119757270583 0.23189233184312324 0.4812606378735127 0.020302195179798595
0.028776419581112163 0.24410114546934922 0.3827024383935271 0.08421944228956932
0.00936454219042 0.23773468305404452 0.4507412393605009 0.005752701500260115
0.010595230408351416 0.2371841865652252 0.09379916356864504 0.002256503475965282
0.010856230220487052 0.2410439336196311 0.32369294063059323 0.0010586226255124922
0.013187185254881027 0.2411074716405511 0.5153487988082212 0.02090825306287633
0.24266409383633758 0.24162886295455924 0.608256296427934 0.0003265036843547897
0.01838400063744723 0.2372565585466319 0.2174338083928844 0.004254830049823819
0.02535768146322213 0.24133201149763037 0.1682905891165692 0.013502844440244377
0.24588842103460848 0.24791466018073732 0.5358492703665322 
0.04778349988379978 0.24612559836901737 0.35612136837454156 
0.006460742888084267 0.24285528001524437 0.5752150912850936 0.00016964165026294673
0.005616181068888157 0.23323161014823326 0.3670856834945695 0.023472557542636805
0.061629446008935114 0.2464740521885485 0.5403004956852103 
0.26352990084233674 0.23391758305108204 0.6134486952054042 -1.6506009172716367e-13
0.01028114615761937 0.2473606301598929 0.27979454240437046 0.00275719371097474
0.008452283617539984 0.23334194414876028 0.43818633984324007 0.004872729122652725
0.06258793563870779 0.24445447199259399 0.6011678638457385 
-0.0012043300465911996 0.1586945546178569 0.5869127617327209 0.018138937624394887
-0.002908491157222658 0.04972262058571764 0.5412353285599723 0.0018785534790164956
-0.005072370295441835 0.08438448789415695 0.5855328483978572 0.03611946493006984
-0.0015478795576752918 0.15765283442620712 0.5673190199597983 0.008870380297931014
-0.000268638462535039 0.11689558054674726 0.5913242923200179 0.11689664603026582
-0.0031019932257682088 0.13817974112315284 0.5771171640640588 0.016363065149810653
-0.0022767339862232736 0.11755397541488857 0.5634472408215263 0.02406547243102239
0.00046233587215200906 0.21338816502434627 0.6084275629987478 0.07924449102552927
-0.007054639442924851 0.05630545025565878 0.5585669980387924 0.04658749586864041
-0.00020631384769912364 0.1096568742431295 0.5624912390190984 0.03837777532283071
-0.005529817431174389 0.047402179869115435 0.5750901664068697 0.036771396546974526
0.0016294689010284227 0.09579893969867052 0.5678778573329039 0.04761668185826826
-0.0019312401791971052 0.07886044617690831 0.547712537668482 0.00501799308604764
-0.004084396899218052 0.13468528580712846 0.5973743954216537 0.08833970194437214
-0.00019317398192024503 0.12212559253011118 0.5485004917523518 0.0038832384037316837
-0.0042454015631211706 0.124099827806492 0.519582732377672 0.00645390888334893
0.0017371243808409751 0.07379125798983717 0.5006605614818159 0.004203047685709195
-0.0023645802955815595 0.1274649854192278 0.5357839271671331 0.007652887888456917
-0.0019675916173622107 0.16374363893033053 0.5755750282954375 0.011635161392137588
0.004296979196207281 0.039595329200315894 0.462878979326889 0.02920772768045513
-0.0038460988863480428 0.10617486655823034 0.5140527307271697 0.005422531269283024
0.0024311527443004626 0.100012104346901 0.5487143766176125 0.004762697232332405
0.002267226988113067 0.10286322504662058 0.5304445094622489 0.003644545923119176
-0.0031135353530611478 0.05083332022425223 0.485617911079707 0.00670094776729244
-0.00599453620595737 0.2398806695863206 0.6019498168055761 0.012979727529634142
0.0008790318812949721 0.08276128335633481 0.5039126162529972 0.005255001073430598
-0.0008860897046794481 0.06457329360701462 0.5099258604647094 0.004499417854317667
0.0023885243161474398 0.040406948846558044 0.5013852322801241 0.018967931811836425
-0.00039241209300447453 0.12516705991756052 0.5449422639218174 0.003499077124397221
-0.0022758355466176447 0.1519439644121644 0.5415018525586768 0.0027984564635725882
-0.002386967510290775 0.09025156784199109 0.5182180312068801 0.0058328987575747724
-0.0045485978047211904 0.142521913389625 0.5287548881715732 0.004547415451583699
0.002722060382567037 0.13022179786327226 0.4967725083871365 0.0037151163592998
0.0011900378577128657 0.07378166508782881 0.4736177331676693 0.004782439381828559
0.00218128787378384 0.03045806118648147 0.44716084604724216 0.04925206117344977
-0.00444865492599151 0.11194631332200816 0.4677688609979832 0.005088948892509192
0.0012705869234519267 0.05713362274885676 0.4146005125204947 0.00299046304558167
0.00036900281033502716 0.16856254836135695 0.5347794654109149 0.00748247585598952
-0.00031895748389235753 0.06597257218134234 0.4167163704845584 0.008081155138739846
-0.0017163395355095368 0.11025261851847407 0.5040298230768538 0.008406432345970561
0.002504789476763471 0.04819036130600049 0.4489111191478117 0.016118795758496122
-0.0014652513684082972 0.10706926595845223 0.4831689587073491 0.005655433458877012
-0.012104634765659025 0.18799141738547107 0.573748084367335 0.0014010438505083931
-0.003244529403841825 0.06599040727087478 0.469842288084048 0.0059673452672855684
0.0014751018090910653 0.0562995315858912 0.3875176311585223 0.008869987650551227
-0.0020328557751949517 0.10383198570545207 0.4525409556846496 0.008337470949509306
-0.0004187287497210779 0.06723857309581337 0.3783809105098596 0.003951876655026287
-0.00022285663928420978 0.15759801153830513 0.5087071655440021 0.009255802611772501
-0.007337321817454346 0.197368676552069 0.5469444377353901 0.00836727918577774
-0.00736127117546428 0.09342456085574707 0.4383281164872197 0.0036430111611131847
-0.00016211075628526622 0.12267119221677689 0.4564031130941061 0.0033650182711341087
-0.003029603704367981 0.14740187453244635 0.4984749505956704 0.007242747870260284
0.004679751558221054 0.04432238709782612 0.3370970111468943 0.008863931441641732
-0.0006741235967594236 0.17741098443055228 0.5401304488797527 0.010450283737853122
0.0035441046220687487 0.05282279106776891 0.36144059117866056 0.004423472406883705
0.006549503145756288 0.04019017853725553 0.3477291790138747 0.01869913542529689
0.0014526394335829087 0.05823867054201552 0.3928902344544431 0.008931285117070076
0.0029952274855667496 0.13498008072037532 0.4773032033595716 0.0049082995192583165
0.008952567901703276 0.1910833822998386 0.06966873832351314 0.0025182752080826236
0.007922531801308278 0.07442325887982414 0.19651443282474332 0.0018789765506403875
0.0015690343139591993 0.06094774586803639 0.22950503294679117 0.00152514495071182
0.011989592088902778 0.19474845798567425 0.04735915071380434 0.0029010583797436664
0.006345486781332682 0.05016580441307722 0.2559445941841659 0.006401244783986179
0.0026401096513305154 0.11183402304728465 0.1659779671644948 7.102247259111223e-05
0.005723434792525732 0.09587703221377267 0.21477719073363086 0.0027682893971119164
0.00708726881502512 0.0873412533451662 0.21256314486455685 0.0029868187817809993
0.003634943707692557 0.056642483737686655 0.29226568102998646 0.003507140357885039
0.0026195294126528804 0.0753437246868704 0.28452529961913525 0.005016090691292177
0.006997417520408172 0.09006663491756618 0.27711105856670526 0.005144129936658195
0.00020484159584258262 0.1463855615925664 0.40057933813442775 0.009117512319927398
0.0015944121212130265 0.17383626502714453 0.33027861497225947 0.0010049233666840104
-0.006501634415875188 0.1724431524132422 0.49485010874627977 0.0019620638607703344
0.0018939048222979087 0.1902740298777606 0.4407491779694169 0.0075369181309913845
-0.00022254355494554477 0.1652525335039495 0.11855081051445453 -4.6072119578266154e-20
0.0021077933393668586 0.19274847037429818 0.4404070997141647 0.007070716284309836
-0.005182514663714329 0.17524641606809316 0.3854600002746263 0.003707600441943396
0.009486676907877994 0.20957849691968752 0.0825218124181714 0.0038417121873154827
-0.004007582528582425 0.23249043733411764 0.5119862256577745 0.02866733341288996
0.008807461535670615 0.08810272311544445 0.33296519305328237 0.0018745893426156917
0.007833480927476159 0.12380166924238566 0.20537868290941064 0.0024118229803804687
-0.00016929227855317286 0.20107403886558484 0.48711205635542154 0.005140527547403307
0.003571858157321771 0.2049132310609726 0.2110613507252244 0.02534209652164567
0.0060707634277637045 0.20492502662399817 0.44419889230183834 0.0063173475176317
0.002667531904256024 0.18920676723296648 0.44774640781551145 0.007696396708126467
0.005439723948357272 0.1969120319889546 0.391186800940945 0.007248882191343775
0.01226809022177974 0.23179525006915935 0.20445338771929022 0.015578408784694053
-0.003618471034155586 0.1679860253721879 0.24507754689541467 -8.968695437380797e-16
0.0005537711775094991 0.06644006947066536 0.35385570622490226 0.008941234848421579
-0.0006645480543375623 0.13676387395917286 0.4581031769799017 0.002588992125201976
0.00497650616805998 0.17950599740521955 0.3201427513065454 0.0020242327680104217
0.0006935333925286004 0.16489814164439673 0.3688628986847478 0.006499813215058653
0.005730077935226124 0.18192515576281615 0.14639839304067728 0.00023512387203447746
0.006950982327305151 0.11255877294207674 0.3160674550112663 0.006119159192504306
0.007530531558386778 0.22441333336726885 0.37492629193099164 0.03977621478511378
-0.006390074528011746 0.21856961814294154 0.5668559274525882 0.016166627263781288
0.0009208323131293197 0.1717483883068236 0.4434609663790143 0.003880172069521609
0.005884515330068623 0.21319433013432543 0.1383218418305637 0.0010605093857819726
0.004030443013363333 0.18708398567755216 0.2596924938617167 0.02999071558537941
0.009354474059176679 0.2390558723504016 0.5075094107284367 0.05291423421530714
0.00392950047361244 0.16070206436811732 0.15800343767663683 0.0035670833799851982
0.00929834152794363 0.10591216202787888 0.2989611535411324 0.004540710749914719
0.010514447833272985 0.20864727428463833 0.04369673953986993 0.00809696113793363
0.009945896926795813 0.21205746043083745 0.39396352387877304 0.035157434245059224
0.006691958431687714 0.03662927005147325 0.32465022114735764 0.033062930635458274
0.0014415577202426142 0.08208576879210061 0.3716061632411658 0.005875736301928306
0.010618059217696095 0.18008701711383102 0.20324918697829292 -1.2575026197732514e-16
0.0010089396025720976 0.053727563310867 0.3388689109214774 0.009639538902832505
0.005230624277719128 0.09991938663763353 0.256833935289558 0.003663881571569164
0.006494256762521674 0.23852989423753493 0.41570262644913875 0.005223917160918144
0.0078293566035675 0.2043701412712818 0.2605751387342237 0.007614168534274568
0.00031580293423020406 0.2305292769552854 0.3505497985726906 0.0032612871459317206
0.007823535917943655 0.20591326667622586 0.169183209940202 0.024085092503295283
-0.0012975052157621833 0.19688540493117862 0.4747616567974618 0.00557652638086852
-0.006992762236063059 0.22537971873578647 0.578700334874252 0.018503059704864665
0.003232995873836809 0.20668947660257106 0.2073218486347656 0.01524759934740671
0.002536655116615965 0.21845008294663718 0.3420850158015036 0.010734465794187024
0.01377996110127721 0.22525596947998733 0.08020813356340539 0.005541398897201499
0.0017224932099428139 0.1413726724943523 0.42551605035589785 0.0033677104473061365
0.007759370438798903 0.1368583863881209 0.2088319814991313 0.0009543015753218612
-0.004368483947993225 0.11226928931514035 0.3778624216027121 0.006363290324505649
0.00897771804675853 0.19493928036620445 0.2731854644845568 0.0034318416111002235
-0.005756858918884356 0.11857683436325221 0.41290113898918385 0.0005357883135558027
0.005096198135268445 0.22619458743608994 0.24622818614053552 4.9928670900077416e-05
0.009308894139410865 0.20331513671772622 0.2397700664575968 0.005198494933060968
0.008935665391366022 0.1077519363184456 0.201914480534173 0.0022404778171564734
0.0018976298729942095 0.149777039855729 0.47110402112964195 0.009504624009155643
0.010629062000091305 0.13798357238635048 0.2959493724396424 0.010790195910301451
0.00836033357738799 0.11185219717548418 0.23988935838110892 0.0004875810268751972
0.010827295757699012 0.2308317880034586 0.2753936735006933 0.012859956505610006
0.004565924115270049 0.15702387502086895 0.19598039917279214 0.001132320668410247
0.002359916572075501 0.08250396122243475 0.27003483628203645 0.005021795547748696
-0.0007443621474742283 0.17893688400540797 0.4262839539213263 0.002672209199391006
0.008374363039932225 0.23660033215502765 0.4076568869185824 0.03403192925811107
0.0046191024314839475 0.16939963848746425 0.312139952553405 0.0024058899530314004
0.003460672368636151 0.23524506627853087 0.494898274954173 0.04029226603930753
0.0150720974426794 0.23913236785723532 0.25231775072941726 0.010927466391980346
0.010362415627697227 0.218907226644571 0.4119181844888362 0.002976063880119461
0.0013599425448242945 0.20350172730123964 0.36696358758588754 0.010932075375822898
0.008666574662613502 0.14098079992925283 0.19014990078386956 0.0017303719558377157
-0.0031092020245460207 0.20587071494587492 0.5087490024146099 0.01717292827354346
-0.003262856105647553 0.23804392678770045 0.5496495368266753 0.00935616397483462
0.007374343810217444 0.06565681261992269 0.3145556189833531 0.007104108158466118
-0.0029896247924070998 0.1613530252919114 0.3867763893794061 0.015950405555134113
0.004477709897467294 0.1673796178838998 0.45397065015969 0.00404031012542121
0.010477347923292715 0.21950763598636214 0.29344947481930184 0.00308450776851213
0.003370012063266945 0.18956530606502 0.3466593581707307 0.0006249020087893234
0.0011708381660139049 0.15950398766581841 0.4402300541005751 0.0031624744030598955
0.010887888158494459 0.20258850753778557 0.107200503406535 0.001413467118826887
0.005412301131936375 0.20088297563974777 0.15483376272124988 0.00018387458139137465
0.004527247866148617 0.21496339882444881 0.31792031795988984 0.005943636851255635
0.004026890420115109 0.10711530597194834 0.3539798144285823 0.0030358721795641233
0.0037937094377920415 0.08764386524820166 0.3135251570381032 0.003478556895301504
0.003215552103737072 0.1252932777122978 0.27688786793600123 0.001882415600408246
0.006543922998046613 0.1287115870550232 0.23991666475432225 0.0008761901026366174
0.01560399799714013 0.22555791392320526 0.06057064471301413 0.006755572179555653
-0.003898333809855047 0.13109921046170192 0.3605254068771537 0.004675916698577244
0.0027219093954507553 0.1279834155486365 0.33294758260422996 0.005167990979651485
0.00686839061771629 0.1810923303087978 0.29115871411245764 0.01078969635071343
0.004435260415648312 0.2127889019225205 0.4318864546505538 0.00422410693044904
0.005428380766438338 0.13790538479032682 0.33554020243565386 0.002016849809884764
0.000373283177642598 0.1404284920351214 0.3778289947114768 0.007453811680056268
0.014300867203862895 0.15353987431581445 0.2755780948529884 0.002964102771646158
0.006966525634247954 0.21388128849965338 0.4667534578062902 0.0022763266198172634
0.005049363188483926 0.1949285530725473 0.41551772792762026 0.005579608517608681
-0.00040717516661626686 0.15961862416249115 0.4300709705115298 0.0033903613956577715
0.005996599848852143 0.21080529202701423 0.284099152950468 0.004456703086636455
0.008203688912199334 0.19834491532095783 0.2999578419670442 0.002721913178426747
0.0022547960363849488 0.18709585722429137 0.39121673127176587 0.008598340740278468
0.007481355854171284 0.053533710077887056 0.1550221835833195 0.007981990260232759
0.006802936806585865 0.13140747446754789 0.10864978105486683 0.005646368274301463
0.014505113313179835 0.0736804943730281 0.12178517962386164 0.00120801378239631
0.010756317183961445 0.1324263310341828 0.07300531388730051 0.0032954349698224345
0.012783033622163717 0.10351046351999729 0.11885575596974907 0.0011781751791092733
0.010700149306197719 0.11667116556919604 0.12943222910966365 -4.424463431937264e-17
0.01673967103213023 0.23170612170592578 0.006067148457053957 0.07528202124515174
0.009313636780276711 0.07712431968334159 0.1574546136853058 0.007072490066643652
0.008402625205166363 0.046046094548807884 0.1296267848861308 0.013144906118128068
0.005764887021871216 0.04484799792104645 0.16607809991457897 0.02282981252239299
0.009666700356972398 0.15346932556050163 0.08065198609157999 0.00022916095224942627
0.012424227313044833 0.07373697944738233 0.13476865152289194 0.0023504984839067943
0.013493664396279512 0.15134382950046682 0.04969189809615474 0.004085646105777391
0.009657927707326317 0.10354549596152109 0.08741646341585138 0.00050685936236288
0.012123675936966952 0.21988846905808168 0.015305331330268653 0.02046186905475254
0.01034958331581834 0.049127355105614424 0.11791721818731372 0.01533850037924073
0.01422328745064284 0.04447331290075791 0.07695205802974509 0.030294485061130427
0.00811443602507925 0.17482992312942502 0.03855847732012079 0.0002958741726989933
0.007071519189308234 0.06379850885502934 0.07154257711290173 -7.966882896455585e-18
0.011147073960961498 0.1267326744996942 0.06454599577226434 0.0042088984351484
0.007491167052793452 0.1242647955440808 0.050279731428014875 0.0001354914820119024
0.010587750962115762 0.05673893049523786 0.04818803300844744 0.006157591571741815
0.01064253473561002 0.0347119855874676 0.056200288663063216 0.03201415317685022
0.02006307490232519 0.1519284009660731 0.00926880936431957 0.004870457012273102
0.010202871593712887 0.11801399892400849 0.008824015215762131 3.4157230831433783e-17
0.012395977306357674 0.1332365315509444 0.03421484142577605 0.0032057570254593894
0.014001869797131479 0.06990671752498528 0.019244112488808276 0.0012965299872460846
0.012387005736759837 0.04872498386893991 0.03452695791999474 0.009820424090622688
0.015278690586595598 0.08653500247472139 0.013620091266120491 0.0019074660107271818
0.013708839774958233 0.04880476298145579 0.015308474162161056 0.01050670106430911
0.016160040180156512 0.1897070545299787 0.00899720805131365 0.007368080716104388
0.011641360614201596 0.03646153116867143 0.007150324672675191 0.01395629131745893
0.2161767505386438 -0.0024795095315881346 0.1235977923401125 0.003957177943250115
0.18392331011690036 -0.0022959097243885392 0.029529607541289665 0.0007337353472962022
0.18621644885852368 -0.0009223388447806917 0.08540302021789392 0.006209343092731985
0.2372688284897477 0.0005050845276893369 0.1005404939203901 0.0013312780162681984
0.20827472733729352 0.000565340561992966 0.17050836850871628 0.002204778391146167
0.2133869540162039 -0.0004385217755069615 0.0660567206226328 0.0047915906621894475
0.24321016030577222 0.0020652724263421195 0.030634609615715673 0.0064857624195502435
0.1981550493582823 -0.002877105866020819 0.16482126209916803 0.011897412837318447
0.18708193294663567 -0.0005898958960968924 0.1297646468412662 0.004692824381684087
0.19877822207137993 0.0017467587484555507 0.1035680121229098 0.0010969181579104565
0.23095215125667187 0.0018631900390197757 0.03839170337656903 0.00918100525229337
0.2057246543806811 -0.008401711012291063 0.14267032158250156 0.001745769872864038
0.2500555493474002 -0.005606202268118194 0.05715157961131984 0.0013975897220739894
0.2301010165191287 -0.002768438583874367 0.12426599611846093 0.003795758625847948
0.21084074110934026 -0.002224911082813188 0.03895222064803299 0.000226028974172311
0.17841382624883328 -0.003133338225877831 0.046595186281129075 0.007228943261115133
0.17242565151536424 -0.004642864935129936 0.02916030047360161 0.0006943062684278722
0.21155303728709313 -0.0007146218677754235 0.010490537386479471 0.005004761844764525
0.22613845506671526 -0.0004774303319612723 0.000803049495611442 0.0034376567816369833
0.22839456655318557 -0.0016502180956125137 0.17117852819624793 0.0030419988297882734
0.15435982470446236 -0.006922343866936499 0.23699694013597547 0.02026901772917797
0.15374787193307107 -0.001387513027389226 0.15055087121632701 0.002224763065432561
0.15038380310120758 -0.010198988619351522 0.10053118292185463 0.0047878012561995455
0.16331111000128076 -0.0036862683751862583 0.20175903027698655 0.0033314211753537205
0.15220227695896443 -0.0006647374423858949 0.12409139488710216 0.007376401633144043
0.17801809717635297 -0.005426371232757563 0.18850389016087463 0.00012286833981374958
0.17957422462179398 -0.0015599420184878505 0.1367779033073831 0.0048808885813949
0.14693806270700077 -0.008752497912912108 0.18357715761387083 0.001977176315669244
0.13301637985523423 -0.005289602462506064 0.24599022641507565 0.0059001579276715165
0.16945716214066028 0.00011027854089014534 0.11907624305861483 0.006998328565619932
0.16121174235719316 -0.003094314826595758 -0.01113833968796066 
0.17343901894479127 -0.010155648159300376 0.23501984229569312 0.02688953615236386
0.1604102908700042 -0.011624298887001104 0.07586909444695084 -1.5284892529193043e-16
0.17703765680481603 -0.010432749563503213 0.24509739453809626 0.0019737310433345047
0.2614112686383699 -0.0069239344448150785 0.2354684287741273 0.004210328950884717
0.24051914727513377 0.0010067428680228846 0.26572631727005713 0.0022063776506518564
0.26918449652320214 -0.0026563036975731594 0.28002005678643294 1.138702960233314e-16
0.2654120850393105 0.004113901867131429 0.19388606199636002 0.011654383180815546
0.2485977491139749 0.0013695033584335491 0.19879764723325574 0.0012378257354648805
0.2161214946934442 -0.004816017060203264 0.24899438970140086 0.001475086412624108
0.2717652018838178 -0.004968872087312081 0.1572182733803514 0.004582928004970286
0.26414309960374016 0.002315045413041577 0.13189748321479827 0.0017693109100425934
0.2232910304498868 -0.01085666182635045 0.22167681838122844 8.975134139815394e-16
0.23835987435044656 -0.0007288639128427226 0.17001384636185296 0.0020816402283187416
0.2698327193935733 0.002741543769881005 0.11711028713447826 0.002987746902857459
0.26944369080536873 0.003856261163875628 0.09402230010461407 0.0015927290410361825
0.23950541407696976 -0.004572943102293349 0.15082149082641294 0.00964316672934509
0.26058262975956786 0.00023432132666961845 0.06570134011784598 0.009593312655452824
0.26094658994993536 0.0014360487377927155 0.040891136879024514 0.010991429648336434
0.26107166189053044 -0.007765740204812727 0.4638054878636932 0.003310092707030782
0.24264761087228437 -0.006387749427011677 0.31864738556735056 0.0019417317009802497
0.2505781642531131 -0.004484534474246101 0.5114761909026826 0.0057853334662162454
0.2581978470523915 0.004428501212570398 0.41559911368908115 0.0037923108869422606
0.2585733786440047 0.005257036566072987 0.41119000152462865 0.004379672332951944
0.22506988624666982 -0.011492012611333306 0.33846339715832446 1.415135555275022e-06
0.22903740894627678 0.002101675735793486 0.2888794259814679 0.006073810356604867
0.2508727901862282 0.0010446071295045225 0.4280460147578534 0.01729664820571766
0.26288833918331855 -3.84320693365978e-05 0.30466082279849876 0.007393995365551671
0.23883670984388572 0.0013788919915736532 0.4403328343242153 0.008677827609389618
0.23170624370982867 -0.006274121512090695 0.3947642683336721 0.0022188456863563295
0.26756845872230217 -0.003966782481208929 0.36249572423599935 6.003109326375309e-05
0.22020633402909537 0.00045707363844550556 0.2585379118051219 0.0009037931597339922
0.22395883057694901 -0.002108973890129475 0.36811220691884583 0.001101524956618907
0.21571047291339115 -0.0025873459079728232 0.5514017106922697 0.026618962721429724
0.20233711069507213 -0.002396269258612715 0.481063003123867 0.007802433238936975
0.20317077780307613 -0.0009442430855969178 0.52185563469212 0.014592194170004678
0.21575704560136763 -0.002779504587036444 0.40935089650186807 0.003919536727821014
0.22314683871038288 -0.00138867718226259 0.5146855789820755 0.00961475972603012
0.20654978798101442 -0.001820315549766745 0.4119280997075172 0.006729769255876946
0.1925852293078363 -0.010704690846587398 0.5544639751870067 0.006381292476185807
0.21244432607240096 0.0010738648991443197 0.4851099224455447 0.004124506574538934
0.21488717242014668 -0.0013560978306902767 0.46987251730283197 0.005298229429428024
0.23012530366681633 -0.007955837187701108 0.5359873926951506 0.0032758597673259193
0.2258878981259822 0.0013674842724542564 0.5533868329739338 0.020942287812363135
0.2058560125299697 -0.002075054859985095 0.4597606379007603 0.0052098136089580175
0.27344716157219556 0.0034764761504894664 0.5655949613129805 0.06048672742045744
0.28138874085663224 0.0016821936281625066 0.5371483673089985 0.014374167241877974
0.25426864352768197 -0.002614793282703703 0.569442501196455 0.0294766735878536
0.28906056094472554 0.005910775651702654 0.5155664866283042 0.0019413796433125367
0.28834808220393593 0.006120847651344555 0.4973299015659981 0.004161460281669202
0.2695091057454127 0.0018394319081671481 0.5091612100054751 0.0006605907417660134
0.28697449587443274 0.0009641886042807924 0.4535765102004715 0.01719176052101976
0.27636251276455187 -0.0012516595180707326 0.33294848138782346 0.005736229619107906
0.27040293357666084 0.003369499704736452 0.37165272205550887 0.0028602579940714135
0.2762117597042376 0.004932829701568878 0.42194183034682 0.00035083595372268267
0.29583388613431627 0.007824741973504943 0.40874469058729146 0.0037970491075056496
0.28287927881687086 0.00045624831775826786 0.4583769962459986 0.014688416583156382
0.2658176644852567 0.0005266892035824299 0.47490522969562765 0.0023922659614866925
0.1877470810626336 -0.0026237835180517284 0.42130635438611586 0.00522310433079759
0.15518164229098075 -0.0015658447030971225 0.5676272598224361 0.05646962647747707
0.16270055715425927 0.0037011709908409155 0.4541057408876441 0.0033068375967705696
0.1906336097132108 -0.002248726333226582 0.5175190199381842 0.008931387359564143
0.1981817280361256 -0.005523022081933722 0.34361515618130234 0.0038293014674853367
0.15073081357173332 -0.0028071571020925018 0.5382032019483354 0.010283052539722181
0.19709638447622468 -0.008366283197460168 0.39753797419343273 0.002132933856588765
0.1772289120290827 -0.003101751208763589 0.5645509498481898 0.027892531265641153
0.18163454448196506 -0.004415874138431056 0.47978801627739087 0.005590664549621896
0.1715816157863575 -0.0006321995054582929 0.48325669520827913 0.004847849936846504
0.16542003606534297 -0.002076110371515925 0.5364154716099613 0.016045730178077776
0.18654100196064202 0.0027857502383843344 0.44021204054540625 0.0021185705965543313
0.15320763834222514 -0.0023283875650484264 0.5506162514922005 0.024079411880456595
0.16565883841644055 -0.0012614055009012985 0.5009652410773153 0.005276955936484266
0.1974678911956637 -0.007131128152228456 0.49682815509016603 0.0022395564254852904
0.18468744660437436 -0.0038852111715557314 0.37401653998971107 0.003729806858516993
0.20226807504568226 -0.004614846929296063 0.374290542888022 0.004106853107094096
0.1425065445874852 -3.2758838936372005e-05 0.0056913693169631735 0.012968941405678752
0.12785356992566624 -0.001640973513156139 0.010804020660359646 0.01226729279269716
0.09977707041060567 0.000731223291753221 0.11224358211641779 0.002730724200842669
0.10310692027962558 -0.0035809654147892296 0.1318156443267122 0.006556560894996585
0.10087977154001754 -0.002628719694280086 0.01765238988160768 0.006737738034381017
0.11119865483250581 -0.004381363438292436 0.09947860099716126 0.007438548502135224
0.1167969444743201 -0.008778093705116693 0.18871457936429417 1.7195725514697074e-16
0.12134948020809488 -0.009897283240991308 0.14871748168203658 0.0009756558437291702
0.12532117997665151 -0.011857702106260361 0.05281278838554877 0.00287239012707873
0.14077168329751796 -0.0042334211075939635 0.024441744672186915 0.0003093922622683981
0.0641315610558707 0.005724044356220439 0.006818614395175882 0.005410022370228632
0.08625302110847341 -0.0017520741102004652 0.044744402660092816 0.0037175142863754384
0.07823988350397951 0.0007799038767431934 0.019128046608809155 0.008290147853393678
0.1158256907193281 -0.004487408087893078 0.026416389454121985 0.006273957769973515
0.13394360002891992 -0.004221373167664123 0.15487263867977902 0.004214213187412217
0.12042693903662302 -0.009428109251949528 0.08256499085307838 0.000261821554664467
0.13087379527110335 -0.0029091970417328772 0.12142476540781977 0.014768022067877664
0.11284125252396972 -0.01057141542183538 0.05224834652088064 0.005377718960544664
0.1462955975062797 -0.002028171124022522 0.3066386400012836 0.004905739368195532
0.18321314386231596 -0.0031464045491951583 0.35471130840657444 0.000310179092628496
0.13769309124908324 -0.01874934149582359 0.40482120412646844 1.49742727098268e-15
0.13832406087561128 0.0007302556132106261 0.3481707101770031 0.0035138559008257193
0.14227485720034014 0.0009331706791785473 0.4718526172295188 0.002178457442323937
0.1541573667396187 -0.0011639778213728981 0.32429150800868667 0.016284611779926735
0.17446911450916058 0.004547497182794931 0.28030719967550016 0.008831654458238084
0.18904690778788866 -0.007877656512804185 0.3222053206801374 0.006586025994531428
0.13836911511840277 -0.002084884249159964 0.28471848293716684 0.008927485711292212
0.12894643015904275 -0.006099840727884073 0.3302089544896367 0.010491532933760065
0.13697572658459833 -0.007481841457378579 0.2612582749056858 0.0020359778354394607
0.14728410791991342 0.0019426055048334565 0.44603953227118054 0.003547334091726448
0.1358373710546758 -0.003830751833672464 0.5137278679684536 0.0038270376866277336
0.1565314416543541 0.00011441278924365441 0.4392593307991038 0.0045978067215015
0.16853832558621443 0.001283764060602344 0.42925124670347037 0.0008148424987551432
0.14221547155213402 -0.0026783338451811097 0.5044068765632729 0.0032921907017138814
0.1952311020217251 0.00017955323516292553 0.2808395369667319 0.002443217683485243
0.20572830458464425 0.0037658952718948036 0.2938984012631684 0.008580860720444988
0.1689124478670749 -0.002664025848402083 0.3868054615840798 0.014341979989396984
0.16309965945306354 -0.00440334788575927 0.3394301288390129 0.005495642396680707
0.16634975379005204 -0.003498832809165353 0.36375801103437894 0.0020791063408623096
0.15898196564225925 -0.005292690234471027 0.4029445062778342 0.023673110414100505
0.1581350625448711 -3.506937211454294e-05 0.27120005320618557 0.010224887560282591
0.17807157761769687 0.0006430990003722536 0.26203733110481714 0.0033889186147050693
0.1594227979097507 -0.000505343306544766 0.478780785745099 0.004145102267664381
0.13164143114352664 -0.00048716027844137146 0.4488105077313511 0.002647505068961487
0.11357975095396909 -0.007070337357749164 0.4487932757250915 0.007523265769917096
0.13480351084416642 -0.00218205704688727 0.5462833718161686 0.012179941461333317
0.11846127854334805 -0.005045851472456053 0.47017021375686074 0.0029228998130163483
0.12414408798558962 -0.0018701177536289487 0.4433418080470011 0.01022087789001249
0.08718577055786479 -0.00045595227093811475 0.5331922367522017 0.008880955519950004
0.136828809342221 -0.002639675468740172 0.48980970178981903 0.003286302587122584
0.09180919135995214 0.0042689522027488545 0.5562731987445855 0.03901336697961819
0.08961179854673233 0.006505463410610481 0.577014687399402 0.0186854480375903
0.13203447038024294 -0.005146602142409808 0.5180712306871178 0.006023161289748935
0.10567076182380322 -0.0011874713380574382 0.5183472844175164 0.004188907472187924
0.10440413413938031 0.0044983283058757295 0.5390224990855096 0.0035379270398251915
0.12725567476432756 7.677532708439273e-05 0.5710268690865492 0.017966104596172552
0.12055226800937147 -0.002950233470174191 0.5138492135117841 0.006759970159147741
0.12116182379387166 -0.0037157298164625053 0.41281086999121946 0.034039349489100514
0.12784265488165805 -0.006546546087717377 0.5069745169042695 0.0030606027763041103
0.13780382343184133 0.007969133709371943 0.5708630756473397 0.08114735684642724
0.1207858953351209 -0.012915313307210038 0.30840643612179386 0.0029903669600601307
0.08755182701487021 0.0007794879091945744 0.29226651126006564 0.0013764482735074165
0.062259922891015416 -0.0018142341726841175 0.2823334022060614 0.0017968518511692797
0.09863916026173945 -0.007981870876837898 0.3477399562326219 0.0007121552233149466
0.08637369206650986 0.0003655045117599686 0.43925245306002747 0.0034708671550430902
0.08316576620304897 -0.010710790710948175 0.33740186505391373 0.0026441126530786815
0.07619331586577212 -0.0030520956971936113 0.3804317333810609 0.004145344463864616
0.10572375074735255 -0.0020779869985607068 0.3662482963869657 0.0014902132950596336
0.07604680115416775 0.001637042879115359 0.3950616845667269 0.014405484831307635
0.0905574208922802 0.0010837497994992474 0.42105315347464295 0.001616045325810019
0.08920002270069402 -0.0039988487863999046 0.5112946271143762 0.011329932792725083
0.08785030107528866 -0.006938112171263694 0.4643586863758633 0.003233644876023469
0.09876239632436457 -0.006479117633017685 0.3383843460860504 0.0005400256574063966
0.049714612671605735 0.0016892278390191065 0.5693328167045771 0.08793478417509382
0.039890239353763846 -0.0015333996127168273 0.554717760859382 0.055432044364689
0.0430455966259249 0.0019780646279396784 0.5416054835858363 0.00779726602920907
0.04544649089665215 0.008470584315812806 0.5193312238699891 0.006485245539222736
0.055146551694545194 0.005934571993535447 0.5232074568478582 0.008807766907281502
0.04694831933235295 0.006619434635995634 0.48802239745633613 0.0058495588915009646
0.04571572147800089 0.0067266356146176865 0.4955815842484082 0.004411978434544707
0.0695150426479658 0.001961331046724 0.5524298400663389 0.037977717929733694
0.06798017792621082 0.001308620341701528 0.5210510854237854 0.0077142690247148
0.06383733097463559 0.004018481790499838 0.41922652517863684 0.009305375286150106
0.05096246888731021 0.006449148256198304 0.3214101443001193 0.0033340033547950214
0.07649182153438672 -0.004793458210903206 0.5110552384912105 0.0037896131050856887
0.07078821799837234 0.0041816240237563555 0.4785613776266471 0.005054462603652595
0.057832831585738 0.003479169416490706 0.366640013308226 0.00030727258364682817
0.052947365135329015 0.006794229015708702 0.385044296338383 0.01104448156892991
0.04625747327770648 -0.0014643108153282094 0.4178151528055043 0.0011161508335764108
0.058534873601488256 0.0006290186963813981 0.45180415088204556 0.00897703152289517
0.06004732936459271 0.007160849088039869 0.483920503547842 0.004037338789238085
0.10973771502540725 -0.004067923913391164 0.25851161570282577 0.004856504564755939
0.08465189033398186 -0.009069390769043936 0.2677113189750466 -2.3104823141674996e-16
0.07139180737244079 -0.0066880571284124455 0.22408716617776198 -2.0880912809487485e-16
0.07214934816567137 -0.008425872955442809 0.20940890079405766 
0.08022688007503415 0.0019044643016073756 0.17113318424660273 1.535907999439696e-16
0.07425549787162602 0.0022697891537022466 0.14616863617725295 0.004682900052529935
0.053791552145889036 -0.002650340286521876 0.1369478865456366 0.03377246884514667
0.06564911185083447 -0.0019177943748351148 0.13943802838448843 0.005277960148653574
0.06575368887208326 0.0009184438581671642 0.12024451558857495 0.006006190667610712
0.10427350535337589 -0.004176356672514513 0.22474528529561286 8.104176180845635e-05
0.08040174039468279 -0.0001893340209280685 0.06857476299173017 0.0007791099293352243
0.06762617011284172 0.0024317103371378876 0.03295297791385736 0.0009744771930789174
0.2949739413377471 0.0047918329851994925 0.5473193759696403 0.0421538752488602
0.2898158427918723 0.006567554573155722 0.48755676330165915 0.0032658632536998015
0.311703014762456 -0.002570215548480713 0.5558678591591457 0.00871641860069284
0.29154515265836933 0.004911277475236898 0.5048820639200312 0.0016400612693131078
0.2989430061779592 0.002696246668383958 0.4637487551671017 0.0030542186164132295
0.29108663762699677 0.011029248979531794 0.39361418443491003 0.025957894948070187
0.29094916328938053 -0.0013807362026680946 0.3190388583132793 0.00855543954290494
0.2769623121761094 0.0012609436810445762 0.20683924832715708 0.015209520687679721
0.2872609883527495 0.0010846335897758894 0.15820242506293136 0.005805763412572409
0.29985625151676043 0.00845676516186965 0.4060960799089156 0.023971386798805387
0.3047028769511002 0.021194317370964562 -0.003906238336046067 0.018337037434907003
0.2842552850133824 0.0034153919272852775 0.1168576891193677 0.020339876596876465
0.2974651994248911 0.0006307225153879652 0.09324338678147275 0.0029983976002871376
0.28928560976430356 0.009121092091272851 0.05462725449679876 0.021176511284217995
0.27539938702312244 0.0036080492195618994 0.0855808097887097 0.01131435063423358
0.28266786063891264 0.006697297511799557 0.015686441342303355 0.024546610929460158
0.27178244647265193 0.0011070591671366922 0.042866006210225245 0.009548078753428398
0.31403001299927136 0.011479408463773091 0.4087713080165493 0.018303997054594554
0.30355021974679675 0.008987067520741791 0.36676713935675453 0.03992159107728883
0.31544856467579024 0.0059323504366401054 0.3355601205050667 0.022591609387630645
0.3049917128515021 0.013068098382141458 0.2802254456550961 0.013203599978291677
0.29772963332683217 0.01013377632967272 0.37846908261671885 0.03220087184427808
0.2898323431006318 0.011322595854722494 0.2468977315201689 0.003456618203683699
0.3042258198135514 0.01184035416549773 0.19401605052912038 0.012541777138383482
0.3005844202728008 0.008143667917980699 0.16598205280758324 0.0013518818302810293
0.3005820736980201 0.007341291121036394 0.18334423704179803 0.007288726489224645
0.31510344460756146 0.015829650140323007 0.4288102857239837 0.03388239786424238
0.0639476336026122 0.005833579799876694 0.0001862053131735375 0.006349522025767326
0.06372713703360303 0.0017961664980173592 0.039339493383859454 0.0004934045670601572
0.03756936825502271 -0.0020475738279535395 0.1334996600048992 0.01352455460413812
0.04177621580311583 0.0047202699148320044 0.16759673928684263 0.021909770038637703
0.02772795507739454 0.007983822564800482 0.071722982373791 0.054557142172360074
0.04651649123262622 0.009563449986958336 0.003071059994858969 0.030444319037910873
0.036952331825135014 0.0074445404272400284 0.06541000376626364 0.008161551032433788
0.03260745458920156 0.007139377843368655 0.20100835730642636 0.003154537276829122
0.028318490978547675 0.008320756073581626 0.2982360107026815 0.004864464976220384
0.026702088626139136 0.008566825124720262 0.34071412576531884 0.05029558374526148
0.030954088993677194 0.010618041641492004 0.3730802669361554 0.05531791744977283
0.026357912605129024 0.010964835475645316 0.41955111722795135 0.02018303702219266
0.015930300171587624 0.008032220841773848 0.4528329488638506 0.0279233827800269
0.022278039503577256 0.0166002821712409 0.472859859313411 0.035620016560887646
0.013593041174331532 0.014932954833618627 0.5147844608781688 0.027475993682790762
0.02941032251894446 0.012272665423759458 0.5176213557667897 0.011762509812488385
0.02598074948617365 0.007585025899912847 0.5402280990142454 0.00791671733534034
0.023570907038504434 0.003249597760021771 0.5654161039737848 0.03977782947667927
0.03850275141039275 0.00854918405696848 0.4827290174001178 0.00974058910354347
0.02404386594461603 0.01194948206074631 0.2657058945448825 0.02888525855244104
0.04003171087671776 0.00741508121922361 0.23623781227127136 0.005813339026948373
0.02926413231956012 0.009525569780945896 0.39849303096181016 0.015167737924680557
0.024056073589466976 0.017384846132948776 0.1847022954560226 0.008829368908345214
0.05630317245474118 -0.004219786433546952 0.0793487686547505 1.796492818005553e-16
0.04143603868953973 0.007102266475956968 0.4703186676740831 0.008856353150319176
0.04509030998017303 0.00134042941825683 0.3511836546785589 0.016542113707284915
0.03395895995100858 0.009099161818359257 0.5299490621613293 0.006436620009162567
0.04947854398923371 0.007925168302862223 0.2938795676743239 0.006982497026498246
0.3095642164542874 0.01441762894988986 0.5771965857769963 0.03235215951901063
0.32426676946138167 0.03863779048334306 0.5797798138301488 0.039142785077672784
0.3265590077140783 0.05181447375289927 0.5804834651838882 0.04762060700906213
0.29377056010983826 0.10934525165009884 0.5874425593839093 0.04536456592638932
0.30892273074261245 0.0813439736802762 0.5882499417941098 0.013770143436764998
0.2991954516411676 0.016476514104150512 0.576059878130158 0.05102899883244107
