x y z curv
0.24538595257616277 0.01270443194752734 0.8707940761001904 0.006655112071151487
0.2573470573106366 0.015092945696679405 0.9051770705412505 0.013273000809130008
0.2473877299955617 0.024125970362530315 0.7579989347897954 0.013825686887550207
0.25717163033290014 0.006626622982329934 0.9218888470261669 0.0363332668388011
0.25588459226178933 0.02035182862436879 0.65769271650641 0.016778863458997307
0.2779530457429925 0.0016558787058431855 0.9277782025700625 0.03387281963173212
0.29596517408011075 0.012833501794592302 0.7379483782811679 0.015301391354272323
0.28867955819168134 0.018545752416689237 0.7869064088361701 0.01038641888807175
0.3008558200675045 0.01949866381353695 0.7204032112724187 0.022651656067047617
0.30069485028596304 0.001275099638680768 0.9309152047901392 0.011469706926645812
0.29729141416268673 0.036667797140686624 0.4209477685034522 0.0057026014396359395
0.2946163577212306 0.035317882544180286 0.4444649228029038 0.010188601239356568
0.2871831622762615 0.01646987460687211 0.6790328559708452 0.014440507148152985
0.29704780583044227 0.01720419121343674 0.7616583190435744 0.013419357721479586
0.2897262295798981 0.016034608222603393 0.8585875658027813 0.0072225002311865185
0.2990370444443959 0.0239408121840591 0.6088519417861408 0.0061558317082935484
0.27997621280752333 0.007883304368824187 0.85721665178134 0.006554709966174949
0.30067648632349214 0.04154334043386686 0.2790310362721871 0.012544888003805451
0.30573692020937887 0.02960426968434607 0.6439897071109891 0.020376450342374328
0.32020681057036726 0.03625781920114989 0.5465896384943193 0.007474562416276167
0.3306985203508815 0.031007109530750688 0.6566531350029319 0.014680510751009375
0.32552350359284654 0.015595162124643588 0.8222542541674108 0.009325726340037482
0.3198312268506393 0.024846924212031368 0.7044570329951357 0.013061979684039684
0.33627517581772004 0.019170366928092233 0.7919225498783202 0.005825339018515834
0.3152045482630764 0.033083528033981784 0.6233126313255614 0.012850192783557883
0.32634995590491095 0.020078725988801203 0.9296097887448432 0.02909967879392104
0.3293111212972712 0.025146670604307697 0.7786342840811286 0.008009172780142753
0.3295383231741945 0.010105374717400058 0.8650512694602409 0.0032476732834475336
0.332113989761107 0.02487637696714337 0.8104276084907348 0.006354112731732371
0.32061673599051926 0.022961651082257555 0.7370495894016497 0.005163891332699078
0.3251976008138608 0.0410861069226405 0.39274633717595286 0.005608950501631737
0.3200406794578303 0.033309316853547176 0.47021108422565455 0.021011986932017723
0.323445933205394 0.03269212014033511 0.5009606423816532 0.02367079363814293
0.32069019891520356 0.0163881733087315 0.8886619866382406 0.015289375683032909
0.3342921963996631 0.05426208346056659 0.2633454401632088 0.011809531220432743
0.3357648061959104 0.04562789465275092 0.3238517370705294 0.016109062872838073
0.3324583614154777 0.050292099303230475 0.3685697769141756 0.008360230377424603
0.32900865442489485 0.05052263412279366 0.2962876044028745 0.011556592130984283
0.3361645162841542 0.05738364308717245 0.23803345134176684 0.009233985381181656
0.3369181956428933 0.0428542145202694 0.44859410760734814 0.011624246802042201
0.3463224663737602 0.01259073061207268 0.9068207416620078 0.009281103020701204
0.3358055439032654 0.04691172948458493 0.38220117842251355 0.005934735528935138
0.3295660458735327 0.040641439489912196 0.41625522424473826 0.0064488116070361475
0.3519551386617792 0.03643101379781667 0.7696594915259833 0.014806672146536162
0.3298637454314416 0.04847443717275513 0.21710840870939666 0.009418980524432774
0.32854046258110764 0.03633246482959666 0.5461210257230551 0.010156957472059653
0.3310228630925675 0.030014264844475246 0.7444317053304301 0.00422057897364372
0.3341126056978994 0.027915444874173672 0.4860713150930534 0.011971950204058725
0.32455634885799295 0.030355125819800977 0.6007779478034979 0.007838784237650285
0.338913779930364 0.026841098415637355 0.681026801643569 0.011482954572903568
0.3344329587040939 0.028135550212918362 0.7078174160241568 0.009202412993996037
0.33039768424536775 0.03773316771286367 0.5636334946318702 0.007654462856149821
0.34279753041866373 0.02983112939520864 0.7748126830669531 0.011498373602272759
0.3361402174172106 0.028280306058693475 0.722042365215876 0.00699588266554963
0.3338578832527023 0.0411984412155228 0.5204161087058797 0.007220700832303616
0.3351241616212183 0.016233242250400223 0.887548368503345 0.015139720433690624
0.32903179248232023 0.02789986862990089 0.6387017665464809 0.013562539767988945
0.33013445929869645 0.05020972815275514 0.35403187467606173 0.01073498438865251
0.33169503015349056 0.031196440139687837 0.6698882536484048 0.014164627590835534
0.33183153112633523 0.013057926249337128 0.9070032366360297 0.012404029252085799
0.3245510419494119 0.024167153049609882 0.760012016247951 0.010384363423065259
0.3387297665086865 0.03404805959468982 0.6061966824976106 0.010679752819855375
0.3285576449744788 0.03469968706295368 0.4316219928588968 0.004549896577644953
0.37194247451171725 0.03659277314091857 0.6987157414959363 0.008940346693556643
0.36079873977836413 0.0430042968678573 0.5934621802641022 0.011978083058958887
0.37376784386730555 0.03552501788810018 0.7330538537883945 0.009319365174965783
0.3572369845691584 0.048534684511328204 0.4007742798543168 0.00546119548870499
0.35619534798642294 0.0331179574545741 0.7881754857464415 0.008232756048786824
0.36741430325587016 0.023094197688356684 0.9045841293039479 0.007849041909342349
0.3676847645528625 0.031124491210133096 0.816321880338723 0.008035122889339887
0.35959516331463603 0.0369235694330208 0.772481706197793 0.012756941461648574
0.3601249474144936 0.030148395777983367 0.8015359078976472 0.008491393274005632
0.37100272137762186 0.04026834049182183 0.7618963907201437 0.007849124443612106
0.35801872038705734 0.0494928148834009 0.4864117875414677 0.01208304349239302
0.36914268034870057 0.045900145509310986 0.6307155917667755 0.01012225525603181
0.36313592675590844 0.02441417593612057 0.8508425062416476 0.015409860423090027
0.35022543446229504 0.05542272221822595 0.25325535845839237 0.02642588057477298
0.36411374680109965 0.03710323709168856 0.6847787852263642 0.008293333107980172
0.3690832181433745 0.04147424049349788 0.6677964868350986 0.007498825583470154
0.3806544614724547 0.05075222714290986 0.449565141170101 0.004381656243582877
0.3840232670784393 0.049416253526944044 0.659194053859493 0.006380632438950249
0.4094161259592617 0.0428881836706346 0.9115762846526625 0.0101733157328731
0.38428472352983883 0.04430599294258674 0.7556388687771128 0.008699377884918322
0.3909544365250534 0.04114561542039151 0.8043177958368093 0.004307940945644586
0.3771035355516502 0.05450272031524504 0.3383073858587159 0.01467639068381358
0.3882264675680028 0.031917664956745515 0.9207335442248864 0.022299487237129403
0.389595364648122 0.052849179852767436 0.5748465723885559 0.007757199507537246
0.39077781509923404 0.0505579604244205 0.7133202147711599 0.006359854900814189
0.38842052948838546 0.048284779043387564 0.7837846935018107 0.005076403217410009
0.38047833505006745 0.05968857363022568 0.3996091730186815 0.002200264769901682
0.39088844787451976 0.0548334899027406 0.6034350767098391 0.00793839277707987
0.3831178728230794 0.05218818538724218 0.5304268847030477 0.0038239099202825757
0.40366945615369254 0.053907181230081175 0.6798110773888507 0.005385051289480602
0.3976677729142891 0.04360318556617446 0.8838709274069558 0.009616940950990657
0.3982995105360077 0.0457723427819364 0.7973553075749635 0.006895335738747508
0.3788527563900496 0.04294378710596986 0.8023358635175626 0.003574849441685784
0.37932977675660134 0.03136049555084019 0.9036647731699363 0.009249308468192457
0.3907434929384039 0.027785827280041406 0.8449669699013125 0.007194870990636677
0.3830623957695517 0.04396648510124002 0.7386972861015871 0.013219401052174224
0.3857393580912825 0.055432513555276924 0.628027409504369 0.018203345671289065
0.38577736165283194 0.04574091378071126 0.6915705416753325 0.0037974004964443815
0.37824809283824945 0.056392436508337807 0.4211300657679985 0.007230896609633857
0.38663348483159604 0.03737160115788849 0.8904147880207341 0.009993080801873637
0.38796119602839124 0.04747073504247904 0.7236781916822935 0.012556218852647648
0.37962528124211703 0.0264486183990867 0.9372770392252148 0.03439785849609877
0.3812000168819718 0.032284968052773054 0.8940422752435334 0.011092520115509456
0.36980877088357333 0.033634713690536715 0.8677616152672502 0.012574670433740628
0.3821810381396435 0.03302034624046935 0.8655999667974161 0.016448686626538547
0.37835644850941746 0.04666201846941639 0.7639671414315525 0.007285468721737754
0.37473014029303275 0.049789641150362274 0.48500591172991764 0.007751480091589453
0.34452264855816955 0.04501347997334233 0.3303970130639129 0.01484475291049461
0.3535001349866036 0.047793400984810275 0.45878607106873426 0.01699352403611321
0.34351110251342193 0.04548814055523922 0.5379126049235227 0.005814910368934744
0.3481386498198562 0.035236386627170095 0.5781258983136529 0.0025514839600639587
0.3515730386580262 0.0313376355877768 0.7231794349720566 0.010377789396616125
0.3523421274630727 0.060378709181431844 0.3698231117393995 0.0031833905626779766
0.3524487948828348 0.040295426829244356 0.5153438284838168 0.011345341699041847
0.3498407963813528 0.04005996361959528 0.5289832659240071 0.004970890513984453
0.35289625732205826 0.04665807652949701 0.27884450496770463 0.0026462738420881746
0.35604764579271075 0.03213817034816024 0.7187876254045381 0.011419549826903474
0.3522217507596511 0.0292505126221022 0.7455704743221869 0.007034116685672289
0.3593114475331547 0.024043980887454845 0.8792420783010771 0.009330627707376455
0.34159778977376304 0.051526959315329315 0.3090249778016688 0.015978359167848323
0.3558052468161524 0.03019418112128308 0.6241027309291076 0.005970755372786815
0.3447151335086539 0.04650366699241198 0.4186215616778706 0.005983236206131591
0.3477332022272718 0.02848997638716415 0.7849869941051317 0.010713710488782934
0.3592814956096027 0.0384826498274686 0.6485882379858259 0.012230667865901799
0.35098939184047934 0.02442733493338147 0.8869406883334969 0.011061152814071907
0.3495127003759074 0.022271021433809414 0.8678300846848822 0.007283011107728383
0.34764109410382743 0.04246004300199914 0.565436649391119 0.007515802731705578
0.35679235458324265 0.021959846898371285 0.8291666688965694 0.00617783356591323
0.34542744221113436 0.038581874236171924 0.6932178402100094 0.008293369047584417
0.3488575164334575 0.03551112958016633 0.6732159849739913 0.009425638686137395
0.3613868991768607 0.02800354811901832 0.9254364453938568 0.022953148943612084
0.3389168269598579 0.05351056245439629 0.34488907063262025 0.011707898608720804
0.3071162036392379 0.019125468937441704 0.804332423056964 0.008219124524730722
0.2960473689274307 0.027532220790427702 0.6250357912491398 0.012876681415398382
0.30286231156930615 0.01174801836129683 0.8832787180516599 0.009940606140481008
0.3066170607643464 0.02229014350759625 0.6920963019329488 0.014969549663749448
0.29681925752405103 0.015035951845035131 0.8133404855246588 0.007530305717382513
0.31501399579437894 0.013014200243123667 0.8367262330458586 0.009665042609138929
0.31027009224389535 0.019033163603377198 0.7813178038381067 0.007030412943134438
0.3077318358154322 0.016055112454295414 0.8386211726679172 0.009546992155060927
0.2990105422917003 0.012188335057738794 0.8909426792304672 0.007298429908341309
0.3187389857093762 0.025429806872546066 0.771375270019873 0.012217620747778461
0.310431472492802 0.01072941330465818 0.883090897069934 0.010947696089082744
0.30671808175864496 0.019530593255329784 0.703317079316957 0.01421951353945324
0.4248591380497816 0.07875695769280608 0.536375295978578 0.004248809428242808
0.41608105673673645 0.08868298668739759 0.3699795958715011 0.005052860987528374
0.4186034403297085 0.087607599813461 0.23535309941371385 0.004133139377797945
0.41634531027675226 0.0822384274301389 0.47247743008317356 0.006419262637388372
0.4268019119151164 0.07642618127199138 0.5244329431037392 0.005198995621905396
0.4164030348917665 0.08037233864072203 0.4544549188826026 0.004635830376176284
0.4126226516282856 0.08666722802503664 0.2806548806379342 0.004332573366931771
0.4260173075061762 0.07724903966567688 0.56717668939617 0.004100497096887682
0.4167420155298529 0.09264874270710176 0.307334089464227 0.004181569309570392
0.4165774987430454 0.07894992362618393 0.4009039780103218 0.004000372697558396
0.4244991870092371 0.07831095195336725 0.5537291283552145 0.008698381827432445
0.4259879960265822 0.059891793961483586 0.9262799433427017 0.007488873993167915
0.42115813629666404 0.07462255622346191 0.605771399650947 0.01613483048185
0.42430374056319425 0.0723698710645358 0.7705591917172728 0.00310407858954538
0.42977714826390084 0.07650585012763081 0.6400815743990895 0.021499575916414566
0.4273360088483154 0.0724155292312063 0.7526667001825365 0.008071023261845242
0.412627264684996 0.07700127708699957 0.4329763907295181 0.004993490535989297
0.4354657167397175 0.06194399003872006 0.8279303280859093 0.02408914298235384
0.4433715435880504 0.05823041309447437 0.8612884797869601 0.008434240335003854
0.4055743689711793 0.07969563520597159 0.2957992297785416 0.003015326262306752
0.42610188400470156 0.06273184725043282 0.8929627631226518 0.015990125412824754
0.4295264007509155 0.0646834943545169 0.83305691281909 0.029848012681353273
0.43357320629347856 0.06467082398984884 0.8852541197929471 0.024164934424998587
0.42037897530586704 0.08734636644134662 0.3322438794976958 0.0008305714775465782
0.4308983383703042 0.07423147230163511 0.6064343870325465 0.014078787533969895
0.4262517311172433 0.08839513943064095 0.40023468823883124 0.004947392886638712
0.4262467696168255 0.09239741849123721 0.4674255772060997 0.005999932847133936
0.42399160318149015 0.09384591594252102 0.36344865845889857 0.006094591166896911
0.43766973804205134 0.08176867784934802 0.6292996131379148 0.018722251265998302
0.4426684133179856 0.0800027210955823 0.6956716648644058 0.005301022604574418
0.4215209552220742 0.07710300681503379 0.5310689176504637 0.0057026711529058124
0.4241904894223759 0.08954116033110644 0.4211057035680033 0.0025618498604393224
0.4443246808896518 0.06982403478993301 0.9188319049163343 0.0017527521582360337
0.4400662906274858 0.07598190303810345 0.6827488531134925 0.009999341642174241
0.4416491468006556 0.07246987198466252 0.8933545909428701 0.01444733031352314
0.4360987569240312 0.0732676869782831 0.7260398452581351 0.008983997361018337
0.4253414060956321 0.07462796709300618 0.6193340649652561 0.03348375718178172
0.4481778891046488 0.08123757107180056 0.86663554348373 0.01874118697664836
0.4316829968004002 0.07169919690153398 0.7872505999796556 0.0037868041232322672
0.41918677797382037 0.0593828961615558 0.648566365434866 0.006935519566238294
0.41994703730935345 0.07429347709109223 0.49723083381026195 0.004834161054713707
0.46583365145316113 0.09190369971145607 0.9083124237255955 0.004775019375716641
0.46273278503791265 0.09588423885363671 0.7742035304097123 0.005276141057106547
0.47228249648078924 0.09398844412387264 0.9417739663051389 0.021581766600236238
0.4583248493367181 0.09387217616090038 0.7633193744496785 0.006388360662573588
0.4607794891290189 0.08820174897071925 0.8560162032747832 0.015379122806710263
0.4459992109874631 0.10490506211334538 0.5118436538239254 0.004473787790043223
0.4543253871060772 0.10516305610013506 0.6380163199823071 0.011211338444816511
0.44155549293307167 0.11219478917172802 0.3091898957933792 0.003973841727802502
0.4489779352693833 0.10056223545796893 0.6268127164374535 0.011464396958048767
0.4501240401105963 0.10965017418857544 0.394173676185525 0.002778777643229785
0.459729796342296 0.09463385537761057 0.659654029735138 0.008520626442566983
0.45384895875216946 0.09223295423716293 0.8257289594941393 0.007667456111534045
0.4480719627055829 0.10201960301826749 0.5428721264800989 0.004449733473053646
0.48454645199817575 0.11633689137386764 0.9235268798334897 0.015704431415633827
0.4827966709107518 0.11137074155997989 0.8707761452493114 0.009934433896652651
0.466802708566241 0.1274270904381477 0.4853059354714561 0.00678330792758123
0.48094769684104216 0.1070347743843011 0.8983747430411352 0.006915702868294283
0.47396392020090405 0.11026968859487034 0.6663340828125379 0.009383158113766379
0.4667565227187422 0.11077965788826274 0.5631923896628381 0.00583692401311932
0.46656368232694023 0.09539977036845942 0.7174429454937208 0.008825928672079292
0.4691981810498719 0.096379488127816 0.8122713932082591 0.005618985713449922
0.45224903876568584 0.10033183855151445 0.5999476027720487 0.00650078399872314
0.47230548241074277 0.09849799888384565 0.8675755983006923 0.0036917589295409454
0.4741246582317603 0.09941994019253828 0.9064067578720459 0.00475778106780776
0.4679220457969471 0.10514918732994688 0.848973635628576 0.008189380218956687
0.46432188121049905 0.0950708180961805 0.8865898821433007 0.004916837485887476
0.4611653745606146 0.107541901423619 0.5826692800973021 0.0024674884380647224
0.47849837819293106 0.1151985776619431 0.7913260800397862 0.009316238734039842
0.4617006311161886 0.10472408565237412 0.6722337410817667 0.015137825275685577
0.4493600221770079 0.11236212489852176 0.4776715408750334 0.006682746808455994
0.46869633806659944 0.09858121722351249 0.9002506855687833 0.003378114756985687
0.4528383434051702 0.10373400148080955 0.5339342025114769 0.0038741882495450263
0.4586416705742877 0.10036596363106617 0.7351974026873316 0.010352555738578047
0.433604305990935 0.10135085564929608 0.4245732855023601 0.0017130803072035476
0.4586362336037379 0.08468494732065109 0.941761532547464 0.012920399689618922
0.44355392216866846 0.08936242563300843 0.6556964346364352 0.009620710407398482
0.44843296759489554 0.07522496666354789 0.8993091171347075 0.0034718755375672357
0.4347208937065305 0.07979753810413323 0.6708524070503058 0.007520755498027571
0.4334744121264694 0.08838201262154627 0.531958364046578 0.0066125911888336945
0.45232083915246457 0.08261615505433197 0.919644608373437 0.0023724168536632464
0.4424329431045681 0.08407194470293787 0.7626563603216422 0.0062844340015449415
0.44700075212545026 0.08203049106406052 0.8381804317968556 0.02303932431752711
0.45199147210554363 0.0859996551573087 0.7785495754732292 0.0022189119718616607
0.4330230308146245 0.0795535913737339 0.5945529990363433 0.016509042310898163
0.49207639956206833 0.14741075652335006 0.6865989098929768 0.008690461546683825
0.47958961040146186 0.136222008866208 0.6110591161031684 0.0087919157570511
0.4920045346075592 0.14239418708853263 0.6724959770796981 0.011714946487186002
0.4811274121711173 0.13725832997487214 0.6926910260749669 0.010870740754107398
0.5025640660926909 0.13092701171170235 0.8903420545797576 0.0035225950394016012
0.4969567226417665 0.13658182743366354 0.8792934700348739 0.01125677501884655
0.49000317330421916 0.137872570628083 0.7914272480631677 0.0025034540111608817
0.5012879674213541 0.1449191207024997 0.7820448100489408 0.0059591410553689345
0.4830771361701879 0.12791823137425026 0.8014466675044654 0.006110530731006276
0.4806028214931836 0.1384913776942083 0.5091870093818384 0.01695146638521649
0.5051777084665082 0.13064111520866495 0.9263328081387667 0.022462388688582663
0.49568965413132343 0.13446516517072854 0.7629428141084386 0.012514064101912109
0.4898225475116003 0.1354686476894726 0.8691001167306404 0.00972108432808821
0.49027338748272375 0.14289831135334244 0.5890142093916325 0.013886334796682848
0.49620075318800533 0.13547125945305666 0.837029851505017 0.005870995869884846
0.48570861911789626 0.1567549555536829 0.3997174822133919 0.0011602970252021219
0.47910692631999646 0.14975716467048894 0.4505352356889559 0.003601980781558113
0.48277455003197906 0.15933492823708084 0.5071642753902662 0.006319749860913909
0.47707781828014634 0.15501332491176 0.4329058557583127 0.008595660591858659
0.501628424021554 0.14151688487085373 0.943855670214096 0.02035164074098679
0.4971268839090717 0.14400897821052094 0.7189934357159465 0.012704259969222855
0.49408394764786673 0.14693627911997487 0.6453386329884758 0.012158674075003107
0.49774836592063565 0.1529404367549168 0.6746170201175304 0.006885348462008882
0.5015088774774177 0.1522202725574958 0.8645970712567933 0.013847577062666979
0.4997727104580229 0.15108780807331013 0.7946714320920877 0.010556890101285785
0.5128505335094875 0.15881626516917613 0.8238158201342783 0.00530471308610528
0.5212614702122829 0.17536667009255613 0.9487171076489223 0.01462262146427479
0.5067211710807732 0.2061062374115846 0.4062954382678501 0.013294197750890299
0.5182655759535384 0.2130448473651365 0.6501302215498471 0.019887093536266026
0.5109246700446676 0.21184000528022384 0.5889353689867872 0.028684521307933877
0.5314687993298376 0.20709744229946542 0.873600831291924 0.010774713016296822
0.5230190327142136 0.19802950022318663 0.8086629004680606 0.013413967281730388
0.5179340415448755 0.20532060099478147 0.710461055280877 0.013343331018297993
0.5268706212537149 0.1995699986422139 0.755428231468175 0.00427749988808635
0.5312824134461179 0.2085800110871246 0.9327303836019476 0.00845185305749755
0.529245932313373 0.2049841806614702 0.8244959313298493 0.013790223419942875
0.5099795955511471 0.20749151921081638 0.6833102893515157 0.009911594407654876
0.5335609143663471 0.2035687131349844 0.9570618798655219 0.014649362901538053
0.5014384068940757 0.20999241927594667 0.3139097967471367 0.007378436134041179
0.5027820837636893 0.19231713699517664 0.4363219089606556 0.02225758130908823
0.5271487813450814 0.19544102309122577 0.9046762430889554 0.00828675007788216
0.5177032855628819 0.20040585966143265 0.7948764988920844 0.009734633956732656
0.5182501257566973 0.18942181208182357 0.8067389252249283 0.004547869951411035
0.5077924901657606 0.1940406404266178 0.49327968870116606 0.018667154579568974
0.5229778824660474 0.19218204165669686 0.9490986537203187 0.011829832986322161
0.5134679159512019 0.184741190773422 0.6917443229148043 0.011650568086446489
0.5264988216062345 0.19509145828626176 0.9186094963917397 0.007301920090995149
0.5346159150061277 0.1989651838780893 0.9622265308981721 0.012425856145751629
0.5259946857806991 0.1967695309289061 0.9013739164208885 0.008130299042904292
0.5203816330255899 0.19134290695076633 0.7055643860029018 0.012045463432624382
0.508114979612891 0.19992514775750603 0.5268211563100372 0.016234034342352464
0.5179520322517384 0.1956021001859778 0.5953630602772729 0.012164130708371022
0.5217086065847294 0.18611941718790873 0.8505432122166089 0.005777460547265698
0.5258974200628518 0.19060935317665093 0.8827980875593094 0.009313340090049879
0.49466201741412913 0.21310115961475964 0.3545368486102744 0.011560091799509776
0.5268847539037039 0.18691476245985514 0.830150670152605 0.007839097305323044
0.5132358589625181 0.19490913499480045 0.7327542193763856 0.014608003949755614
0.5075618918937191 0.20716385505610496 0.43697295365650357 0.02000963997286759
0.5064673631002995 0.19969800225206727 0.46804841514308615 0.02321292089689178
0.4983404803357285 0.19465889208563003 0.5609933779788397 0.032279795871868314
0.5159464983660207 0.18338334526716948 0.7766571630846453 0.013334394550623607
0.5213742860885127 0.16834720374300838 0.9413057629533473 0.013067708809171715
0.47784809909212667 0.11449203971243155 0.8090007334905448 0.012174879131285728
0.49803114653428143 0.12808368979482196 0.9425958422476338 0.03628107354191291
0.45923268182559673 0.1267040988420387 0.41221750904976606 0.00985851869831898
0.48320667837074516 0.11575138067214473 0.8315399247152698 0.011771798669698696
0.4793577150472223 0.10999219747612665 0.7797976953353455 0.009722416827889671
0.4701408021359465 0.12471380589328848 0.6453961194197511 0.009122355510411904
0.4779779191398136 0.12212456415436129 0.756436741637508 0.0038781083245669197
0.4727635568832052 0.12154954044871673 0.7026978274774506 0.008399579917188383
0.4935238900058167 0.13099274850627307 0.8406117750081994 0.007141238572050658
0.4861164272702169 0.13002632867848715 0.819757731809939 0.00423747748777014
0.47290252312482084 0.13270363508229202 0.487943210382988 0.013375835078909357
0.49553092443188784 0.12753507180493945 0.906527371680449 0.011912459540295552
0.47422019986664904 0.1251551141484061 0.6762595231527818 0.011973802952853774
0.4777074257937054 0.10898143960319673 0.7852031901493961 0.010524552558377873
0.40928650293099755 0.07253176200526767 0.4545135708226691 0.003593531662770021
0.4069287329631211 0.06770539866962814 0.632335801542026 0.013423341467268179
0.4127581292180862 0.056448182833034696 0.7540659249575619 0.022312831929164906
0.41695256797092867 0.05433133589687899 0.8093845390110124 0.00635369351211694
0.4241824600923841 0.055050197317114816 0.8630067022836792 0.016789939088199608
0.4077474357310009 0.0564518468475985 0.7682368642294835 0.022629089238815955
0.41629980322374277 0.07329669659448808 0.5720702931611061 0.004233597927576218
0.41813907017687313 0.09226864284151244 0.2490884547866393 0.011744611288645249
0.40904811746858716 0.04692837248943402 0.8287044771559487 0.012028658665413795
0.41321262487910343 0.054203629131672544 0.8508888790422695 0.02176592028646749
0.40809125832931065 0.07116365222232314 0.5080008348299362 0.005858284463057641
0.4245493054978753 0.06993924142540855 0.7440540094002692 0.0036987334561521777
0.4192359365689752 0.05253047977080791 0.9256162796336838 0.02460176766909303
0.40394636007479373 0.05106263029060792 0.7621888424659475 0.0245245640907747
0.40466265922170597 0.049655250062599916 0.8882408828366193 0.0074511036746023485
0.40570097237191316 0.04215752168694155 0.8743631829445481 0.017062061111260966
0.417683063918028 0.05920763787803649 0.687275608115935 0.0050488282385612844
0.22371137206455316 0.023374354427162864 0.8118508836486927 0.011588909410648936
0.21276334924389492 0.017217115292262504 0.9218578160025203 0.01431269286617227
0.22357757085025043 0.02856164265451761 0.6906771378237833 0.011248389212407584
0.22423703352628724 0.03897512552148566 0.3812123299681408 0.005856317995556577
0.2303111516464639 0.02544399684600758 0.7882594727326776 0.009753041326542096
0.22611179445864246 0.02571348368030693 0.7105388956159451 0.00893865381985048
0.22074681830129123 0.021365703969038287 0.8243665688668951 0.01138514439971167
0.22180667073334823 0.018374839695703325 0.8389722954174686 0.008399407382505341
0.2288975870876626 0.024112068173487856 0.7428469903431392 0.026956633584853812
0.21973586726406416 0.030506565416313563 0.5912506956949511 0.00423512403820418
0.2185470057063173 0.04039460054120953 0.5597457592871639 0.014318698911651951
0.21420958051931113 0.02372153574109044 0.6416382467382241 0.0073796471622853506
0.2181663579450265 0.02867137618138479 0.7362647158850898 0.021326347952637114
0.21897121840315661 0.027425970972730727 0.6108948718710596 0.004220456103627726
0.21632820249034962 0.0240689189993162 0.7549513644709636 0.010023456436390797
0.22113963908843143 0.013033745982031476 0.8623344134669811 0.005055273633624972
0.22028151188281 0.022604094120009296 0.8123921075023257 0.010759202909305893
0.013858486484894019 0.265612350447147 0.6591282713623738 0.011236424241785482
0.040627189352844234 0.2579770698505652 0.34249411599739465 0.013248886778118495
0.011740099319353044 0.25864205405503465 0.7989185831372957 0.008288714483398806
0.046134781876976505 0.266231369466816 0.23756111426940793 0.002785927920022915
0.017730872409218827 0.2587362907802299 0.6762046512489908 0.016793106722600554
0.019222505365673284 0.2636673988144283 0.7316667133111474 0.017304460212361282
0.04149269703438325 0.25495689086604006 0.2681043273687006 0.012664795319342628
0.005775137874442915 0.26041871192029814 0.8334303829383864 0.010185701437419906
0.030176606169923757 0.2565457522194707 0.4376334375529536 0.009834726004325646
0.03301245417869606 0.25317978912119116 0.4781510016488561 0.015083673699651365
0.038944686661344825 0.2584894795914098 0.28659855431579423 0.016640532307081953
0.032537286744361106 0.26712472489032424 0.5475187372163405 0.006202949896851127
0.02903959783425071 0.25826514223111047 0.5931007079503935 0.010674762912166449
0.0019913440638729078 0.25278042106380455 0.9346327743400198 0.01470569082904631
0.03501715028675089 0.2692193341142393 0.3723019995903006 0.02484362806993008
0.03773471216117834 0.26607043446718937 0.47570935892416083 0.003963048890817847
0.04051995502679395 0.2717242640928212 0.4156288589689333 0.013692604155167421
0.03643625590254972 0.2748956188227706 0.4477053303706763 0.008365813635613527
0.047318527680484224 0.26259915876269546 0.22044936738417328 0.005272273057268591
0.020326721953145034 0.23144843155711645 0.6084243039515782 0.0067301116017296925
0.022277220419829144 0.23471556936752588 0.741139466117658 0.0049052061379385005
0.028645060483508022 0.23068946829565565 0.5831766208692325 0.010559807398636148
0.036496198226358786 0.23953449561860465 0.5391829934604169 0.007763251118403286
0.04524946901181176 0.23531513645647123 0.33475753494103316 0.0060656609916920415
0.04518918619640363 0.2445713787094823 0.32272675718403276 0.014590170111057883
0.04355863227988898 0.24664787842052163 0.2868833234462408 0.0068238730785731986
0.042242482362147796 0.24872107784419006 0.26506535974901985 0.012754045978821038
0.044386220509114324 0.24891398532083792 0.35377903821736334 0.01468257190181442
0.043798340493186025 0.24506320218862007 0.3019471660591979 0.007658261553607499
0.039565586673258255 0.23438479727084033 0.41487282272243386 0.02298446783375364
0.031980173710324016 0.2320325631747836 0.4929206894872354 0.012320649928875856
0.015932753787806727 0.23829309379816282 0.6982122641756484 0.0038231844650699017
0.031765692925990754 0.24735020297631838 0.5203826435691087 0.004299077415479365
0.031341897941025126 0.24526270233563738 0.5196825479035879 0.004508173013201781
0.010662773029026771 0.24414447147893695 0.9060958043291403 0.026933983888092636
0.03146650787878178 0.24592591270370268 0.4014385302053101 0.010701182605768682
0.03526354408189366 0.24541360791777583 0.43184510941812276 0.03762823430243115
0.008721609392410389 0.22518474223845147 0.8044024220763913 0.005227775706272457
0.03019889316766921 0.23996726568010232 0.4644873108075019 0.013909638608699525
0.03222203934781523 0.25196943420363926 0.47649577973640234 0.014228761703610971
0.047295067308191566 0.24653922519161597 0.23582427926464428 0.005697059881184283
0.026227610415966423 0.2216917886701369 0.7085127240322762 0.009399704137218894
0.02888165972621201 0.20742478113712953 0.6434083682345633 0.0062959935951547264
0.053615242830641646 0.21713213188260944 0.20955001896985803 0.009789737557637422
0.053853396597302094 0.21598660985774962 0.43557942163074803 0.0040684193240370006
0.05206868832850619 0.22222005128063888 0.2723096424865817 0.006181182915112351
0.04156491234371932 0.21689155026209853 0.4787530519500785 0.005280605700911909
0.01921173950407854 0.2047326460842093 0.7797587113672344 0.006292326998952268
0.04467438464128501 0.23366574526999528 0.21048112510639413 0.0065111311393325514
0.04333910150816579 0.21854490534327148 0.26336479853446626 0.004748427132342122
0.04352322244387238 0.22074302991463587 0.41962199214662793 0.010426177090960765
0.04133431050790628 0.2254102793984446 0.3288907510194024 0.009654103909548647
0.04029907621008802 0.2159416091010734 0.3563969335569796 0.009777470845694988
0.02057915537401591 0.2104521734964669 0.682113474354875 0.006611662835834385
0.02797330339183708 0.21081782740539237 0.6141093314094619 0.007242687507456559
0.03462074763407604 0.2125043399489928 0.5095866886710105 0.010097106815008897
0.014664635228681592 0.2126894436429105 0.9289144077387795 0.006647108785421527
0.04762005651630269 0.22493402844736216 0.2434171806239863 0.011045090874107835
0.04595896592643795 0.2160198251818673 0.3831085837419715 0.009941352848782803
0.02730076365186191 0.21115120510101754 0.7283436342978892 0.005594284957840132
0.02440780660916729 0.2133653041407321 0.7221071666677448 0.0050471171688236385
0.022298488947570375 0.2167130037645502 0.8333975268984036 0.023137088074213514
0.0241347250307819 0.20650412449414485 0.7974357738609843 0.024198297734736786
0.02896099844849059 0.2040885992237546 0.6563684425481174 0.007365813410474634
0.026281806962959845 0.20640945446543968 0.7635578442357467 0.00952240829511397
0.017755897076036475 0.21259778043404023 0.8534553409650567 0.01909221709539871
0.049258448068692416 0.2045698093524593 0.3918273283258112 0.00409309738388725
0.043759516279185146 0.21018970377545246 0.3304639822873457 0.01087994210266647
0.034070475226652325 0.19417189405556545 0.6925762745436892 0.020365752758116754
0.03462811596013586 0.2079665262045943 0.5178859714599756 0.012309079092929031
0.03514064890205762 0.20597707933204482 0.5443094010380821 0.012769297499904828
0.03196273719653587 0.20912503770309088 0.5757172858730791 0.008506503768189573
0.05181931144268042 0.21390217006138598 0.2846933084210712 0.011937491142832872
0.04333923406938953 0.20420433286844575 0.48307740645760505 0.0022441115761018936
0.0482766404610322 0.20712689897704256 0.3980921656638482 0.012912403267111705
0.046619123684477744 0.2065338150872206 0.46122351962009056 0.014760511254746063
0.021814845920917248 0.18332401957481453 0.8132989790559106 0.006295704181441183
0.02700939447549529 0.19029686981027083 0.8450476125842176 0.009785775416711084
0.037747896314173766 0.1964865527261653 0.6108388474055382 0.004816340677470271
0.03486502547831532 0.19174423867584112 0.7491075705920662 0.011708258432705286
0.026534680361698364 0.1815620520322301 0.9242033073109732 0.012177637581714189
0.028843525722978432 0.1984317895532122 0.7273674178455579 0.011099862096739532
0.03130224987617866 0.19780109223655432 0.6891307310598681 0.009155915040823784
0.035188188031204076 0.19635889932240908 0.5319945048117583 0.008242155227895733
0.03667316297711847 0.19766110809936097 0.7000164058581066 0.03330087751014146
0.08802184552433598 0.10315113284664836 0.6487060074102414 0.005746296152689116
0.08270582819723982 0.11379522852293746 0.5220054586628159 0.009579130980678656
0.07979105608546368 0.09762787791155304 0.8833227307691817 0.015523576425710416
0.08795489251258869 0.0961829253820354 0.8454848515140224 0.020764560904629786
0.07183084944676113 0.10903802056776275 0.798333711033125 0.00937192661213883
0.0839880577860461 0.09588473253858429 0.7347867443226751 0.004564228726201235
0.07749656803245186 0.103885659985479 0.6775395008280004 0.0068365529627953114
0.10032034865530907 0.10820024553399996 0.37674880036728975 0.006928118481015532
0.27609460063100727 0.013695910323030436 0.8411799224189727 0.008552870337423035
0.26746390465991343 0.02290349679281422 0.6310509596956011 0.010332596538189735
0.2725834952866182 0.012396230879696756 0.7667399893383438 0.027389788164989107
0.27194626200645217 0.03539782521798525 0.3938712540598467 0.008890565288390056
0.2875152523888943 0.0076836619764218015 0.9000390229436259 0.014119304991408049
0.28014512376545664 0.02477023893267864 0.7270535772988516 0.006060824745675024
0.27410162563450474 0.007605646437441924 0.8973561374638442 0.00863019975735967
0.27969452341051887 0.01323609333983495 0.7763030077412388 0.026991045255492587
0.2739569466948338 0.016124203812845055 0.8368245268069379 0.006707968277254589
0.27797014197267034 0.03113636635443477 0.6477363744943668 0.010742068228848376
0.2787613976676514 0.014265223849229465 0.7959816956900678 0.009855060553644174
0.27279984716866046 0.021438575975588292 0.71694172606095 0.02196220143604681
0.2784534334587633 0.005573818989691978 0.8838193656538712 0.009086024353746005
0.27605689037938796 0.04074689511802328 0.3590601050857875 0.0011406754036532392
0.2707089134018484 0.04983805580374119 0.26183736625449827 0.007691626475393432
0.2751052514805028 0.02696288159380137 0.6049103268716978 0.005916912199279482
0.277123575231867 0.01720499623569698 0.6774262472425916 0.015586788813838596
0.2784496428675716 0.02838904256043362 0.43365069942168494 0.02910952946161758
0.1294554149915326 0.07151069652262301 0.3420222533953299 
0.13880179294396386 0.07969732913912159 0.4034800977826395 0.005741005848567001
0.15297378327936378 0.07333909357656342 0.3034668015759449 0.007977424447734537
0.145515678754137 0.06124786278580155 0.504675897512185 0.018498331625455503
0.15507794287240828 0.055897777958580294 0.652066338016214 0.008368728125632153
0.14101273135602538 0.06490929515681972 0.6029909135761452 0.0029689823963215487
0.14423547774774698 0.07312635068248112 0.3805154595156139 0.004024751724541188
0.15176103638921906 0.05316714771911021 0.7638264596024797 0.007415569254253067
0.14548827666443045 0.07100479663917704 0.47755365578642284 0.00814427156528966
0.13699743808438208 0.06230073698693255 0.7120922474195311 0.012536285068310655
0.14426975081916982 0.0706326795334372 0.3491298181663314 0.007738441171549806
0.15293020839302265 0.07390832404391429 0.28923500443697503 0.006472960205412904
0.13753117668460912 0.0695703164769809 0.5438235512913929 0.013512748844251727
0.1450211517833363 0.0770600749537514 0.21249786566680987 0.0014367979259510087
0.15354315299633456 0.07340523659299002 0.2882301790275945 0.006433152683089327
0.1502342225024101 0.07061866557397871 0.4774476897623473 0.004706988619429951
0.17525666033454618 0.06669986371783386 0.27960578798733676 0.009382770682553008
0.15131050087604278 0.062277809878111816 0.6321007582031568 0.00895128376215803
0.16473401884970118 0.06106397933767143 0.3628589545741392 0.00874264525893952
0.1600521047841602 0.06868364958312037 0.39554166989714473 0.002078838935798685
0.15919481971733587 0.075245901627182 0.21525745163862123 0.007191413535019222
0.1479461168235109 0.0680217140657102 0.5620632776407155 0.006903630871248
0.15761814778121264 0.07037457087218467 0.4194660179232281 0.010975315770308705
0.1609610047453306 0.07068064630282628 0.26992711901864286 0.004002860565870798
0.1420954294672397 0.05671751957778954 0.6660614635810206 0.007708569780248333
0.14789962960812306 0.08177368738572251 0.27251957506372926 0.0038867829547478594
0.13713867355182943 0.04496359051111479 0.892149924340408 0.012936228380233014
0.08201999353413941 0.13013167180818538 0.4096422428541866 0.010931810532011655
0.06326259235231596 0.13903814049302107 0.6755628621484114 0.009982997376368123
0.0763953108833751 0.13988922760458578 0.29456071174303017 0.013740020608646446
0.07100204140081044 0.13836187623419 0.526589640666725 0.007131278172614711
0.061043591196361255 0.14072647700992014 0.5805932084404948 0.011182728860706625
0.08085255526897736 0.13880886063381412 0.22502854262271793 0.008319491087999741
0.06613268523222203 0.13159249302250367 0.6174210769937872 0.0036783549494371105
0.07963941933862229 0.13708403893681118 0.3646303330634525 0.011345602608762419
0.06953094662973267 0.13142268347786043 0.5516391695154954 0.011439229734083583
0.06747894517478377 0.1514781789740324 0.38305071035624605 0.010328368209528899
0.07991762935662974 0.13024642730804767 0.47816244423352067 0.007886184481351532
0.0719852345126529 0.13856379884328549 0.48474088887723993 0.008923633130318456
0.06979127511717309 0.1261847079507803 0.5955156810269568 0.0027497347565031173
0.06950663420266749 0.14317127108983058 0.47380780523029514 0.012391767563985967
0.08409885933032285 0.13306331056674642 0.2348839503847471 0.019466579443666053
0.07451928675465226 0.1457231530562305 0.33815135708317723 0.01031673279121268
0.06694762980943263 0.1294752895864791 0.6990292199308169 0.007648252671588565
0.06961896501211767 0.14070836564707734 0.26240683762489636 0.0065997399220426006
0.06436289590837249 0.13192826988601938 0.644851988653105 0.0017290734001169483
0.07454059634100339 0.1412775918168432 0.510076217727876 0.0067901061309686515
0.09173530038957649 0.12602567310398682 0.2733410949742087 0.010683126558934712
0.07460738505973513 0.12878464050993685 0.45499289669070314 0.006109925051868526
0.04963351695576864 0.12128147888904528 0.9218903214762327 0.013825355754729363
0.195786794861329 0.03472811288018684 0.6919639999922941 0.01648181291971448
0.1951097370324838 0.030811363734130813 0.6780093297764499 0.01665158820842958
0.1884417095942344 0.047445795445204476 0.4925295226037734 0.003372379024070624
0.1849523661593629 0.036139453149219104 0.6582214568254803 0.007378170788075612
0.19544409357671172 0.03842246082127947 0.6029219057488489 0.013898953331329612
0.1916387753621813 0.04504101863242832 0.5829371316759242 0.019991727340791385
0.2048502858780663 0.02513037214627529 0.8338993570246388 0.009644567416900037
0.19815987745212943 0.028364903614981393 0.6716726560492605 0.010205269273546171
0.19156295304912307 0.029143552893674166 0.7871820073146805 0.014686219684084893
0.20021810373169519 0.04005853451960355 0.5663080498614697 0.01847787050256124
0.19908066922109963 0.023854116272542296 0.8006381035754512 0.010701296603265797
0.19153236303357313 0.03322218620228845 0.6343080079507757 0.01289405819824472
0.1903667372250162 0.05599913745918408 0.28988191850016065 0.022185590789733103
0.1854325082324007 0.05818161079586383 0.35204839430611473 0.012748876379929695
0.18988792004685065 0.04839918259650864 0.39811851768158046 0.0042334117653092165
0.1803544776309551 0.038525223920275735 0.5498491445037513 0.019460274970467855
0.19447207723569146 0.056254944307982356 0.34700277827222836 0.011621373360141726
0.19167771218622454 0.045463798239200215 0.5073520539355995 0.006231170204434652
0.17898801030719783 0.03954660064732182 0.5697056547747056 0.02409529587707329
0.19241165176309966 0.0456707512713884 0.46261145234798134 0.01057028364026264
0.0638571230232954 0.18986128822163734 0.23631827014707046 0.0025043013427315263
0.04167624879597175 0.1848941469753236 0.5969694623757493 0.002713941388604324
0.037124419742536205 0.19852976586248652 0.5925903806179341 0.007697606149225467
0.046433373339140646 0.19305252749419136 0.48918988884449055 0.0031442530700456456
0.0471323548262486 0.1846715960577482 0.537427319289782 0.01807826324003796
0.039080511487622385 0.18741110245443726 0.7145850768107244 0.024514724281124167
0.03702864889971993 0.1975354771483949 0.5657983645826948 0.006357156204682119
0.05134234732972 0.1862252268554319 0.3871156218853584 0.013437644657420948
0.040272908124298706 0.19149953222414515 0.6147600814550395 0.004362154011150116
0.04202709085832093 0.1961063608845815 0.5075652613341097 0.011597379468413875
0.05042623929962095 0.20251366674221147 0.4510808846340314 0.00981193300106344
0.04349205546102654 0.18015256486706455 0.6292387507429978 0.003940387407761138
0.05233311454153822 0.1877738481284278 0.30709904874505545 0.006530894929090766
0.049780151002045726 0.17018993688976308 0.3515079180732481 0.0071993092236840445
0.05047692028836212 0.1906997991881088 0.4410650947269766 0.008953973109980527
0.054075066438915555 0.19064107463032484 0.33656319199240314 0.004056948222273015
0.05210859719474302 0.17452036078690572 0.45667691710509695 0.01641006849994907
0.03626183431138953 0.18968457228633143 0.6583426702330669 0.00789843718617003
0.047865436596777534 0.1896919852934083 0.47436463652921895 0.0051270944701346
0.03698456896595432 0.19288755981360406 0.6361042631077777 0.005256290204502119
0.05749513015444344 0.20640957415154054 0.23152944861769018 0.002225297432452271
0.04968160659619374 0.1800059752031773 0.42916523916011867 0.02195599871900476
0.04442692302896992 0.17850638798703164 0.5649755268578937 0.008091998638468219
0.04564049108981468 0.2018079155508014 0.40880988376519906 0.01112024995923878
0.23169264177455473 0.02304760746494787 0.6730461543762789 0.00912570638940486
0.22411225503570278 0.030238016607456352 0.5249067962149753 0.01599006386059782
0.22482145423883 0.04199546646693955 0.32388311981074186 0.010237739641773401
0.2412932343901856 0.02216335120932188 0.6433050518219059 0.01650624640937902
0.23661725326489322 0.03998956052618328 0.41140096497925116 0.014022223573805859
0.22951005950173506 0.04109678780322147 0.46953435989521886 0.004159188503456389
0.22798853652805032 0.03343795018946879 0.5348157338863587 0.022375493245613762
0.24219375523848538 0.04303988082305116 0.3424471586628015 0.007743336180189143
0.24174273917981784 0.032312285453986955 0.5660857594548053 0.007402561932046565
0.22728138362574543 0.040665773274938644 0.33364323124055484 0.01109523344092647
0.23402613875969636 0.034067050992786466 0.4921536911836535 0.005747753110570622
0.2356615931519531 0.047453448335285406 0.2864562014072377 0.02022784427844629
0.23377896488988237 0.0375490298056196 0.3774936266028492 0.005581791744822764
0.22405067254656885 0.026488204358422508 0.7767417224021882 0.009442079533944658
0.24237298336341612 0.036527509564489455 0.550899717379224 0.014191576584217101
0.22648996530361412 0.05202182944478198 0.2871758087397647 0.012716501728874861
0.2376673046804267 0.044852305482873306 0.30156925311722244 0.007491438659141926
0.22233212078731449 0.041051360790585585 0.4337146333422809 0.02194236730348754
0.23901406896183824 0.022173606499087978 0.6117219928544428 0.00562866874723871
0.22769344168075975 0.04026098803563897 0.44123962992173416 0.017967663713272436
0.21764384385297272 0.04273785944166124 0.26682590496373115 0.005411961095454598
0.2232171796329008 0.028235893626680345 0.7586614825396629 0.02295132073967974
0.23925389024938562 0.03991192797912607 0.23322568452322137 0.0006375095427033408
0.02535506271529256 0.1985847658733886 0.8600932601951843 0.015695770336120032
0.053381486911204104 0.15468309788938506 0.6151222918769739 0.006672977623506893
0.07006682767829175 0.16157955913583968 0.302047317888603 0.003287565130442868
0.04019595686979598 0.15345485973841208 0.7488629725729629 0.016597134555157694
0.07161969812505846 0.16178577200540897 0.28702332776330824 0.013431321448451975
0.06792671031521103 0.17152039231688884 0.2516138615472396 0.016486991910520804
0.05299313928679327 0.160875554786211 0.4998046970095735 0.01082994620464189
0.039170672918583616 0.15792493146118036 0.8596336550565197 0.004511185850011446
0.056516680561949605 0.17925122451809458 0.32622115556990083 0.015539989903521116
0.050140961114848843 0.16689495741800112 0.5160694809111559 0.014788453321964637
0.05513797060457174 0.15388096306447036 0.5909554765363274 0.012310121742501047
0.06312385946395302 0.15376872610306244 0.46821721946239236 0.01579615774128336
0.05550277589216024 0.1643665242266094 0.46783457417468727 0.020521907889671526
0.07176636055279492 0.15338877392217642 0.2672662851779925 0.018477286584899166
0.05411907700432795 0.1667366542333471 0.38780710796640483 0.01872286263006622
0.04716271287993751 0.14904595787097819 0.5642329288404333 0.0023366477587857654
0.038635811840938866 0.1585970147278897 0.8310793851348348 0.006705045788174602
0.0477603138563452 0.15754786761013734 0.7726753861513308 0.01900309104892297
0.04195197559699175 0.1617842943663193 0.6462073389304347 0.006932978956704488
0.06947967442248221 0.16004294732856295 0.2384703358989909 0.007035324306308072
0.06786774159991474 0.17414905445874387 0.24068868674252858 0.005526955201243069
0.09041164169029219 0.11975296081602073 0.35577730024565657 0.015267773040545768
0.08428667942760229 0.11542859525712632 0.6081257927341729 0.007443726425950165
0.0742695397741211 0.12600408160303878 0.5586773876887803 0.0064681810592045735
0.08257463068405828 0.12417971635812898 0.3709612338006864 0.01007008096112084
0.08789940525836674 0.131003569153745 0.34041838912227596 0.01741868432174706
0.08150923292633373 0.11639939674776084 0.5454942868862295 0.00567303932136334
0.09207404379809735 0.1128211575025708 0.32996037082475393 0.003586558558682938
0.09999123389467131 0.11700174150577974 0.27546810672464606 0.0009014293222371867
0.0951998349451617 0.10438926828117293 0.46138892389021 0.005550239646616106
0.09728182514199772 0.11942647077410899 0.301549204399853 0.00011003218964548185
0.0914885977720041 0.11771252082625822 0.4247405471603244 0.007559749641077338
0.1363001737789126 0.09052512606726566 0.2203794658219078 0.006726636114926086
