x y z curv
0.0012302239785302704 0.09093212513531002 0.4068165487765165 0.001778884786829405
0.0016576877985184236 0.12704818468162657 0.4689646727127893 0.0028772280255800796
-0.005595350711729978 0.06073798045831433 0.26497398187386195 0.001758692316597382
-0.005548774992858853 0.09445927035895446 0.37788254724072773 0.005465693478732207
-0.007318562216794296 0.04685639859707543 0.40544913639238045 0.006860450415995387
-0.010121822718075348 0.07354355810857817 0.31927609241193544 0.0001713118990055747
-0.0041172687352408165 0.036572102536771865 0.23773328289386947 0.006652275977231472
-0.0010156319353385609 0.09476975104658161 0.4340967401471058 0.005106802725924369
-0.006043630734477203 0.025398317032291947 0.4897329132751962 0.038330436724891656
-0.0012703401477244854 0.10963198979133376 0.44569349286077337 0.0013976441893583447
-0.0042382811858122146 0.13688958942583254 0.5044675687923768 0.07649807021914487
-0.005026237834391298 0.05506522332972632 0.39418692412312206 0.006587710067214559
-0.003121378584962085 0.08202333942308998 0.4404803599780141 0.0011744289377229255
-0.0004616435889213638 0.017733972092315226 0.01900943648774269 0.007894233310141194
-0.005116511261665549 0.054130666914940534 0.22538846395345735 0.0013640095421465208
-0.0005253390361134277 0.10275938874089373 0.4602680639455012 0.004266200633554675
-0.008488437701512875 0.12445247510906668 0.4004057208425275 0.009794849384385332
-0.00029241961222434233 0.10538034707090523 0.4713703079289005 0.007603517768297997
-0.007320125326524638 0.06308384958250764 0.2251222696643355 0.0013649816789817653
-0.011192285694884433 0.042702163316306226 0.3171562776308352 0.0004613103981091192
-0.008682689036658293 0.04901292879029874 0.47452472316274774 0.00565615787359504
-0.003185924201141304 0.02733853355860672 0.3665397023117008 0.010564875638022124
-0.0021596535681472438 0.036284284740340456 0.3366094489280026 0.013839877424172838
-0.004617585696173586 0.09214039731451633 0.339485396498277 0.004679801275368667
-0.003370158100789101 0.0696082337489776 0.3503478179059405 0.0047207169229077075
-0.010032243884943653 0.07407782545281998 0.311061577115988 0.004214611535221717
-0.003957733747145019 0.05802411618049648 0.34864497457292043 0.005890850571856367
-0.007572516771938881 0.031078174733135032 0.1983071933641067 0.0008121134407698134
-0.007476799362696078 0.0544693299807226 0.4321122784364613 0.007023737852418885
-0.00410579818792412 0.04853776813995752 0.27485268400114155 -2.5630228884054347e-15
-0.009275123059872596 0.06675448775639535 0.49974710762746316 0.0425222456874945
-0.010497535371681776 0.09984280103235166 0.5021777211897858 0.06243086158150376
-0.0049406375654220255 0.1168596217600343 0.4180426538986766 0.008626675945469509
-0.006303597600862456 0.01935164631392317 0.41791297017907925 0.00780139388227152
0.000539156320388966 0.1163094391025515 0.4635276218301402 0.0014073458367168197
-0.0063113478764311535 0.09581939612039905 0.35633501783692095 0.0013158715435501245
-0.0018701546028915559 0.0781351030599357 0.36339222826291634 0.0007217699797915905
-0.007795937950471284 0.05590451563421914 0.20560754977137752 0.0026808188166071493
-0.00469766521031638 0.04101438522788764 0.3653336514298897 0.004841116705401521
-0.0032866792175023753 0.06220285895796794 0.3583324200281258 0.0013886203105049858
-0.005748002847293141 0.07765696274642295 0.2066523147223417 0.0031053092813971644
-0.006677856148081934 0.12747782057567988 0.019485846979495583 0.007971315285007637
-0.0033056694148326446 0.08082550717532581 0.10389170327197075 0.00896454524399749
-0.002570383917216624 0.10088779432474836 0.11399326777346243 0.004365393279066178
-0.003698457238944491 0.11550745957558464 0.25359514205102457 0.003785231557378422
-0.0037000960437865776 0.13940410007777848 0.007103349135529459 0.005355154594769472
-0.007911862000161404 0.13788320023385048 0.3254763605435496 0.0160734321708759
-0.004011960840742236 0.14535839610367182 0.1296600230094975 0.006131945935128045
-0.0038417526596599607 0.07248791947926683 0.03984856075060893 0.009660411401087818
-0.003162323278505885 0.12697353355895263 0.3558309542897324 0.003629766589207567
-0.0045481597262877795 0.11242109763174753 0.30208850828796385 0.008542228899539036
-0.004124472933479718 0.062365515433532685 0.006817671935935248 0.008054985345862874
-0.003753930856961057 0.06234235513341409 0.11543118643989786 0.005962752499998919
-0.00704888177592148 0.1145562178812992 0.1100615934933849 0.005372254595668697
-0.0149020338586779 0.1001388295829171 0.024714015423793714 0.0009626541794851384
-0.003426979880402386 0.13313131276673 0.278754041731194 0.010181749722904634
0.0004798209466368187 0.0950524287367464 0.2748859373097463 0.003110518193458189
-4.1951023899699315e-06 0.11132032488403115 0.27687903991508 0.003446085935670578
-0.004499771239434315 0.11653203909287935 0.06421889909440402 0.0006545218004723153
-0.0038208204031105826 0.0643979530153218 0.14587858694371142 0.002250740735559587
-0.012113674972185452 0.14667317417550696 0.4286941155798037 0.015337792728378616
-0.010104550600458524 0.0636240135995206 0.07900615911918532 0.0004886697417632597
0.0004806402875336091 0.0839708858337195 0.1256465915045301 0.0020452632601034395
-0.005045457201751117 0.11437764039819454 0.3117833064912798 0.0042551608893556265
-0.001988533260633991 0.13833011224577346 0.44221336770154523 0.024441962259941608
-0.00239544574112047 0.13912525002391396 0.14009947810251672 0.01049426895630179
-0.007083869342188452 0.11405024001681936 0.20032189840986103 0.00017929910608357943
-0.008504102075615513 0.03682826079961252 0.004591892727395599 0.00543359309848263
-0.0026273020576894623 0.10388785763798522 0.16976216201798291 0.007605185400156539
-0.004904192752544933 0.14875618071166943 0.31346533435409685 0.019266041571785446
-0.0034406906908530308 0.1011254890172304 0.14856891417694953 0.008190133708822617
-0.009992469175568314 0.143984348862202 0.34158259015836806 0.005976235892761006
-0.0011637879928798735 0.08979821041349059 0.2632608395826949 0.002202796331630185
-0.0035255796030202943 0.10159271636055672 0.09987735016144639 0.003630360635080194
-0.004989324493758503 0.035524423566102845 0.0417315995912573 0.013839851329852056
-0.00675177771428984 0.10973659842519783 0.14684422197454167 0.006888598684438333
-0.0025284991157957515 0.1517767543076481 0.08514410355557737 0.0036402973447780553
-0.0029862475490338176 0.06360274135531545 0.17437019738947138 9.22759072837294e-05
-0.004263772046675514 0.09884921042132852 0.24019456680858695 0.0021600511196287167
-0.0027715904773518087 0.11741944566457008 0.3242849764752523 0.004056804552076162
-0.001434828171273016 0.13090542188083196 0.2542120928627414 0.004047294392565943
-0.008200093236617025 0.13768202421093478 0.29501591523118026 0.013579683553621477
0.00023299660500062972 0.13554597188625123 0.1804636468595375 0.009507846233808818
-0.0029337517387837404 0.11391443854669582 0.24326890859668626 0.0040329507328462225
-0.0036208896270865133 0.08116626765359047 0.24233451864139546 0.0018179442189614297
-0.0038999166171844114 0.07487559121609433 0.1816156500978795 0.001200003549941922
-0.0014164921330297594 0.1171479797033564 -0.008566839570610886 0.005649832069400905
-0.005637137748030699 0.10266068440893014 0.05906201076801866 0.004944534218087946
-0.0028559885908983835 0.08943995317373578 0.08195001671531478 0.006506441499654082
-0.005313456970704098 0.14035245928193313 0.06997135447351911 0.001604303619480639
-0.0054216411673869615 0.1364644002126018 0.39075248966824994 0.022068492385093817
-0.004560855401831977 0.04277100412087779 0.08179157245211842 0.00032006260600049894
-0.008787125197199356 0.12740101882049473 0.12319227809459232 0.01239131271576047
-0.002318081286259572 0.1051113267914077 0.08579956891757314 0.0019603403038922643
-0.008227015619307245 0.14442190221263582 0.04028375392463443 0.012508508107141181
-0.004874873216614036 0.07908715679712182 0.20350678081349513 0.003512683646072689
-0.0002824759379376473 0.11857371135256052 0.2162587636041117 0.00245026556366544
-0.0023022931937630746 0.0923834865925598 0.0026073125116932586 0.006629381025886951
-7.966764274963158e-05 0.14130847447576997 -0.0066062725320192904 0.020355457618908397
0.2971121069607904 0.13773219710857013 -0.010718396932809076 0.012627509699458566
0.3016401514055644 0.02350622594859941 0.0010725664856616269 0.017612604213092364
0.28308472707819665 0.0063636204218927 0.0024108772372531495 0.05016107007688291
0.0188763770624934 -0.00543947647780515 -0.0005603063223554735 0.0009784212190882332
0.0035679330113984947 0.012988712294666782 0.005327887405602999 0.00021262214538780142
0.12352133566328814 0.15911115810495663 -0.007666017980492868 
0.13438754596193728 0.16537006881900354 -0.00042010144845799674 -6.198337696970346e-15
0.03222687261404078 0.15931417027067335 -0.014972879128364175 1.3702263651756462e-15
0.2792135037164812 0.15518418854664479 -0.00971858206408375 0.006214468543805275
0.3123973976472504 0.15139776719237316 0.003248761247458367 0.02380743295973672
0.29202638106880463 0.16374412214288728 0.0010915019254562732 0.018208017635285054
0.29973639962038956 0.08408499500912194 0.06396289082503984 0.004093552604863316
0.3020857893590652 0.06110975591584498 0.015446447563719245 0.008851196266075596
0.30446425815886224 0.061799235234621094 0.19995910655754 0.0010323244135727117
0.3106364633268891 0.11930280700502797 0.11926302617890269 0.0002416938780058281
0.3071058472213784 0.12457796198499943 0.0451091767933787 0.0003304747381456832
0.29946136027076514 0.08701116617173392 0.08664654488964928 0.002372908862527269
0.3043069197827282 0.04310335857898282 0.029264996182889677 0.0020633337320523164
0.300800082113345 0.07337904837965459 0.025364302797363833 0.005212375551352009
0.30179283764512116 0.0338277695315909 0.15830497236412597 0.004471223607893034
0.3008130528589353 0.09622838846495609 0.1890801784765486 0.007115027566046202
0.30504910974922905 0.06043106139277439 0.11161225925254828 0.002170762148023755
0.3088277453701226 0.028742453970275875 0.13091798551402686 0.025140693361379123
0.3044010656463666 0.04126045042905199 0.3989422758464289 0.004312283254370232
0.3047560628685299 0.051532251393210826 0.35577773872680224 0.0019909259245803586
0.30963660552644895 0.02980411872415611 0.22289256959679188 0.004338884093324603
0.3016280644936424 0.026457745773921872 0.07766403295182599 0.010723505491299766
0.30559900154394004 0.07398065718100821 0.19152165084573894 0.0028555807322464856
0.299685092952836 0.10281626176070693 0.03513184748710067 0.005366400967739541
0.30568124244870803 0.09276684961210312 0.12364482160685354 0.00669041630845829
0.3076214917185843 0.055603356418856095 0.30156908695099544 0.005815382669862578
0.3063633656142045 0.11243294908928421 0.14338376911711143 0.006315049293363961
0.29914657253997684 0.09783676582972024 0.047651078266155854 0.006509878310190678
0.2975050631577406 0.062229534744376126 -0.0032996450630715215 0.0024713367078821255
0.3029588429468957 0.030520483528603835 0.053621999680363616 0.007257098460773419
0.3092375359906724 0.0367194294379794 0.28770832340334024 0.001894801907566468
0.30359859709235776 0.08722435254261612 -0.002960812155174591 0.006561100778683459
0.3016528009314057 0.10371878114448571 0.022588700389990866 0.005243825744502307
0.3084985334261476 0.04541818542310693 0.1285128554405525 0.001213784414076897
0.31062414427493407 0.05213671879059789 0.19203887034090394 0.0032285338803349425
0.3043458315688203 0.040896449952151075 0.06991331452202279 0.0054887932177352435
0.3042465376549061 0.03637250102046016 0.32017677300595676 0.004006495550327083
0.301345604182809 0.08526438077275436 0.21116935587558794 0.0074504140465380024
0.30298165639031915 0.01995709849216231 0.34414802533489436 0.06551314301457689
0.30391694089189175 0.06717251110700691 0.07220329391221605 0.001263627670791566
0.3072286417961144 0.02096556633800098 0.3770092608276839 0.0014372075295354392
0.3028758166141142 0.06281946416551316 0.2782137010203742 0.0001523839098976372
0.29870806071632305 0.08189984155703402 0.03396380168086041 0.0009046411717295346
0.3048616373278794 0.03829845735418186 0.08358380866628429 0.003299232583513703
0.3037216711866338 0.05867787445264282 0.09058570591438417 0.005338888452780012
0.3059165164221508 0.10944621401591881 0.08926642536864983 0.0022843330079238586
0.29979327907711156 0.06576132844030369 0.23401982926208167 0.0008553369933909315
0.3027123296209393 0.07102048853680899 0.2258066630179809 0.010963740415403555
0.3058270110624289 0.01990139603054704 0.19090477215734347 0.0008310423937003377
0.30098059145500794 0.024116306538106844 0.03206771462638236 0.021124387459335574
0.3064752041065474 0.022455171273309614 0.43961218231432236 0.011083164663153193
0.30801567785560513 0.04723720701406744 0.10011369506137414 0.002023802145848553
0.3037690744630455 0.04200488593316839 0.04510966278851386 0.0036348295475885947
0.3034704485889702 0.08392481718446315 0.15037771036968187 
0.3068752877586032 0.08311986924076105 0.38732971126304316 0.004636989680647171
0.3069083436798567 0.10750366146023807 0.26032143432588567 0.0023529261019548937
0.3051552437118329 0.14164121493614795 0.4220300234003335 0.01757734432473551
0.3057797769348168 0.027473789091858186 0.48939007047142863 0.017051021041716477
0.30835606921174286 0.1408386713102217 0.4383413588026266 0.01426322811198739
0.3162062803737334 0.09306511996401083 0.3373149611328292 0.0031371882108005614
0.3074415339741869 0.07963894451675874 0.4235479775767732 0.002959178408162426
0.30720343898889296 0.05946327428563431 0.3990046312805058 0.00040799855622830665
0.316137299362107 0.14218530967595192 0.15438093459073732 0.020442080641171454
0.3041120009792982 0.08700637148463101 0.24817760223567176 0.001421816986953299
0.30479814795835175 0.13426190919716588 0.07688470112321716 0.001095090077837864
0.3053867592818192 0.04502354845017117 0.4285368526045843 0.003151207981171678
0.3072020907269225 0.10530682965310917 0.35932561376079847 0.009142911969779488
0.30582864458863934 0.14270787230361723 0.09464948422277109 0.0008749269632461631
0.30955452163044667 0.1385612619090525 0.2769397949080217 0.0008535236351295013
0.30680709509179765 0.09196105485210251 0.38466551609383914 0.0020996795344056765
0.3066019672932748 0.132859743356743 0.20675317344179875 0.02032490276210314
0.30360003382656536 0.09695289331612576 0.25945196983202995 0.00026306210923391694
0.3014841237968527 0.05505977495851317 0.474665285646179 0.007382575345075966
0.30321168610081217 0.11822736234936822 0.3117446993677562 0.004111730593360544
0.30635870800192805 0.08394380628297804 0.28863184331155917 0.002149894486834485
0.30253400851704104 0.11206997823902573 0.42429592237969466 0.015228999640984387
0.30119349521677 0.10080840083513265 0.1953951793146377 0.008451617010037014
0.29972925106381854 0.15219722515063855 0.3314799742938799 0.02927705240050278
0.30961518888908823 0.13503654443821722 0.3607586406983272 0.0041903876861849884
0.3046918660456288 0.06782637578464425 0.3902327605227488 0.0007823282272729172
0.3043019678337982 0.030407993479196104 0.4430360981548484 0.013411066637196593
0.30738925068629463 0.140786446792714 0.1166167504833995 0.04100575186803506
0.30070560312418615 0.05317872757944626 0.48945709054234404 0.01813291999743244
0.3069762906283465 0.08685061300263384 0.47760078995407096 0.005581875748291747
0.3079330278689631 0.07491365123115598 0.3524805859541755 0.0064452482804804615
0.3006778290871227 0.060143479379152924 0.48946556293344756 0.0185031121373923
0.303728940655166 0.1503874602714873 0.2280385470994683 0.0016787381117963195
0.3053832913598159 0.052909569226267134 0.3722898141494297 0.0024252881160525016
0.3069156049570568 0.07393956117754066 0.31260611481014605 0.007451867630366037
0.30474145014318943 0.06938283208532181 0.33050307227449527 0.005076319546013782
0.3048632925992658 0.1023247463271466 0.4822831690935096 0.045094906132719575
0.3030862503575786 0.12328815739856423 0.4818064774353197 0.01914689286644086
0.31165957846618814 0.1293856749704133 0.1838636274059905 0.023315801590890146
0.3074102615095723 0.13115803058793793 0.24994133063750296 0.008286925488444275
0.30289900421512816 0.1253348192757279 0.4181178941538241 0.01996149291852385
0.30228164936563356 0.131049151010666 0.3289708495683513 0.004557977798906874
0.3066577881619467 0.11807059129441723 0.32328971514921484 0.008208200158970775
0.3001164424912028 0.11214987006305589 0.40722121920477466 0.002429354358478732
0.2987937889734147 0.11096695254720552 0.45662545907582963 0.004054088153368857
0.3093261436131283 0.11223530760127058 0.34127462460669583 0.017570980299203492
0.3081607423420649 0.142727308378269 0.38291986769850217 0.007833158781124673
0.305449230293403 0.14933924894101616 0.21432401156696176 0.004958416609890233
0.3059349524192504 0.08885469089557445 0.4417059373389909 0.002628372866858775
0.27703813256839177 -0.006757387635050543 0.2940118668186537 
0.27711172395862566 -0.007954468351211512 0.3437910863935224 -5.6374604706165546e-15
0.2901140140804556 0.0016244096033261278 0.044779893725950974 0.010176378393245474
0.284888267263143 -0.0025489830027847376 0.47150554569418557 1.801060910107454e-14
0.28381208774519023 -0.000917532411215168 0.06257519656129672 0.0012441297795083215
0.28937582864928274 -0.0003185603564574964 0.10014162749639036 0.015974542974033144
0.28165753100608165 -0.0027687128423705114 0.2501992927782419 0.0011877509251526574
0.29284224931623554 0.0014934515063118842 0.12532445772078396 0.030653389191230784
0.28665282713824103 -0.004386303046103539 0.13643904909805696 0.0034842517079886844
0.2985227535405315 0.0031675853347742245 0.30581211851826096 1.4859323754655977e-14
0.30014285463220425 0.009428053698370974 0.41539467330458824 0.029242250407182792
0.29888779819386274 0.009962614920318183 0.422305882492891 0.030694125823996034
0.3009981454487576 0.00348961345032334 0.24295678970155687 0.036493518305403705
0.3001444480465368 0.0006572098655262329 0.2332052276132247 0.021257357502855078
0.2982429932634291 0.01143463609622936 0.2605050900908474 0.004033936502832416
0.3026687967307512 0.008312872531231934 0.15212688977472183 0.036319381487591194
0.2938496245621475 0.0007122549898324181 0.021811185352437597 0.02646482718243712
0.29734632246352666 0.0015188227949007507 0.024818200417723257 0.02206161333269641
0.30580020971537675 0.018182924513572046 0.45417135476899073 0.01703849331859352
0.3075655279958245 0.019004108005538384 0.21615867651192264 0.0003584115583434975
0.30073515856519767 0.011868671817055917 0.17740268968753994 0.03972036049639074
0.299486229284668 0.01866303159267688 0.004566255180051262 0.037744673399353466
0.3100189269949895 0.015315016018147571 0.12098275202053291 0.009223263850745315
0.2967135629616531 0.009725044943808795 0.05038441251035668 0.008963946340914372
0.29084204632284355 6.712036255769995e-05 0.41303562378745245 0.018174872577616092
0.29628623221518485 0.004365045917381968 0.4410297257510125 0.025628839837865864
0.2796196157356177 -0.00878154315622451 0.20623900021567929 -1.7182590195840208e-15
0.29224975431426486 -0.0002918529889423876 0.11221761848635937 0.036141030237231135
0.30624620335097835 0.0012407777988863791 0.35344146075427696 -5.535222294061154e-15
0.2907171190825544 0.0006852344765497585 0.0344263840812594 0.038679231468509025
0.2949078140374729 -0.0008043177694625437 0.1754676483600543 0.0398211059934324
0.2987249086976172 0.15816263084347412 0.33753489374564527 0.038144468864744444
0.3039156429770728 0.14500518166660142 0.24993342705814042 0.0074190560608436585
0.30176092688510586 0.1482549245671058 0.4746366242015475 0.015916371393002695
0.30244071926943833 0.15306637740814133 0.15573465069762593 0.010086407081949834
0.3029821887438154 0.1502892457046411 0.45387985364491257 0.04502598626910528
0.30313961592540084 0.16230378608953316 0.026511191365911742 2.2312710856697845e-05
0.2996726328463479 0.15568317604191895 0.18175267846076526 0.014886947500115127
0.29950973510999906 0.16929833979624298 0.4039998000836711 0.017914001794089734
0.2988932849592778 0.16696141225305078 0.2528206047285975 0.006543333798980482
0.28709998836856554 0.17570011780639408 0.32486986880878765 0.019366970767747783
0.2912920221137881 0.1662637628239694 0.4489977244019852 0.020733978433113653
0.2991368302615201 0.1636734015625102 0.4117065489150238 0.02699326720591513
0.3003969900912957 0.16895247739388866 0.4829308401024684 0.02967370142556944
0.2873343200233508 0.16940094016090412 0.15247879911173698 0.0009108536180167424
0.29578840852883975 0.16593202232428209 0.34574049314474375 0.02772250427552409
0.29074747858154976 0.16961990076866265 0.12531832703993345 0.0003575777097136314
0.2900139930546311 0.1666101939510726 0.18280473269301667 0.000836717217978344
0.2804824423629668 0.175592576019134 0.4292807579679211 0.0033296478293705118
0.2914242736914567 0.1818635909961346 0.07246677227332768 0.009047920464873238
0.30104490152590274 0.15245702342858394 0.3190989945674539 0.022109306711160598
0.3059133635302062 0.16514194113601913 0.30809859744105283 0.023682517910294805
0.30371128216938653 0.15482837409131894 0.4823283796268584 0.039315720934178566
0.3023486731834963 0.16358877575891306 0.395688079882243 0.030308924223872893
0.2926987743389258 0.17124764153489708 0.28761476675896297 0.03702096607939853
0.2976292681265394 0.16121742952616813 0.008394008094319292 0.04980060730094815
0.29858267383461756 0.16479076847496665 0.22690705787843435 0.010455872551127099
0.3027667847135929 0.16153695567523788 0.07921575535897867 0.002201614878283404
0.29817286101655754 0.16373574251160133 0.04236838009254584 0.0026322898873333248
0.23213591850829426 0.18320662076062963 0.0014033560052957197 
0.2799219180863468 0.17603258274121864 0.44610877983464103 0.005325628737672227
0.07160000462604703 0.17402091639425932 0.004761504748019146 -4.95105930157217e-16
0.18278979383400829 0.17568132374095 0.002587796571797532 -1.2761661685987478e-14
0.0894944055541756 0.16462355702525933 -0.0060772984338364556 6.489238000128882e-16
0.18091700216452042 0.17082982188972576 -0.0031212652639553227 
0.2826165246725106 0.17518558115133567 0.43682875309174884 0.00610372515774726
0.259963926729158 0.17273477076004323 -0.0017529005287138014 0.005585614946134835
0.052276894665013535 0.16673283942842623 -0.003155952653173432 0.0012458332637588717
0.02426021644967913 0.180219579529992 0.18900835893292037 0.03216219073114661
0.014251632068421454 0.17697896685510298 0.20126377471394488 0.010538845947495821
0.22464189227458467 0.17412728236104322 0.49917581014572426 0.015243203824844107
0.04096784645018699 0.1860525543154064 0.12941265874944616 0.030949423377237068
0.2613182819649369 0.1754106134699778 0.4849633862766373 0.013283256443370462
0.030295644974376434 -0.013292807939784577 0.10861219350341365 
0.2646338096767916 -0.012344606676119446 0.016273269060586126 0.0024164206979172386
0.12897556192470128 -0.018613782670254462 0.01159199514799899 
0.03940668973019184 -0.007986917934670405 0.41004498256742966 
0.016403167788578858 -0.009598987930468978 0.10369188122504225 
0.02893270732795607 -0.0062812154763763105 0.24702588918306226 
0.034241061762714554 -0.007034818845971988 0.35904302632806623 0.018347673072537207
0.1093711024769183 -0.01446007628437865 0.33983970706014643 
0.27810930369252534 -0.0024160160530784726 0.490384309672331 0.06294574084733325
0.2781654679893458 -0.005314091133360862 0.42552146683918834 0.009218790968792471
0.2526108996058553 -0.009731276782634475 0.3387438195846291 
0.2749058857286505 -0.007373714029436548 0.16241217854990403 0.009413980468671715
0.27561355401765963 -0.006155578432942954 0.23918073438320414 0.010065889080771927
0.2634073033133539 -0.010212096997918975 0.4375166477621174 1.3054110613875595e-14
0.23520515889916888 -0.012073945816476502 0.26143093180386695 
0.21993405911655717 -0.01195333792780004 0.4962703451215399 0.0005110004612355248
0.2731521089879799 -0.0065248276266931474 0.11419964272330262 0.0016805715193807438
0.014595632580508689 -0.0016452241716237623 0.47704665893692116 0.029508562969729285
0.01612973035820506 -0.0025076822893586098 0.36004357689549604 0.052401411814036375
0.017835192151002835 -0.007606788826979055 0.15652258394329815 
0.000997121433298413 0.009397771654786941 0.03645763032720777 0.0023943837910910155
0.00644659456459038 -0.0007418011138910071 0.2304526317261218 0.04673096781442649
0.0009841077193492058 -0.004403197887789815 0.32132914496356135 0.0007208494943358773
0.005429713854076127 0.011523706269421514 0.37328474389105376 0.050001533531614774
-0.007067664442756563 0.008136608670923438 0.20578476424578426 2.7445317458317833e-15
-0.00478711838616413 0.01273387602164172 0.1491204718372086 0.024014372650344583
0.0044353623383169205 0.006901948425636027 0.3526057295535515 0.056537342196903054
-0.008199284184868377 0.0143890384223742 0.11132762754766772 0.01072597721715442
-0.0007568078104149181 0.023715556055841282 0.002665878005875152 0.02394601657614104
-0.0014159928321249664 0.012180935124124603 0.06404258254586016 0.0023321085790001324
-0.0024418346844476088 0.019776071139260602 0.4650174984707023 0.0128141957645279
0.0011273389676551933 0.018255620913588698 0.3972170879818924 0.015175401281953953
0.0012605694931468985 0.026249476876040612 0.44771561312416835 0.013505218678870168
0.0015601078849354104 0.017865961246264106 0.33105041850589095 0.017181378322335787
-0.0023141334027119696 0.023298325882182398 0.04561724298238428 0.0057899670567018845
0.0032377836445809495 0.01360174614278345 0.4771359577079406 0.0074414232424284835
-0.006430648930871845 0.016900403465586744 0.22473298612895914 0.010132831504664893
0.0055213104980541845 0.006932600119986105 0.020399476737903863 0.008308373959122541
0.007823822339994835 -0.0009921965791053469 0.045970291275350156 0.0028869640715256145
0.004785314685539805 -0.003031501699841268 0.34661774239234017 0.05393792978944444
0.010934420945712722 -0.00238087152832764 0.2622586740552952 -9.599965061016275e-17
0.0020337796817225043 0.01189873384520155 0.4361025314800873 0.012810896439047755
0.004001495125117588 0.0040899875692841 0.16426195148125425 0.0038042935258060543
0.005764132937016362 0.011686385340741824 0.4571979855085502 0.007825924761897075
0.012269201140549014 -0.0008962504195789388 0.42531594504105213 0.015325623023605513
-0.009680949594951343 0.005230624329660698 0.2861621909559503 
0.01320702219552985 0.00500101565124464 0.3951619983293928 0.01988196558529147
0.011209990833253925 0.16980819908303418 0.4482916742062101 0.030966190812721943
0.008239441840468452 0.1755565062916521 0.23315245169514065 0.014334007020691538
0.0019349625749666057 0.167671356115434 0.11108774585991574 0.013488752524779372
0.00014706104460719335 0.16268974443562412 0.46006649585621634 0.06166414387375764
0.009075271597588605 0.1630936790844044 0.14496467959745948 0.0052258393892160426
0.002964951179534044 0.15737743072427599 0.29751578597674 0.002489870937390362
0.007153983346621739 0.16022837695002828 0.1387092753600527 0.0050438511962392005
-0.004639708283580054 0.15861555446903797 0.20656656050490224 0.02079778548359064
-0.0033382017402823205 0.16554576584935846 0.2198510720735878 0.0029899596576720712
-0.004121871056180145 0.15254822253274633 0.03651928736975831 0.007942917575063236
0.00430720030411297 0.1680121844909752 0.10583066056087245 0.013479623115221336
-0.003983473046097101 0.15614637513645346 0.33499704604379393 0.019177287913990725
-0.0037022764352603694 0.1554043361412899 0.451616436988362 0.06317622951268696
-0.0053573409510260465 0.15601478758934212 0.2486558553961104 0.007533480702387031
-0.004403613886193378 0.1520241982048976 0.3938433062910254 0.014673982349389146
-0.004846685738412441 0.15617107656637447 0.4319888859632143 0.024290707461648103
-0.0016259867651954418 0.16143478866379138 0.1016786641589398 0.021725206931989847
-0.0016945455560438284 0.1555016103879878 0.07401603780895158 0.0017945225175940436
0.003674020858038854 0.15588078163151353 0.16534839330620527 0.01007561598652701
-0.0070207505345033444 0.1453990568235027 0.3643162037521078 0.007571211092842238
0.006120947365634507 0.16726455937732834 0.4110657228186511 0.02627747961510896
0.009123378953596505 0.17695263164846037 0.47953632715773536 0.01706156008309629
0.002328715997736104 0.17436885263091906 0.37704896896038115 0.001994562290378761
0.011778557024892274 0.1737403550804318 0.2799476025702404 0.02931144300355558
0.006159399830983328 0.16473778741864645 0.3040444401730608 0.011123011112797716
0.00603881325113686 0.1664477660568503 0.17579076598232943 0.030102146015179937
0.011965398415065203 0.16636879872526647 0.0022328255554185834 0.019928771717210747
0.012266361740017877 0.17116662319965456 0.02977372724251274 0.005709301033709232
0.004434279278927519 0.16646767471241783 0.013981046100780346 0.017521700871140675
0.006654338802892986 0.1673487928588952 0.12154068393578511 0.019613347057940603
0.27153193363975353 0.1782659905090484 0.2975987341423883 0.003523059972572572
0.27341018415678875 0.18536232632908792 0.13289722134962728 0.012575962721269119
0.2718652874099909 0.18572733678516234 0.10385861411918745 0.015147036839683176
0.26703570029789725 0.18519665049457731 0.18047230083561674 0.013251314435531748
0.2751986928504962 0.18582380615493893 0.22144216298523206 0.0074177350039288355
0.2799969209243486 0.19026546739877412 0.24214318793017095 0.03332369419608375
0.27570553402850473 0.19188202710884197 0.25223571673825107 0.0313937804860408
0.2750633235902024 0.1822467126217741 0.37870577592220994 0.01312309625512111
0.26438726889198744 0.19001803981761387 0.4064642382020497 0.006229563493546358
0.0953180485088612 0.1874774818187941 0.12454863746388953 0.0023919647658374897
0.23007770957373572 0.18564941844112204 0.3430172526317644 0.005521613933274437
0.20619500310003022 0.19172848910636253 0.22513436865006461 0.005967914784017501
0.21004389884570324 0.1870571722877389 0.24210190373280746 0.0031602685694413404
0.22116778644325288 0.19436401400468467 0.18781493005839747 2.6150744072883092e-14
0.06743468039646734 0.1894044595859905 0.03216769095505976 0.008055526239395816
0.2695229955547237 0.18924534743449548 0.06227746375892772 0.0007231345016351717
0.16081935704595307 0.19005189840475026 0.13185202980553337 0.000317870797255975
0.2589075076709195 0.18848846103895286 0.4268015942091378 0.010030608805777157
0.19889618417084198 0.188547949208972 0.31806035292211854 0.0030707831369102398
0.17229287607714286 0.18890660007046425 0.09389867411613488 0.000719450197534432
0.20821012803036382 0.1887741143561429 0.36085283892778763 0.009761566844442543
0.1399991319468803 0.19472446327773507 0.16727640086705273 0.0005764711413970981
0.22564188587033246 0.19015603628396469 0.07111928294580835 0.002582737589576774
0.11482554860545668 0.18925861216119044 0.06699363704599687 0.00402699117485177
0.041046574232836024 0.18433862732733844 0.04959302775246797 0.007787474632747736
0.22134941525046686 0.18568976776888396 0.26817060393728503 0.005495263680832586
0.25295660602522235 0.1901328630360646 0.3620854589530533 0.006948670493057282
0.14082949697508207 0.18994456696624085 0.21375369310700043 0.0005493592387884298
0.24215540403082345 0.19573377975644826 0.1752997665027876 0.0027977273584259515
0.2094371813280626 0.19117416310445112 0.19222512265760194 0.001172861614062753
0.16727773001875118 0.18946674951415557 0.24655393546889917 0.0032432402934444724
0.23715882028854612 0.18642131139617954 0.322902356238911 0.002436802078834058
0.23789383861992497 0.18956564880720297 0.3968047646856431 0.01117160211842706
0.24517667532944853 0.18984798148252358 0.10695440794045448 8.034525733393272e-15
0.21335589863257032 0.18483273866196923 0.3417839770849724 0.0028567984285835283
0.2336924797449107 0.19230927475968493 0.22840969540328354 0.01004973978387853
0.15952023196252335 0.19000002082063777 0.09640559687310059 0.0010160220748468979
0.06914357605002582 0.19113268777418582 0.08890003841033878 0.007245384792758636
0.1807140615548698 0.18888614380076257 0.2643166655350351 0.0069851191626789134
0.20925000161511048 0.1911066533250129 0.20169910502205612 0.0011459928775710744
0.07940110486730924 0.18877228548581837 0.11906014421164961 0.004903154670836014
0.25000394832597206 0.18623950373798343 0.21985620303302292 0.0010888215908007876
0.20398124541002988 0.1906483038768067 0.09124168508838436 0.000879052824904335
0.2681135409376884 0.18824661411680474 0.1722676763350918 0.005325800364656559
0.2516174472697399 0.19064218094468008 0.3835190404051974 0.008399369167956017
0.20511063509133293 0.19336241426704148 0.2897041919087262 0.002155208301390844
0.2503791492267305 0.1876723160080376 0.3206375547838493 0.002372783020657459
0.12492180414680301 0.19152702931767834 0.13874492616009107 0.0025817171344077656
0.15114334521410566 0.19215532306885733 0.053870470343879005 0.0021457001767842348
0.25898336560322593 0.18462031516044014 0.3341414355076152 0.006398832972182074
0.241561590766279 0.18933040221896066 0.3631668634194655 0.005232509265522793
0.1984097433707922 0.19120990340172203 0.2669003062141623 0.008277006658387692
0.10428047832822031 0.18957688519539018 0.056807587346287235 0.00043480087772584806
0.12505403764964496 0.1890588060881343 0.18016196757324576 0.004419097710761986
0.21211408894172548 0.18875022798483398 0.06384865827033354 0.0009368815876798577
0.09148786174541787 0.1911764212671565 0.0367440696296885 0.00022368294612749753
0.13309959925587098 0.18612306880943605 0.07034605718263527 0.000998450642148946
0.07070200989931477 0.19382613274840924 0.049034481332097736 0.00224388572243953
0.1915551674465268 0.19354144874025242 0.1263291313737501 0.003391103314870814
0.2698898440912661 0.1880376050004578 0.361111868245775 0.006147423267504071
0.1679339502498677 0.19178009655854353 0.2399422274898763 0.00734478169155714
0.13880264524609914 0.1905037292722206 0.12786941303112967 0.002442942499231086
0.23479550036855396 0.18738983690993882 0.2846532530443813 0.01115780129455165
0.03641068837850328 0.18399972443265417 0.03984999707644159 0.003858730913488572
0.25350749340200845 0.18920293927249482 0.06400266292352609 0.007400725745810651
0.12484622313647176 0.19087872463251726 0.10409601502796384 0.0017733440202655486
0.24252228994240643 0.19340009145550635 0.06168691494247933 0.0012224256832158473
0.25336406217892 0.18980950950545464 0.04505758285357754 0.006279663357744143
0.23993905066428423 0.1921944352711295 0.24097054381441627 0.0079580177088414
0.2558945351029466 0.1930270008173802 0.2809246334699907 0.006060166408317786
0.1554273126319819 0.18877861302408275 0.037543037528283266 0.007599136672083964
0.21908409460327363 0.19200159464777883 0.0882491401789346 0.0028618283930432536
0.17775248331126497 0.19437583644148398 0.2354952834790176 0.0035811547871847653
0.18203628280764955 0.1895840512303843 0.05996226155775876 0.003893880560822723
0.22817847125793844 0.1907626467915056 0.14488071778664208 
0.22627059246271558 0.18960180727997716 0.31737734960437103 0.002493826687875361
0.20865246242333108 0.1894750757405027 0.03554717772426422 7.108268984628968e-05
0.18777417716298453 0.19758159572812484 0.1608991973395732 8.551993269443986e-05
0.18797788643635996 0.19046055166520207 0.2878289349710488 0.007296237666659643
0.1748022801715401 0.1920228256247789 0.19598398050284863 0.004839435508898375
0.21898765102078496 0.19119875775923903 0.14481340044168065 0.0007726229822751022
0.1279065249223566 0.1882821966928562 0.19234008227678537 0.00524220162608958
0.10801257109853057 0.18687724750657478 0.11501043276528061 0.0013815843998505755
0.07091753725096081 0.18683074588122872 0.4146367889774226 0.004123445666052414
0.13656450636173312 0.1892627245367064 0.3333146983336799 0.0020009398024226914
0.055199043746124714 0.19034384606967078 0.17655734199792392 0.00957474981309086
0.20896679236096238 0.1963496906710437 0.472343353231318 0.002976372569720093
0.14316335295782373 0.19036422847316106 0.3571448798524695 0.0020675997959445623
0.10198002722586114 0.18754787664984043 0.48380110227738776 0.007288905869287952
0.0951733989769452 0.18884603481331774 0.30199614102368233 0.0011283085420220073
0.035045899306426 0.1858580357240273 0.10596869067057679 0.017034297408787605
0.08037154018718848 0.18792458707147708 0.43405487989173586 0.002549103472966239
0.0959078545543388 0.19184737759798304 0.24946627883487693 0.006930733494247947
0.10121153401219218 0.19005318195384494 0.2634272633537522 0.004474546897108748
0.05972315938208268 0.18758619496983256 0.19946997623251403 0.008520370506494377
0.17519415524945997 0.19543715764179642 0.364202008631835 0.0025982878756677314
0.08852769201379512 0.18387860665689926 0.40935411177166203 0.004940042564067198
0.0952374281511969 0.18442296394736674 0.42679086906443325 0.004521194259655879
0.1716838897983609 0.18845062031780294 0.42092036264462335 0.003325275895078148
0.03329980148140162 0.18975936098868118 0.3450629736544761 0.005654018810533917
0.2085745046234459 0.1883979410803238 0.3848249846229118 0.005066792129849193
0.025218189023851933 0.18126031185775798 0.4434414007243225 0.012071431525961445
0.13900897324864497 0.1935806708231842 0.4097734191624784 0.001381569054002315
0.11763923057822169 0.18812282840179187 0.18553557706241033 0.003959138002939009
0.05941435083794673 0.1882793114786223 0.2845965699283491 0.005293329835158535
0.23707337689512356 0.19748234669851586 0.4212770241802527 0.015277305216796452
0.17096271776131278 0.1903329468288259 0.40390309922736556 0.0016625111626306255
0.14600995316402943 0.18655025190378705 0.2672631578257921 0.003936215338894247
0.16322345558549975 0.19082332618594727 0.41508479655170233 0.002182836767921033
0.05356486612382302 0.1871553595358441 0.07862282669903163 0.010044339265530593
0.06663617526197808 0.18688350771829 0.19116621788372035 0.00763835458427108
0.0782735556645769 0.18953042834467157 0.1280119362921832 0.009144948494318978
0.12630819801071222 0.18837652897116164 0.29712372599049025 0.0017157919305162603
0.1041421789677758 0.18931014290922835 0.21010563416262093 0.0017290372620336377
0.03918458203255892 0.18662576396129882 0.16982468523482314 0.02580522583245333
0.08561167242710893 0.18527763140661846 0.1992280539157854 0.0025943758166528256
0.10207072660390143 0.18646776726616923 0.31730795309084525 0.002697303401159012
0.07746066893534789 0.1875141582524896 0.23188786656984636 0.0015493891856944034
0.02845279390711938 0.18553359335428923 0.2830204675821552 0.04197876696278315
0.18457781847661386 0.1924326080271075 0.3185729187570161 0.006099262772719303
0.06640460742655031 0.18546756822964106 0.3285714562931239 0.0017663980908771513
0.2293486178982594 0.19888341128076326 0.4671983357907962 0.0003300853032366901
0.07699719839668291 0.18560332671724317 0.4115117647941636 0.0068887605197983275
0.04441526080605051 0.1912497807630494 0.4069181890509681 0.006321855332882811
0.0680431855758838 0.18980767742830676 0.28529886803525856 0.004908197483666747
0.08824965946870303 0.19241884501723097 0.24256825678203706 0.003194068871296014
0.06225859588610947 0.18961638649539056 0.34299677188720606 0.012107319184355342
0.118901010786021 0.18508160367770454 0.3364277783584655 0.0023118014878092874
0.12790196770637524 0.18963390843912104 0.4326368263893443 0.005328287656190555
0.14547513130052642 0.18627145832438377 0.25538234182037506 0.0012795888511782756
0.0955824909949109 0.18784286655792937 0.38809275731899334 0.002649412415351502
0.11623809160136617 0.1868180690504826 0.27068523772823244 0.0018285920923124376
0.13385397162237533 0.1902720958219941 0.356163196539999 0.0011014783872382583
0.22814305818957648 0.19733098099094276 0.41940908576833436 0.01443379528791752
0.13047880478183393 0.19272541851409025 0.24375369626286936 0.0028775867602044533
0.07939773254794809 0.19145906783461958 0.44965539258717435 0.0029586131721297676
0.03168820418095224 0.18359820566908908 0.4803957484682379 0.0012659537466877036
0.18719297011996094 0.18682205095794685 0.38742509544142395 0.0016317421413105128
0.16695961437796042 0.191924595652658 0.36669760986281286 0.0064594679685858174
0.16046551653182947 0.1875513272877409 0.445390012463796 0.002723367450372275
0.1848450191721981 0.18810956384561828 0.4258018802784157 0.003401548028809882
0.10585921467956297 0.18509898726278298 0.4249014729014853 0.0058476820811045015
0.16573444361827153 0.1924293653195398 0.31071136387571857 0.0024993762029738736
0.13660775412667545 0.18915803472922332 0.44372334783242395 0.0056806560948294595
0.16738201583801313 0.1890990021259049 0.4906374479735531 0.005853864753712838
0.030132998346374805 0.18334092984072828 0.43064809458799713 0.00425261325515444
0.08363643273005215 0.19227046249265778 0.37370502995449695 0.003514791586877335
0.26679001152448373 0.18173379933069347 0.4751178147705938 0.02259162448867573
0.096537550196134 0.19025586087636884 0.2729745225332686 0.001630879177392245
0.04655039188403565 0.1934722251082029 0.31188325856330273 0.0029189405587619582
0.06016013238534171 0.19373360723914063 0.4536635601040035 0.010400214145121028
0.2540651306618634 0.19158963902624432 0.4642866109555014 0.015066747719661218
0.07842675945079768 0.18380162072869355 0.334922267291329 0.00490181117935986
0.1653972096538975 0.18571685712448555 0.4459673251979181 0.00135999899250234
0.030245700192612763 0.1880203691661115 0.08674168433953981 0.018792442347276197
0.2043454292031353 0.1885201682308833 0.42222948037793906 0.006403428748910992
0.1523900097680557 0.18968961952318253 0.46376821819368147 0.0013308105841911102
0.17868268196059514 0.1939104246857008 0.3533411255865072 0.007884661514074827
0.05222673708616913 0.19394983465100588 0.10905114426691842 0.0051748963272591235
0.1226467399183964 0.1886618246217689 0.47124994622850047 0.003119399690403395
0.1023277668713782 0.18257342196307086 0.34566425281963703 0.002603246659557971
0.11160612030228269 0.19112025735978205 0.47682968581912033 0.0023631675784331193
0.06986378976759355 0.1916576064056224 0.25343227902241977 0.00346936346906705
0.06440046162739914 0.19105898355549086 0.2644573327252925 0.003663726129355761
0.10452014734186033 0.1934245851771714 0.15922598560664572 0.008445515813317357
0.08231746565300362 0.18821268711325748 0.46978077068236684 0.004909921163956147
0.12692845005666464 0.188115345977417 0.34601888255441016 0.0027003888998278014
0.08577974136265316 0.19268711898249766 0.2559724449850459 0.004916104019982865
0.05006862580902799 0.19046995516136037 0.4658954628390827 0.011174549274400614
0.08009909953730124 0.19373136119671827 0.16291155446646136 0.0050295303210154615
0.04336667796542182 0.19049855164272123 0.4299570417226096 0.014771254510787214
0.1407778335726334 0.18787455242346546 0.37317606302847134 0.0010552187184468655
0.15621246433895877 0.1859168250118544 0.2820346552241801 0.0020377823602004902
0.05536238166375422 0.18605160275317523 0.38286606413992497 0.006872229159042207
0.05009252683576789 0.18965955180985267 0.12381247450318708 0.012050511871004364
0.20245084188148962 0.18668180313867103 0.40448084637354875 0.0069963580723403935
0.10272308280121266 0.18823390314377555 0.4456605896142195 0.004321461676402584
0.03867933347090338 0.1897463829441799 0.15372380247836082 0.0003524753561547778
0.2467984639442864 0.19250263386650582 0.46602404092298105 0.001646462841598732
0.11919425171126921 0.1863725217409484 0.4099878089761577 0.0029361376402157378
0.04074632056504901 0.18769663373197112 0.22529460988944583 0.013373071390607899
0.039894354216185854 0.1892220882902532 0.20067581577063423 0.013054871703036349
0.036818974402857516 0.19019467951491256 0.3340935295257703 0.006178148714847534
0.14046421457260094 0.18541402526151016 0.2844351576099637 0.0021420034913066264
0.05420118483743924 0.187388825579341 0.20795048737205252 0.010040644736650244
0.030687372450099348 0.1858504349986235 0.38739604580730996 0.020746460339372583
0.029548054689077886 0.18910519636715892 0.07413654009281039 0.0055365219634163675
0.02520652850518878 0.1885617957185147 0.21849176718172694 0.011366275888790583
0.015372354822546924 0.18931010641862858 0.30671141929564616 0.006672025388159315
0.02899256338504755 0.18139734899030086 0.10505890761799923 0.013008553410843017
0.04126179329937611 0.18771071439934484 0.2648539321237426 0.005115709042191701
0.028233549210617517 0.18645173466894255 0.3697366689568103 0.006637980896459084
0.13431157961341392 0.18863463477677953 0.0323030299006313 0.005265568882105759
0.142049152102762 0.18616312277357272 0.022837956690599175 0.016345607976378962
0.15293178484616385 0.1866306557513031 0.022556647099740472 0.011876720105103246
0.26588019337069985 0.18519001952094277 0.03143336064968614 0.003961191429026079
0.18150562482495436 0.1831756975726607 0.02277450320589682 0.009006988386494094
0.038345776924303354 0.18318678341141637 0.025466945561285467 0.00612659581364054
0.10983224888062335 0.1855552370764701 0.4827595907895054 0.016520178902907343
0.20083769940996216 0.19026442126646356 0.48139812408270266 0.0014078940976989735
0.0652499581286612 0.19222932642950039 0.4676959121790652 0.013285288401891379
0.24332168025918977 0.1795361911402957 0.48599478568131543 0.012978293417927163
0.2808369734598061 0.15526483530436103 0.5122188144478642 0.0769013891071097
0.28054948833182464 0.10793018963041741 0.5136570058898549 0.0193581257142862
0.2890551144574694 0.10412776575181792 0.5123339686161358 0.03381199538330893
0.01672628165618451 0.12338328818879571 0.5118564376181637 0.008037831028451244
0.012853082013794391 0.06351972417845224 0.515516565665266 0.0015074355764922009
0.0114559809987221 -0.012400338183806234 0.5048927484875387 0.09497019821014922
0.30020805220601193 0.07077161415671816 0.49507561682786483 0.024985190279051377
0.2979879083225513 0.15838487134782497 0.4978829091751016 0.06084026840535095
0.1713315881436493 0.17288339664025204 0.5055682654727486 0.007020610132607376
0.0019155877585530084 0.11302193538606016 0.5098438154713432 0.0852470922291548
0.0014552807517472918 0.005988276312066927 0.5133126656074398 0.043181310474945535
0.01990031935106092 0.020407525129125505 0.5170995549923854 0.05001626284967907
0.027372883296384723 -0.006722262478210877 0.511642592839555 0.06817428324205238
0.22717706690560477 0.0012642944628244593 0.5128110623593392 0.023482908618626713
0.14848238264525818 -0.001960405673362674 0.5119397503549837 0.01243011751288875
0.12770162913893027 0.006913738364729429 0.5184671318257447 2.1872073592940905e-14
0.1463665495815492 -0.0045875206752868216 0.5068535126855462 -7.11957736942151e-14
0.07358473877062686 -0.001056876722557453 0.5111123585239051 
0.17434239302007223 0.008006162155406662 0.5169324424343775 0.0024596652537528766
0.08105266867608153 0.018458512661880526 0.5185522333128687 
0.0004959129539993228 0.08603788593202456 0.5086799719346703 0.0015000548057670737
0.0023808834139237454 0.1676284410555767 0.5072710261281781 0.0031335441105166885
0.09603513342179225 0.14502224017156895 0.5152311136789627 
0.16916808231711036 0.14893922650634273 0.5166430708095291 0.0017887938850502645
0.27914962895452233 0.16778388832605995 0.5095936303818533 0.057873729833104744
0.2624589607460074 0.16636990295456489 0.513857472255421 0.032517918289910616
0.046918626515635026 0.15371962947069898 0.5179097062084899 
0.13223388468160652 0.17210111328200078 0.509956362961512 0.00034873923490425017
0.045079184172893645 0.18125436035184656 0.5223077769335219 
0.06002429016897166 0.17491162546467326 0.5076291391954025 -6.688954423516e-14
0.14901954205683932 0.16788454051466875 0.5108838846531106 0.008640966861942684
0.1653383240033285 0.16895813078065722 0.5104806079691978 0.005277897569982929
0.2177956797608672 0.16062686775542126 0.5159970666594835 0.001674307485812922
0.01154593654987559 0.09505826504301479 0.5153693934783192 0.005111400802295211
0.2426229705184038 0.008450621047652866 0.5164896171239206 0.025776959797260503
0.22908228097695568 0.030346885582008765 0.5161707308216085 -3.3014626181785587e-13
0.1155274803185155 0.022306643234330563 0.516084501941286 
