x y z curv
0.2394026762842044 0.3972926470563471 0.5422142995427155 0.010159508254579409
0.2418535858548561 0.395831429332478 0.5197345213622923 0.010612350466180113
0.251639427483336 0.37672621125876665 0.3445846287090735 0.03439644283726352
0.243850189149505 0.3955925150424471 0.5132704484465855 0.011721076575509819
0.2533208497842434 0.3778012378652781 0.4304543534286183 0.007715511196477624
0.24639926352518557 0.379118551647949 0.392015153694561 0.011664439538846121
0.2500536452233419 0.400400457345379 0.6048698405741868 0.01543602407106896
0.21860682387820968 0.40483789806860454 0.5706449456059414 0.008326568208397311
0.20896712473524715 0.39835901713845806 0.5381045689782931 0.009625033751851354
0.2352830956715468 0.3902012043361672 0.48655628312679156 0.016711466637329274
0.23943867333564717 0.39541604126832114 0.6219701454039598 0.003944403688437152
0.26053327929783016 0.3940270289708946 0.5603537466789178 0.0020481813657791306
0.2356785896124674 0.38515833672934924 0.43382292637235687 0.01627294052966447
0.2627010227929258 0.3981629222257355 0.6289745849124058 0.009064775826850724
0.22659745623070315 0.4051899970013754 0.6124369364658994 0.01910493542284975
0.25599904787620387 0.4041072860718208 0.7305963686421318 0.028042542897937266
0.24677983943316126 0.4057528611108951 0.6645947711223696 0.010289512674485404
0.23736157500997274 0.3995157506616281 0.6012790307885231 0.010462098843350679
0.2753377559622519 0.3782351310497754 0.4840669257791107 0.003607848170176125
0.2672018662813432 0.3858589455543833 0.5348767908463461 0.0037178620676476385
0.26522545260448765 0.3872014357004838 0.5259811555427197 0.0032758894691450433
0.2723418890627988 0.37751446507733716 0.47712813877861304 0.003666759324192575
0.26675390563780566 0.3729409633275406 0.3615310172822558 0.005037894013876182
0.26367839838556856 0.3972264025626273 0.6267492651396365 0.008676272673847981
0.26161512931846437 0.402560160137896 0.6947715269777308 0.007287189181126739
0.2601099584926422 0.38432184033747363 0.5072279304582109 0.0042609683033772465
0.2620258572027083 0.38470640557923363 0.41396494852543836 0.006100051765637196
0.2767944210623007 0.37847126983582263 0.4593222429026782 0.008206572511580202
0.25888093479011876 0.3870662049886803 0.531479935169795 0.0023741827913176523
0.2750266750941819 0.37918355012862687 0.4461356001551253 0.009098248118346976
0.2691051908556987 0.398036517796324 0.6087500975747131 0.013873120503274975
0.27335852836698327 0.3839467787913402 0.5231045778652521 0.0037774394296622295
0.28804421712862366 0.3689269859519803 0.38382626531012204 0.003959749870224891
0.26912114603157555 0.38168086538064255 0.5122399008163436 0.0028269458537046547
0.2659289807288817 0.3970829062161975 0.7136408678201698 0.010976085582380666
0.27242819795187 0.3854236667855487 0.5694333841659047 0.004768484388686404
0.2989309097915201 0.34928866486966115 0.33860068057553566 0.00048301311892602405
0.2511386139050306 0.37604378697817314 0.35253853514471106 0.007522992487068929
0.274351345654885 0.37274592087570524 0.4021042875989805 0.01057747836901694
0.2859979209076832 0.3970061388115825 0.6942614685580168 0.0063760341510981115
0.29909430513870533 0.37233778695707015 0.4306652435207048 0.0007345409263653064
0.298847431071811 0.3698398071323316 0.48511515821137025 0.0025085018811511818
0.2831915811634616 0.3893024193164861 0.6638317907664111 0.004054734866387235
0.2916253331332939 0.37182944830042153 0.47779040768136727 0.002331854725650848
0.29026663036887235 0.39434983476769564 0.6856312618941371 0.008222974090401982
0.29871959663207215 0.3806339731105323 0.6123131032075305 0.019528439717454774
0.28740155573533027 0.38114775215536867 0.5432885840940405 0.003528456075630876
0.2682488595661186 0.40793208999834946 0.759267364235065 0.13561568982164568
0.29116395340280377 0.39161213766409564 0.7172738994618817 0.004764291990090178
0.2726331076355535 0.3958913561237198 0.7173688747262098 0.009737085259292805
0.30314150464403894 0.3719184624480411 0.5744867541556963 0.013303683923476736
0.28065661328436403 0.3830057881376786 0.5664272666750593 0.003911193305324102
0.2926083918599739 0.3765516546514883 0.5321279048453076 0.004246509736909807
0.30057368576126053 0.37249534505060766 0.568756288640018 0.02040324856314679
0.2947331513425018 0.36795357932488326 0.46247746037414783 0.007052552887779989
0.32045788936464314 0.3771152378566663 0.5922196382683621 0.007355046636606201
0.2920019689533609 0.3895755705483422 0.6477555341523585 0.0031421081769643076
0.2694501710900763 0.40806732552111674 0.7466276433660579 0.0318466964988851
0.3101711164122632 0.37490927640595706 0.6176944379754972 0.014104556855513343
0.2779430936861845 0.3852610925768405 0.548216447238425 0.004288643809870724
0.3104696320086721 0.36429246923945463 0.5130331178869598 0.007201522822751448
0.2909892626311149 0.39576758157341235 0.7343343115234724 0.003590895829703413
0.29490569334746336 0.4000646348552383 0.7576161664430257 0.026478191181530594
0.3110630374984613 0.3879581753699379 0.6814877355083243 0.008956283925413396
0.3159359721101491 0.3773159304651109 0.6610823450902311 0.013236706150022925
0.2907563009405448 0.36979249339501263 0.5042028804912343 0.004479269499578408
0.2986025186146818 0.37171881407542273 0.5592767322867044 0.018145337096674628
0.3140187058282833 0.3870659985235513 0.717481097250658 0.012061005743687046
0.27614493128708284 0.40011978102126383 0.7304693215109458 0.009385132827989785
0.30128594458373054 0.3925336893897425 0.7448183322537666 0.03337758317698647
0.22915812041566186 0.3783948083548222 0.3964407515112102 0.004798646262563206
0.20081108036587075 0.398382563156471 0.5205305078928646 0.013299699752024885
0.21074412404188944 0.39507766755971957 0.44852998920843273 0.004982494842998527
0.2365650992779353 0.3863458830772378 0.4148568714938173 0.01644661407178082
0.21378199245233245 0.39186602677121724 0.5051439425301648 0.009839266641918391
0.2148211378815317 0.38418803286194514 0.3544626683155821 0.0065359041802799155
0.24613626074313566 0.3800340636956628 0.37188895102230063 0.004352914901046533
0.21652966805273433 0.39738348460738443 0.4892064452921929 0.004145785898327054
0.2028136837904148 0.38826377872509193 0.40019731526782637 0.0031912083414105887
0.2212393196572806 0.37779506091326237 0.37212804664135335 0.0035979324580171215
0.21923109278160074 0.37947655232176086 0.34206789778978114 0.01465756264760083
0.32771713822934473 0.3718775323090083 0.7549067426474653 0.04029612675450822
0.3273137949771436 0.3693316123364019 0.6748066885776982 0.0034882166997771474
0.3381421792979613 0.3600115672190256 0.6697025759112644 0.0020508452644321935
0.3388530248895127 0.35259175743955684 0.585716326691905 0.00455656612501354
0.3411834255499163 0.35336367156954535 0.699713103638692 0.0044384129275915046
0.32440509128799955 0.3700956025994053 0.69043143530961 0.002306765275146114
0.31799935171975413 0.3563743539403085 0.4720985266119714 0.0037033312575071252
0.3522901960536346 0.3578011613051187 0.7433314855130471 0.018406872116310855
0.3380368914816097 0.36140944668081465 0.7193582297125856 0.006062092116229076
0.33459211354444046 0.3607110219266815 0.646189832989982 0.005935335067877
0.31407421949769326 0.36607919438332254 0.5296937556263572 0.0025429731289403385
0.33127418360965777 0.36667385900684407 0.7092071933640719 0.0023023183388649355
0.343540633904533 0.3520537799416619 0.6760401491514106 0.0020132435401641314
0.3306244808834778 0.35212789122527005 0.5602211605479892 0.007232733633307858
0.32817241398580893 0.38091292089407075 0.7469423881489883 0.02413151027288607
0.3231195421700391 0.35964059175209107 0.6246936672297496 0.01416195483056935
0.323036353030927 0.3545350826133049 0.46286469359437515 0.0019312953783708077
0.3330071478036335 0.3606759953360279 0.6818566971110241 0.0029469001338059695
0.32689607112092467 0.36475714978610285 0.5993516870023069 0.033914151599892056
0.31544377909418353 0.3435143774863234 0.3618412422669326 0.003925829576332008
0.3495215643866124 0.342228361983975 0.6298136659775303 0.022766208538868384
0.31267928126485195 0.3554374084136097 0.4348245528557465 0.019211244291403997
0.31525017536186933 0.35005617068443584 0.4268825772879332 0.005758966619329368
0.32276425156894656 0.3530175364409441 0.5044914567889263 0.007108790444736448
0.3363751881761365 0.34116177100854483 0.49726568287936035 0.005929965200855936
0.3319159259614853 0.3229987419555896 0.3206729912814771 -1.88092418245852e-14
0.3437900747564191 0.3433526389768437 0.5426507689554827 0.01030046497552282
0.3562912265651921 0.3368809653766392 0.5761519899785514 0.004219043719406261
0.3516960988388283 0.33846421864155735 0.6708907898450592 0.0012490980668749916
0.32754795793563135 0.35161657424712356 0.5347040442334582 0.001834121821104327
0.30695716351302504 0.3494447384211133 0.3575720050339823 0.0010344386765599686
0.32957795219720054 0.3432100008911347 0.3944353867710464 0.0005897604938281904
0.33370875569833897 0.3505630758132496 0.5469532681782047 0.004717468566192494
0.33890411288207 0.3287774115332254 0.4190828250009836 0.010015129357134422
0.32905502778630447 0.33264636307869455 0.37470595937275675 0.002490971022155056
0.37412256645132724 0.33555457319115406 0.7236028496699254 0.011141694019715723
0.3696759327103061 0.3105563617357539 0.6231146137870244 0.00638921786729986
0.3683665038363947 0.3246827739805536 0.6773959888133829 0.0042793923454031236
0.3415313911437932 0.33432672773582406 0.4749958130039029 0.003208136702049911
0.3587145337865314 0.32891572864389373 0.5810120704081352 0.008081522206672336
0.36083388440231945 0.3489119782453705 0.7408056220292767 0.021062269419190958
0.35342163819980316 0.3292389887348935 0.5587521826890807 0.010542415381144992
0.3592636177885677 0.337790128788935 0.6073675894041171 0.005329016943177252
0.37955150611133825 0.3023724729381213 0.6491804503540871 0.00198301059742813
0.35970489744494694 0.33011687867639766 0.6269413245935417 0.007612354430525648
0.37053511495494335 0.33240798082814477 0.7121901661717088 0.004907585749826222
0.35395248145927394 0.3221180516552815 0.5124730943536941 0.0039932630604373465
0.35212732243149686 0.32975201564695333 0.5253285489090126 0.005626719575315019
0.3612926160179495 0.30887384808085594 0.5446454294329957 0.003514504032545329
0.38305470958851584 0.3128832393812649 0.7054161630273482 0.014084772158136994
0.3516044135646619 0.31600886135971407 0.43690257178349473 0.002635884991253401
0.35430932434674023 0.33790802370107953 0.6507668245653245 0.0024336534782890976
0.3650753808914103 0.3203320936661778 0.5896062582877076 0.006585924546446167
0.3595011824048555 0.3356587298058066 0.6157127161484804 0.004225990304979337
0.3907091709240902 0.31185016169793545 0.7317324171575789 0.01037666001349209
0.34111546510418767 0.31880864930471886 0.37671408278638624 0.0025248528656227707
0.3510582600901962 0.3152504002357968 0.4922988459592761 0.0034604736415765496
0.3880654793629986 0.306396661382108 0.6898841534092888 0.0029864408666395903
0.359033618986126 0.3358994390345785 0.7038163590154987 0.004558092416736577
0.37097200668013725 0.3129601147635562 0.606972243002802 0.004267855663998567
0.37875907233713496 0.32845806790563575 0.7611855601967766 0.005749485081787508
0.36713146780411554 0.32277810731559864 0.6428203706800274 0.005245154440951484
0.36422593419406846 0.3311318358711048 0.6884239279557244 0.007765159329993252
0.34590567484490314 0.3243471604976071 0.4784383761797735 0.00603170418714771
0.35191566326370277 0.31858328861365304 0.4521651646861142 0.0010877175467084838
0.3725904098264428 0.295980403408241 0.5541849287359368 0.005486441185196321
0.38584821269270614 0.3005509668806288 0.6852804197002019 0.014078012429035168
0.3736477603877587 0.28771014019311947 0.5338250587996074 0.0019074075084152906
0.3597778019236559 0.28076203593451454 0.3356235358836412 0.003467644172204072
0.3660679400275002 0.2896001735009196 0.36458686953715425 0.0011383023367959177
0.35949609142560035 0.29372386945211154 0.38014916344848787 0.007213625277661182
0.3549636883861644 0.3033055484339205 0.4163482151724349 0.0015741778044691059
0.3494152782558344 0.31530957627299105 0.4017046450053946 0.002023770344046506
0.36764479801760636 0.28961482666973626 0.4400527423203052 0.002727939266068182
0.3786341949966093 0.29021772628021314 0.6018383811207136 0.006108810354361494
0.3602098796537704 0.29735151504789575 0.4231225383400541 0.0034932476243315818
0.36691975774574226 0.30193796220204444 0.5145126581885016 0.012127375009486473
0.3812317074541022 0.29566896805707465 0.5734135552927043 0.0029210356573700054
0.37909849428207587 0.2893736850738615 0.4850987249339411 0.014242934219457066
0.3597883434403969 0.29646131770379164 0.39656881326264803 0.006014678531077201
0.35020387448382634 0.30755076785745084 0.37375696340120673 0.007506248029689105
0.37497269928160604 0.26389961035600773 0.4214694489869323 0.0021313694972142955
0.36998204685546976 0.26385297332324437 0.34533443769711347 0.00714061258503915
0.37429312063949405 0.2515447799144493 0.35599999539718996 0.006120514333800985
0.39525597740461327 0.28394424176814603 0.70354890036524 0.0021921694554375656
0.3822060037802103 0.265787959347122 0.49038003859839774 0.007777351453382734
0.38239439565330907 0.24703297573404373 0.38746301074021366 0.003047273809905663
0.3792708150503906 0.2490742067669679 0.4042821803468363 0.007063646316180023
0.3881272051673595 0.26758528297284145 0.5354427058603684 0.0016492523225192638
0.37910193275087023 0.27976820064796376 0.45916877376415527 0.0005694943776360835
0.3725307798976192 0.26575897798115117 0.4102545888641622 0.001523643943236437
0.3708631193990823 0.24495757083650607 0.33105844405765544 0.01202268388892738
0.37093381067964126 0.26851615144752283 0.38969904841832376 0.0054370042201235865
0.36952838362234763 0.2742511079584076 0.37803421499846307 0.004418020653569002
0.3881984909153251 0.2883128949839025 0.6718458412247136 0.006299231769888616
0.3792523829384853 0.2576187152431717 0.46637871917315155 0.005154048474913138
0.38744081771658484 0.2899108304132943 0.6400155727761513 0.0016004677513147918
0.3785553554895276 0.258601239943044 0.42397964649545816 0.0022853954904604036
0.3810068170960317 0.2670876418908643 0.48351057459775654 0.009196975540187167
0.3757855988624774 0.2373874753489296 0.33816769499349586 0.00681119602390669
0.38094072016735286 0.28432544135080345 0.5593733317369927 0.00994828422217397
0.39129959408605625 0.2763041567038062 0.6070736088429238 0.001185809367804946
0.3745373339857726 0.28236114359103154 0.5034106598716936 0.014873570260368837
0.36330757941888536 0.27368939935949155 0.3342565391856083 0.004877317704375907
0.3753209480698128 0.23302581562024674 0.36380947558089666 0.0048039753640409825
0.3795554552209709 0.2838065209391096 0.569095761820136 0.008318772185891441
0.3649388316313456 0.2853303767019661 0.406765906212408 0.0019437236465106847
0.4065944130872046 0.23786988766112682 0.6914695226205503 0.003152153283161296
0.39662919347523157 0.25706461165851946 0.7578166422483863 0.10910807406073315
0.3837929793612491 0.238920579410617 0.4516686599463796 0.005875906146811323
0.3969877953462432 0.2672822420928995 0.7342397881719156 0.01755699013833766
0.37983924211256526 0.2310874471665179 0.3869619227754354 0.006565198889810974
0.39833102047921093 0.25738982490389734 0.6221248160220859 0.0031709362564510267
0.3826647699214961 0.24832744556613645 0.4259173070631335 0.0018518924749009254
0.3908387052434428 0.2723923160341583 0.6239989996394771 0.0030289744190415474
0.41334459348887076 0.24718069135852705 0.7477220007856747 0.01710072050406848
0.38485885955746985 0.23773250625392836 0.42818339336322164 0.006668765234114089
0.3972155109446529 0.25327125542793266 0.69202546018868 0.00361055820161088
0.39307057867779743 0.2549030518823603 0.5713186674422817 0.0022895163896292465
0.39304355352319487 0.2270653635622687 0.47299063911270367 0.008385679961280357
0.39032139120552595 0.2927866823969197 0.753760163069514 0.06532770636212434
0.3980971165015814 0.23437618282770695 0.5534738117494886 0.0033731727399803264
0.3964930286545766 0.24265328939990738 0.5299441340917815 0.0013634156288727176
0.38840492758645573 0.26917684297364286 0.5907384317344203 0.005629768266912167
0.39331950370404534 0.2916738520317064 0.7283208318283622 0.00924738575509225
0.4021542699053471 0.2771702243174051 0.7460693047924464 0.02014060121319687
0.39672386695176537 0.2659693112152764 0.7021412834653467 0.0041184154725555444
0.40102829108242594 0.24122289407404063 0.6815616439015697 0.008210097333267719
0.40481464195787026 0.24874693343679777 0.642170025770314 0.011005491149873325
0.3834000138332732 0.2480801921852954 0.4854346950289327 0.0036604637049903258
0.3998731417275573 0.25467467432400276 0.7201569522852704 0.014395073770177682
0.39867801335300973 0.2675368551017535 0.6632446226136546 0.0050582494460761655
0.40413183938775615 0.23958306542610214 0.7642182247798024 0.12349361250534271
0.40064666628565415 0.21996922192721724 0.5683690842464498 0.015702662381866034
0.38309624613458376 0.20075824332013253 0.4000291494056269 0.008178197949433282
0.3840728178803156 0.19851673148634813 0.3740773042612651 0.0032138493631121926
0.3879244544450238 0.204606718686392 0.5070855022254728 0.007224805891688284
0.3774714922273648 0.18489898905295268 0.42549541761576215 0.002190751043510031
0.3835134644062953 0.19850798681743537 0.3803162237925881 0.00409598895971467
0.3984556181143286 0.2181468430387952 0.5468041320560587 0.006270453329684112
0.38442119295065197 0.19892359903873688 0.42427014565697935 0.009447303898981707
0.37861608700601385 0.19345024928838006 0.3474570240333121 0.019466148250967895
0.39601950648933476 0.23793051022216477 0.546178427968821 0.005274914705962771
0.4025703791702541 0.22898743355383483 0.6606565170938085 0.010240111786794489
0.3802113745292711 0.2226617327871612 0.38119759958225197 0.00534704464088128
0.3895165827974373 0.20255595334295287 0.4469842633353888 0.009953206813930592
0.40495240390573334 0.2367456705119781 0.6156912510422612 0.01678072047883658
0.3897695646504768 0.2291571932598813 0.46393175627871563 0.005663146401733352
0.38936839302811854 0.22182664064957577 0.4367022095583652 0.0037819926147268598
0.3927997743540243 0.2198368884662775 0.5021317097511057 0.011031089748344932
0.4045776479820977 0.22292025481389097 0.5831725682446474 0.009117232601062121
0.3767649683147182 0.22255568171041176 0.37103934616552436 0.005704708463503949
0.4046382207610205 0.22495694478591738 0.6085493663408865 0.01105066590948091
0.4084411150198425 0.23475540186759278 0.6274964272027309 0.0052317066633651476
0.39185732742167373 0.2202240064765648 0.5140148021498873 0.007462706085410589
0.40288177814202053 0.18528780082007304 0.7180874049648577 0.003058462866571605
0.4013566173368939 0.1854744854649664 0.6638913904124553 0.001692837217476672
0.405372299772356 0.22556712247639424 0.7643863750205444 0.09429350479051024
0.4074106748171984 0.20859590679373588 0.7044234941441196 0.0022973680182256707
0.39448402943789035 0.1776357779813635 0.4773654569069812 0.010067088580268526
0.40364494900210846 0.21434674631116044 0.6612360860676131 0.004914029718120348
0.4059871115842808 0.18825743919419483 0.7047384568339647 0.0034615881594995106
0.38728946486320565 0.19404039834213216 0.49297461051304414 0.00433380951897217
0.40880157248285054 0.22256752185561515 0.7353421343122201 0.0237539413850922
0.40167413173468347 0.2058108233083928 0.5398381249048347 0.00416122231267799
0.4079055267935356 0.22295270445129456 0.7283240587999212 0.014361571295173223
0.40504541256489446 0.21627251448530516 0.6198613845914265 0.005237111600860516
0.40873311814765406 0.18880194619272742 0.7517163049729014 0.014968848790879674
0.40605581985559863 0.23205431368560706 0.6871619773644104 0.0050743647174945755
0.39007958722392944 0.18491242328047908 0.5202694760851504 0.00696997874758234
0.3926638704693972 0.1795167295246222 0.46860921172107506 0.016715811352748255
0.39463090669112943 0.19124816447929147 0.5765609952311682 0.005816425859225275
0.40050860467031585 0.19204045294461933 0.5439632209724676 0.013220676212972222
0.4041468573197251 0.19923603908217183 0.7297278561448557 0.011727825325564309
0.4045277561412069 0.20796744352531518 0.6937548775069956 0.004070083297941402
0.3892004925293706 0.1972141253208981 0.4899568654673209 0.006262509391932454
0.4040104639999903 0.17800812542931665 0.6829846205783474 0.004236277984262399
0.39953399367651765 0.19833475093791256 0.6657977723755248 0.001414195827386308
0.40794652280466903 0.19333267192489428 0.6035522971954745 0.004887648758601415
0.4027982288553225 0.2070341622838232 0.6269760553848144 0.003929974900458409
0.40295783644895516 0.21438796563663806 0.6498717648512315 0.0026502063614800694
0.4008125527390373 0.18324041889863243 0.6165706086231632 0.004827769873936076
0.407593880777393 0.19613805338170096 0.7030949712975758 0.0043136147911654954
0.40527989112792523 0.19208974138578055 0.6963436664901826 0.007049961102998179
0.3971328892926154 0.18090348705936404 0.559095146571945 0.018750725731020837
0.41364002575082 0.2320645682104778 0.7412949890796452 0.027112608576137103
0.3776464052294126 0.17512350754550915 0.36044477503990596 0.006472078739081293
0.39974225253963175 0.16609513211018814 0.6337290920447504 0.006197785901634317
0.3647220727141343 0.14317530433588702 0.39061401964780007 0.0047260951526266765
0.4038291168167807 0.1718571170938345 0.7557906882194574 0.017028836809394477
0.3625617360530309 0.14678963897914113 0.33080433637996814 0.006899533543235883
0.39317794492154007 0.16452365869437022 0.5441989566241127 0.013137032965993837
0.40002343376409283 0.1670956105745753 0.6458335560968277 0.0022714119086932804
0.3661733196173368 0.15664835516296838 0.3474854934919358 0.00255997033501739
0.37897258207068113 0.1598794763337186 0.4253089884115538 0.007576659788694989
0.3611078606905007 0.14291166731846885 0.3510786611072847 0.005450894495887941
0.3837528007168861 0.17133951133033343 0.3835636888207286 0.011612181192587976
0.4014284667789656 0.17557276074854164 0.6227176225080344 0.009314943022491973
0.39795671572233693 0.15437408147730572 0.615426604443748 0.012155131698385455
0.3828882379738463 0.16457179230374855 0.4568756416055211 0.014786629714909
0.3793412381286031 0.15022365792290907 0.4523375600644888 0.013915064408110807
0.38134770481868757 0.1595857483019867 0.41458147557680497 0.02916300484562455
0.3674550133746609 0.1587033668983418 0.3352278131741169 0.0036122908184031345
0.39571533706903345 0.17516673937050742 0.5275592280114925 0.004665058319094874
0.4007080937153909 0.17339059822309397 0.5968358948264163 0.012501687880576907
0.4018104583538156 0.166729423239382 0.5674362834568305 0.01310388326667466
0.40125288167231143 0.1572051704201806 0.631778423286869 0.011815673804955145
0.40526344465434444 0.16423077150159637 0.6871668369155128 0.004633777877885625
0.3844746655538049 0.1442966670758954 0.5378994810549032 0.010587710158913978
0.4003379939500168 0.1504862357561854 0.6525521877668771 0.013626664886842634
0.38301400280757053 0.13568524283707153 0.610913873914584 0.0020568721456119556
0.3851769469772946 0.14296939296108427 0.525754631992622 0.007386752838503887
0.3826846127550614 0.13472658680171315 0.4452768899264834 0.0014678288012978762
0.3844439113988646 0.14574774271159036 0.572405422128466 0.014868629972874907
0.3834339011415693 0.14198795033187625 0.5744916795499341 0.011858366601349936
0.391658396907812 0.14469345606371373 0.6061133438985089 0.003952220525419643
0.39369485353535566 0.12864295138452528 0.6711873191264538 0.016277247324273356
0.37780767315708086 0.1418822956796308 0.4724306707800986 0.011253245382493546
0.37826471495596675 0.14710221612595076 0.501484788033339 0.007034953501436049
0.3882620468825128 0.12749487567704107 0.7025257271518315 0.009137691041299469
0.36157905972797477 0.12512045819337933 0.36360141727376966 0.0052092768169927865
0.385930934442214 0.12691875050724452 0.5595692357141637 0.009031820615662794
0.40733082997660736 0.1467749326959554 0.6929423365270175 0.013841722214310811
0.40080675945594374 0.13510375723819187 0.7338481007573573 0.03344984145908805
0.4032442686521278 0.17233556343003958 0.7316928804719424 0.018791972141515744
0.40455223285759623 0.14362130872068007 0.7302463829396454 0.026387540603396424
0.3937283443727274 0.13531153628354906 0.7615939161000448 0.015438927429697675
0.4057753847000989 0.16032751938046766 0.7317941119529013 0.02125621270463923
0.37910102905242593 0.1348400942824543 0.5272475457216595 0.008541090124988007
0.3851622627862857 0.13822230635822133 0.5143834419498216 0.005629697282118344
0.36106251080302865 0.1348871687149145 0.3808553595200039 0.010139900451859729
0.3738543017182636 0.11130195722687813 0.6118328543855089 0.010585390208698416
0.3987920917908996 0.1151485111252589 0.7508460659018116 0.01409281990125546
0.3638268963734959 0.08705325235660723 0.7600924866944976 0.03497648467297709
0.3701726665753434 0.08951405232604542 0.6668071908037232 0.007942333732075525
0.3786309901177875 0.10682012296521981 0.6849463870256511 0.01335447048344286
0.3680513954146842 0.08641078703370536 0.7241997598774762 0.008145395256828286
0.371437489024392 0.0884956113055474 0.7290938061796786 0.009183172748745782
0.3675723110306615 0.1032825906926185 0.5708065316391383 0.012632479891576927
0.3887141253735547 0.12503279064339082 0.7124655796080334 0.009492364545248658
0.35701749490593493 0.09757465861725019 0.553270248218528 0.003998243246423397
0.35929335911055355 0.10343045620932731 0.5436771847988262 0.006661277400065471
0.39463932798129525 0.12129511540064947 0.6640289140916742 0.006553803104554161
0.3710082209592378 0.10797008708274952 0.6074314269139084 0.008077266809450276
0.377283102366796 0.10334643297589904 0.635526816065709 0.007728486010251981
0.3765014683257413 0.0993259287630757 0.6979897063333677 0.008601795669386006
0.3729855330066128 0.10606719081724628 0.5815604725246734 0.010785229469252868
0.36903668202660805 0.10654193764123754 0.48009157944686404 0.007392835048828588
0.3813138212842814 0.12619996386522703 0.63352345263414 0.002700942604979986
0.3829341538153915 0.1135723227028191 0.69355504546352 0.01574856781026247
0.37459332923300737 0.11495105336221718 0.5291476178089976 0.008340615874443824
0.3631226758713579 0.07684470065133867 0.7481949266044234 0.020269323371393536
0.3624678993784191 0.12557511151724027 0.3960743356403715 0.011335594991455639
0.37410717420155154 0.1055171210310326 0.625581572468158 0.009033434105680686
0.3751545010135246 0.12715900130295352 0.5857673774877706 0.00996434828041142
0.375826940482253 0.090955286571908 0.7446581309732717 0.024738779460269724
0.3849158787596902 0.10028281902203215 0.7175570941769435 0.006955928881495205
0.36991839371519764 0.10293339004340994 0.6097700604587771 0.009495514839243487
0.36579197165207 0.08515998436608015 0.6830706725642385 0.01136537665268634
0.35600852579228554 0.08114422968779161 0.6299845969786214 0.006232436374891256
0.35527425670592955 0.1100131741983184 0.4003721283718375 0.004979765111641035
0.3560587696332861 0.08490224087779548 0.5856850264712705 0.010006782452943164
0.34566997797836224 0.09173827601639163 0.4042821140634693 0.009981998253803805
0.3514016510355259 0.11343507987672234 0.36197904506126405 0.008170835264104647
0.33821680880714927 0.09722612593512664 0.3442152282067763 0.0023161493397395893
0.35388034168586924 0.09690176396220428 0.5281190565374664 0.008493651496797767
0.34703078771020623 0.1065620882741569 0.3738383423591926 0.006478781667986015
0.3625048805548928 0.11796497792787317 0.41096916257309346 0.004621257545575563
0.3471331596817444 0.08846976904981597 0.5022396749894109 0.007866341472217412
0.3509406229677882 0.08958770249476089 0.4690426936891581 0.013191476387060419
0.36625351108620074 0.0772610376395357 0.6902488889759213 0.002886145973448555
0.3577069545271665 0.09339594911147081 0.4876540844916927 0.013067646910753463
0.36330369294531867 0.09524611742186294 0.5912902888129536 0.010683176609630632
0.34635371802050907 0.11449356586380555 0.3353115670126681 0.0048006490224562015
0.35947392596705047 0.12102819972121197 0.37761312170601347 0.009485583994346894
0.35328434613613263 0.07847079183499474 0.6440802293480185 0.004188313042982566
0.34399589434764294 0.07627489561667933 0.5261763422147568 0.01177748972212848
0.34461772822096937 0.059896020609406346 0.7232938003242505 0.0035625566714142377
0.3420941448670621 0.058037380318129134 0.6943283952468027 0.004289773088859037
0.34655383933197503 0.0822081063537137 0.450184598970116 0.019306429589960133
0.326257193719619 0.042735761679492536 0.7060826330455051 0.0057404010010653934
0.3425549490278301 0.05433429441403753 0.6472888080575104 0.007397931225895632
0.34418544165599013 0.06292421624839765 0.7093790811259562 0.004308758958881444
0.34177130811193607 0.07268764742680933 0.6044240377852723 0.004298427567201418
0.3548552096385889 0.07544419520274859 0.6144936330930552 0.0030565046561232953
0.3447060259962077 0.07307802451700585 0.5425285123296747 0.011362881648749388
0.3204991013130699 0.03467469597243914 0.7338635464294457 0.019312817550555555
0.33706260610125327 0.06658253527034234 0.5436987701315392 0.014212689571326754
0.35578170380377205 0.07382135142850381 0.7522323371558036 0.022431641996640054
0.350500658938817 0.08610850716956381 0.43083543354219533 0.005311823211693647
0.35412584165015454 0.06529200235846486 0.7268514165365971 0.003919327641259463
0.3314343028794412 0.04851115269707416 0.650949754251211 0.02647998015537212
0.3470250598313877 0.07394901098867321 0.6116369410361965 0.00656692262148985
0.34436802394905425 0.07367176016018633 0.47521630828738576 0.005930930960771178
0.3278646819994224 0.04818465075497457 0.7664574302419197 0.013302667707935659
0.3397968894532269 0.05357755426898586 0.7495246844860202 0.0029635030601375847
0.3283538234972406 0.041666255284922064 0.6926257215163273 0.00366442323078228
0.3550497321692663 0.07538485667880088 0.6610142824037051 0.006514454898478791
0.3512496915346003 0.08143801817785676 0.5761545973919227 0.005244822160660749
0.3539505331650406 0.0825115928636397 0.5873082551634135 0.007821085682992477
0.33303781226548484 0.0790794094971879 0.4392352522175261 0.006798285741700811
0.32417335862430896 0.062401850239676586 0.49400753646248446 0.01266879829514497
0.3369533551772357 0.07529927605336695 0.4537278024899966 0.013382808171253412
0.3170129414277893 0.04619222633216202 0.6041865839947914 0.015716982852638287
0.3091613841153469 0.05945121067031253 0.37986685973524953 0.009607117909483903
0.30717621608555096 0.052151652336752195 0.5331808890883005 0.002703084914987572
0.31085363573352753 0.054635511000197506 0.5240622880995425 0.002251414277272746
0.317333720502597 0.06409484622623143 0.45250403871918543 0.004001819300120312
0.3284861000004383 0.0850859117176639 0.3701288685207968 0.005306586284473385
0.30888601867572735 0.0547234748859686 0.480378428527454 0.0008941102759837227
0.32987364492336607 0.0687421642946375 0.3956634762616056 0.005752435612740104
0.3126275169182748 0.039614677909335566 0.6242132371121961 0.0010876415215497759
0.32420302438826415 0.03693402059569676 0.6701190347452087 0.012404750592852743
0.31508002228482823 0.052411151959645796 0.5495397201273751 0.005339611923986598
0.33103796938134905 0.06047521381930763 0.5592096789641307 0.012182728283272541
0.31527383376455254 0.07127215703024223 0.3543709519390843 0.0028272430858673598
0.31024782653709765 0.06231072904030443 0.42225502694796596 0.00558059052406924
0.3192506393435067 0.04665304337139213 0.5679065331917376 0.0011734578779290972
0.32205703210463993 0.06058028398408588 0.49745035773250784 0.00961863038831152
0.3234226351045492 0.04867027685500332 0.6330835027414917 0.005505376255922078
0.30924921347308465 0.061601476511102114 0.44034716363194176 0.004374433968216387
0.2983723190161073 0.0484400325227028 0.41199861554835865 0.009313630822286686
0.3127700254120028 0.03181653813498551 0.7080938704485795 0.014183768297614084
0.3307164022014279 0.08078510586428267 0.38571937911825466 0.0051018845987339375
0.3298290646496174 0.06316408602351493 0.5371748178086143 0.002016826108472135
0.3066375727349592 0.05418323988197103 0.4948575479890429 0.0017626342500930126
0.3006256004620648 0.05361258279514124 0.4369989836229053 0.0052888301352980276
0.2738961517893392 0.04958291440676086 0.34037741175257197 0.006041318828676715
0.28516945243777014 0.04299316957515996 0.46125066839044 0.0026485693701970856
0.29342571093772063 0.056230046934277175 0.33304303969689236 0.0005794679204342114
0.276095397022563 0.03629052516197427 0.38953525404181905 0.0007403038855504379
0.27359227501592037 0.042850032858946424 0.4087715065696468 0.0074304694832883844
0.2891162568684557 0.04239578772820019 0.4420588867599264 0.004855737265313222
0.2870465826198817 0.037627042395826926 0.5079722088351732 0.006032928337229944
0.26163390649085666 0.04692783647717467 0.32723715031915374 0.004263049945491803
0.28485184223511767 0.042432674641417215 0.4330678534609313 0.007270224397878266
0.2731812699540096 0.044953205071307 0.3604804984362764 0.0025586664957134367
0.2831083147291726 0.043516762470116224 0.4170428727076781 0.012277980696904523
0.2985029639254059 0.04006091622169023 0.6031138035138206 0.010414215898822419
0.30280275298785597 0.044518399612357734 0.5893419216094739 0.01089326069368313
0.2889080722653614 0.04725212777051377 0.4063548521306159 0.008941785819401128
0.28962641376130577 0.0376512696212565 0.5118478478340234 0.006765138472928578
0.28549446859895866 0.04779582985125703 0.36777483712201076 0.005371501227702661
0.2938234351702265 0.037978125294015765 0.5789587681194119 0.008641227654364899
0.30219937238094446 0.0258202288166493 0.7100021052040767 0.02790268949862597
0.2679595020993764 0.021938049361972124 0.6348987697011775 0.018291908643343294
0.26801098296146997 0.019432562588653952 0.49919931697766895 0.00708084070441422
0.2651939009031303 0.013452446819751128 0.610869720843893 0.011360174746371222
0.2813367641486183 0.025511420500375834 0.5827034662749421 0.01135328365019466
0.27923099513352323 0.019531719131245212 0.5552373285009478 0.02152479011394257
0.272009135406527 0.015069997280771042 0.7196507623075875 0.019465794610850462
0.28130098713802315 0.02766680924125558 0.6494040232737233 0.001107355260986582
0.2810930024718016 0.017680012342267116 0.7527895536593727 0.05981246248078463
0.26283832015196396 0.02522176143545523 0.4766331476012344 0.023681489394597157
0.2763905309333059 0.021085199642021428 0.6623236618119018 0.006885662589727629
0.30828838674240866 0.04184631217612951 0.6355720819618819 0.003998911581122459
0.2794112209387727 0.020415160147875627 0.6844883491201168 0.011449506748586432
0.2611745581107514 0.0361640407953577 0.4047753308160314 0.00688580033441513
0.2951457840288074 0.03489117337705615 0.6447692249497886 0.004061804556567749
0.2632318878248797 0.0255044719247221 0.5217733949060926 0.03411010996812659
0.312344729859003 0.01885411417787311 0.7409051539244557 0.005211800405948147
0.2599718899721441 0.028118723201194983 0.4559358774849273 0.014100257384942244
0.3031853599645917 0.01789334755767622 0.6928065246026036 0.005998780481094913
0.26569623575629076 0.01566846335729947 0.6905883359960785 0.00825203237964812
0.2957897930506451 0.03919786884399089 0.61105213983204 0.008364460945402422
0.3060746810728335 0.03293780593778423 0.7619818288570193 0.03055344620046414
0.2920714346434555 0.03681713443447509 0.6063878114646089 0.00958973794236663
0.2977108309216641 0.028964747158448958 0.7623151563925137 0.023319519150434294
0.29939900682214515 0.03333988898847861 0.6626637897845172 0.006371088587861818
0.2729849578590471 -0.0018142349235448444 0.74496688233268 0.03751154798024112
0.24653921703999543 0.024855448105524168 0.5400195945520311 0.010131794115991027
0.24610911908067362 0.025451579886484374 0.48133019385910886 0.00895679291438478
0.22377594211436608 0.015696058142884876 0.5734128995843223 0.01616227155927532
0.2270030586540541 0.015073063864085553 0.6083550878980114 0.006977017304159571
0.23126441055366073 0.015077016920778792 0.529574438433734 0.007106887844269829
0.24181543040166237 0.031912068771910274 0.3859480119332208 0.0024750810050914915
0.2509225907143879 0.012085572169788861 0.661801054642866 0.009173476023149472
0.2238313989656718 0.017264284709281257 0.588833890976271 0.008088439749355329
0.24849660000003693 0.01344096780395663 0.5882577380256951 0.007618384912952491
0.24721351545235287 0.024293584589442262 0.5088842666741511 0.014325361084952434
0.24055584372393943 0.019204643884642048 0.5545151652025403 0.013437015388875057
0.2349823756540353 0.012662743687202868 0.6142439105688251 0.006682453810466914
0.2659335251494306 0.015366963047889665 0.5737519279060053 0.029346047033841468
0.2671641046264954 0.032488103882115406 0.44656015957803463 0.00316122285067365
0.24539010256324267 0.023204278657651328 0.46463492884897695 0.007477384133048161
0.21976214862647445 0.013901052454003242 0.5517758540262022 0.018120298556856738
0.24179181887645973 0.01780388686039157 0.6431719126974593 0.014529640885688568
0.24046224086657442 0.02514021540630345 0.4393490961690182 0.00505405522771541
0.2418722226127761 0.030126404964475762 0.4183278832267132 0.0053093724478654025
0.23353180708393112 0.012226254147764532 0.6194174360726332 0.007006746585169853
0.212616148907869 0.013025093059254351 0.529184586571316 0.010700298733953036
0.253660296245677 0.009162839624563084 0.6876296892610466 0.004032626746441447
0.24139637667898328 0.016274767210683865 0.6222492481306867 0.009184575843772453
0.24571042676963356 0.02509957820100387 0.5333078346271738 0.005510612689429997
0.25835087550189784 0.013195492936508709 0.6918048006280094 0.004447825475709941
0.2587568720137477 0.016898434287236985 0.6266899812550163 0.01671684344059529
0.24762648587267105 0.034884486020881574 0.3660054670506136 0.000515567359427765
0.22209051643216318 0.016541315532368095 0.49828276967297674 0.004815024568598051
0.22044434244376582 0.02658689288817535 0.4582208888800274 0.005087809022763328
0.21357619718275983 0.02548651622570243 0.4216901074982503 0.010386904182351032
0.21890993133445016 0.03040569385911145 0.3974257520170549 0.007484101069296364
0.23526389791693983 0.041402883633533505 0.3370131883355324 0.0014494293514061582
0.20871477212761716 0.03547079268779493 0.33603845195186594 0.012849353603339778
0.19996931925217612 0.031197352651903803 0.40609353589575614 0.005378387424173342
0.20472286259074368 0.01715995516263129 0.5366974940984517 0.00698414865755189
0.22790354524922773 0.032830757650772306 0.36748123803576793 0.0033293418683830464
0.2365111758714598 0.03732746804141075 0.35620331692029056 0.0009689601952004377
0.24007234213533682 0.002031168734750774 0.7147151516573513 0.009635519293618729
0.2254061373545457 -0.0005970112188798497 0.6696179797383589 0.0057895748241029435
0.2100842028779696 0.009611923756906837 0.653571713269982 0.014919738787645683
0.23358484723058393 0.004797887728943114 0.7586932595819712 0.027617348971104985
0.2645574304849583 0.011381798286545036 0.7573211811401089 0.055589561316040315
0.2502831639768822 -0.0023326966691324764 0.7337025887961692 0.06635332072062289
0.2155917793595424 -0.00298370842635139 0.6967457452187162 0.017743205448326253
0.24004198523352602 0.016112320732500903 0.6485878850121235 0.017155315705190417
0.22127727572428846 0.01627167697855828 0.6297547436831664 0.0035849105010275664
0.20532109954104058 -0.00643374715566458 0.7305090004072722 0.006098516752872734
0.24088247045776576 0.010496441372272666 0.6950558308122441 0.0016554038348075655
0.37170224832095444 0.31422251064001966 0.7666820212779684 0.02927037293818007
0.3882359938216674 0.3016736057085601 0.7575602296057827 0.05736473220924135
0.3647607534983058 0.33048942678519316 0.7704257545924331 0.03276253548330389
0.39281967232094817 0.28176621455976375 0.7560854759918342 0.09666087260632993
0.31297059919632514 0.3680923999635265 0.7613638571939226 0.03669789847828146
0.4008012584302346 0.20882321302032605 0.7594250592397953 0.08220934989723092
0.3820336777756349 0.11401588133973858 0.7591268677488687 0.030833068072688274
0.39256603355594916 0.14508761404415807 0.7661885159026939 0.020483660113358223
0.4023729284964461 0.16997420105317132 0.7548206325525808 0.019956038106513675
0.31619679527745337 0.03225550697896401 0.7611570182936038 0.02139670731952366
0.26120872833532055 0.021447481422683438 0.7595581996240967 0.017501522620900618
0.28835028290040815 0.026726513672428513 0.7580343904717087 0.012075684894026203
0.3837641605507048 0.09752666746579434 0.7550713906982137 0.02272418768556397
0.21847701264034985 -0.006460791904494891 0.7641677018430519 0.009540854874478805
0.4090681439946623 0.2082931509886673 0.7566857768380171 0.01736957047987023
0.18547140721825547 0.3801257850672483 0.3515605505608367 0.007405205061964536
0.19901316632597543 0.38841765355799396 0.46810639694579886 0.013917982497594496
0.19725446800205956 0.38605695413141045 0.38262039662994596 0.011572797664904138
0.18163587429108582 0.3982025669041198 0.4274314487941342 0.001184922261091079
0.19952723601374056 0.3783272417756947 0.33329372201833013 0.007253973558595991
0.19329593587331417 0.39045545524666025 0.45847761827837313 0.026742776598599673
0.11186512785231759 0.3631511738249379 0.3964038840395996 0.0010380755315407013
0.10764990605349459 0.377574400958222 0.5772557259659271 0.004291691881253876
0.13725592086374971 0.37670771356102084 0.4407208868619276 0.005874400095160531
0.10195420190237396 0.39105633997851436 0.6992517102431438 0.00685994573946763
0.1104564624261456 0.3634112267139914 0.41666805485570835 0.0015221688768645577
0.10118356034176858 0.3623349414423036 0.5252486901232379 0.003330045488730923
0.12321888322310012 0.37528721605963855 0.524361587952634 0.007462716200780823
0.12701595950560007 0.3774397965187757 0.4599005715781706 0.006745019021284713
0.10847238013390305 0.37827190373894104 0.5960627591585917 0.0046427164054436846
0.11079981744433062 0.35328783695430704 0.3515199527822933 0.01987592105992765
0.1415817868741874 0.37512079300421924 0.40747682014087977 0.0012822312562811385
0.12942114341918118 0.3799770460187266 0.49253349082900305 0.0081042358913146
0.13001058875350682 0.37158979370180834 0.33708186556883596 0.0002682025005174162
0.09107118193495506 0.3668039883852459 0.635819022937724 0.0022347596739127843
0.0931953043266011 0.3887809096167094 0.74060963452825 0.012442160068105732
0.12250861092154285 0.3643328842820973 0.4026577074700737 0.0013876584133623421
0.13861491460118985 0.3709522519532655 0.37267013395649856 0.005838099576066796
0.11941903760067597 0.3686159960739755 0.4529381686090306 0.007555290209460295
0.09478576391683555 0.37929005365972635 0.6604870227149622 0.006520636625952406
0.12809593974921787 0.3788283653859252 0.554457857753485 0.004693737249313558
0.10583917658461092 0.3610310601827161 0.501983845232844 0.0021626471051587387
0.11882731673467263 0.3726182456318007 0.47276555319977603 0.0064148685632077615
0.0959996789737584 0.3815391004428542 0.6776292637390884 0.0025392656569659788
0.14584675934416805 0.3785223958115291 0.4278462161025656 0.004982665052421438
0.09705880679763618 0.37281501677246753 0.6105631044200336 0.0036849255883505904
0.14656591112676706 0.37489499151294436 0.3854943590914725 0.0017988883525184396
0.12382979370734074 0.38747318839887945 0.5810458293804783 0.004190357634780521
0.12925326263215248 0.39458194406679303 0.6703206565599696 0.009267544684770205
0.13789184827115225 0.38713513033181113 0.478018146584297 0.004324106590729035
0.1041641980329812 0.38790445535650525 0.7312024572995572 0.04772968076312936
0.15364664725117994 0.38539001020539854 0.46721360761328534 0.009510610162610015
0.11733378046541536 0.3867530466806057 0.6303151296967208 0.005204694448180201
0.12087859196811399 0.3914344735929614 0.6675355518779071 0.005096405785723351
0.12703916372565424 0.3916420611328371 0.656721091472101 0.005426152362889611
0.12152143451921754 0.3822531459950731 0.60191376353438 0.002234432001535899
0.14922063780979802 0.39950982518246875 0.6010693670413257 0.022340590871844743
0.1221256754086889 0.37821801166697594 0.5382905041315161 0.004076914983350133
0.10548798264299851 0.38405049027597166 0.6528320316940437 0.006229606206037937
0.15284876982417786 0.38001727928161877 0.4037822836745993 0.00016193759269651046
0.1461316531207018 0.3830259164389239 0.5400296784235635 0.01043572459745071
0.11015772516442257 0.3826797945744928 0.6153181339219517 0.0038159366428398536
0.13879856636894564 0.39652279185810024 0.6180602552089592 0.00553391849453938
0.14758369068761695 0.40506137119107544 0.7148156578122113 0.00991730583348585
0.09657853067835673 0.3816768400240163 0.7596935459135696 0.04892625066741843
0.1510439616902655 0.39539732850815273 0.5123738035889599 0.006682525197196989
0.14764176483181732 0.38870141190350394 0.5237839585087964 0.012733877830569918
0.12094552461642175 0.400356142419772 0.6946296951212937 0.00852975775203456
0.11680515981043578 0.3976876145022449 0.7390304839573495 0.06870697631973524
0.143271031868784 0.3941516017458976 0.5853868238124764 0.005790624731555869
0.15332422201783993 0.3782707082417114 0.3654067554462037 0.006192489206014295
0.03837525471546069 0.2976410545290625 0.39681951782641206 
0.026989260656621713 0.29695395331425056 0.6190654261796236 0.002110423467522805
0.03623030924922359 0.2939043489645937 0.5399664307307372 0.0006600117128146342
0.038988039292153685 0.2823264728974953 0.44307554245191166 
0.0463399322588976 0.3078661561885733 0.48767434486202743 -1.866131235341847e-14
0.041203062812745 0.3088476173944888 0.5763926503290092 0.006568388586395944
0.021367015214629692 0.29430857269911576 0.641319738146699 0.002268359971365224
0.02737585496150649 0.28345785271633156 0.579723480491926 4.123558956855582e-15
0.0459858418337961 0.2777900543397154 0.3381090202592223 
0.06748928241747859 0.31857376011102445 0.34123736846453645 0.0019829790438653946
0.03573777180918832 0.28960953812277523 0.5008323392975499 
0.03816845336744001 0.32562655289738335 0.6821400881379291 0.00012045610110324493
0.028285678939576165 0.31493647619513343 0.7312890667951326 0.014993766323262856
0.04242011584727075 0.333574445632474 0.6914697948232517 0.0006110270962999757
0.04763351169738049 0.33974199051102805 0.7422596091779207 0.0128584610994035
0.05954360860038006 0.33395621543282494 0.5796415688169994 0.004804917674857963
0.037593221046194086 0.3096662392948168 0.6102222612911437 0.0025209391215667717
0.038708072410328385 0.3165974914612559 0.6288403833786058 0.0020947944524764553
0.055790206759370346 0.32892184157118537 0.4559659989924071 0.005637772999281854
0.049613055875006404 0.32749825865549326 0.5564466432432488 0.011027863148775307
0.03755250733328803 0.3231779534149648 0.6509880614517412 9.258141791236385e-07
0.04432085632380601 0.33644821693066473 0.7258049101847723 0.002856198176355668
0.02448974566542697 0.3136311890426609 0.7436992240397231 0.053449632852446215
0.03422166354777703 0.32361126406518426 0.7049091129369482 0.0010607750683245746
0.04922916362380417 0.3188845114309925 0.6045720367293219 0.0012308812988683555
0.050943328254120804 0.32439797060400766 0.5256329856711001 8.165338527557735e-15
0.04796593518182146 0.34088027322731723 0.7212453513173223 0.0013221879732958047
0.030771527518526694 0.3203035581110885 0.7030493634396408 0.0006600153600649035
0.025102714020544828 0.2505305026287307 0.45418878294217097 
0.028919749022283198 0.2553697640320567 0.40313505237939684 
0.008381715989004028 0.22839391704252138 0.5620502762670341 
0.032798506246729635 0.2735497652851795 0.41218804126084385 -1.1368791917052601e-15
0.010509397399079414 0.2490590084220796 0.6260843133266406 
0.020419697273264495 0.28706986965035525 0.6747620309405885 
0.02607689999450507 0.2805670980984204 0.5501654939646292 
0.002922352433998564 0.26687775811603914 0.730750268918746 0.03901118908901704
0.01915482710202902 0.27124262871189936 0.6054435763836893 -7.300355243152662e-16
