x y z curv
0.007352569742967456 10.106189049161342 535.6543124925325 0.006470679004073992
0.0038558636479354654 10.10111329940663 535.6698170418226 0.017644597751189622
-0.008413145933391205 10.098332720464319 535.4209160916795 0.008090549715038985
0.004041184792855868 10.110823248137415 535.4972020011732 0.008640112937309145
0.003951881318290613 10.10122161417019 535.252137717181 0.0015769891884361766
0.005535802402931681 10.096715648752467 535.5097684103548 0.013643790226951651
0.008327699960365802 10.106407029616847 535.6186209642993 0.010358046434704627
0.0035981051056704935 10.098649764032888 535.3461895301377 0.00584007828432275
0.00321111840247537 10.09849001801212 535.3010031153906 0.006075212526930242
0.004777497387583723 10.101596759748888 535.2285865545696 0.0032525515931445628
0.007479989560470753 10.099648243523406 535.4764830239328 0.005957753320242264
0.0002766303792971561 10.105591956145302 535.3887603666587 0.017242031810988167
-0.0012268257379670156 10.088313910313282 535.8238977905534 0.007469671410356937
0.0018119825859114415 10.090689051100455 535.548957092332 0.005883133959828225
-0.005144944385487134 10.099012641748061 535.3993149111793 0.01438713991089575
-0.0012366480354753118 10.098074838000878 535.8515241799556 0.027239536385806055
0.006456267096380737 10.0909630795365 535.63763600214 0.0047157132327446906
0.004241601971779784 10.093450658185759 535.7892182900624 0.016281990696472178
0.0048583724000478045 10.09594282707677 535.2557675591631 0.0029369841600720287
0.003351121047398503 10.096266601528283 535.4579254392166 0.014710508491931416
-0.008228517657483026 10.085826921835432 535.7693152145621 0.01201340252883445
0.0017217372824375322 10.10041386873737 535.4367461142302 0.011873605212230045
0.00036384545042494627 10.088902612891035 535.6699528821744 0.014878228407334979
0.0025394984904444974 10.087971559847778 535.2087433567666 0.012087083164643153
-0.0055408803112214884 10.08204594921745 535.1960321748569 0.012871537725826061
0.005189651265758511 10.117597164906215 535.7233277496625 0.005386479331433914
0.013280535260310063 10.124262648394343 535.6990243231287 0.0009029282399352789
0.007899273353413703 10.125047531460545 535.7835940250325 0.015281629627308394
0.006052940843399308 10.118778988537544 535.7613111029265 0.008283762922625518
0.003454318104323917 10.11997509540737 535.6351761973882 0.009338078792330968
0.007047453908086411 10.114393047963985 535.5707434983826 0.009877019403008525
0.007943857981969386 10.128193635687454 535.4832289136677 0.008228387884641707
0.009246598637852238 10.121562184369626 535.372685225179 0.005907247168300238
0.007491663301016014 10.116914699110799 535.258492890007 0.010032463258831094
0.01162919239430178 10.128718866908473 535.1808734163465 0.004119892956870127
0.00947652266850037 10.120078384796239 535.3497431548855 0.01690343616241114
0.00576206329236325 10.116303611259855 535.299714736652 0.008564364500765606
0.0063855983595178046 10.116375952987259 535.3994221766624 0.016301351751099688
0.002413906044315786 10.115047963962738 535.2032497871501 0.0049868236021258505
0.0084171807317502 10.11738913542996 535.5191000020402 0.012884224843996542
0.021253813566078437 10.150156274610584 535.6086835949528 0.009803743111662629
0.021115059042248793 10.144034600082259 535.5380568094583 0.0018886474399448937
0.01907161677849588 10.137910894304882 535.8673077019545 0.026378329537306063
0.021423237216010055 10.141261331382028 535.7986845205999 0.007843350861482303
0.01911690772928392 10.1389424333743 535.2810259047046 0.0044642169497314185
0.014767329076572877 10.141597072732296 535.4558804151176 0.007312969761807814
0.022189123985105967 10.146815506147178 535.5893922737193 0.01197911087473895
0.011242183384190061 10.136790627476163 535.2357614956898 0.00563481314220088
0.014602412375636028 10.138810048510532 535.6865499526461 0.010454915317847353
0.017899737513394017 10.137973517251748 535.4198504185603 0.002722175876826975
0.017054390103489064 10.144314187076397 535.4120882165714 0.0022038987880734174
0.01975320803082363 10.15078281457816 535.7563793394511 0.0009497408452883078
0.02291908710420258 10.150278307077171 535.8123283653695 0.021586002971893226
0.023728840952138286 10.14972766457492 535.8661842719597 0.031460992860696535
0.024488985372211183 10.156305833368709 535.8206374373932 0.013291649426859302
0.011507551143056115 10.149557445123577 535.6632823869269 0.00017282427792150818
0.020810750694895595 10.1561048183671 535.6774976878032 0.021502630722791932
0.026474437477724082 10.151453039688485 535.2647551842746 0.005522385411323367
0.028641942186094976 10.155671801535984 535.2658996250302 0.005062540195822924
0.018857969670375143 10.1478451288079 535.367054965515 0.008691410450447657
0.01514976840289446 10.14822177771996 535.4632270194811 0.0063404859015430805
0.02255563835423903 10.142739076081739 535.5104539059275 0.0015613678152641263
0.02254619362178349 10.150816145661816 535.3465637910488 0.007818249180795642
0.016530106597006114 10.142962242386144 535.2981941511225 0.004588019512296484
0.025141458647977125 10.160509099214913 535.4378069934951 0.0032752504445388154
0.01737780090499819 10.142036375810974 535.4971519954205 0.0019149379560882017
0.022384358555435482 10.147461059383415 535.3872566800251 0.005804779270762937
0.026303679669406638 10.149909822600153 535.2469296798541 0.005102855732364329
0.008160451668209355 10.134554842963407 535.8525175279375 0.04534073906113596
0.009042967556755585 10.134563793032411 535.3704142159489 0.0024753692375049144
0.008860974796713468 10.127008892207149 535.7769474304449 0.012402766849336387
0.01554947667921412 10.13065381700791 535.6049653007562 0.010107019055462532
0.009128383657767147 10.134547962342317 535.8177140898476 0.027043927339186594
0.004058772333725874 10.135510063523732 535.8610622254694 0.009710036066847236
0.01674957241220924 10.137375417159673 535.5042967324193 0.002730265012752923
0.01049414965552907 10.132515411370095 535.2354935967846 0.007525264790869099
0.012260039509719538 10.12874693941963 535.1996317705202 0.0025121583037194346
0.011869966497413498 10.133162263413766 535.5832634775146 0.004379948223911753
0.01362848841682112 10.12231615679242 535.8236602142338 0.019784292789618997
0.012042950516816297 10.122557729518856 535.4333609863941 0.011421905257538438
0.013421027895232867 10.128744351257248 535.2667264357312 0.010830043849442866
0.007842826027607799 10.123012779850004 535.6854206993896 0.010943007939338615
0.0053192611286346034 10.1333150062852 535.3252173974454 0.00687608594653489
0.0034755220000377233 10.111416354259747 535.4401085365573 0.012539070617456984
0.009564025174074776 10.106568609824466 535.5796076608214 0.006247230194133657
0.001969243608226613 10.115509982371078 535.7909613069569 0.013111674519255814
0.010938154100975732 10.09738509873216 535.8748900006648 0.042472304487728936
0.005186097995079997 10.112728118021051 535.6909933102762 0.005831804295150488
0.010593931926758582 10.106436207345737 535.8200571253099 0.024411652428195114
0.006639541945546668 10.11876111627612 535.7511121153927 0.0044811883676319055
0.004912839066343875 10.116447159420643 535.5403310989262 0.005195694281669362
0.010445920649993739 10.106124406108515 535.3165223622767 0.0046488824549910865
-0.0009160132567576224 10.108056372603533 535.7223344586259 0.005388078554510328
0.005853386007750114 10.108356096393697 535.348090146611 0.0123392706692044
0.010636636677450986 10.11792452863351 535.2799592899669 0.005927020767212292
0.004817137564309407 10.115901472617798 535.3916873498019 0.017261730145895743
0.005150040209574587 10.104614859609113 535.2421232496201 0.001730853591274619
0.009797627461275651 10.11662024383525 535.4636601477528 0.006025766758017728
0.00958609113051803 10.114775008210982 535.1815605470206 0.012441112462345954
0.033787559743580206 10.168533307770636 535.451810248493 0.007141408845924218
0.0361980348520229 10.165855816357094 535.7437990121107 0.002809882528917362
0.04067775613580565 10.170833927484233 535.2751642230146 0.00200463095735043
0.027147179136600058 10.172973210510508 535.6048332797609 0.002216885714369106
0.035416138865369304 10.171266118915577 535.7014025385866 0.0009108142765578061
0.0367809105020008 10.167898617759018 535.7701713062039 0.0012734747124957064
0.0370223912109652 10.177572653899823 535.5674273025758 0.011599846806706435
0.030483470091566045 10.172322451455086 535.8113531960595 0.004183174243705396
0.03361985010419213 10.169029510197214 535.3201976001686 0.004591052212948742
0.030437695313826528 10.159450918571116 535.1686460327768 8.499393590255434e-10
0.02403305121626744 10.164213147680883 535.1974470270903 0.00766370017976388
0.03618566091738676 10.171297104634586 535.5437101964659 0.003342055645385357
0.02797722907727604 10.16150042718519 535.5107386772013 0.0026898736318723675
0.03566828286202943 10.169310360796809 535.362672373198 0.006462429388098968
0.04358743305577951 10.182402474690445 535.7293080631505 0.0019581365399518017
0.04430709227416283 10.178288095648035 535.6681904227171 0.001423670728559862
0.047408336635672774 10.190267934970269 535.427656574703 0.004752212985488926
0.046305980526391774 10.189699656594268 535.5800244463555 0.004484684484727277
0.05154888217997329 10.190668023842234 535.1835465439158 0.001306107561073996
0.043634773858278 10.178945015679405 535.7592079758664 0.00637536366310227
0.04666598685321153 10.184613666146573 535.7495851323602 0.0047939231299088895
0.041759984469043734 10.18315814752175 535.7948847687742 0.0030885428074376897
0.0388903194598257 10.184959825261268 535.8514080506538 0.004099534326185555
0.04100767969981386 10.183054039456115 535.4249199107189 0.004529004116774878
0.041910145791600864 10.180630294632527 535.2935370624585 0.007316547756103391
0.046135744719112005 10.18312154361081 535.3919474415052 0.005776925406407197
0.04256747556604155 10.186947236143302 535.2057161917215 0.004392911585801751
0.04482396380342903 10.182496335684116 535.6842296323354 0.0014345640227229073
0.043527209577521354 10.185858620960829 535.3526599708883 0.01663825290248757
0.04582228747665566 10.176473387384105 535.2294082205692 0.007193121766861553
0.044293570546588966 10.189525120636409 535.350556053747 0.02015787004212651
0.04014033331971088 10.179126528084499 535.4327394494435 0.005337543985427777
0.04870124650426595 10.196298915018732 535.8071691359545 0.0022936630671491413
0.0561994266522072 10.194128124630009 535.6736073196416 0.0014660552613075298
0.06339667857272106 10.20322012128129 535.2405518403384 0.002231159648076975
0.04966729726676444 10.19211185729301 535.7404099975115 0.005194199204007358
0.05268526720806223 10.192772121817866 535.3584394924155 0.018880821969453298
0.056884000785589306 10.197518549586741 535.7781810988279 0.015525943582591859
0.04992265001765997 10.191400176684988 535.8284294396597 0.002896948006292806
0.05568884035382073 10.19863675360935 535.5028961935436 0.0028662932570395106
0.048468485456260674 10.195126379225586 535.8471481937407 0.002441204688612913
0.05662043516385522 10.195641621593447 535.7153490155397 0.001208662567431151
0.04558781747028747 10.187693361471608 535.5864981240546 0.013395372637100124
0.050654036117065676 10.189918520189151 535.4831359758766 0.010754355321792634
0.04537224223404338 10.1926182082849 535.2747798159357 0.0030807445995166957
0.04465782973226572 10.19518927215935 535.3418720063266 0.00697442054486714
0.04613802203680372 10.190833602740067 535.6037800837033 0.007981141496203378
0.04605775088408893 10.18393655045693 535.2616077233336 0.005651168777397614
0.040320278349640845 10.179524152588783 535.6936027562078 0.0006440967517760508
0.04100763447863017 10.177609420771416 535.7114609801274 0.005012551858231325
0.04133637844735832 10.17644403915533 535.2600469927185 0.004867150149463946
0.037051313632702046 10.178884972282066 535.5332278807797 0.009660626682478088
0.03746801112629623 10.186292254339032 535.542432058388 0.0026827204417481454
0.038557940386380676 10.173288452022707 535.7632582914933 0.004372601118442696
0.04407266742478763 10.174478963613748 535.4762699010549 0.0036374406001711468
0.041093242665918295 10.175105301552755 535.337182972927 0.006869645403752328
0.03305173723715177 10.17311893366626 535.3967476414314 0.0014141023519634486
0.030085645595059024 10.171767064670302 535.6395841675535 0.0170006275079154
0.03937387619740758 10.177389108396588 535.5193569219163 0.006888896407753531
0.03690203471175954 10.171601150840088 535.3242684748485 0.0049277070078578905
0.07148236532301191 10.203144725929775 535.8719482932038 0.03438217909529703
0.06579968918282195 10.214412966465092 535.7989375726177 0.003102211685716023
0.07333052198976292 10.212878815123384 535.7063039899765 0.014604059890921532
0.06686844437808066 10.207124159009267 535.6411467632016 0.007755879529554027
0.07259322245288509 10.212770693173415 535.695170437615 0.009040606335862738
0.07131812283262537 10.206745244617963 535.372423617092 0.0018618095124842012
0.06478653563879894 10.207065669661272 535.2984240558872 0.011195709112796085
0.07499621838873434 10.210713331560946 535.1744351818221 0.0051857828987081425
0.07176634961390758 10.210509316056395 535.3993968334643 0.002080269584279663
0.06597410272584138 10.20703406878737 535.5303035560802 0.0025991257385108058
0.0577945194208271 10.204199626218923 535.5783783263595 0.000696152371256989
0.06244520035636204 10.202530078880153 535.494106682269 0.006239693809100626
0.06996899008074689 10.210234076408776 535.2226440729544 0.0024551330575949704
0.06206126149016359 10.206511207111003 535.5452520558752 0.0022779688259837523
0.0570619090560007 10.209317689773522 535.7580604764394 0.0029964568659360353
0.0825660223323086 10.223653492336814 535.5004305695893 0.0022624500195295395
0.08820069889656734 10.219363402897173 535.686952674467 0.007885949336413919
0.08765332312911017 10.219949824604432 535.4267992380675 0.002274017479375607
0.0906758048469157 10.222830453420228 535.4024319679713 0.0026979249312211605
0.09283105224832794 10.224017967251555 535.610597725114 0.010855667733070179
0.08469490275268317 10.220677890767876 535.765545344087 0.011106389241191129
0.08663646342827455 10.220664630604432 535.3824986369874 0.0019633897567838776
0.08812951525247069 10.227831191476726 535.4489408422762 0.002296654489263531
0.0749553424448255 10.214413682637643 535.6629607802352 0.007715014456682478
0.09292992087993293 10.22268397708893 535.1993451388888 0.0019157664702896956
0.08425021258834224 10.217376818234984 535.1844415156351 0.001273684226030778
0.08865408611288057 10.235591298529101 535.5961065408402 0.0011636122701794175
0.08546531791003134 10.23058504983066 535.5724071729152 0.01727814756802309
0.08234794298597857 10.221263886034272 535.8430979290557 0.005415437811743614
0.10300026366342636 10.227253981370215 535.8593922172863 0.010338402406157436
0.09669581886054589 10.228299323556584 535.5214815677652 0.010913881079657982
0.0936446500897802 10.229213024527445 535.7112315521543 0.003296860320890076
0.10287658278049255 10.233023769061827 535.7318714759913 0.0038041485594906255
0.08688924969648859 10.221314161103878 535.7478687011179 0.0046824045391563405
0.09294117936883912 10.22534938523014 535.4783537092003 0.005217112781368097
0.09094182920553551 10.225563651306778 535.7617794863504 0.0033376773284368444
0.09528519198639751 10.219963561296074 535.6587090756756 0.0009899956326670989
0.09640804906177358 10.229470948617575 535.2791562655711 0.010387313653019078
0.09397437431910961 10.222853218427195 535.2156138283009 0.001647821578985766
0.08490074035048038 10.224519110966714 535.3333939878361 0.0025340880230082454
0.0845127239137292 10.225520195255983 535.2555922225301 0.006911721417907835
0.08447457763685891 10.219764123721527 535.3622651706381 0.0014754850055774696
0.08768993981573422 10.22772403002248 535.2408219237655 0.005301980417808526
0.08001181614633178 10.2192396044279 535.7909874068712 0.010184402354100307
0.07596731609737054 10.214925936302357 535.6339426575051 0.003593730324139595
0.07789152513843095 10.216699696788273 535.7262304048411 0.010405126618163544
0.0822906025182218 10.217426248548662 535.8332226946883 0.006021309527728979
0.07266990919225046 10.2156860752555 535.2570912065231 0.003511407983282889
0.07031233631074646 10.205434777497377 535.1953562538971 0.001862383079920792
0.06690583674828256 10.210532581187083 535.4577736629531 0.00638793308607873
0.07053774626455979 10.21123318991354 535.3167686589202 0.001639077386290491
0.08256078921951678 10.215545138672905 535.2992543986983 0.0005273297777772183
0.06509032950039098 10.204783308438444 535.2104472869905 0.008806140798063326
0.07903322443776394 10.213466711568142 535.4189327025643 0.0038570639382391426
0.06914356368832852 10.211563566367486 535.5693475895168 0.0012024470213576866
0.08168503226898208 10.217629523943767 535.3850368121559 0.002111343037153716
0.05534628208058648 10.200169273599867 535.821492681551 0.008478267037900415
0.052140021639366624 10.194882012497313 535.8561262941563 0.005793773855642255
0.06458233897487721 10.200329619907095 535.3863559116072 0.001961722599100294
0.06473174085517391 10.20804997687834 535.6134711674648 0.0038137170230202475
0.06721547021027799 10.205361202499294 535.5089421736348 0.003932856510421762
0.05195560955913657 10.190407501990906 535.7627955134506 0.005011708930951792
0.05390007286873148 10.195232756526757 535.4168577180496 0.005152705572026678
0.05417061379161553 10.203183997894628 535.4400357728327 0.00475285057462594
0.04904833009580198 10.192719734506612 535.4609912439814 0.0059397227903763405
0.055712229051436524 10.19576664476399 535.4049772551958 0.0040740903342531476
0.04661559154270542 10.195248397794513 535.4544977541779 0.005726204980339548
0.01691550114269505 10.15413765512243 535.715443263653 0.004383883603854366
0.03272562888301083 10.170442127535882 535.3058168065535 0.0034060912747693236
0.02399609013881495 10.15695467406917 535.857343092821 0.028604592905832633
0.02866026970093864 10.159951060342221 535.6193193169019 0.010942031127402494
0.02669582704980629 10.1528030798929 535.5880894999493 0.010504048222377793
0.02932376252894787 10.159979543334453 535.7417380645827 0.004578833119871765
0.026777017883964777 10.153687508568366 535.5749833833479 0.005575345696073686
0.025492594215585723 10.157360780987773 535.5058241074645 0.007586825594691028
0.023799515091431377 10.160918758166298 535.1818424444365 0.006886499270275315
0.020319671061569358 10.148830881980748 535.4841787869243 0.016673178681046834
0.02792653775059713 10.15749392343264 535.3833522690528 0.003668251531021939
0.0004067539338558386 10.068040455572593 535.2478537226611 0.005457273035983949
-0.0017118121641739314 10.085177134242054 535.751923822125 0.019275776994776377
0.0006204185425007584 10.070495698978531 535.6904012439104 0.020694864445923937
-0.0076366465735377516 10.054206959782082 535.4676243607115 0.009843614000360327
-0.0022964542482652337 10.07159185096556 535.5715247077542 0.005005397545047853
-0.01241094818588593 10.072000990772828 535.5012743560363 0.004818200533760097
0.0003414602899854837 10.080228614975963 535.5331349060187 0.009363591315271692
0.00180968805160623 10.069769672448153 535.7858594092054 0.012950778060188132
-0.00039271597800017116 10.071610921724558 535.3598413998067 0.010673231031151375
0.0011695685538101136 10.078062245408557 535.3021061472671 0.013534432763835789
0.009820732741887318 9.969011301258135 535.861589345271 0.035737574646151564
-0.00609774309338544 10.0198643863772 535.3106122670781 2.7171446858278023e-08
0.002061262686768467 10.029279618719382 535.1982937627726 0.013853043871101782
-1.348308113404426e-05 10.019246545364695 535.6400419481806 0.0019449760645388239
-0.00655407086176654 10.021044248891785 535.3974423679766 0.0034192221601033615
-0.002553626504320544 10.01852483975538 535.4852664418898 0.005198115772925376
0.0035517226428543832 10.020233856211897 535.4347942517533 0.010285479439231993
-0.0056288621518978555 10.015099553359768 535.544977114424 0.005039758099995869
-9.569824750286799e-05 10.024591208868529 535.6351127099924 0.004100421790918114
0.00023010134571462178 10.020752573510482 535.3711353110709 0.015327350623742101
-0.003316782535039698 10.031770737343841 535.5360826351804 0.012427069965383022
-0.0023362986956774966 10.037850113559701 535.8012194112706 0.011193730014743873
-0.0026844223445625236 10.03413443615984 535.4775198234405 0.007565814688374249
-0.004414117394336522 10.032927666786543 535.6566896387297 0.002430243501292193
-0.0010964033363681336 10.028292491168749 535.25004438796 0.003966017073093404
-0.0006476212328175106 10.030750172093713 535.3559811967591 0.021790821330901544
-0.002787723127865645 10.030286588202271 535.2626773471289 0.0023022826952457187
0.00019267231790950402 10.031419383072599 535.4232421008487 0.006298056985048453
-0.0024430158307712727 10.030810190696577 535.2343873127304 0.0022370920222824346
0.0023838626238753585 10.032369492639578 535.1949622929686 0.01368600165222907
-0.005470135242636704 10.034951052319071 535.3832528057047 0.015498060310805424
0.001735998185445512 10.042286064920678 535.3099603461659 0.0034344046805102305
-0.01008553241786148 10.044016238379292 535.347222318231 0.009397779714059975
-0.001095253678437611 10.048651992468539 535.3945132999818 0.007851356325464772
-0.00465513808513734 10.051340437445484 535.482990733768 0.010427794584676213
-0.008012566259552954 10.03578310470344 535.465488037641 0.0018736547691954664
-0.0004285144948683153 10.034412600319422 535.181991497701 0.008419763372216407
0.0003802406462879648 10.081288593566239 535.5565346687108 0.004901247154713938
-0.0013672900561652699 10.078591773186035 535.3895294678124 0.011860729260978926
-0.005826606730470576 10.073746284870571 535.4306879073337 0.01498436050144456
-0.00016608677546977322 10.082469294237049 535.5939895068677 0.007323648014781952
-0.007165107902314953 10.076460454648918 535.4168514654559 0.011998591358419861
-0.0024086992159292634 10.07509047388987 535.6389325155908 0.003751995521043359
-0.003995471838058186 10.082788504349377 535.4706395578867 0.0106346596908545
-0.004980089330127656 10.073971582247427 535.1927027015172 0.016613334805905523
0.0005739476204708466 10.084635941971676 535.3138383146359 0.0054108017861802206
-0.003079287404587663 10.090323669133177 535.358991439237 0.00840472186108962
0.004088085993383979 10.079747883023856 535.2664690518468 0.003045420007597638
-0.0004944205924399762 10.073505127930021 535.174903622826 0.008685040719827628
0.005032860138796559 10.086060594247202 535.2483534462413 0.0034638872798306297
0.0006560977781489552 10.073901796008034 535.2768427843812 0.004194138192001609
0.003939350203232085 10.089201095216335 535.238956740259 0.0013597322824491407
-0.005678313324602545 10.064523320263048 535.3292880814657 0.01184703058423514
-0.0027001310701409054 10.057265497176205 535.2296304929486 0.0025628895943454627
-0.003136101852574599 10.063672312122385 535.2889848590504 0.012514556545254732
-0.0064982015784172485 10.060376914017024 535.2703770045946 0.0023743515177639812
-0.004339433050741026 10.057370984918984 535.43882716529 0.014234498854906033
-0.005540619310692856 10.055297506660771 535.582064127508 0.012058010985018281
0.004102004152129578 10.053736612190356 535.19082746556 0.011502912072285034
-0.003072115853643253 10.054160247456542 535.4040986823661 0.0073118162210847465
0.0015086541399330815 10.064979412175747 535.6937347494181 0.012007289481149503
0.0021670900666817703 10.056981285851775 535.1860603178494 0.012743899301923635
-0.006643328061222308 10.06229980101938 535.4371517567985 0.011714759298368852
-0.00023616974574518863 10.06298019022902 535.225460904181 0.012528454795997665
-0.002028422294118357 10.066043349488456 535.8100838033668 0.003934489258757151
-0.001623044236424109 10.068096820231114 535.3968751024975 0.004181824362305861
-0.0020179076615312133 10.063951988484964 535.542678907255 0.012090208304896327
0.11063017558015714 10.230182980146381 535.7417128009886 0.0037140694118896708
0.11893080558042782 10.233990776205857 535.767015115067 0.00458268007096281
0.11971608458808013 10.233252248918335 535.7057713714923 0.0052807833924107565
0.10980748931537285 10.233824647517741 535.7852722308169 0.012490647878447112
0.11015840156175913 10.242941065298066 535.3347383286165 0.015864456187289988
0.11320593735920556 10.2331043945076 535.8226792291426 0.00951776286149093
0.11490249862922425 10.242606839714623 535.8553478640007 0.007079361935042143
0.10613298516078119 10.23644491203777 535.5291953083455 0.0037530811971473346
0.12202643330869428 10.239318022703324 535.6154925214571 0.016071512650482237
0.10829889738662661 10.243211302424694 535.3116858774326 0.009608581415182699
0.11085336214127574 10.237191292843855 535.4201873462181 0.003541065270954229
0.10407267987475041 10.236365604787876 535.4721918470032 0.0029019958563297637
0.10977550135809229 10.236161896728692 535.1772937633687 0.0063827056705411086
0.1090148841865277 10.230655681971923 535.708256622843 0.0058429067585837585
0.09775102155650907 10.232652578569164 535.3325843536118 0.009642751185746295
0.10284158339241217 10.23866256603853 535.3702177750863 0.0038966113447185383
0.10363015729693999 10.239332171571117 535.5631308997644 0.0015936903714183297
0.12028471242026012 10.239501463882052 535.440140446535 0.004337786445635929
0.11588981535442641 10.237154402475928 535.6732073077321 0.008424481611441914
0.12570846502386168 10.239749921213072 535.7210101629564 0.005026663775234947
0.1295639765889659 10.246870967001833 535.1928099838441 0.00563505522412046
0.11988912249702852 10.242999611985766 535.4639240643536 0.003321343687931046
0.12856864456332157 10.23935434729513 535.4125025792598 0.004975900288487447
0.12771311473171756 10.241175081202275 535.5725719471142 0.003910310196024457
0.12115545432640497 10.238619286176442 535.8333251028307 0.011082892216181932
0.1277755139372883 10.244034986425396 535.248973927826 0.016799324128820868
0.1288146433481973 10.240568333421333 535.5447403351652 0.010192846829437848
0.12120318941683825 10.239685506026154 535.5010394670513 0.005415571601661422
0.11808930316065662 10.242172682376678 535.6295276003933 0.007631723769105357
0.12429026906513158 10.241994587905468 535.8588613295893 0.033139976130976995
0.10832104009449449 10.234927086593004 535.2665374601742 0.003860784413948505
0.09294670887361013 10.226716818474552 535.3573706111521 0.0017667279516856407
0.10294214808150316 10.2287253663215 535.6825407905659 0.009789083752410681
0.09637509300743635 10.226808682355918 535.8330569978469 0.01752452187663596
0.09960870741904002 10.235030918362837 535.8042135109073 0.0056190178647304535
0.10383382016582528 10.229356683449312 535.4976953271038 0.005499953341693037
0.09392180777481833 10.227319444064442 535.5036778334505 0.011873683349034918
0.1099642381161835 10.237815957674613 535.645961419983 0.004955171275826774
0.10637473627360294 10.227947512742661 535.6971237644667 0.006649668134611036
0.13531978261065777 10.242648052954344 535.8510140840854 0.03458427849752587
0.1313285924250697 10.240337043162773 535.7683939063201 0.011974547937457173
0.1292467859293953 10.241128766760221 535.5526777216194 0.005198138829021925
0.13000852494021292 10.248300728985235 535.6460682062664 0.012050208477834301
0.13052224108348057 10.244611122014089 535.4424865440784 0.005426358102062358
0.12894796747780235 10.251112919159006 535.8046565117703 0.006785949495867105
0.1349477450197431 10.246753227255672 535.8282716509137 0.014045649363477717
0.13225666687366283 10.24333729177547 535.6016902429132 0.004322966777140859
0.13679000731146218 10.242230725481281 535.7499991666504 0.00402182127943979
0.12491962159289868 10.248495510882274 535.2817912657969 0.001452868429127745
0.1351063513193395 10.240401981360112 535.3453488462728 0.013565599538396509
0.1326988404186198 10.240921422737438 535.3865309979044 0.00022229708116591434
0.12483247299190738 10.244933016332148 535.6638172733553 0.011823101546309311
0.1277428630514131 10.242192220698882 535.4905107499478 0.006537649113267774
0.12536800466820813 10.239400837914342 535.6815801398138 0.00399327774885872
0.12789386553396098 10.244733961788766 535.2669808268953 0.012135110674810152
0.13199944666848315 10.244379220067833 535.2366379526576 0.006734205139207962
0.13224000306466735 10.248458885286416 535.3239823503714 0.00511530666774087
0.12583579292778785 10.239837266212733 535.5093507144699 0.0038208105514575294
0.1469835593319514 10.245057264765096 535.5796204359281 0.007245196476532044
0.15361871844640507 10.24697354894046 535.7838735648987 0.0036046304595817205
0.1432158232058114 10.24894056699808 535.5028187657537 0.01384607047722143
0.15168555962598565 10.244397152674084 535.3423709031433 0.010409496619185265
0.15245995713737318 10.243506614898736 535.7614685685553 0.0035133229990662747
0.14946758175106156 10.24572136188689 535.8702748267701 0.05047840434515253
0.14933658395315072 10.244275247012313 535.564692065217 0.010739111057843339
0.14613269864525283 10.248793808815645 535.7249460974133 0.00947842307343152
0.15879922404866853 10.251402938965983 535.3747105483347 0.0028775976097093247
0.1403039571210843 10.248831795284882 535.3188702576009 0.003665604307546667
0.14164463715132386 10.247817890872907 535.5402163688318 0.005738896744907018
0.1506229766031002 10.249627992412394 535.4595336951862 0.003914171308679956
0.15029301035960713 10.243191077136576 535.6048243119459 0.0039200220911066045
0.14659570310814315 10.248727520933487 535.6310197698666 0.006413501051026303
0.14520672034249957 10.244224853774027 535.690730276153 0.004417907666350727
0.14012873309206075 10.24387089258786 535.8554254179104 0.02443401346987626
0.14520934209630107 10.247998852015535 535.3842240423918 0.0005339471474408908
0.1442707920940381 10.24546014336384 535.7605015076125 0.004349122647060094
0.14646349867976055 10.246585976598748 535.7091417691975 0.01833729161467758
0.138230071060339 10.24994173126889 535.4364986834005 0.0033205845882876483
0.13572649286657387 10.244134257954586 535.725552233924 0.004450329694114609
0.1415286101009845 10.242354087208216 535.7417301787231 0.00397176033354348
0.14786998307433186 10.245956161874734 535.4039442765375 0.005675123070940753
0.13960482466627386 10.24294749229037 535.3397726188001 0.004095526722393318
0.1275723241846956 10.243174166159262 535.5986313447313 0.00277974133680256
0.13620985276434683 10.249258124482722 535.2175350760042 0.0031678947171903944
0.13474879254889385 10.253072930214147 535.3059177173106 0.005479679022401936
0.14272503202836145 10.2422528040365 535.560560038973 0.009280836393467773
0.16808779548037103 10.251425452728107 535.5440884855724 0.02013317330968827
0.16707443677332012 10.25921080025884 535.6890075772504 0.010582479887207672
0.16421614017935077 10.262602406795152 535.8358060744758 0.009560918497644368
0.1705466885220741 10.252057695481398 535.4989717881684 0.006322464824132773
0.16862147486826395 10.257263730738853 535.2746076505243 0.0038205369423392017
0.17526000517202706 10.248974978039518 535.7855342803957 0.005539570737236183
0.17590214646444818 10.255597795420602 535.8550741555613 0.02176136774931392
0.18755220731173097 10.254610061288757 535.8111948901894 0.013606263045526885
0.19336897039234516 10.256319962916256 535.7416609669172 0.010223602085235987
0.18507454531529421 10.250392866846578 535.2926869495665 0.0034526575845656104
0.1967753880658388 10.257511928590493 535.7901741800036 0.00846682506554727
0.19435903542078745 10.251001702739854 535.2503979614198 0.008838274985989714
0.18634882137601289 10.252402777414563 535.7784382612186 0.009745912412220517
0.19127520806503734 10.262948789141292 535.3980591180886 0.011810399818932558
0.19810868442476762 10.252571378752602 535.7997822148321 0.00570187549001896
0.19907165739904 10.260409186777197 535.8326114426665 0.007740073680599824
0.19761095794593872 10.254225238819021 535.7616921072154 0.014572212553124823
0.1923086504175144 10.261079441979241 535.6787133518243 0.007865018804067389
0.19052308881460805 10.25864846223931 535.8576499209688 0.022047130531465224
0.19939437576291988 10.254941323120406 535.5100369927089 0.01034595943108626
0.20068895846714171 10.250572851270123 535.546733028589 0.010359271113737361
0.19794084431744505 10.255380793653528 535.49392068332 0.0031099616845869883
0.18054662491441922 10.256574419495307 535.6566759888791 0.004891403673149976
0.17585818492908548 10.247923525478003 535.7170456246392 0.015007588784749091
0.1780658295623743 10.261314629836786 535.4228236694042 0.00999889269951433
0.1775636942345903 10.261760889198273 535.6932862995632 0.0159508713861612
0.17836985012446377 10.250671790211612 535.562139338311 0.01859222538186298
0.15120821816969476 10.24571115016752 535.2419577792609 0.007087432720687157
0.15721524548285062 10.247409185519595 535.5615830307883 0.008744505827438756
0.15509803246963305 10.246821361168342 535.6157966462586 0.004666504803435472
0.15494518422533832 10.255328137624387 535.842568031822 0.008694084357459555
0.1560710507994931 10.255839382877868 535.8165479530611 0.010839156550889302
0.15837674818370073 10.251582135256205 535.74220296014 0.0064009436116152325
0.15658006796730264 10.24916880848447 535.7099790908911 0.020814747517841323
0.14953393281035585 10.256898981427739 535.6545418905378 0.00790608688849104
0.15718386797588044 10.250883763872782 535.6983718498118 0.02538427456839526
0.15430721270231743 10.254107093064688 535.1977770980645 0.007224609101961187
0.14960201633402392 10.255392835557585 535.5197685655488 0.004987110442578309
0.1604959714795824 10.254466171881656 535.322183084251 0.016762837976658947
0.16109600270080185 10.253981166141829 535.4326902986553 0.008927148291597048
0.1582612407008856 10.249964756813933 535.2088689283082 0.00456786212304976
0.15189724094494525 10.25083693658636 535.1764880016227 0.0073582088625558
0.21855903574459395 10.255445895133818 535.6642574308831 0.00743053723555473
0.2174723423705995 10.25034914748786 535.7112890547032 0.011915362276463583
0.21320541217205932 10.249700149042967 535.6889378000546 0.00910115540547996
0.21387808985883242 10.262932270497085 535.7837496304331 0.009718958583960075
0.2145608202757609 10.257360915809008 535.5534223983839 0.009314010810723803
0.20635708747556322 10.258061347433149 535.8672417035192 0.022305295509504948
0.23119231998026563 10.254153194153853 535.7525614597185 0.01616850559194929
0.23003639380111482 10.252806601100739 535.7611733801084 0.01730022412196067
0.24036150767224343 10.257098152726728 535.8628486040435 0.012681051628877497
0.23940199462573966 10.249190645364934 535.8315691712538 0.013042140382751468
0.23044053416401702 10.255145369183671 535.6929915570036 0.013009868051618028
0.2377666519078712 10.24616246618996 535.6621985026514 0.006817590456840708
0.2369594239778276 10.25537249612785 535.4432535358699 0.010064868298294666
0.2220405691431672 10.253164960208764 535.6562578737794 0.0072297512547275025
0.23793376383561962 10.249802752303598 535.784962089869 0.008769385903160698
0.2369211282883594 10.255002602896711 535.5915461551316 0.01006562851741122
0.2413594000406147 10.250581418970974 535.6936325436347 0.01384172867575836
0.2504531110504023 10.24644756148559 535.6698589305676 0.006984992591748317
0.24706059605431585 10.257456817345284 535.5437145214139 0.003077760222468505
0.23774603433052974 10.25632247468647 535.7189854128897 0.011855071025253353
0.2391114822969741 10.246872824583829 535.799640994984 0.008695772454694595
0.23941540697443855 10.250704041421903 535.2309933364957 0.004447232379849391
0.2524519251392626 10.251855814864014 535.8201681669491 0.008029753697656216
0.2295489528340181 10.250092359419702 535.6192534434449 0.005699453072031265
0.24065488645209682 10.24695523023606 535.2471787380057 0.009769276502544168
0.23953614707154056 10.251144569715937 535.1917591337977 0.009768210796880008
0.2514812782801729 10.25090499483013 535.1756601792816 0.006969344969859944
0.2395703404354449 10.258423439867933 535.4986824517471 0.0013464547888564155
0.23406931760760558 10.253335188911894 535.5848776806238 0.009153405778706016
0.2330840978133796 10.252903109423755 535.2207881154679 0.005260120966745399
0.24882417354317818 10.249462836235073 535.2904649839372 0.004300188664047501
0.23687071979146704 10.246354394633848 535.6363224075067 0.009064151503444778
0.24243692064329275 10.256659657395538 535.3386917045648 0.0034581997897391993
0.2190540551400161 10.253733586384088 535.7618617148322 0.01855084009919898
0.21649302108637297 10.25837332128183 535.4162353991894 0.001465070144546926
0.22130288950007074 10.259215192754137 535.8168213911662 0.014605595130444451
0.22552371528043225 10.254670674354362 535.8460877718522 0.015473211387942281
0.21901269268749407 10.254713129799713 535.5888745601524 0.015248248494162668
0.22767540280378046 10.251576033437132 535.3561552295735 0.008833202783311327
0.22709149293370942 10.257611704421633 535.6058258821488 0.005740796877790211
0.22738335162895476 10.252519534297512 535.8747637823798 0.021196076429698528
0.21197000632134888 10.25845949163045 535.3781985523875 0.004538917701459195
0.2179444480118347 10.249261997202531 535.6359740738314 0.0055587473247537085
0.26276411625399565 10.250495436435298 535.7702208897505 0.0054897815308078395
0.25451930046359894 10.248783049910106 535.8519990706744 0.009110131751040494
0.25691220992280644 10.247229358612467 535.3804272809303 0.016844266605647407
0.256091029331217 10.245215627566205 535.6251924294248 0.009367479591033415
0.2661911275229208 10.243811264460845 535.5206344711503 0.00791106831835706
0.2653634220036946 10.246699457674096 535.7133246113589 0.005754894577521889
0.2550841358900212 10.248422518219959 535.5975711994042 0.009148045320737555
0.2647009616998895 10.243975755637946 535.224316112873 0.002923684475004122
0.26129871631217355 10.250764691941109 535.3323633529333 0.011667326068024866
0.2596817811280261 10.246005248839214 535.4306055793953 0.001995960159171432
0.258344226101137 10.246594582905102 535.1996868881597 0.0054644704968400395
0.25978254711537463 10.250015261062291 535.6722026568635 0.004547658744827114
0.27069872753598606 10.240239476681001 535.5754981732265 0.00359184554908161
0.280092847092268 10.237850463153382 535.5741065170354 0.008443533923466367
0.29083301860509164 10.23474893372438 535.540970855356 0.008037744580795682
0.2789464129068496 10.239641939018025 535.5613112398474 0.012082822026341297
0.28555222061504093 10.239810264947023 535.8491679772886 0.01448528803034616
0.28146746701311864 10.23566125192623 535.6152543278994 0.002579738049417402
0.27560419069401954 10.238111935175574 535.8256804499686 0.010425491888353802
0.2856672891085466 10.24209302072734 535.44274763319 0.009271235316800925
0.28051713106879783 10.23689714481639 535.6408763913589 0.005075103758635025
0.2754157129435675 10.243272502530457 535.6541958141639 0.0077846955268518255
0.27659519860897647 10.236960792545382 535.2077313259794 0.0032147801172397648
0.29281303159336336 10.249487907799455 535.2841486031958 
0.29354500608930534 10.235219979269713 535.2126049584353 0.0021556835008192587
0.26929754011737844 10.251800045588913 535.3456836951669 0.0010193473795842222
0.2805620028517618 10.237626589143947 535.3747308851906 0.008796343042959082
0.2888272854490216 10.231411771534928 535.7407677181161 0.0020070699785183985
0.2885287680756735 10.238492192206996 535.5280360243867 0.00651350114156102
0.2895390504940899 10.241649612324771 535.4842887909638 
0.28842946672989406 10.232696907711729 535.7639102485347 0.0032978694266817435
0.28720997856585706 10.232317302399524 535.7455854923707 0.007089389376455496
0.29456660990309447 10.22848806188146 535.8333024085298 0.010210755329106907
0.2845499427975325 10.234620786257505 535.7190220380005 0.0063335127133667835
0.29001262344555045 10.23616280948531 535.2213682202706 0.002424490672484092
0.2902615643162133 10.23795817660627 535.306525278467 0.02077794781628205
0.27943696067757 10.241617342335108 535.3983654322622 0.005477870872618605
0.27806940222738474 10.236463243557283 535.753008936919 0.00849617708657183
0.2715566910684495 10.23944943023779 535.6017195529572 0.006954879056939803
0.2747545695652235 10.245915668488669 535.4230665110549 0.005433033582061003
0.2611914429395974 10.244851760132192 535.7594380311244 0.009930496051029988
0.2627511241935503 10.244557915055514 535.8390743314791 0.009746696600852726
0.2745026544726451 10.241600326039814 535.7275836190203 0.006550216402231203
0.26903036339629893 10.249801816973918 535.4438207980103 0.006097927666917303
0.2687714245252622 10.242532601696517 535.7342163594348 0.008014802784611792
0.2733193682856484 10.238163199993995 535.8607252070794 0.045743717935688835
0.26382975963562294 10.248211091813488 535.8095123830857 0.010858179198528
0.26672125417169495 10.243608729117902 535.2481800478547 0.0073120028383588
0.2677522150583442 10.251528857271346 535.1822761429954 0.004101434612439708
0.27194793682102025 10.2423181866945 535.509030313116 0.004301097493759019
0.2721725317908169 10.246770777338224 535.3006767705333 0.015672829476612853
0.25216674917924986 10.247038368657304 535.5192748675282 0.021726722142533385
0.25568768145723053 10.254121395937958 535.5729316202205 0.007606129664766706
0.2461587124333997 10.247282570064753 535.8324716661209 0.013016645112893148
0.25337436660421975 10.246677955731538 535.6987400702606 0.011957996042267433
0.24979389961794657 10.243914775529873 535.7384104036554 0.008923463189319908
0.25660395868647756 10.248536264246212 535.4714372898427 0.012853175639049851
0.2515653230896436 10.252831345060553 535.3247394092541 0.004873972409500928
0.2536422687245188 10.254882520735 535.2762891765053 0.000901768652635218
0.2509819680144031 10.248826615142137 535.2026585747868 0.0076628080706940575
0.24282600416457145 10.251992671897108 535.6159033091556 0.00786329100187287
0.24764407989287815 10.252339208785465 535.4073454135321 0.0018577705566701949
0.24665597130667638 10.25668456243023 535.4533164724488 0.01083588336682
0.24413948863422683 10.250567461427936 535.5201585816471 0.027254779554834956
0.2531346374612571 10.247137467759087 535.2174027654255 0.006633072536540847
0.20265763448458204 10.263125402875263 535.5943135911446 0.007873479213599278
0.2129971923479652 10.260020425384305 535.7320105885789 0.00851770338219891
0.20651800039958187 10.255580923894318 535.6436670113658 0.007150760383664842
0.20398191511748584 10.250954581856162 535.3185496361104 0.0032685186611270947
0.19618936422423286 10.26037905934135 535.4451141958838 0.007984799084997931
0.20354728510016504 10.25712043660288 535.4768038269882 0.007727051696788235
0.3021211161941011 10.228549282186714 535.5212049426892 0.011840150113315758
0.30077214669943286 10.225790088011479 535.7809862790778 0.0022569615951471204
0.3011864484329261 10.232992291312726 535.8473550028383 0.01534366151895845
0.3083881290462229 10.224466285368456 535.863676278118 0.02241596921372554
0.31082572070858916 10.225375065260787 535.6777501106907 0.0025850769235299244
0.30627904861724486 10.220095063476123 535.7687690552762 0.002321332769282055
0.3204641202051216 10.225037134445198 535.2519216948145 3.105939415213171e-11
0.31505373867368935 10.220848120400344 535.8119015787347 0.004420444934927894
0.3049484679406909 10.22821212326335 535.7957001259423 0.002393170647367325
0.30321405898242876 10.236634540337 535.5467712821758 0.010138324055926469
0.2983115990612479 10.233715494267017 535.84751468092 0.01663449715143432
0.30278040385195154 10.230365497018283 535.3352050772534 0.015555876208769701
0.3088911156945899 10.234390971508475 535.4401129223506 0.003373058067379363
0.316994894946375 10.222539443293003 535.1828741711028 0.0021764954255270312
0.31725410626563677 10.220566514063208 535.208075061123 0.00701643326760934
0.3039876754057334 10.222326810607148 535.3804380069851 0.007830011640510696
0.3136182444766376 10.225773444854577 535.5302453010157 0.017950963072704412
0.31017499807020565 10.228458107937005 535.4266845949412 0.006630543408214417
0.32248676266495047 10.227514449112917 535.6027132044641 -2.007970609093071e-09
0.3132851075216409 10.21976715210641 535.8486854220469 0.0192553910375636
0.32207442487403554 10.211482202746039 535.5594218994187 0.003996993691315407
0.32389530589934934 10.213046735637185 535.7612067184996 0.008292639082705113
0.31854965753058484 10.213842189806822 535.7533456642981 0.001988710872003104
0.32357637177750725 10.219505185795882 535.4596452220349 0.006309145306193058
0.3299982966602363 10.208918501798722 535.3996452063155 0.010641272093920911
0.3248179691911894 10.209396321644515 535.8235501079807 0.003013321423425146
0.32738353912580476 10.210265462096281 535.8555422899299 0.02906283435008092
0.3213409318936048 10.22385204343071 535.6301192062036 0.013888952773734415
0.32832662340119567 10.209593810096026 535.3185289813218 0.014490986797142797
0.3321655967385096 10.215393513992735 535.4620724728185 0.0008843663217012415
0.3228899652605288 10.217467844417655 535.2181919252519 0.007220941683858735
0.31137760729074926 10.217857230807725 535.7240869211988 0.002833900313317366
0.32899167944504415 10.2135058055193 535.2012336055582 0.004181790354299188
0.31799365506997734 10.221639715795037 535.3987233970167 0.008147720068100347
0.3213859878883714 10.219904698849296 535.6673236665297 0.007744760610702145
0.32453344316528404 10.215516466512698 535.4904810288007 0.001594410574198003
0.3209560564141766 10.226504466641025 535.3464893840979 0.002917810845378431
0.31200320478765586 10.223281262431689 535.6435458528255 0.01224065332202131
0.31464177647027447 10.22047376248452 535.365056758643 0.006431180362621052
0.31929795151307266 10.219460595614507 535.2936439172186 0.00023645400945487653
0.3086182924733051 10.223192945274484 535.3112853224364 0.012406886311456346
0.32725420285265433 10.214835522892818 535.471118748141 0.012982641931931898
0.3424749946432483 10.19979310978818 535.7489287488327 0.011430203918023869
0.34284537402247994 10.197761729308962 535.5106254975958 0.005819343835989424
0.3451105737513865 10.196452776542282 535.8475844453828 0.03685043222540954
0.340577898163105 10.20067621089531 535.6272668765487 0.0058227201365631635
0.33599687727600414 10.202832507606505 535.8123361169753 0.001303356113176478
0.3476890985654004 10.201792296388081 535.7100204035543 0.004250692145369107
0.33903567353748965 10.199853348782991 535.6451962308768 0.005910263739059679
0.33952644829678164 10.205833664976561 535.5697345492257 0.00032252454331597276
0.3524143077305975 10.198489306037523 535.2431870571808 0.0007755739877180061
0.3509312798564368 10.18818281243686 535.7582130435244 0.006486564497728778
0.3573010077929584 10.177159261729521 535.5366501668608 0.0007737652480681388
0.36135635591807974 10.18360825019641 535.4809705992777 0.007919507194845622
0.35739133916487786 10.17888831262086 535.6591134237399 0.0030113867418135715
0.35537002693341563 10.187175089014554 535.8303445774693 0.006844656074227326
0.3569300231931781 10.185285729687878 535.8566510727605 0.041847670369152726
0.3565590945785276 10.190482843708239 535.2849774334891 0.010814761421400748
0.3513361958682029 10.188266607766055 535.6768631749554 0.0018345674754806252
0.3604710618072269 10.185496817900072 535.2096443081595 0.004287301897647935
0.357224337258245 10.185529175851071 535.3768142529623 0.0005488963482808852
0.36315653459337166 10.174504423800657 535.7229175036213 0.0014371973388849115
0.3582942091170701 10.174424283476595 535.7582815114424 0.0013634122466345605
0.3624541429557757 10.187354922441221 535.3190606448981 0.0042284475384347184
0.3636513297461264 10.168481427475163 535.393277565998 0.004624150265025344
0.3530014554847459 10.179663885987708 535.7682392423519 0.000980936810592223
0.3625239671937658 10.17504820367302 535.4519117155405 0.0034563198434168748
0.3570124592248128 10.180088144463065 535.3390363010726 0.011965156651841774
0.358943521211323 10.183007754386802 535.2636240288125 0.0007453669605585654
0.35675841166544353 10.174970026516682 535.4164984401218 0.0019006215060595561
