x y z curv
4.374438234534352 0.20613126719805275 843.8113269722696 0.005051596178877977
4.368284160810171 0.20412994248915398 843.7393744666904 0.008585388980304184
4.384776301689215 0.20917344130986648 844.0034632298937 0.0022567082151564674
4.382241906835419 0.20937257380341456 843.9389357952455 0.02025936133910916
4.400560982399364 0.1383599364384086 843.8858358568461 8.571324497815511e-06
4.400587407287632 0.12528553180126667 843.8686297855655 0.002485802703764641
4.403377862930908 0.11730288632652597 843.8441293882942 0.001139717967554106
4.387879892933719 0.14064847710545636 843.7590277457421 0.0037447292357710537
4.412016941374603 0.14443160474062075 843.9665602451794 0.002496696848751689
4.384822666279389 0.12944912206734105 843.627294678244 0.006120401928828897
4.401931668894146 0.1366431294170403 843.9047158274578 0.0022323905042354107
4.405120365144689 0.14795451553521677 843.9420720872356 0.015541142854631162
4.3919495946810425 0.12884772464932218 843.7752339690259 0.006671619747086775
4.383935576129493 0.13666985382009475 843.6004394157301 0.009746002465259881
4.398974053539158 0.13491376163650853 843.8421641762584 0.0021276392381454055
4.386242522350495 0.13139410786501418 843.7247334674045 0.003899501490201942
4.399419759970277 0.1305204467463727 843.8177562943569 0.0037179165696069084
4.401135015116145 0.12397413122014882 843.8445671436359 0.002899372598882119
4.388315566106756 0.1367519774795593 843.6920015197495 0.0053706497747307335
4.4011773453916385 0.14348094876076226 843.8622371976605 0.0012840911380862525
4.3933301494250845 0.15654708053446523 843.7745500264864 0.0014734485215131283
4.387653512369369 0.14398664986628038 843.7405688006681 0.005069176480183573
4.3954702747132925 0.15707557861206525 843.7920141469227 0.00626978368365651
4.402321402959496 0.11114810943384347 843.9387004417566 0.0009009511836500832
4.392592552651349 0.12275355861904763 843.7856028728321 0.0015071772305309589
4.390870950515591 0.11876527578166834 843.7744632720753 0.004833070254718298
4.403661345024965 0.1233695190510178 843.9496414107268 0.015679421840847217
4.3934123728284575 0.11905003086471697 843.7989597063769 0.0010137265991813705
4.394076085598115 0.110174331942985 843.7417984323403 0.0008659092162772131
4.387176580124987 0.10342068094381068 843.6543386275649 0.010596500182166334
4.407854578316276 0.11125897791284145 843.9191953331339 0.0023799451737077006
4.401454006291674 0.0881993413307986 843.8406132684297 0.0014458330777371482
4.397737199423689 0.07545995262985342 843.8541159287136 0.0015862586570698012
4.3943173578767345 0.08307313619707116 843.6316715427201 0.0013294151973079192
4.392294033033744 0.08988361080267042 843.7137579232193 0.005413484513970405
4.40014064586958 0.10842428707053753 843.9538793638742 0.012402729870042631
4.3936984476003165 0.09998692126034303 843.6932257430886 0.0020447081552152275
4.404503009727501 0.09893579007003346 843.9283909848936 0.011462164027649085
4.3867289252510995 0.09601429030634687 843.662232065623 0.012877297108641406
4.399686318515121 0.09616744520401904 843.865619127106 0.0019869197743537744
4.391110459562669 0.10438356641866074 843.723646327401 0.00421851688020952
4.389884890447839 0.11899651493601675 843.7095943721383 0.0029472521112600156
4.3860910983112396 0.12392368271051182 843.647422759056 0.0017910145626620674
4.386257951703824 0.11507601853714344 843.5999696297819 0.001844791726253569
4.387681132132064 0.11362557850387177 843.6212467078026 0.0015564614567355555
4.388271375527396 0.11795137243300922 843.6681840301487 0.0015524335066367007
4.388242688297521 0.06402538031289928 843.7013253462197 0.004308851042850056
4.39555955117642 0.05415476993335927 843.7360150584888 0.002875561369519574
4.389221584884045 0.06688725989616817 843.6377741291819 0.0058956524204546576
4.391074571127028 0.07585088717166505 843.64512133536 0.009125869542102656
4.390953448989463 0.07083216880657281 843.6179123184036 0.003341528755179254
4.379617406325067 0.04291336990859429 843.6323166635227 0.0016493360321876945
4.403363940132476 0.036354448926175655 843.9364875003494 0.0007927535209146607
4.386583325260714 0.04761978292663551 843.7918559136167 0.011768127713444874
4.393216408003797 0.04304359856805218 843.8514349141993 0.002531621175196562
4.394305675033351 0.043243871025667 843.8624684978992 0.0035015785195969132
4.386325192969445 0.04808986009813728 843.6840328079356 0.012628457202546097
4.379761726191555 0.04520232704275179 843.6507115817549 0.004719465112832074
4.390701013624996 0.04690736751602401 843.7026602056677 0.007284718039588069
4.381206538523919 0.04400475578161507 843.6132851830579 0.0021611691170676313
4.373654390144752 0.016092197431705545 843.7037956479762 0.009974008063647389
4.378210980122602 0.023497341527035583 843.603922522097 0.002714880287394433
4.373194483935603 0.02040233840956102 843.7474673580754 0.019094456213786557
4.370901021364542 0.016950600504516636 843.8042264076488 0.03239412793098611
4.351657047635404 0.008946706283811046 843.6416528046301 0.009824977481076294
4.361542848724883 0.0060825173429341645 843.6687162960712 0.011480628558785037
4.369556728810477 0.005550618494350521 843.8851864654202 0.02615464038225586
4.352619765162112 0.009414769829529157 843.6189201590802 0.000386165039124267
4.3612158519378115 0.006512307583436537 843.753290397036 0.0038954936861873655
4.367638871318377 -0.003755532520805599 843.8730715478855 0.009476388125152141
4.3877777975645245 0.028021726833176448 843.8523598559287 0.001805360909208168
4.382243752088543 0.02521335652384421 843.821088291371 0.021095070304707125
4.381211738154252 0.030716116247951404 843.6947159722728 0.035942986356744
4.399806493989581 0.03128837260396901 844.0166236021488 0.03130823444174206
4.399602969654365 0.024897980582567814 843.9703196169023 0.005056327176309774
4.379861925974337 0.030625238437672855 843.6700898490477 0.007607718013435269
4.3950920404872775 0.03352055560040287 843.9043445442954 0.02507654171139377
4.386771974046351 0.029165766176039033 843.789131287351 0.016342903920644303
4.397413622593027 0.026354861279327152 843.9958527592412 0.018099224588575775
4.381446297299421 0.014202540179708827 843.8940052074034 0.07060014667226397
4.390124899645925 0.018129203898140118 843.9144789564557 0.018026751816692773
4.375148516429014 0.016898190212307828 843.6614186654015 0.030959836593789963
4.3910124972094415 0.023400310591466876 843.8749893787042 0.01238795515888763
4.381358447138634 0.044404229581061404 843.6084753694988 0.005029954848861351
4.389635945644477 0.04007017675456648 843.7376090221516 0.010908511697904454
4.384901627083149 0.01563418220862431 843.8707371923289 0.011059941220593764
4.403307727260233 0.07496699958897174 843.9100340776813 0.003600875954040246
4.394900255330318 0.07585611539179576 843.7300571682127 0.004011694497933897
4.3972048568779805 0.07408023925821214 843.8365480978134 0.003430239271093496
4.387872521623353 0.08088234275667637 843.6538562869538 0.006905092752948998
4.396290051423332 0.06955524970837947 843.850723088883 0.0014794279989239834
4.410208470027177 0.07206689605715766 843.9529359932046 0.0002401855807725516
4.397331594908009 0.07027699647187323 843.890625836081 0.0009705051119713759
4.394499625172728 0.0843618868821311 843.8125132170588 0.003307244583231722
4.392664468961234 0.08541837424148585 843.777919676758 0.002057201954649678
4.39062272553979 0.06713884340342946 843.7657107855825 0.0028639717867017947
4.392732274596925 0.07891214722129634 843.7120756851104 0.005459781233313507
4.393409091495488 0.08006155341282967 843.7457652894165 0.0026360981377270753
4.40453032201614 0.06878272718581967 843.9199068739307 0.0020792978967641693
4.393946215279318 0.077944453538245 843.7878654567536 0.006296263496219973
4.384746557792383 0.07249424935253312 843.6759330614179 0.006948616406783743
4.389608765021305 0.16183127851501355 843.7465872510444 0.00857455478711895
4.387834214158671 0.15390537371913945 843.6916053400319 3.3264885612256736e-08
4.406439395237541 0.15884610595235124 843.920972252413 0.005405427211992823
4.3842334014700866 0.1473999376823424 843.6503579564244 0.004722627940778102
4.395327151008681 0.15568820217470072 843.7891405684782 0.003584217021070058
4.327896608569124 0.0013924879735817876 843.9456065653261 0.0032492735343269707
4.335094785458573 0.00680316712119479 843.8988211516997 0.0037104351484784585
4.320544238006116 0.0013664339018454085 843.97978734836 0.003908348473710868
4.33785956893758 0.0042783781995933915 843.9591438429835 0.0029662868595327833
4.320766389728835 0.0066437842035200565 843.7300195578699 0.0010737708783041633
4.331571580746425 0.0019061652682905387 843.8743658834841 0.005425441581991797
4.3239768195670925 0.0021751817699887785 843.9215158523164 0.0034807133235269026
4.3218496625761915 0.008220297351032756 843.7618987235963 0.001132185586311913
4.345753334512594 0.0003693534636455588 844.0041762014484 0.008373497284745483
4.327754146485668 0.0010625984406713897 843.9983138632788 0.0019413626823697905
4.336544663480181 0.0037619743790982068 843.9736468539857 0.0016222855376220359
4.323578781699259 0.011365011110123602 843.7009548671375 0.00195632898386144
4.337903082532832 -0.00017650023873296873 843.8726152080109 0.0050150551220087235
4.333784711168655 0.0076740808374189595 843.7292651815727 0.003059332707157705
4.337365508561461 0.0040459472050686784 843.640061066399 0.0017453144666680785
4.334992372162478 0.010861719463808813 843.5967417232249 0.007204519400201176
4.312347015426619 0.0022617619358679866 843.667697363763 0.0035814696211855157
4.316641731497072 0.007657210106194162 843.7985473950132 0.00035554892756349467
4.2867049220239855 0.007652986933214565 843.5975575722281 0.00026064047290342093
4.299579173529079 0.011342209196037609 843.6099934807883 0.0006742094192698941
4.261219110992556 0.0009861075973488609 843.9418529507499 0.006076016566471193
4.27446307089795 0.002446306049824015 843.8877296691956 0.005524592154619551
4.257350548061305 -0.003063098169337211 843.6769459169063 0.004319661676540468
4.257813352664595 -0.00316030106318216 844.009610606868 0.0008185721201158945
4.262814422509306 0.004768052776271518 843.9252555771221 0.011623942411018271
4.2593240402211965 0.006444188282628695 843.6386349453518 0.010752795426618115
4.2630745504862695 0.005613106580313587 843.9052382657911 0.004400498333502016
4.2694929845200935 0.0063822075193976265 843.812928004159 0.0041257986631716165
4.26402533628978 0.0064001440404504615 843.5934474190004 0.0021930308420494826
4.259566035805461 0.004478413049322828 843.721071259605 0.00327223492606529
4.2689080123459195 0.008076041616458137 843.7676944713512 0.010242690406384937
4.284420127733405 -0.006202279477251449 843.9890342576641 0.0009455441292026356
4.288891902537286 0.003338505402300859 843.8930233374375 0.007045074460946309
4.294146261507552 0.0058089051788047606 843.8019495458225 0.0011034146602782182
4.289824015686092 0.004335923450022654 843.8465275032161 0.003791103729045914
4.286741056101832 -0.0035255185299705198 844.0055849097383 0.003374316324280888
4.291240323128107 0.005121460596452551 843.9235595571777 0.0038801443449896613
4.283270118416787 -0.0013454715846336496 843.9558594361764 0.003379216385544522
4.283942332786588 0.007803750579174082 843.7142756594367 0.00025005536136028604
4.278721427944016 0.004608668788905815 843.8391500331822 0.007452865305557721
4.285122425895885 0.006903107268531311 843.8185198393293 0.007657384816293782
4.295215138667363 0.009557715162547907 843.6257173563841 0.0023508809584844087
4.275967418306884 0.007565999386584154 843.7460263560804 0.0030085806079022752
4.283970014445955 0.009641297873903287 843.6501569139047 0.005873654070718931
4.283428219670206 0.003073774719396913 843.6956916365118 0.008752876947945852
4.284709506414572 0.008062042849703018 843.6613352871647 0.006764441436854618
4.278629655603969 0.010676106501309068 843.7753347866583 0.002410662126141779
4.2971923522188895 -0.004414933505913992 843.9498231800396 0.0023149159275274063
4.298575296929349 0.004333382193295454 843.8945093627493 0.002603832357460807
4.308739103393899 0.0026669703626860325 843.8620910994479 0.0010004530955277017
4.316154142152971 0.006943214551378833 843.7828274584731 0.0021581669172266644
4.302058206264368 0.004708168972469152 843.9103331872186 0.003925444683602424
4.3112088688632175 1.484523884776219e-05 843.8449625493214 0.0004499144349761678
4.30574396749029 0.007261725177112862 843.7608180681599 0.001021147958012632
4.307517245331796 0.00044526632813001767 843.9993393034724 0.0021387496871336903
4.297149775957749 0.0023877363504424655 843.901695914968 0.0033128488977245945
4.309105498778615 0.007757031261889309 843.6475252365361 0.00266784203513263
4.309675288028555 0.005300898720648725 843.6876837996202 0.009266849780717101
4.253260476635697 -0.002161041292840291 843.8287767227729 0.006949366694830648
4.236747154347307 0.002651577359206924 843.8054702172986 0.009865111124906897
4.2253649789135075 0.006337680170990574 843.8536525032781 0.000630496378660323
4.2139000421662685 0.012007419391978805 843.6183507488929 0.002163261772458068
4.22293571053142 0.013062267292607113 843.6279821437416 0.00036750896954514773
4.226120719017188 0.003071083891398072 843.7765883473365 0.005952188559629196
4.248172652782589 0.001680002163839422 843.9083455245452 0.01041717520663369
4.241228492060741 0.003106400424434286 843.9622189835555 8.781747308918053e-05
4.235261672612227 0.0011316651968188685 843.9582574580605 0.001278588466795394
4.254205785110273 0.002398269800464376 843.783697395687 0.0028122638663852155
4.232381608108957 0.010417963930577938 843.6558423108352 0.002717083415197318
4.2388804616208695 0.008268069092584575 843.6203719140602 0.0007962306722980675
4.2236733774195745 0.005589652139803281 843.7108880103301 0.0016812289496101927
4.1874429934179265 0.008254674398568362 843.6745899593178 0.0013390312353946771
4.181474961150811 0.013215665859938606 843.6301723068062 0.005672543103968653
4.177012137263399 0.002441371296360538 843.8739942315905 0.003793640517532562
4.176792581130612 0.002321020591805829 843.8551337670477 0.0016470740004705675
4.190606186892145 0.007980165687445313 843.80609356419 0.006625883373966645
4.197890617354085 0.0033938314295132825 843.6910796175174 0.00035081717023022565
4.191695427757789 0.006602318158717965 843.78690089106 0.003206889720457838
4.191413709723519 -0.00226164236444271 843.8946404933891 0.0010103212443822978
4.186168938600185 -0.0039659249034833775 843.933932290716 0.0034063291375863794
4.1926610881308415 0.002098179514667147 843.9649943095138 0.009883621288641634
4.194922086219845 0.007896177600587329 843.817901773978 0.006122316537729503
4.1802169429638125 0.004931439872518202 844.0071944008185 0.008061598115216513
4.186669979973758 0.005053825315529111 843.8309444753529 0.0034656637894155064
4.194581221343004 -0.002671591623709944 843.764104803449 0.004215870250367035
4.189497103691554 0.013529538008214097 843.6192727396526 0.004369873347802439
4.188333379558288 0.01489380289774715 843.6309831688943 0.0034502309189027966
4.209672812954581 0.004551029401036008 843.7032296306866 0.003673400927771451
4.208782733725838 0.0032461286290511237 843.9463590738139 0.0022222342673357855
4.218283068992934 0.010259442220307328 843.6582619698368 0.0013872580922900403
4.211211574975095 0.0018099068287462366 843.8398392773123 0.002768915639656123
4.205479802582591 0.006143046943020624 843.9912438527457 0.010929339514525727
4.216340726131988 0.0001245973012667257 843.9833149326591 0.0022573094206169947
4.202635045594716 0.000871740752670251 843.8555371314944 0.0031065847862437653
4.215318439759478 0.006586868572950341 843.8098804761988 0.004729805697617717
4.216057767108263 0.0051201078657382056 843.7274499577464 2.2054540856830045e-08
4.219248493388103 -0.0014951359450052762 843.9105500307105 0.0059057210826876285
4.210460874623093 0.004776976728079389 843.8007082037375 0.006095679960218582
4.222585316360887 0.002541202989904747 843.8761372893092 0.005305178421073989
4.209163627690972 0.007353735377338794 843.6822632970993 0.001551581296227536
4.208675789551293 0.0028213559838607023 843.8695242829218 0.005201323125135529
4.207576264512142 0.0010677440939193036 843.7900900559016 0.005686008168282693
4.251024824485494 -0.0048439579725039475 843.8884564246736 0.0030070898184155087
4.255951003924313 -0.0005061565589412559 843.855497359407 0.011544038060610093
4.250173770959579 -0.006225007813597846 844.0053251718075 0.005935718715812143
4.2503003096518475 0.0019863844570809533 843.9239385197968 0.007019487421770546
4.25170448348733 0.00403372789938024 843.7159237216102 0.0023241548116760243
4.264598511119431 0.004284627850091275 843.7521737382561 0.001255640081483542
4.165025076926588 0.006727411234543262 843.6613298925236 0.030526828183766123
4.1585207768009695 0.004072278856125585 843.8806360943729 0.0013020490244936
4.160028744922498 0.0023258384074629837 843.7661149279205 0.0012890777709821317
4.147361432355634 0.005810133477804479 843.6785246606813 0.0030079763976299085
4.136124774055048 0.008310850052239143 843.8239864223472 0.014759974628278908
4.154874732171317 0.011344124166789201 843.7191540058967 0.00019991130735339468
4.140470381983075 0.0032928413357516404 843.9376815288576 0.026034437318238794
4.144146859695413 0.007418920745180727 843.9017425701155 0.005946372623118176
4.135906014589529 0.011375584472745856 843.7662712915867 0.0309324132264903
4.114561894661014 0.005212588603516276 844.0038517772437 0.024084726662903903
4.134147227086727 0.021790014977953385 843.6722556794841 0.017261137711276475
4.118666401375388 0.0165175702757737 843.844253254112 0.006024075628892331
4.127126834504628 0.01651245675731197 843.8058366213245 0.025261559666856254
4.118183044634094 0.017570182917223055 843.9529066808378 0.027871024240413045
4.115262167160566 0.03300280645856233 843.8156098619257 0.014169246076534853
4.117456293306072 0.04355651458222688 843.6691643716789 0.00572831854083855
4.115337589774819 0.04119546925822707 843.7198139137763 0.03256379814539767
4.119668972174565 0.04075773467080043 843.6007034807124 0.00016092183473234728
4.115684988925823 0.030116019257096 843.7388858081782 0.025769405738660236
4.118160684084552 0.01830597595452605 843.7606384499333 0.010887783697005039
4.125040137860736 0.03146513877641616 843.6068848581664 0.0278199733751575
4.117443123999829 0.021566606447664907 843.721076975489 0.029603838585862012
4.122393854244209 0.033066992277000246 843.6537632577958 2.061110283617985e-05
4.117030315210494 0.007758555177676854 843.9828693072367 0.04231597575120308
4.124839564180143 0.012286864152462803 843.9106532243676 0.014169022525283697
4.131910430177482 -0.004721305366139367 843.9682966204612 0.015850966270220916
4.129127384920025 0.008209808085906873 843.949176213864 0.02947408433533863
4.117965423530872 0.01707029353543804 843.9157956505597 0.0121476733630064
4.096423296756948 0.0725403414122379 843.9433818916286 0.007108989104311362
4.0960137033832185 0.05917796104574831 843.9074613860151 0.0037870119557035305
4.104121442190627 0.05821794260799781 843.6518655635982 0.005658903433268008
4.098128127023741 0.06437894657668199 843.8919965645475 0.008944017870362671
4.103555662261645 0.08576251042530585 843.8187782841376 0.004136437658889241
4.095606769930086 0.07435116614634568 843.8761950241783 0.00271164354945535
4.090670918973141 0.09717560980723922 843.9730404549232 0.0037900107035038024
4.099838662876958 0.10347118842433947 843.8999601615405 0.006838331257157146
4.089139669557952 0.08489888009148547 843.9870102605843 0.0036942196813674077
4.093690202233907 0.0654770857649102 843.9687895831154 0.001845764288795006
4.100058618626709 0.1018454775668894 843.9338467773777 0.004847000846057772
4.094602210561904 0.08749156732402256 843.8851969945024 0.0018178230566621655
4.09908338773841 0.08558857751651482 843.926353609095 0.0018754273639993108
4.098084866524833 0.07087439764386336 843.9053850007408 0.006891666760091468
4.1101327067169064 0.0806962076139678 843.6879852250715 0.0028950164434584993
4.098531251813673 0.06574830760275666 843.8611698037386 0.0053437678290258386
4.101527830157453 0.06946774718987267 843.8222162454156 0.013783424395068009
4.099575713833384 0.0668668198411688 843.8401811901643 0.0069479547302975925
4.106284608125058 0.08167630832907105 843.7422024201891 0.002661505162814549
4.10307705061931 0.06626274064388646 843.807328491306 0.012260469157699431
4.103376411296272 0.07253139032816584 843.7746208308849 0.008158765589171502
4.113124556502204 0.06530063659142804 843.6215590966558 0.01364994131337464
4.1111882340584645 0.06607882031284174 843.7020948665173 0.007248050182166963
4.103640996904791 0.10928119127020364 843.7426960929084 0.001138580506211513
4.100096537448993 0.10164732314279498 843.8501045654872 0.0017158270240924343
4.1040006575674335 0.1033704097647775 843.7774380008127 0.0008418386827444883
4.100109843397954 0.11146417486727642 843.6964295590773 3.235819219055973e-10
4.099734127106764 0.11955032747956594 843.8195694338052 0.0025891607617543025
4.0875884568299785 0.11863208778271493 843.9784417290873 0.005808070081058432
4.099702583114478 0.12323364101298462 843.8191003171369 0.0022998315991018163
4.1033075889387405 0.12606385575141782 843.7827424802648 0.001231228457388473
4.114532136547178 0.11857617738058616 843.6304663548883 0.0017562782525344263
4.095745619695489 0.13220792574302914 843.9430288807516 0.011448521966733155
4.100616602221179 0.12748284102647642 843.7925932111398 0.0025606103957983312
4.097517951939603 0.11501361296540519 843.8593046338622 0.0012599211259980915
4.101467422825756 0.12794752942183962 843.887453421783 0.008237680982835489
4.109766927824664 0.10489830223601648 843.6130887666811 0.005102090286052975
4.101054027665357 0.11169993531058615 843.9126955473314 0.00852887225204596
4.100999560288944 0.1089488807407134 843.8278938332074 0.0030522276136794252
4.113118332583801 0.10774119564420243 843.6011621776653 0.012126791827060425
4.112887564916492 0.09893724777061093 843.6551006534452 0.0012038124536920781
4.111574561122923 0.08847814274203622 843.653746014178 0.00498337684980343
4.1090833680452326 0.09351403732583613 843.6727321546613 0.0037302600894965864
4.112001591042265 0.09122297639577692 843.608099009811 0.006455569129284747
4.094206974998873 0.053326447434361796 843.9974654003598 0.005837014280741539
4.096089943365126 0.06061187957171513 843.884235799507 0.004593400557361716
4.111543095543799 0.05518315268192737 843.6828299609045 0.01944231880296534
4.107574335996093 0.05596106091202926 843.8270463506866 0.012257918367960594
4.107881786107317 0.05760445953724519 843.7146327554545 0.002072397843662765
4.098936786324264 0.04946395580178589 843.9301283207836 0.013100176011986861
4.099497341971055 0.042826659019009915 843.9728305143586 0.018916449486188907
4.102232123575048 0.05798113483951187 843.7894792940155 0.0003577986250864184
4.112952107270563 0.041016425448547875 843.8128476573163 0.009684863083429009
4.101205729909393 0.04588416759548103 843.9060647056122 0.015894980497406144
4.115823154261676 0.03569568945859178 843.7709167462265 0.023590382290671594
4.110893132124496 0.05096472376497001 843.7337812586968 0.0030734896151479126
4.109971376310607 0.05113752793149105 843.7626857781141 0.005225622272101342
4.110030164305979 0.052319030360448514 843.6971827060597 0.009231970962348667
4.1762642443713345 -0.004353131186999856 843.9758626707167 0.005538300340411761
4.160275217314029 0.0032610971100776693 843.8186352778874 0.005837941982656919
4.1659614760963075 -0.0006789655385785057 843.9688483701598 0.01357523878470527
4.173355782756715 0.0013970108876631866 843.7533536582894 0.011712954078775997
4.164634713344761 0.0023879358401548085 843.8893829595196 0.0016201476121419573
4.171789613505627 0.008209958919513993 843.5946108766025 0.0027477952596985065
4.173548638256801 0.001487698313428926 843.7277564864615 3.2000358602461067e-09
4.173871141365727 0.007646172877322977 843.6717745376817 0.002335104787328186
4.345513988894115 0.009855586300106774 843.7286473515649 0.010479190220343357
4.350075059017287 0.006651643950394624 843.6577348508661 0.012038879397368236
4.340589956639328 0.005127317843404967 843.6711319519867 0.009191390663998112
4.342098433454294 0.008643928679111307 843.7859200363439 0.010102205544202028
4.357622550580361 0.224093363314674 843.9623246696535 3.5571143936338485e-10
4.344553594245189 0.2159556805552053 843.6952928802197 
4.345809066159543 0.2121320170533907 843.6229172689614 -1.373072225919804e-09
4.366445850325988 0.20119116256275243 843.6160568971117 0.010768468497258647
4.369675276198731 0.2029248795634638 843.6700849063203 -2.238178614231447e-09
4.37940732713346 0.2109900009093563 843.9743893245641 0.009541126326932261
4.368832763152883 0.20987424467960814 843.795922393467 0.001635993148250081
4.3810218386812805 0.19878645625142632 843.7897438363035 0.0038923448004233503
4.390173925008534 0.06668522847598059 843.7875325548779 0.004185625381560132
4.396239268849215 0.05637556658330056 843.852446609137 0.0017128439941647862
4.395284397648517 0.04638629066878696 843.8780909706836 0.00716254040500035
4.404734727256956 0.0404763451538459 843.9986360516745 0.004678773284197876
4.392007940558184 0.05974159186618715 843.7645409247332 0.002454033438959479
4.3982606313195065 0.05906272546876467 843.8796906179396 0.001382761755097928
4.395373014138843 0.06252868556962213 843.8183074742823 0.0017013512457278888
4.394625776288311 0.060049416587776905 843.8374996933104 0.0033442926659174666
4.38403710425293 0.19057630696858713 843.7139388038044 0.01779516826313799
4.395388206221966 0.1890360397615313 843.9721014697591 0.010991842935904538
4.395104590318247 0.19557284111749176 844.0007614413025 0.0016357975435793077
4.387897621495722 0.1918858016061545 843.8097433196618 0.01569720599029193
4.392235959147799 0.19585146917414145 843.8540028390863 0.0021372546565537865
4.391393983931342 0.1926230837812507 843.8264666619154 0.01203390216330633
4.394681125044119 0.1870421057093789 843.8899443511526 0.003917365251576141
4.405616740166391 0.1773804264127514 843.9945485029907 0.00290862032247157
4.392059887005308 0.19682213609713103 843.9089700737279 0.007245085089325136
4.352399270308325 0.012127520409936931 843.7035530214035 0.02926473590696947
4.346520713146428 0.010077273138379821 843.7611598539598 0.014901176651368324
4.364915287927463 -0.00029649716363568026 843.9694740473202 0.0047574257217541625
4.337446839445153 -0.00034959696814959584 843.8720818550782 0.004956445631316312
4.346849651063245 0.0046818037439552845 843.8292242264048 -1.5505823475109177e-08
4.37157693081245 0.005280261510454452 844.025566996724 0.026702093493480638
4.359555173055534 0.0008237866810587979 844.0064183949396 0.01437801285252387
4.343465176087812 0.0014277713361209648 843.9484455156788 0.003412364780871308
4.351801100325296 0.00672092972819423 843.7776202967113 0.011383788280345681
4.346811916073144 -0.00020451241118144003 843.9859123441354 0.007891220206882979
4.347646582022921 0.0063162391150423155 843.9065068819084 0.006197033447650496
4.153993411396088 0.007091063363122673 843.872372831519 0.0013634637383879314
4.152632170932192 0.0048280598056044035 843.895671778176 0.0014720602546529162
4.153866889918457 -0.0005066204081191827 843.9955491741011 0.013095987612580216
4.136932827806976 0.008263112300159935 843.8519281756476 0.0010057950504050565
4.150083192260198 0.004914656559575715 843.9493203713565 0.030561450874831444
4.153565791082409 0.006153053275045239 843.6342813497704 0.0015951939979141222
4.13624238302269 0.010112455006881389 843.9068645331575 0.012223588612082194
4.156102391755548 0.007469937391118932 843.9240720139876 0.0018818991163429986
4.1456459138583535 0.007588399842495435 843.8805784608819 0.0027187727571956664
4.134224877497791 -0.0007234661438819869 843.994912788958 0.01638041972790005
4.151585475501891 0.007545951059417678 843.8054152321122 0.0026014966830530963
4.10320237342981 0.02349793560299707 843.9797569638492 0.020687878330071973
4.108972591801298 0.03567174996790834 843.8377020277953 0.009973769625803049
4.09943908308455 0.0387985830514874 843.9215262087199 0.012252611745680434
4.102799015334765 0.03416048396617526 843.9503387063465 0.030069060859448913
4.087780779518757 0.028742138970098686 844.0111517867497 0.012878854704122002
4.099438511579122 0.032215264437646926 843.8647583491054 0.0037010014075586086
4.11747376119449 0.02834939420925848 843.7713285198272 0.015183169049258186
4.115058140423229 0.017914613129816973 843.870798277755 0.013440407976662065
4.106009749458748 0.027439943181090134 843.879561628084 0.01433650007592985
4.104842498773664 0.03386142077460747 843.9049754215142 0.0308276119287318
4.111034324981071 0.025071199513309585 843.9240245614197 0.012748079089156908
4.100136785501402 0.03546702235258877 843.9378410125223 0.013263745716586848
4.092745969714641 0.13615597221342515 843.9206554671333 0.0032180272298180683
4.1017899379410645 0.13341102064497506 843.7993246463706 0.00291013657725956
4.097671430976962 0.141836271534581 843.8995584061407 0.0054040835466267825
4.096558542236342 0.13546544446258998 843.9657276708585 0.00398200198050462
4.096565934515774 0.1452020164934873 843.9086515091967 0.006912468687982533
4.103797696849655 0.1328447191756696 843.8261335160092 0.0009321090148692397
4.1011110546287695 0.1446414838580563 843.8654530008139 0.002291968138820998
4.10362314802314 0.1569561853030347 843.7570482861227 0.004424680525501985
4.098322733877824 0.14748595632986752 843.9606493786738 0.008156411136417963
4.102648905173363 0.15375277674692966 843.7750896509497 0.0017647190237087076
4.114148825452473 0.1671665134641025 843.6240567214436 0.008715244866453293
4.11352951758427 0.16480659540891085 843.7010809774478 0.003280745772447995
4.107170116576851 0.14665943357810518 843.6678949965982 0.000360583922068089
4.094587985442613 0.1505509435476401 843.9768608110164 0.005009851541687661
4.113502169973028 0.1823902247469541 843.7304409732775 0.014770269194141879
4.113268559851213 0.1694435234072056 843.652006496395 0.004757711571660617
4.11170966135046 0.17411118470026768 843.638355361946 0.0026655172545248275
4.106349724960725 0.1843110589418965 843.7653890595585 0.011888728861365326
4.092027650631786 0.18845014222290463 843.9165384862773 1.553805385690929e-05
4.113014105673968 0.1779436607639798 843.6975656402817 0.008882547231102931
4.123888433555715 0.195135215383808 843.6912102066311 0.030274601766480613
4.123688616404366 0.1976632697446369 843.6587851041087 0.02495504318144638
4.123945585729194 0.20193998953224646 843.7249051261305 0.003948854668732413
4.10627777039847 0.19904846568932263 843.8172953546697 0.026032745680025508
4.116802542574202 0.1867455830079261 843.7154923505824 0.009323041615780793
4.114707120275355 0.19474229128405746 843.7650203518574 0.004977513110163083
4.094741656950618 0.1964976455449108 843.9903111320597 0.0018018240250736674
4.1012414057525906 0.1975764112263613 843.9663475502379 0.016565581995859207
4.117071940188424 0.20042821479062928 843.8509191499328 0.01998146154521015
4.117668551918828 0.20981549172649 843.925614298442 0.003751360285661494
4.122383565164062 0.18846137464859125 843.6323655245583 0.02850092510369848
4.105558089280356 0.21239437494364993 843.9743144216156 0.004339827648639544
4.118336514273068 0.1886703455779188 843.6651684943554 0.004261864128368756
4.115963537635309 0.2067776569583959 843.8909642913704 0.0016989422402072555
4.101295547139846 0.17399561502961822 843.8718098599612 0.012810082435532525
4.102315040817735 0.1552809410927569 843.7965616924499 0.00216937884973369
4.091618724739798 0.1622347113977449 843.9803922034118 0.0009412736257014498
4.097097957865214 0.16841469840366788 843.9644553549192 0.006863665989769383
4.089749769448637 0.1583187185396845 844.0031391565036 0.004594247613576832
4.099184213313402 0.16866398590089168 843.9099723253937 0.012183288342449689
4.101909705049553 0.163829108300621 843.828241003582 0.0019643964072911615
4.1113415924401115 0.16356410513481778 843.6598315530308 0.004965076853741195
4.102395177817858 0.17978789764963576 843.8468719972757 0.015000354191590548
4.100224775001159 0.16274619868720308 843.9470810121771 0.005112717670152173
4.1061219456935225 0.1659734313697774 843.730474115151 0.005586556313649281
4.096836281419104 0.16211785666583173 843.9260821993458 0.0075949586842167655
4.10411920462733 0.17063790889293223 843.7523323294655 0.008423408276914087
4.114913748671896 0.177747388869185 843.6752545582897 0.0060905674767050616
4.113422091242707 0.17026558882491777 843.607240108234 0.014595499104764568
4.156083991111905 0.21079972553564383 843.6709003463437 0.0027566359156930335
4.147234296128719 0.21397199753602328 843.7175558018521 0.0009838822247223227
4.134790677797217 0.21543590356609432 843.8809717979327 0.0049392024595476475
4.175081710028319 0.21579866581634757 843.675155206854 0.0001758125049074089
4.162268221162214 0.21761976564853508 843.7842976705273 
4.152092796650983 0.21958089256426525 843.8719226814602 0.0008504725073932871
4.187987140628273 0.21622286213897915 843.6440014179514 
4.127242720916197 0.21341432365546262 843.8776727503258 0.003141742231475755
4.135860893056524 0.21323602778522802 843.8324343225379 0.004235671696919732
4.128090494869313 0.19878666429974348 843.6796881836793 0.018898862943597765
4.129297791083106 0.2128536807566017 843.8983663143122 0.001357756985917493
4.133550521693678 0.20965401300159744 843.7795706497485 0.014029404658819992
4.1331888062854425 0.20518433558671506 843.7111338383282 0.013683837960994873
4.101876092031771 0.1334840970975926 843.7126945080884 0.007573876537962272
4.102495858995342 0.1392453781036121 843.7462891602684 0.0015641522150442275
4.104960166693723 0.1335297451768566 843.7527874637226 0.0011454349350126733
4.1006373876558175 0.1256298734397027 843.8989409572858 0.0038999216816895826
4.109087227090339 0.14187384622236487 843.6223985008688 0.002493416950987204
4.100799611549966 0.1451960769600781 843.7889554242977 0.0021371801958726664
4.15148692617569 0.21579755302802311 843.8066617285737 0.0003018343843815167
4.133372446802644 0.2221139201466992 843.9717469303573 
4.156867794029685 0.21390602901363173 843.6919269094055 0.0036372464293131595
4.146088659628308 0.22073592914799647 843.9218483782704 -4.245699306206471e-09
4.142686470704617 0.21682108486391866 843.8559733281984 0.008179056988744141
4.152363241485632 0.20819315133837143 843.6451831284747 0.0014325738309603723
4.123834174351758 0.219419119042348 843.9696470427842 3.0153150137300437e-07
4.117378775949346 0.20508232302410706 843.8044351138856 0.0013385860908616328
4.125719828891425 0.21203090835538713 843.8834902642577 0.004631575814037074
4.117801689226242 0.20198380395961044 843.8531722731658 0.022815250305870498
4.1043216832497835 0.21132136390096373 844.0053651497341 -2.699464813387117e-10
4.138045783166107 0.2100625266931974 843.7426904413343 0.00740115362215235
4.131397142247134 0.21655730748057717 843.928265954931 1.0665547626074736e-09
4.135172232104662 0.20947670770780702 843.7519352543497 0.0011968925536544126
4.232527362121647 0.2234187674981179 843.6850752302424 
4.142887162787024 0.0661773469125985 843.5352439904296 0.0013996900792251083
4.212904652267566 0.026873243934819272 843.5364673484349 
4.1237997928586765 0.07897145772401153 843.5475606991093 0.005335660072552629
4.138598534372829 0.1771137086541978 843.5381665587016 0.02306368441643001
4.122232473097403 0.12482201142292862 843.5747709661031 0.003135275556231392
4.195716892702564 0.012907190079959866 843.5767176086607 0.005104793793552547
4.131838353157301 0.015769720819964285 843.581543508497 0.01384652380804115
4.1478085517102485 0.017940808476577776 843.5420925987804 -1.1766558294613678e-07
4.351156311532394 0.2002104982678572 843.541961834483 -3.6588186753809913e-08
4.337513619932248 0.20614509571404568 843.556227674917 
4.359569284842475 0.2071344847402283 843.6491607090679 -7.402769637424628e-10
4.3595293126855115 0.20970977296285723 843.7554919644974 -2.169120107008244e-12
4.363465940959633 0.21764462226975198 843.882089324744 
4.388810683325062 0.017466427072800782 843.9965804120556 0.02841111717042937
4.387805487508165 0.010263136296296466 843.9248297430922 0.01138683936621093
4.393909846448991 0.015997680476508843 843.9607399067219 0.0071663737962659796
4.3748036996997515 0.019649016940888744 843.7778553406919 0.03565972771589009
4.380776455087657 0.008883831659061692 843.991545775876 0.013856328253216891
4.362193002828189 0.012024947125431224 843.8147592296294 0.0059931260121463565
4.379965265719675 0.007425178485279547 843.9820594429078 0.012869480067145875
4.370495481128065 0.009665351981138935 843.9098131965485 0.06626095094353517
4.375065811947196 0.02020118521830441 843.6532765317469 0.022050392294312767
4.127550277315676 0.02257612783291161 843.6966329997997 0.028933197813764622
4.142034199190348 0.01567745251883094 843.7128721384126 0.0220778903287934
4.125529041644692 0.0002544098068177616 843.9813302963865 0.029321688857163956
4.12973371522712 0.014002980225921119 843.6178966884275 0.0011974561638916266
4.373827111980141 0.09538409214377856 843.5453454211602 0.00680848022973375
4.094534807313733 0.17497786867968615 844.0263891607385 0.011000637296773419
4.2401622800616305 -0.007420674323218133 844.0266966803516 0.00692093705841808
4.162409270431633 0.0015903376638882734 844.0090253190668 0.008844863895121912
4.217540025567688 0.0005567341725369165 844.0245852326449 0.00793454091285741
4.187774805766102 0.005193306131646822 844.0114895706398 0.00649844804804905
4.123951539776355 -0.0015811509771922207 844.021227328828 0.007694166041367262
4.394392266871856 0.008902858421556904 844.0295508323431 0.015623094809868805
4.403890757205433 0.0552029886500931 844.0339804172891 0.0006664683465245757
4.409618534756227 0.06363073357763804 844.0277766574068 0.00665324184518506
4.188548341863128 0.0019594739679019554 844.031962045678 0.004400169726991937
4.149753942980531 0.0006843241795284156 844.0197184308453 0.007526343709741882
4.333166289805736 -0.003508614913996299 844.0263072962177 0.0035146992608707426
4.402883622175299 0.03894876963481683 844.0188408950772 0.008002764849923686
4.08578326386726 0.09332977329951352 844.0826345356686 0.006046189087435028
4.089136350390094 0.15310957577980866 844.0590486047013 0.02409907618466668
4.089541570149276 0.1391516447708581 844.0642442055653 0.006219514671453122
4.085333383440621 0.07834751683338152 844.0181052367788 0.0035532146204550774
4.077314130363556 0.12882446512311096 844.0152506931281 0.008678801878817555
4.077980538627239 0.1400102427689417 844.039691887137 0.002273654092232459
4.084292990483637 0.12511053259210994 844.0467093849252 0.011019488488049812
4.076819012591576 0.09885717984667672 844.0423290411898 0.014061727434710791
4.0835282861582005 0.10696779380147589 844.0151284811425 0.01044815554818675
4.07741966814264 0.12442788652622981 844.030278775679 0.023549867786957838
4.079606661021161 0.11927470613397353 844.0358543244877 0.02150643897109624
4.077481822337119 0.1062746204408178 844.0358790703117 0.013291758301836785
4.079851574872459 0.07888082151896426 844.0505083559921 0.005186036025069542
4.084831154445298 0.08510085729205602 843.998947692518 0.001880410271051263
4.086613721323102 0.09619094799097051 844.0041516513177 0.0031868135853897915
4.088969344238974 0.10587588061609594 843.993223573157 0.003418993776803485
4.083570033603548 0.1519949396472195 844.0418131392099 0.02070832702025788
4.084682191761008 0.09790170021321228 844.0653558324589 0.005488934725032272
4.084413417296183 0.11448690092261836 844.0683200183698 0.003254690517754276
4.3436057051522825 0.07918612176748227 844.1174136934789 0.001613799461348831
4.29430561502884 0.04975624675542908 844.1095966028602 0.005125647247232857
4.26439501643101 0.04117352276295184 844.1095096909717 0.004177034199020056
4.311715557611322 0.038102271139382096 844.1097303860979 0.0027663640124212193
4.26714419056375 0.05060474125007223 844.1157569065223 0.0023815526139518393
4.362843404207706 0.05152783334683874 844.1117046862221 0.025069994256448094
4.3291652341033515 0.04904598617664026 844.1101409251725 0.005629887481770392
4.361019574910129 0.06365774724385531 844.1157553432294 0.03494336601248526
4.295735302140254 0.07311443096856848 844.118867102679 0.003789667781541548
4.260081397441133 0.0732396844401299 844.1213632289544 0.007404074476450172
4.305947723066658 0.0236875656793872 844.0997646903023 0.01453413348084035
4.2923124627291855 0.03192639379587088 844.102048520324 0.007513089271384678
4.334570351287947 0.029122024066020543 844.1016108132568 0.0159182066062592
4.293333126615629 0.02121405689443678 844.0979044185707 0.012709374116382505
4.268577882537884 0.022812255406841814 844.0944270125303 0.01204356591897286
4.2130600912682965 0.052546073235952694 844.1169393937522 0.0010718934489014475
4.236976628838198 0.049349971888863246 844.1125897465415 0.013486609851088375
4.161720443060109 0.036948210249487135 844.1156554859473 1.1595371968968818e-05
4.231948394064197 0.043780151453657226 844.1094050719358 0.014991504446145677
4.244129445551819 0.044363810770151155 844.1098411254025 0.014220950337448442
4.299049796101664 0.012238204497307517 844.0897060835317 0.007234823003595555
4.264713796430317 0.013268561893604008 844.0867451120539 0.026449230482488238
4.286610104341601 0.009640808703882054 844.0854107351103 0.016919561386285684
4.345073906373073 0.013703171979776309 844.0911513509707 0.003614538954192301
4.26099122529293 0.0017274301201193627 844.0732300791263 0.011481664690835287
4.375438268559298 0.011344903441099403 844.0805364332637 0.02230043240789216
4.319115047327615 0.009258810077902569 844.0755652722864 0.014477072930865476
4.359967758831745 -0.002982434781507254 844.071659150959 0.010298823551072924
4.311933080666599 -0.008799158621258355 844.0638852592651 0.004441460448004753
4.324680275777507 0.0035945884818172954 844.0709377304174 0.017038063296134817
4.349603409974293 -0.0059464311088612675 844.0536910933719 0.012740336319686674
4.268551819775123 0.0033022595771616207 844.0678949473087 0.013704176591314723
4.324677075155408 -0.008067799346649928 844.0513078768494 0.04106135211816407
4.212029305053524 0.017156844515110257 844.0881173212473 0.012332476715162502
4.147031788281571 0.015632362186221015 844.0849023282651 0.011226461517658716
4.1616122715318715 0.021580423189007013 844.0973147964283 0.0020724473163246785
4.248961844160082 0.013326116616702195 844.09156412627 0.008472764651336315
4.270342378471186 0.0025317650446708114 844.0552742463667 0.0086319780636368
4.352693774069043 -0.0031612171156382225 844.0334424332309 0.002274511384054368
4.2332405644827364 0.01968754046698478 844.0977366119395 0.0026167236199901084
4.19863704796808 0.022774435330507773 844.0926523091671 0.005215347906619306
4.1523524965129095 0.07292272071541009 844.1255434553447 -2.9545420895739735e-07
4.177448966187707 0.0743272411694991 844.1191344498636 
4.1774996794798405 0.03549911851066737 844.1047235581893 0.001759943242377323
4.18921654202955 0.032730714458812135 844.1034507046517 0.0062144828775768345
4.1304533971226345 0.003855972142976178 844.0589835467243 0.013471886639237311
4.220908040221493 -0.004705815602404405 844.0574214067424 0.019828815328887698
4.1797759855964 0.000728805260599348 844.0543797678646 0.01120331653293681
4.1698470025747145 0.012871800254712275 844.0820833170995 0.008150405078686088
4.150989371750205 0.009808607517016728 844.0802407083416 0.007104151522536226
4.212623755371114 0.0008367521591696383 844.0411843251522 0.009051288232461208
4.1811697109622825 0.00020509235297979744 844.044152504517 0.006237430675833624
4.237216467783785 0.0007922658062897767 844.0538004389408 0.01367834707889431
4.2202597195530185 0.012616204187052565 844.0820348186375 0.014132339446702457
4.2011810438608785 0.00016407743711150617 844.0691106519181 0.016499624517287943
4.131075158119689 0.008285483063989796 844.075940326077 0.016885786371686032
4.141696676609738 0.004220812756126948 844.0720381306287 0.01798138431845258
4.15506875215075 0.004459399633658207 844.0735436956999 0.00506705148640618
4.1446465708861115 -0.002377049538844579 844.0306026195233 0.0053806442412197945
4.162277394909458 0.2108737612609692 844.1010024778919 -2.7910090584566975e-09
4.135701695468646 0.22290939907705576 844.0987982633568 0.004893282724521083
4.136456153279885 0.2278721457363586 844.0829553403227 0.03301819471740181
4.19376819571636 0.22485957097014742 844.0982496460946 
4.158077545985314 0.22952640539017138 844.0594063829193 
4.35886448175907 0.22631419980341744 844.0403867430501 0.015772755262713163
4.31564328735249 0.2269009049785093 844.053324894043 
4.088257544690317 0.056608065226896834 844.0745844402005 0.002937055633224079
4.096383108112592 0.08808822904545806 844.0971765707592 0.012143007472054192
4.092845287022053 0.09947923064324188 844.1078785770197 0.0077585500590736985
4.092547571646785 0.15847391898305993 844.0670503614763 0.006843673710884036
4.095500617780628 0.15907644763755852 844.0750955295109 0.00671268097832446
4.095125912398979 0.14418550300173666 844.0776506901254 0.00953045336676029
4.09321167121533 0.11288870304899805 844.0940398899895 0.01620204663372342
4.096156502343619 0.1080196214698402 844.1069879121001 0.02111131038153858
4.399580146840896 0.171858551052322 844.0971455832954 0.025209799875499338
4.401389161636463 0.16214817203605641 844.0929895939615 0.012758130823843484
4.104461419645553 0.02882429191240759 844.0789764692846 0.013233726661206981
4.110092149404407 0.03763823388785494 844.0972192233987 0.011554786564006022
4.098720632996842 0.049497295199861124 844.0912530519737 0.009400093125540318
4.117224912640446 0.003778971937826781 844.0454432945907 0.009599511437641555
4.093458846262688 0.0283306985046108 844.0478824018294 0.010985866457295079
4.0895723669557595 0.04597724818322843 844.0416211011584 0.012197156299082365
4.1219095419742136 0.021157483853447227 844.0956320053845 0.017645270040165542
4.109709438345932 0.05910943153017752 844.1150600917487 0.011070645520982567
4.117929475202758 0.03926487478480667 844.1049164441075 0.022680268622234573
4.095080559869466 0.2038206126052095 844.0508965776205 0.0315015735284454
4.0972910954371855 0.20345989079210391 844.0599757312142 0.040018610849446835
4.097129976029999 0.19242989103531405 844.0810189480734 0.017627417931430026
4.087425585837125 0.19622095098727207 844.0479673759215 0.013311433588077631
4.085271751194432 0.17729797687814206 844.0588189694467 0.016145051749785373
4.085954835929437 0.16401885288557286 844.0468609585653 0.028356047029012618
4.100176340297574 0.19774862250510988 844.0928118213865 0.025876202734184794
4.116292964755164 0.2269773384001608 844.074109963604 0.000687750178456021
4.400278489367825 0.20386794431824842 844.0616513221034 0.005031476623896708
4.376517484394204 0.20826282516633587 844.0927751861522 0.009500097541297508
4.371994611061983 0.2225998168256134 844.074144297361 0.02338487169763445
4.386137133649484 0.20502350118006205 844.0939250998973 0.026622330867622147
4.400239044268518 0.17166795339755866 844.0923648692713 0.025415179770346703
4.384601843878749 0.2223694283283471 844.0617076178356 0.01691705809880583
4.388496309598991 0.2242722573708134 844.041260704876 0.02598202819526268
4.393382259504481 0.2159774559634516 844.035405264007 0.02809036092087031
4.409283152247641 0.1880298866826559 844.0615559693205 0.02121039489909301
4.415405137484908 0.19309863012888043 844.0422634419746 0.003373187789028262
4.392115633654158 0.06718116882787084 844.1198113228984 0.059215706656408684
4.397940064237563 0.04275305390740102 844.1007164576569 0.05337035498753894
4.385284895619835 0.002137241867072484 844.0635934410982 0.03560144938867013
4.399984694423335 0.03311108486732479 844.0568716352117 0.010622587699302313
4.397113818494671 0.08057134028450393 844.1222582644464 0.03323076364818322
4.3833765571186705 0.04038303090322784 844.1127234889361 0.04885681613062095
