x y z curv
1.6330893914463485 0.019378004978827995 469.1162112001271 0.02875068237190498
1.6738582190012525 0.12621285651977376 469.1221288890981 0.002670799566240397
1.6744232844890867 0.11198254412215085 469.1162355895307 0.0287939758196217
1.6728584687022794 0.05941544780965394 469.1177443738977 0.04431254126949122
1.6597284943977353 0.1907531472303729 469.0421119989147 5.680489532160222e-10
1.4202669388111853 0.1849584919023195 468.84579937292995 3.901372324913852e-05
1.4889140735373216 -0.005985170508192415 468.6281063929027 0.006006195691222514
1.5260656638044459 -0.002590598041619212 468.6046518842408 6.905075569511317e-08
1.571578940319765 -0.004053067142207984 468.60360343856286 8.889858889108798e-09
1.4294216886774245 -0.00033540286640006784 468.61779362495463 0.003665959160183782
1.4754760800460878 -0.0019760994039963132 468.59249794166215 0.005195300001166627
1.634054893989251 -0.0006324267900736733 468.60049786731514 0.0004874299544642599
1.4511997664148284 -0.00021212063511725967 468.59767266056843 0.003919690130620686
1.4014770176527278 0.17819579699255372 468.9235446988995 0.009043312722933234
1.405550636514524 0.17560610376587024 468.6127589572771 0.01402127836212504
1.3925311692035227 0.16944039290676582 468.6942153078293 0.012186541221444656
1.4037451346307943 0.18020791011825182 468.98200212315544 0.01135549798822832
1.4013572937591545 0.17139440623344993 468.837130975534 0.01281414489582816
1.397030969405111 0.1723509555130557 469.008287780022 0.016436710563173633
1.3959186813906321 0.17131963450615864 468.80816327083244 0.016416018198907496
1.4022488340186883 0.1784879493821367 468.8810012588334 8.823574713370718e-05
1.3928673315185889 0.16980758333012677 468.97098245526576 0.014016144065030562
1.391603680439717 0.15801434645510387 468.60529915143206 0.002377247500790435
1.3891396032685344 0.15681015036323245 468.8852774448422 0.017241234449892673
1.3972160962880464 0.16963090302675513 468.86915685900595 0.023760797110335057
1.3913387407644182 0.1601648496497583 468.81876955788306 0.019559197950472403
1.3915503368850441 0.16626459658343265 468.74696788103074 0.0024261907772014655
1.3942755503140523 0.16570996568059415 469.03952227890204 0.0025610194083849555
1.3898377987404429 0.1650337309129988 469.09613415897473 0.08016562439053902
1.388468890049261 0.17150878625580335 468.9156077754478 0.00623452049205443
1.3867095405977008 0.16322829611593223 468.70786402512675 2.962990153548845e-05
1.3937927744769307 0.15853720621256387 468.93632980903163 0.03483916967149322
1.3929132033133373 0.1677005004073501 469.0213234823645 0.006145672598338643
1.3894075858743045 0.04140202474789599 468.6676160592862 0.0017886317755511025
1.3860365158169705 0.037742122027303274 469.0091911520396 0.001367587816943231
1.3816728163150898 0.06683458099999633 468.84497528483246 0.0045599557829912665
1.3849889811398495 0.09067824744950542 468.6473336573375 0.006059462394616798
1.3845900708098842 0.11278844603116864 468.6326498367935 0.002410782832044778
1.3852473432124737 0.05247632183750342 468.89080366109727 0.0020904982265887847
1.3864075815895045 0.02545013467080785 468.90740968629285 0.01854686302671511
1.3905270346997827 0.024995520298444797 468.6789138389268 0.009902795986836653
1.3883480435463413 0.02544146964591347 468.6130921074081 0.05303347074689146
1.3799800171196432 0.08157566553907292 468.73647375135783 0.0003520323318061169
1.3820313959659218 0.03138045741038367 468.94903344059173 0.011387823717093409
1.3874442239072513 0.086133768356468 468.6846681284217 0.003630154992516807
1.3899456135319115 0.017696016030788925 468.9261732214895 0.04522399468220039
1.3902076798527854 0.012908230466745448 468.89098999930974 0.04443599824514167
1.3889656187643997 0.023119744549229666 468.98043449264617 0.0413938227391001
1.3841699513982995 0.11270970654963607 468.70712675323637 0.0052863412580683436
1.3886364399946536 0.07664655961611755 468.81608607946066 0.001595715139881489
1.3862138963248565 0.061204172577167 468.73997745656357 0.004378583832829895
1.3914502836539975 0.02664314573936485 468.6649821526822 0.015001580757307977
1.3879283179966209 0.027787641422147957 469.04336698503175 0.020756882560136507
1.3846359278804052 0.06935066850089638 468.6506915513944 0.0031977962730757414
1.387775656866905 0.06696919047748151 468.80401589445074 0.0043860765417669
1.3851824823997592 0.026007540470333594 468.77249241728754 0.020162948026003477
1.38433317187001 0.08776372944601277 468.6240800198387 0.0005678718254006762
1.3871034624107306 0.058569337079087264 468.760508247106 0.0068869439568544685
1.3837029544485395 0.0675761784591474 468.775760845082 0.000854428669439164
1.3881871822753098 0.03570456043859784 468.62645840491564 0.0033744920624312166
1.3852755051878187 0.046740480968690226 468.97816223911167 0.011007036855346774
1.386851924660115 0.04613194314736447 468.7930102579117 0.002562276525331507
1.3790460007791763 0.13388687634190774 468.6813911473373 0.001194954342791832
1.3809872661652944 0.09998181959866907 468.6717375738279 0.0014516387536198134
1.3877836285600058 0.054382288488159986 468.8635506036357 0.0022697298365077214
1.392324870457994 0.056029138034714626 468.6050706463549 0.006749435232786786
1.3919325612952578 0.07579413937655698 468.92581474197334 0.0040324669099590996
1.3913076652165106 0.09403846757507339 468.9066325801304 0.0034355031206832363
1.3878010274325632 0.13884754600139088 468.9581666733474 0.010402827014673308
1.3879825995702268 0.056444833553620365 469.0895895505166 0.009233584999933507
1.390084370594033 0.1480561882453323 469.0236782281138 0.004877949114109202
1.3846029448443595 0.0634026391495353 469.0641886638223 0.001067793415218443
1.386709543430847 0.1324971476449348 468.97176990222323 0.004174928475496567
1.38720838383487 0.13571704462930342 468.8920154068179 0.002414306250113574
1.391987331421831 0.12728803026406202 469.0969785972858 0.029533916981013632
1.3770829831188764 0.1161968040489248 469.017539723434 0.0006322524573706172
1.3906600091391865 0.0703463556541262 468.93466059105737 0.004799953730699368
1.3901901964351389 0.07491814848357099 469.1025203343861 0.015057446734511237
1.389076534778038 0.15843110937009602 468.67300660793023 0.005230679814738534
1.3795978021529423 0.08390618698281327 468.9763392205277 0.0003789317881681434
1.3873138829582217 0.15123926111080613 468.7746143188438 0.01573743854546329
1.3852404479153573 0.10223473010572878 469.0862724634256 0.010599850653635013
1.3880426548725475 0.05850938439720486 469.0119020772656 0.0010480869134579204
1.3880481808848957 0.11425428323479755 468.8157291634154 0.006467579307799771
1.3822746360197977 0.13530538717500712 468.73879186575243 0.0010578895432898031
1.3869488378712178 0.1042900420263079 468.93823841293346 0.004018201942813979
1.3891187915410945 0.07269335964971373 468.95488506268634 0.0020471141077023323
1.3816732837330394 0.10325339964538344 468.8424517698116 0.0043739832251142455
1.3799679097931192 0.1399917866304072 468.80991957537844 0.009030860645485984
1.3906163655037422 0.12389944168289602 468.87756570696746 0.00223414559030845
1.3900970800932688 0.11066158753506858 468.88368730944023 0.003326825303364237
1.386551685078078 0.1170038163297454 469.0522250145476 0.010179842054469259
1.3895797424374414 0.14524215318403685 468.9536836038824 0.011060481028089167
1.3920156330278919 0.08006903988089972 468.93036834402534 0.00456763970053999
1.3878809513335864 0.0818457969109812 468.8987631852489 0.0011255309305329502
1.3823345018354027 0.13716523265384317 468.9321283944296 0.00455447478539089
1.3907027364373856 0.11354796809622318 468.8987791852769 0.0032519208202660787
1.3893634867107194 0.08053495114005349 469.0599532256627 0.0018281084501828356
1.3855462563840624 0.1305204234590967 468.76841037285163 0.01249782893999205
1.3894132946429627 0.10453478190137491 469.1085161402732 0.03183187853489954
1.3872277590649942 0.13319897350450566 468.9602608129647 0.008925229165164484
1.3892338299352422 0.002567181631285184 468.9655480628166 0.029647824593246417
1.3958956542770764 0.0007276230828771931 468.6968186987368 0.016893333149774294
1.3886896005677942 0.0031576908121828343 468.95649989899454 0.031506476281268056
1.3920375804295573 0.0092551780275239 468.89658097400246 0.028414956077609466
1.3928581225137493 0.004625854417239859 468.670905223859 0.038192710047416756
1.3872478451730461 0.007467485918758897 468.61262257413364 0.03705259174149683
1.401736725385617 -0.0010725175046802232 468.9073347135232 0.021389645353079915
1.3934361396640134 0.0023442274606171026 468.80221248500834 0.02987656323793289
1.3912633673168486 0.0036572591165423005 468.7888675624128 0.0380491275263058
1.401043195753854 -0.0015232399859942247 468.9387260270579 0.044837805369556796
1.403826287175802 -0.0014462134039380761 468.7356852111278 0.020265662498159476
1.393158246119346 0.0062201432853267406 468.8520048116221 0.028242096490951024
1.3987002644220916 0.0002437197893573643 468.6767004860908 0.06995414767483492
1.407595886660484 -0.004857820472969123 469.0389425626218 0.04599199392644817
1.3942401844798995 0.003620780929765662 468.8115775458901 0.020454567665169454
1.4008995104343358 -0.004375538132850236 469.0199277555796 0.033288089413481194
1.4114970283869301 -0.006945229309000085 468.98804476118903 0.06218363151448785
1.4105470822118684 -0.005250002381859305 468.7495996926 0.02264842956552207
1.4035448053235724 -0.00515250193232449 468.86270769945577 0.00693519959690453
1.4027920451616225 -0.004797644711845581 468.6889562802214 0.0679228689179906
1.4108962239382419 -0.003069414594490936 468.63713194489236 0.02629715482721193
1.403904690391425 -0.0005784957351861385 468.61052455376654 0.062026945396848616
1.4101753969423347 -0.003666702789106433 468.93214261905507 0.033511267709336275
1.6659555711357517 -0.010298177678531719 468.6936704295827 0.015454367597173566
1.5785097157318129 -0.007103174910965043 468.6610857286678 0.0014444271189667551
1.5370895595915302 -0.018697787335044225 468.8229601186516 0.0025691201764610925
1.5740130959772742 -0.0034672512290009933 468.7839128816247 0.0052474422581678315
1.6448843732957594 -0.00948976450595298 468.9750920267166 0.005507721677514329
1.4784674286280033 -0.0032818662650340113 468.66766421664636 0.0028293552655016714
1.5960327556441576 -0.011367164624568753 468.80507234469053 0.0021591896506886837
1.6648011117428507 -0.0015970184674427921 468.8230956571905 0.00959390952127722
1.514913313006339 -0.005518435698571458 468.78745015931287 0.002553203324078984
1.6602077920432114 -0.0025934717718212887 468.72646211123686 0.033494633647156845
1.5370264173886992 -0.008348364589174116 468.70593808745303 0.00047926574934367737
1.6695309191561072 -0.010314380013840845 468.68614431501703 0.04390474635698744
1.6778879069861867 -0.003201506027429809 468.8268970633139 0.012024117831955733
1.604672430653384 -0.007981338696876296 468.90390048351213 0.0007773653592164761
1.5586416030686803 -0.002969400058114419 468.6178840071021 0.002451955499775928
1.4617037414491871 -0.008140279420841508 468.6168337756873 0.0012779674629309493
1.5957613514117832 -0.0035110907061513194 468.75616389542716 0.002869466617660271
1.6665508163904768 -0.0050943568748627 469.05703667291294 0.04514738597165673
1.6470229647843826 -0.0021616649571157974 468.940578180377 0.012451271467670305
1.5281963268811265 -0.006172926325359793 468.61098835280904 -1.3166599622114588e-11
1.61564299734231 -0.0021714184905490107 468.8383586154647 0.002619203647345128
1.5009390140311478 -0.0063181574776939 468.64310390408116 0.0023137115275729324
1.623580461652862 -0.005956853107810493 468.9502766869082 0.006879984997348456
1.629999285759618 -0.004847292279423126 468.6071953987664 0.005060875853899855
1.4671157796288508 -0.006179768220969645 468.70617942056873 0.0006932998649104351
1.5429767484056307 -0.008016535829695536 468.66566096298556 0.0007791191437914635
1.642515259304757 -0.005143473610819645 469.008385971443 0.0021597905352212393
1.5916950529408989 -0.002301484671710241 468.86813107616854 0.004417886256382764
1.5865240629138349 -0.003074615615419846 468.88035121619646 0.005901858884466845
1.6085641345464718 -0.008717104482742162 468.75586953474004 7.579607890485566e-05
1.6337846677911172 -0.009470860057961326 468.6212990642162 0.002170694664031313
1.5979654267312224 -0.004767027135111624 468.93582867510196 0.004643234003166333
1.675356826074865 -0.006106861687095208 468.85248026680915 0.03048147969066104
1.5259793045565706 -0.005411332604222931 468.65677601566045 0.002652865514633659
1.6442049344757035 -0.003350010032789077 469.03618368314454 0.001071478338626496
1.5179626254007814 -0.00831575268985738 468.760970092672 0.002650671642671254
1.6564250575313841 -0.006801970575110541 468.69284591987287 0.02228303640448815
1.6572206638094156 -0.008186596312841852 468.91711242502186 0.00394404181995251
1.6730633584214576 -0.008179343978919805 469.08236708573116 0.0578911797219701
1.6512775894708698 -0.010322894904190675 468.9060613304235 0.003732362643106655
1.4984847963328938 -0.0015850981435803243 468.69841738008597 0.0008281703363548008
1.5702917294145762 -0.00533767216039167 468.8173100232002 0.015834512092333372
1.6494105939874086 -0.01275289693574574 468.88425643965184 0.005882034815702693
1.5952295699889982 -0.0037045890783090956 468.7066156992118 0.0032766428646513143
1.607019793556045 -0.008999866724238305 468.639599524186 0.002390327971354716
1.6107087172394445 -0.00015142342825001092 468.59569538823416 0.0013196003793821257
1.480869204695373 -0.00579746313787699 468.6145849904999 0.0058670701053333656
1.6690730020015394 -0.007309315254634165 468.8953649014774 0.02501657273136004
1.5858322804531353 -0.004530799942524231 468.68463459764297 0.002491957190172113
1.6695277606485885 -0.009320987541536317 468.9746718400017 0.01570097742151975
1.6723017752624583 -0.002675044334131261 468.9338113393482 0.014149911502077681
1.6752105933540622 -0.006894944884103886 469.0156943460683 0.01602462254610293
1.6783717445704924 -0.006934360294490508 468.857364418112 0.019122614348694344
1.4517317179716909 -0.003314689030207532 468.6414249013865 0.0031923557489155962
1.6689948070246374 -0.006358570983122102 468.6689372990498 0.031866547772169046
1.5434426287944987 -0.005920277406973609 468.76087885915194 0.004218634534576214
1.6465703474515188 -0.008152521745466884 468.6593805686629 0.009468239653139752
1.5866025441547302 -0.0026820305490532436 468.77099280870283 0.0069852927626042356
1.6656249266460819 -0.010440149124600584 468.6809496849965 0.021129482286286465
1.5038612215804603 -0.0022681892779853855 468.67331006837605 0.001366786516315978
1.495213974400185 -0.00336483139656519 468.6505854074857 0.0006731473540179152
1.6725495069997756 -0.0011525834311327753 468.6141417279927 0.021242953788461742
1.5798305317875634 -0.004566126681912624 468.7035640255195 0.0026396151904547293
1.6160768275443336 -0.006478409874232974 468.7945525195134 0.010605527127312227
1.6221977745991567 -0.0020093208734264863 468.92941837733235 0.007578175216756395
1.6397747805975085 -0.0006967634340555974 468.8102712699111 0.002621575575838278
1.5794338655994815 -0.007340662196041681 468.63749141570116 0.003724213992497177
1.549690064013294 -0.0034518917619038676 469.03827555465716 0.0028160018599974403
1.485161893464281 -0.009361573318873521 468.7294055462243 0.011182331965674582
1.4827780097699164 -0.00689215588413106 469.0162718707774 0.009357581373161634
1.4955161987221863 -0.0043331620604028145 469.0837778982199 0.003639810738471169
1.606204567423178 -0.005517603888969007 469.05808404483645 0.0021804824879065165
1.4590116064440692 -0.012263811679712867 469.00568129501573 0.0026452363127837317
1.4760692909805138 -0.005279778136130719 469.0637124494409 0.00977066415937778
1.4814960380074267 -0.0040908176587919004 468.8757997387982 0.003328028807861387
1.474311674182045 -0.003976856584450272 468.8058525431084 0.0021621067972943417
1.5368146947778762 -0.008290243130332066 468.91708681859933 4.740777283380279e-09
1.4289995415518144 -0.0039805843691294 468.7939519947495 0.006480520604405486
1.4331186375123697 -0.003593566446775333 468.87315706730476 0.002976104658664864
1.5008683482510905 -0.005613280116431827 468.8502969248781 0.0029287683696261843
1.5108120220290497 -0.005152774555495589 468.9940614933445 0.002545057552544281
1.4214637647768011 -0.0015757317451957234 468.87725139321026 0.0273710983702977
1.4958684827891289 -0.0015263935151388433 469.09426717570955 0.006087593812515933
1.4236847115899443 -0.008545274834663706 468.9239517380266 0.012260266989674569
1.434579669697951 -0.005229449654259165 468.68536417764705 0.0021697702752834043
1.4062626210607556 -0.00023780661741402466 468.8238836045324 0.015882318201590844
1.6029252662917823 -0.001426106044082227 468.96818689223153 0.0013983591787950656
1.5844428682495442 -0.0062227728465706926 469.0800518138952 0.006011212529386027
1.4703460067831573 -0.005962921479631204 468.7727080256224 0.0011207399284981748
1.4218530029695502 -0.010887117370669134 469.10096199444024 0.018649827590348434
1.4045709003884235 -0.005876923251916798 468.96765087218705 0.030380744411516038
1.488419767105687 -0.008250149511759166 468.8264230408422 0.005020325722480259
1.5554123252266294 -0.001267263064916264 469.0529631765334 0.0025365991099771177
1.4882138801416218 -0.0007949596012026776 469.1008665092702 0.002808005386608618
1.5679008415307447 -0.007180064366375738 468.9556862363794 0.004086828311704675
1.4276298788666437 -0.009783690941158952 468.7623945613097 0.0018544430529614164
1.5456460005735484 -0.00582395998513034 469.10140843979593 0.023720622210494625
1.5075857389913563 -0.005844274432008674 468.86276208407946 0.0035094587570090275
1.4042568321735072 -0.0020035412405474155 468.6632776488508 0.06039347746069194
1.4702736265422005 -0.007870379986565326 468.7512731314119 0.002837550780688764
1.4267594865589694 -0.005645069494719625 468.67067891212923 0.006379261083842507
1.5114091789709823 -0.004886598265668625 469.02588686442573 0.004418145267539877
1.574857928988984 -0.008122436341983117 468.97396084052616 0.006356580323136401
1.4609804141479839 -0.00254951838035425 468.8659977117756 0.002751750733084026
1.5592263963261008 -0.0023002705739396906 468.98613984414624 0.00276344773954513
1.5873293383135259 -0.007375072208927123 468.99484670152316 0.004904625903790689
1.5777037810158419 -0.007139430581275122 469.07009137311843 0.003167792045515507
1.411689092877626 -0.007180367406759599 468.9063219915643 0.025573734801658823
1.5852193518033486 -0.0024652312366649264 469.09680910306696 0.01822256276645252
1.4468031550902947 -0.01463784870776211 469.04547814148475 0.0008898357525762578
1.6388832972487708 -0.005811563565327898 469.0441684154716 0.0009338081545262426
1.414631910382504 -0.017608329456557114 468.72508842890807 0.0031792074005747768
1.478754713733727 -0.004059322470048249 468.9773351923788 0.013795371011942094
1.460649684380688 -0.0037974158093696453 468.8438850420895 0.0012041167873562647
1.501294207505279 -0.009425140874646245 469.0285524619175 0.0011872373682829372
1.4577487509544704 -0.004908452511433377 468.925248216235 0.008198949606795226
1.4187518404293122 -0.0034715249758471988 468.65409260682287 0.00520516154087685
1.5361133965440312 -0.008676271166153039 468.96058940231654 0.0013153860354578788
1.5211409462249474 -0.0013671307750081486 469.0446353740495 0.006861481745021979
1.6160294977113312 -0.004555783739115674 469.0622628141537 0.001042091402573873
1.4056698249770412 -0.0027907831293417463 468.7563696201866 0.02901797706403974
1.532434734172261 -0.0055016612070854865 468.9422551772037 0.0027861717814248173
1.618301885036269 -0.003451475687462245 469.0027289071812 0.004588279900923001
1.461803727303383 -0.0014246191757752368 468.96655885145924 0.007311046424379224
1.5194310455426838 -0.006329113901511469 468.84935773371046 0.008062508010172977
1.532668189048728 -0.008253425232281269 469.10069489818875 0.011603410101482522
1.4109415664651928 -0.0039017032314910645 469.05250693968674 0.053584940774327294
1.5793130545075815 -0.004630744755137608 469.01714514548166 0.0025719718926412644
1.4985342902957577 -0.0031612880188381888 468.89481472134355 0.0006112127890490886
1.4447791922601065 -0.004472889348950785 468.9175060337662 0.005222330187393546
1.5213667721801531 -0.011331855447203167 468.8166068449628 0.013323689181770846
1.5446258493073548 -0.001981851387577381 469.01388972360786 0.0029764864897181575
1.506402506613485 -0.0078090727489352136 468.79989575792575 0.01055783030628603
1.598294114240817 -0.004076717151356335 469.0284065399591 0.001776197734497755
1.4499803147975299 -0.008746710722158454 468.70837418322526 0.002437737256675241
1.5193419375833206 -0.009097845877645215 468.8798470232857 0.000134474673026112
1.479102445230505 -0.0133147021864261 468.7386507064633 0.002376481497259414
1.4806845459372222 -0.00378974999869987 469.0414404170583 0.008296714818379944
1.5446082153601965 -0.0022704416770915558 468.9977859156199 0.0039586413848028594
1.493999229242907 -0.013838447041940712 468.94786415810535 0.0020453965731339363
1.4731044753685392 -0.00106235209376955 469.08564177544156 0.004490188251691912
1.4065593874657907 -0.0037981486239831576 468.8443509928119 0.013121454679355974
1.4562620465593277 -0.009397066309571597 468.81840911791346 0.004572518497478058
1.4893808943235438 -0.008986770171023966 468.7754707586459 0.0028282512562476576
1.536546664266349 -0.005025437692302846 468.97670686500794 0.003347765820145183
1.5057124076884592 -0.00679252937425174 468.8250899242902 0.010186054728241325
1.6872640458473804 -0.0015471036308315038 468.70055138810574 0.05059132922247099
1.6786658300272927 -0.008284111700786889 469.0600911432299 0.02646428645005762
1.6829403191804744 -0.001944158753525996 468.87336720044146 0.015275454712729638
1.6750725643477489 -0.004813895608491598 468.9833307933278 0.026617893796344553
1.6825885004588628 -0.007796151526633746 468.9156887016428 0.01213930339926365
1.6871740193839961 -0.007130942041428196 468.76640066598515 0.03073234305607148
1.676476449433421 -0.007541942092310388 468.77519297074593 0.04992380121971707
1.6842220623539181 -0.002450255700518868 468.7132316929337 0.047067915962746995
1.6900939433435647 0.0039459828600377144 468.8616005099862 0.01501048968863469
1.6908393048054375 0.005198471131934973 468.7996801336148 0.04248492286367044
1.684475443534943 -0.0011022300093406355 468.9978880584304 0.01729819247573659
1.6879171292018758 -0.002998824330784647 469.10549826241953 0.03692437028821382
1.6916296388593361 0.013283217252121015 468.7200589070749 0.04898518990990002
1.696294428026 0.0005121189439429713 468.7693419388284 0.02744177271704151
1.7017266370128465 0.013732642597369511 468.8443615684607 0.01881162339245489
1.6970233205162926 0.018175636751128106 469.0683753424834 0.03390001598148729
1.6873845859057695 0.003124693772476481 469.04456698688483 0.027237092901668456
1.6905852586816634 0.0025169773435626368 468.73093162527806 0.0446471413815467
1.6923496119379244 0.014348365392249374 469.0489647203767 0.035317531276034986
1.6986653366428834 0.007037345845918637 468.9348304969722 0.027726349525769797
1.6935530683059616 0.012382213941013276 468.89940811634096 0.018095035485756913
1.7030668447139228 0.13986306255536038 468.8297024741364 0.016222392806090544
1.6992506743044817 0.08887553329714067 468.6866975708419 0.003057048817666321
1.69850852018462 0.0683655695219524 468.6212343954609 0.0021771314614716236
1.6972341942494371 0.05306165278491518 468.652904271308 0.0008957032533526304
1.6989233217676964 0.11816257603196034 468.71468043003034 0.0010231429697965865
1.6911254646915261 0.1434373845792287 468.95639631406937 0.008363968300590387
1.6966225408041333 0.15049568201821287 468.7345328081862 0.023840975101478264
1.7018364554954952 0.14619747919337645 468.79429452166966 0.0065707669225821275
1.6978765865546308 0.1512531775751599 468.88349001696656 0.01612301910184416
1.7008836909407923 0.16092699915191436 469.01475961452155 0.00843004648165896
1.69844079689706 0.133812348760992 469.00764936352004 0.004028913594328109
1.6986174176867066 0.1287843367012511 468.8898129011969 0.0064457854968515815
1.7033722199640347 0.09100435752979871 468.74221396525746 0.0018170456200481532
1.7013446402471208 0.10996908447119916 468.7494052633329 0.0032723995104648107
1.6985547636384157 0.1014364914748608 468.90385276964867 0.004201465820832683
1.6998819041058084 0.06551908355366975 468.73358181995854 0.00410279877833537
1.7083358838389422 0.09570753049688842 468.7705385249813 0.00020500885319394712
1.6999493561715742 0.11790114620928853 468.6616424249655 0.003631476264648982
1.6962751168684163 0.14661108266631462 468.63497381311265 0.005826516474702632
1.6983903540728291 0.11175289277210212 468.917766727497 0.0034517045951226763
1.6926617739278573 0.14262673849201968 468.6051146615404 0.02121383422176066
1.6928102151518964 0.14134451086670147 468.9341094268405 0.007854238287641787
1.6972049065043604 0.12582936896071067 468.7682369305505 4.342179840372925e-05
1.6949582764478666 0.16193160473925822 468.92406857228315 0.013962512457757585
1.697647415779729 0.12199453441376608 468.82347566176435 0.005317485142097735
1.6978354046092237 0.06854923679777879 468.7132035742409 0.002161721070928066
1.6993719793704252 0.12533629068581953 468.9921158922651 0.0060190406867544986
1.7008623968004069 0.14198221985977627 468.9914236915543 0.003698426513800444
1.69633963137887 0.14237229359447634 468.61801793167683 0.005506884952621242
1.6988577296887333 0.10898114889954583 468.61419989858126 0.004962197391302406
1.6988116367497574 0.08832566914834768 468.8492036698263 4.958135194500428e-08
1.699313810685516 0.06932308198556929 468.6959642789176 0.0033746157280072236
1.7018601831282798 0.14591083449746178 468.99416525317423 0.012545694512050409
1.6921154563521814 0.1553426302129474 468.95778198187855 0.009777433196622717
1.7006398143932258 0.13301414644279608 468.6485037189381 0.001599707258834747
1.6972610863416242 0.058436931959203915 468.61628519342094 0.004305423426331859
1.7036033838832958 0.06469639892672056 468.7879663556665 0.004045190860173302
1.7020297063935932 0.12364760737352501 468.6880530382224 0.00197762423178756
1.6973755664772254 0.11266883868846964 468.80795446814335 0.005679047157919956
1.7008280196668253 0.11756951723602303 468.61106863317605 0.0009495600675165929
1.707386997095215 0.1302080917528456 468.85555005834095 0.00944021446797219
1.6993061679951673 0.149770682796287 468.81476949828465 0.020089894579517056
1.7016767396161134 0.04837949894124248 468.6997523831211 0.003040744747305551
1.6997648728301034 0.1551166113633233 468.91016998625247 0.009391818627303703
1.7005878832714272 0.1415733055232514 469.0302953435771 0.008278520051865057
1.698480378308636 0.124715025416901 469.06083317513554 0.007006780663577137
1.6978667000864769 0.07690721394227468 468.96232803327985 0.0021602782699730334
1.7004126075404837 0.09728109387326948 468.9616475706283 0.0008074567389390929
1.6991017587570814 0.08819871352051131 468.93226379909237 0.0007371772909038066
1.7035672249054163 0.05525794634322804 469.0131618459512 0.002113112588779322
1.6958924429567663 0.01566153846888527 468.8876361652494 0.029342435998794745
1.6998731251513346 0.028270005242836814 469.0494212961162 0.01670460469177472
1.6996575176008353 0.021170550987232247 468.8659175438918 0.0306896977426369
1.694787599786798 0.0410594234327786 468.8319023252767 0.0007735427375609763
1.7021371312739904 0.024052881866148776 468.942323439645 0.051317154828341156
1.7000262190583297 0.10245051394519565 468.93290700541024 0.0023951118697285215
1.702909143178485 0.07165183274419754 468.80941701783274 0.0019039141921513717
1.7035891473322036 0.0954211160824475 468.887513646435 0.00022018212791917956
1.699403522699024 0.06321495823160989 468.9470751776409 0.005385658898143676
1.6992843721820097 0.1391729366815304 469.08470071579137 0.018697091479961476
1.6979510554657942 0.09948251757875361 468.9934203144608 0.0034817036610820693
1.6985195090960863 0.11226320926159102 468.98803597982703 0.00399767596975347
1.700559790142477 0.05323361396619219 469.0333775800287 0.004290097708716773
1.701325245503098 0.08378904663222939 469.06539541834576 0.0010873494155687776
1.6976889071129373 0.1275896949604988 469.05533563800714 0.006865208716062562
1.7071647851663907 0.01487920983400759 468.96034279065685 0.044743345758224994
1.702168129590948 0.05156471610961727 468.89850565649135 0.004395416208905689
1.6950204752117246 0.11520192946396955 469.03845323650654 0.0028705124674739237
1.7025830647193017 0.06343746424522685 468.8604056024036 0.0007051805898666739
1.7010715814176787 0.02748842613145388 468.672049809978 0.0068805401956372175
1.7001866711429559 0.028572457247553 468.70009886085063 0.0045679451490130765
1.6962527650060006 0.009023015322551255 468.99539078553545 0.00734881160817928
1.7005354481895814 0.05238411830816558 469.0294460096521 0.0031915127533307924
1.700185424184622 0.04548550151501586 468.8638629700143 0.00847681763651802
1.698820458240715 0.055194194880712116 468.94684242639545 0.005945531763621695
1.6938623379943796 0.03945461219544056 468.96606378305023 0.0020626350970160195
1.698153690407507 0.17390029795749157 468.64893119832664 0.0003623580080782385
1.7032633840128062 0.16387401439710217 468.9005993434915 0.004263289853813649
1.690362098342593 0.1584759227128561 468.6060092330022 0.03195999116996297
1.6993276414273595 0.15321259330201772 468.8622731233408 0.01358631197300479
1.6944995678230665 0.15838067839949177 468.9751802760435 0.015997054825835154
1.6954523268119661 0.15926496410271931 469.04216027780495 0.006494083530578982
1.6987277723876202 0.1730293358613403 468.64131068270115 0.0024521384459306834
1.7008656054411462 0.16108691650350884 468.6659766328269 0.0028908142942778814
1.7016567854376938 0.1652086326472286 468.71865365290125 0.007085563631481797
1.69496668784676 0.17035971360812674 468.62118174715414 0.019662096684487648
1.7052095500489586 0.16614302351450388 468.75926962614335 0.0003222254393283093
1.6900484994373646 0.16978311922343073 468.9755155517766 0.015360919888626597
1.6906763616070126 0.16960416207357684 469.0325593570952 0.02707979331551595
1.6897005878308486 0.16784876098490772 469.05493226291645 0.021722123680644512
1.6950996123871231 0.17233901022505668 468.8940836432181 0.021564502984251447
1.6896214874140785 0.17117742753571089 468.7676648733727 0.028673794704390698
1.691856532463245 0.16646810541051346 469.045641836477 0.020802558210130773
1.6869275106612502 0.17065351460257733 469.0719318165904 0.01200499319525215
1.6930138642780832 0.16985928328147168 468.9124251177739 0.06482167866997082
1.6886213524066565 0.17591182972224761 468.7368502576781 0.04716073947596108
1.6829637686350354 0.17794151141058803 468.9385951840907 0.04659594500434015
1.682449399337203 0.17581355785893948 469.0033020550464 0.009569838347386173
1.6742551331246147 0.17678446009062074 468.6052916504842 0.04655064898480215
1.687543741191509 0.158194155860929 468.59840789545586 0.0444551734309014
1.680783217379595 0.17574416237759413 469.07614616400537 0.0075901672023534865
1.7010987187455893 0.15269213442817073 468.8354549797556 0.015013640466827866
1.692548782108616 0.16755869293648643 468.8087452722871 0.005628100969935847
1.7006341796198112 0.15723631615282618 468.6912710375855 0.003701973969687782
1.6964415330375713 0.1530155639039651 468.63841445790024 0.0019358941695188708
1.6928167670476328 0.16445057722123277 468.8523705153492 0.0017276865507677615
1.6919051562026823 0.1582230304914462 468.9561010173034 0.011277719761070285
1.6995587193792787 0.15077581059428177 469.04479279242315 0.011160006175101067
1.703869469595117 0.09520801523955633 468.670935808064 0.0007966999569584254
1.6987149373372852 0.029244705904197813 468.71046713276206 0.01325449793079839
1.699983742580003 0.03868341647304495 468.65638841103896 0.00048267099929999625
1.701730245656193 0.09773804827169419 468.6335226405084 0.0016731745329242901
1.6964797665906375 0.07616325303675964 468.6036593358674 0.00011870286071769616
1.7006674448602606 0.03651032218750027 468.74618969387683 0.006598265247628115
1.6942621122707122 0.014002002085519605 468.8800272396613 0.029474057061470656
1.6999762153353504 0.07374908885332143 468.87466237876384 0.0019664103426548832
1.6994786016889685 0.05584258479546062 468.6256988653636 0.004765449920771527
1.6945453963521724 0.016740596672353197 468.75103683799625 0.026614173137484577
1.7040343578113208 0.054148158421865406 468.7424099971709 0.002319307454224933
1.6991849151781608 0.027597096375413157 468.6163144168153 0.04383402488229861
1.7038035980387678 0.01568337139572631 468.98571003122424 0.08936320155109383
1.700764791851293 0.025308025510071788 468.7936027035739 0.014398039084260416
1.702635653097293 0.023266918846759077 468.64046333133905 0.003986426385301596
1.6994105082601096 0.09734113594450704 468.808247498415 0.003164538005465429
1.6956836065758591 0.016682434634620907 468.6991609704272 0.031386667560197784
1.7048941551663732 0.03218214169253042 468.80345384288006 0.0032354120934586835
1.6981001062463505 0.07100237930997186 468.9225860678064 0.001216534882720242
1.6949946174413686 0.04430167142009377 468.60023286311355 0.0033818412276770855
1.70088365878114 0.030901896811371468 468.9102050212448 0.0028630283295177045
1.6939249108251548 0.01952818048655061 468.6110419165803 0.0537039830959027
1.7025979305317704 0.020820008464732156 468.9213561039869 0.010386155960766707
1.7035241520614934 0.11502308607580713 469.01352150095477 0.006042052371578124
1.6989461014829712 0.1137759927049265 468.9790769160246 0.008103072260470127
1.6997022442817549 0.12883819805455707 469.08378923757004 0.01755530163168994
1.7004404144675034 0.07753146251605143 469.05226602850905 0.003479356166945343
1.7039041223653975 0.09357685920294036 469.0226524809998 0.006468858800988302
1.698015264655016 0.08507054358034132 468.92169943297426 0.0027103926823396464
1.698426147918333 0.0858682274381902 469.10747845330513 0.07081231339293939
1.7002731601704295 0.08976522064490727 469.04605744564765 0.005945581744911155
1.6981033996419292 0.10578643854662315 468.9043363624676 0.0033168301611637674
1.69694898336271 0.052705075823399214 469.0856764112603 0.01826992439890679
1.6993211845512026 0.057714422339039076 469.04252108520154 0.004018832939353275
1.7011400849407472 0.1417951435271242 468.67821038368953 0.002051324432597318
1.6979114114881548 0.12222230188655256 468.9380964450059 0.0013276426115377174
1.7020227399169747 0.03307821092363332 469.06479443863117 0.01153765282641678
1.7004167168528197 0.07328648171881438 468.9784613314862 0.00623327843700253
1.6940814573028298 0.13656340531500352 468.9311407424871 0.004264289473882268
1.6992297226897444 0.09284321872887825 469.0894298927995 0.008324572813795023
1.697117677599617 0.1416257501807942 468.7666857526137 0.027236358499090438
1.697461397803179 0.13091834859000812 468.7177492999946 0.00391647937822511
1.6959730871225804 0.06268409881321924 469.09546681492634 0.06269759292669701
1.6971430652022366 0.12047220029509272 468.9575860476888 0.0015646796370833908
1.696676634783643 0.0641663825327838 469.05267962395084 0.002267919511112613
1.698022250418302 0.15399194875064717 468.7207728073962 0.01325388399595385
1.697633489671886 0.07144566438845203 468.9928627380741 0.0012387032100761445
1.6964036378242413 0.055158111931291345 469.10477551581823 0.05427925889778466
1.6967847805346195 0.06931947727125044 469.09707748646156 0.055733674612352416
1.6911512968384623 0.14848474079977475 468.9446348318211 0.011425533589438801
1.6931952218367519 0.1580529752009886 469.0739235726361 0.022406951256015932
1.6981374150353101 0.14757793010054138 468.70076972673195 0.002262242665127177
1.6995186698436742 0.13668168591887547 469.0466508752775 0.0077869130665740175
1.700574889875154 0.012642876241495207 469.0151963902399 0.0045062481327732
1.6930384774579503 0.017905673847699498 469.10310938030796 0.05859957185966113
1.6933634452921615 -0.005922453313455102 468.66705062677664 0.010655386097431743
1.691993554783499 0.006238476986985266 468.6963580519913 0.05077736875388371
1.692974760134981 0.007703404257024431 468.7870486911929 0.04884986340255981
1.6909960928065153 0.006824472007619875 468.8073148265887 0.03869411370316871
1.688215818464745 -0.003759415907472221 468.98535744967904 0.0013932894097104073
1.6868049372614475 0.002600894702287063 469.06976333870165 0.037623043086612754
1.6791428969162177 -0.004912826787556029 468.8394282522724 0.012653664096617083
1.6803081011375534 -0.007865501915136866 468.74297683691486 0.04278371725173231
1.4696857625472037 -0.008349808808870039 468.93277328877207 0.003451175600051724
1.4254845303486763 -0.004425040710801322 468.85639779611904 0.009315900611220536
1.4418895219999175 -0.007857997781366253 468.81818671934013 0.009155024647644358
1.4965275969060021 -0.0020806862388906945 468.6040268797291 0.002563409775126086
1.664830884416544 0.00023014122139624954 468.60485491789194 0.022943877027115537
1.4214607563823705 -0.0007271528832258076 468.62828976233857 0.005294401418649906
1.4600781170140438 -0.009952151207250378 468.7153369404498 0.004147036969188589
1.4512711605170496 -0.0031724018639495604 468.90227917566807 0.0022417985200795776
1.4080000548531468 -0.0026012693130658482 468.7828936488947 0.04536791653314072
1.422396985258888 -0.005930456892760453 468.8143285090363 0.0024192400970635877
1.4504443099010838 -0.003505082329427439 468.95420241719654 0.00448429007193164
1.414667081689745 -0.0010445441920148252 468.60836704577554 0.04977592387113868
1.4342488357354934 -0.0023975569804291436 468.8606621371425 0.0016954087994854859
1.459168774073509 -0.007154148786820962 468.6965881060176 0.002385900678283534
1.5608364973990192 -0.005564854151473357 468.7473323398238 0.0012602388896599552
1.4822634526627747 -0.008308409885027599 468.8512453173078 0.0014355189137678838
1.4468174729785523 -0.003439366250583307 468.78148947576517 0.005549299093562795
1.5187140311917504 -0.005368488461801585 468.69312364861753 4.595384962145597e-05
1.606663885526952 -0.003983653057741792 468.7132866948145 0.0012159567080786992
1.4766372875765028 -0.006067810610202483 468.8837881487427 0.002757997137139966
1.5460365047987665 -0.009102142086501333 468.79344438675145 0.011933662173027368
1.610407471427555 -0.0066531295116162015 468.68596036524616 0.0001433746289659459
1.5679786094546975 -0.006613690506554082 468.7119138846716 0.000607387980680155
1.5538583942515174 -0.006501867004913382 468.64690394378556 0.0035138657291894798
1.4464765048786228 -0.004236930809215929 468.6466213047016 0.004635977118465451
1.406593612122222 -0.005887884841979528 468.9195398099449 0.05002378080857885
1.454072834606548 -0.0035374581645475486 468.66136418608545 0.0007659309407208261
1.5935620942301723 -0.0008360500307313026 468.6117818143177 0.0015254888177324536
1.4389556993838626 -0.00889730151576178 468.8233320412074 0.005383010489583587
1.4297846926178146 -0.007292943219861148 468.9493850675004 0.0039906415398132025
1.449787255800459 -0.0017610398877381116 468.87059753751925 0.0019373713898765798
1.4144435305369676 -0.001511548994272415 468.8774538148867 0.030659155819434517
1.5228309248775602 -0.005164879341144822 468.6727746406064 0.003835503630835518
1.4421580990343048 -0.006473112207707717 468.9902311741712 0.009406442602527426
1.4206887665548928 -0.002237151381853184 469.00404552656227 0.020733278003350553
1.5612788780761067 -0.0042874130374534955 468.6736605559338 0.0014785874687350898
1.4139995540637544 -0.0034726111577507894 468.64924659887544 0.005742476453918104
1.5766514096506714 -0.004023570796810801 468.6874767271858 0.0023393070981364964
1.5271989829181107 -0.003127128462071036 468.74060618091914 5.978843745254252e-05
1.4689321134296545 -0.0042486072774967 468.8658872587493 0.002577937149867161
1.5564946999645006 -0.00157985653044844 468.9988887460435 0.004059082441398081
1.6619939200740474 -0.006162565554752054 468.84429340946645 0.0179362960415476
1.6086054230933533 -0.004867545082065568 469.1010425336486 0.019821929831978242
1.6198615822459668 -0.004493527964048064 468.9780056350296 0.006138666227805505
1.6085490487785934 -0.004871654866926074 469.0214130923888 0.0016855616557582746
1.622102886331959 -0.0020610604032792364 468.86905505050316 0.0014743501160399204
1.5719235817548074 -0.007383082137539099 468.8381918668293 0.007003996803531139
1.6483553655377066 -0.009101501490275672 468.9935381527291 0.005291242676881575
1.634949370640101 -0.0020438309498689335 468.82931101672705 0.003952049340299331
1.5657845850169518 -0.007858644836961371 468.8550192224349 0.0013733805376941635
1.666356931012789 -0.004382020093316036 469.0302726962726 0.033651659112440224
1.6519075370767717 -0.00589797738090343 469.0772628915385 0.01711326031418335
1.634772269578143 -0.003584660944344146 469.02822924806486 0.0023474087787369612
1.479968826398724 -0.0033548179353184524 468.99142660408336 0.003906489640505648
1.6323924451456646 -0.0013168303301994934 468.92537180418464 0.00607128113592402
1.6062161781671072 -0.004569219661706278 468.93691889162267 0.006136218886527301
1.5712945141123316 -0.0029198600007314173 468.9196180717827 0.0013098249267620688
1.6347494388517352 -0.006984184496674806 468.7725425849471 0.003807894592541666
1.5736661061485828 -0.00576350350218907 468.9041103984127 0.0034991286636984692
1.5829975059360812 -0.006881966587276857 469.0094872070918 0.0033031852204863914
1.5041504688194889 -2.8400556945185756e-05 469.05293997121373 0.0067087968453610715
1.6791819050710737 -0.0019303145728123577 468.95867906711374 0.024149493742745158
1.6736591014291788 -0.009098982411599683 468.7597641514676 0.04634043901360631
1.6143318560437847 -0.004038044413775707 468.85034348941656 0.0008524691481195462
1.5835057095975025 -0.003731893282430704 469.04922345933204 0.0027895659387261
1.641699742100794 -0.0003318264466709692 468.79071820540037 0.0018075785122500315
1.662620575564289 -0.0026732018731965993 468.8010184213305 0.02138754612681101
1.5589853594803929 -0.00391399073093593 468.880939105997 0.0013362028873502034
1.4877456188605225 -0.00308245677366952 469.05209231438016 0.005593253381568599
1.6242435022248614 -0.006209392332903065 468.95726355463376 0.0070947111725790865
1.4898342376942844 -0.003159781070751602 468.9854808353182 0.018945059439089623
1.5857241147647556 -0.007365635658826286 469.0276983193943 0.0015072292423519618
1.6735310039432534 -0.00411967158077724 468.79358869821124 0.0215387859793218
1.604506770505066 -0.004499590254856852 468.8394952277811 0.002163410629006871
1.555732786395234 -0.001959326066099767 469.0057669455199 0.0035826895477840417
1.6298114400982324 -0.006095325014473194 468.74319764136465 0.00308015495884647
1.4887216522285818 -0.005904014745835576 469.01271639348494 0.008143145485183965
1.5745432138544355 -0.005345473107624648 468.94725108413843 0.00510334619745904
1.665763938026695 -0.010158161185496915 469.0788524292772 0.016479082488372827
1.6199436273335377 -0.005596514327581995 469.0187320993217 0.003263752030953376
1.5034394263085578 0.0007149562840982996 469.10200864854437 0.00631326829702943
1.6331525840612868 -0.006944083666208476 469.0660988454708 0.0016809259670636833
1.6681692708175893 -0.005803690402786974 469.0358140058824 0.03351067944696178
1.6214716234141582 -0.004099447885081324 469.04086346554703 0.0017395295603103232
1.6406114503952616 -0.004380100446612911 468.70444875596996 0.0011582865424871389
1.5209348883995792 -0.0006543225837188048 469.1057374158654 0.01633188359061444
1.5972245931368514 -0.004212038069911618 469.0718842538373 0.006018098094246691
1.517803339574711 -0.0032930785244047267 468.98026109994055 0.0017760694222119593
1.5965629639216081 -0.0022766748163909013 468.8716380530554 0.0036527719792729817
1.46186213732359 -0.0010553098063660034 469.1074027217206 0.006305893428847386
1.5913923510199137 -0.003569872639141853 468.87757784114217 0.005369838751498771
1.6627560449373775 -0.00483823499698183 468.77794309243546 0.013242219224910779
1.5683872889440038 -0.006115878089975494 469.094268707552 0.0025085866545643126
1.5253508976588914 -0.004052412614165538 469.01536969167535 0.0026747588261629273
1.5764403033590397 -0.0036631140500424687 469.0470528111884 0.0033251475365599654
1.394383466415319 -0.0035485518613460297 469.03593467247737 0.01667657357176529
1.3946339602082602 0.007738918588064527 468.88072688853737 0.033189981662947475
1.3910106443153862 0.003395896306377766 468.7088580956684 0.014140741693667387
1.4010232503110263 -0.003256265548805629 469.0735028253242 0.022736263326242363
1.4013061664272346 -0.00013053520525582079 468.82971700112967 0.020245851065755775
1.386520715895993 0.012374540482100673 469.0107896148918 0.03384593807277577
1.3946932461495174 0.013230395043148095 469.0464952415552 0.02945631673480635
1.3880540560380785 0.00947598809328784 468.8350452319774 0.020403829339361204
1.383764107361661 0.008027251334078458 468.8167869254912 0.007060555828119812
1.3954508648438408 0.009530830477138572 468.7437116769258 0.01781700110809125
1.3905055415187921 0.009451384651907726 469.0859616094849 0.024233474911901344
1.3916181120773081 0.004721771566347453 468.9322284530939 0.023627938758528318
1.3868833821213793 0.14370388772465925 468.6176637795502 0.019553562113628555
1.3896736120649802 0.05118863435247161 468.6577296551196 0.003768024534224865
1.3879370728586944 0.15419027335587748 468.8313181692834 0.026442182648327178
1.3861398152063245 0.12885085509982308 468.7535145993948 0.012092304837605365
1.3859592197376935 0.1364846717925727 468.75734020537175 0.011583981951585942
1.3894902593729093 0.0703052871029988 468.67807066845774 0.0031779818892381205
1.3893848457900406 0.046633877746009245 468.6255091042353 0.005473853925970372
1.3850483127978783 0.1418906744837652 468.7054206789338 0.010074107579119631
1.387623265371045 0.06314030615141894 468.7187941753162 0.005580640076946197
1.3882626314671047 0.11763554247274444 468.7780819183602 0.006054546491897052
1.3842269170660366 0.11091611550969119 468.9458250679697 0.0050931194982488225
1.387971662860941 0.0870367091097003 468.78270074013074 0.003386623771562114
1.3909176308915392 0.15208826280848065 469.06916080184675 0.006333850473935286
1.3905742707960322 0.12254217445247002 468.60205858972296 3.2625450135380145e-08
1.3900922658778871 0.029803696986680724 468.604895936686 0.04671210809263826
1.3867556595570052 0.14492970106832725 468.8702607958845 0.012198513439394052
1.38903448107791 0.12346417730636883 468.90436773467945 0.001799246960333643
1.3915849839622858 0.060639136964211304 468.6182211286067 0.003596529418984587
1.3823049545058848 0.14231941509122656 468.78760452709 0.011315588780015593
1.3854661011479679 0.09415179046886152 468.8034936305808 0.0019476541771534543
1.3829205741381392 0.10564620212872813 468.75488898673996 0.0009192854092989506
1.3905338160755654 0.043466692895460415 468.68173422423723 0.0010824376803599972
1.3868078221689566 0.12049185433977191 468.83563162951316 0.02142513323877896
1.3883880156882824 0.055043240185834605 468.7268636318388 0.005403193510926104
1.3890435870271036 0.03622119594412666 469.04150850067856 0.00478587317230267
1.3880137629529732 0.10053520578808314 469.07411362334864 0.005872185261102344
1.387584553999586 0.013187913474973327 468.86943012850594 0.03335326332994487
1.391175090093065 0.02179013546529434 469.06286700224797 0.01992295090026896
1.3870176958333835 0.024531019359551084 468.7088263535316 0.017277418659248242
1.3863143712026238 0.027940582208820723 469.0894461972769 0.02739356514950716
1.3932753129007056 0.011220148554364887 469.07149977391686 0.019860721462149622
1.3906747331508136 0.09383188992197206 468.9315295987981 0.005276071595374096
1.3865963424194747 0.08570597185634149 468.87227716645936 0.0028146054827815933
1.3897666419161283 0.027187577916610976 469.0676639954826 0.007317428130758974
1.3909122906614095 0.05144915952825609 468.9353931832665 0.004224638844861048
1.3889841938159033 0.02902184102226202 468.7325895562764 0.02126013486195878
