x y z curv
0.05746538252682722 12.861913140731708 1148.3687671833015 0.008724870445362994
0.07293808769657865 12.856900509677494 1148.4977068893252 0.00807824972176699
0.06128722755252057 12.859723381803274 1148.6508106924011 0.005537737431568554
0.07525531040772812 12.85139813688799 1148.6225363640078 0.006455214456559306
0.05100905275061124 12.86243356765516 1148.350001601171 0.003070141873920682
0.048411066682182056 12.870872548302216 1148.501626147433 0.010220226898009752
0.06095264968100136 12.860211874464174 1148.5831342628078 0.010937561071776849
0.05578424178055829 12.859968121952003 1148.383753859396 0.008206101961184011
0.0500343180678139 12.863448058082763 1148.5813491749846 0.006581003117202962
0.048351020868716066 12.869220504457157 1148.3940369122934 0.005781331502741833
0.05299062666883136 12.866256961615523 1148.5218092226921 0.0012907853412471265
0.047895599526007186 12.866007125916207 1148.4795321816073 0.0034934155929210024
0.03531154867748039 12.878772841389534 1148.4010058050162 0.0032785440271173682
0.028191039288024956 12.88174147978606 1148.314922693572 0.006740462554441832
0.029238280296199654 12.882015735373356 1148.4233566519758 0.010702858341896078
0.04883224927664574 12.86549643386648 1148.602492221118 0.004767624099381555
0.04461734142368518 12.874378581812158 1148.6684609861961 0.004799487292921307
0.025372264510050695 12.881748167180954 1148.6472069719312 0.01889146407188831
0.02995326857633519 12.877925984724412 1148.7289481476473 0.005783588511635234
0.04445902122591787 12.874510351825775 1148.7314087652917 0.007244964748977176
0.04890268231594829 12.871625565094728 1148.7202342552443 0.003907696482318245
0.032033358005059666 12.870147871505765 1148.8493910835411 0.010118804810362559
0.048029855957773065 12.868977574370444 1148.7599137332106 0.0037688970479867376
0.027330615340706247 12.882116733709081 1148.7096625109607 0.0068150699669038695
0.05167010041273093 12.866765412763568 1148.8369174168788 0.00249159900012873
0.04053451148190518 12.877654707683782 1148.9275446983502 0.004696490043299702
0.04230048856676134 12.869332358686895 1148.9799704821903 0.006937358779905678
0.0881435520673946 12.842460497632196 1148.4136282095676 0.0013363587640499689
0.07098729050548236 12.858584985459629 1148.5009954110778 0.0067645856806544755
0.06624274328642174 12.856358319785837 1148.302584427798 0.007447655498690777
0.085900998618278 12.850211432125915 1148.884729031058 0.008176313919354345
0.08718193729945363 12.845505590464546 1148.8517967257094 0.01167673716915991
0.08251419091345173 12.850386140521286 1148.7045607228822 0.007150307137472135
0.07160804102243086 12.855072771606817 1148.8180767916601 0.002413031142763687
0.06581554285225 12.857662711340955 1148.6690806169624 0.007233280776971683
0.0743044917701165 12.854016992117499 1148.7598384168489 0.0034119113655800438
0.06871837074530521 12.854228029238687 1148.853987036485 0.007718579489227824
0.0641505835870271 12.861247821365838 1148.7495445345862 0.003651411049411224
0.0687019860736316 12.853854425263801 1148.9022284481857 0.005058921917280766
0.07005017503795541 12.851147570042153 1148.8814786333787 0.004916663159742136
0.07738334710662821 12.851454381938321 1148.5854358938275 0.007966245531357182
0.08637578414363038 12.84980112947992 1148.5206804526413 0.0023109895388336524
0.08031334294295595 12.846107523040414 1148.6540832670478 0.006409333290745765
0.09488573789439107 12.841449143720403 1148.5631694613164 0.011947945276797814
0.09594274988120652 12.842808745663051 1148.6739528056937 0.005015668273992158
0.08965589316142887 12.837411282485519 1148.633722521701 0.0022379593191592996
0.1027529424156669 12.843943309475788 1148.876631056161 0.006282031582738586
0.09029498537747473 12.844737173134838 1148.7365605181799 0.006371329459139847
0.08960340835708067 12.84424667449616 1148.794626560835 0.005413530668301629
0.08217879367206596 12.850145037384316 1148.7505219225534 0.006135979219382249
0.08399327132390627 12.848207023071932 1148.8009142966287 0.006814843782034512
0.09447041057577217 12.835492914991885 1148.845967706338 0.013167721393571676
0.09547707487507401 12.842200864122061 1148.701143454762 0.005111865622394022
0.12591984410454923 12.825724787817025 1148.6230392351988 0.0017699005038164645
0.1210020884660697 12.833478385397713 1148.5711351540626 0.003191231283214501
0.1264732281031485 12.829990521666758 1148.5985771187106 0.011663929254739327
0.11823652811052383 12.836839357229312 1148.486182912227 0.005748671028279939
0.0964992904573492 12.838955413185952 1148.4289621457065 0.002112350453982813
0.11222413777523474 12.829469519339982 1148.4497447925826 0.0035257646037075777
0.10721101701808718 12.834914300338808 1148.381472431088 0.004804455874498646
0.12023118887930331 12.832801210773493 1148.3359928359403 0.004677633737951209
0.10744914278588731 12.83223014396822 1148.6015777076382 0.0018447220518554297
0.10254019679404125 12.835170933747877 1148.3884858244346 0.004373496260667127
0.12923014141098804 12.823913059998636 1148.7502378901308 0.007000597094073489
0.1345768283551278 12.827901373487247 1148.711665263735 0.013313688122131415
0.12489809694752042 12.82697103109096 1148.7753719016664 0.008821972803167419
0.10433790024792516 12.834021979895875 1148.7398366901546 0.005689142444173103
0.13306411774828003 12.832367301712319 1148.8037473681024 0.009652841537472418
0.12314690149169845 12.834827838260193 1148.9865115841437 0.08171260321485546
0.13202110711469733 12.826576350027642 1148.931599366114 0.011773958898327977
0.1281772171947893 12.822301775983547 1148.865154108132 0.009960026285631753
0.09307188415978544 12.838144849911627 1148.916797598795 0.008009576006666437
0.10327074162815189 12.833895548077386 1148.806852593266 0.013828439384062599
0.14954989986256148 12.82330707621725 1148.3689634965897 0.0019109734230752082
0.1517276659474495 12.822409654837664 1148.503534785536 0.0024692016345169423
0.15198377298945412 12.82358342804154 1148.548167784555 0.00365805465143052
0.15180919636126955 12.825034228265801 1148.4850919634896 0.008992284201268184
0.15273399214525465 12.821234445732719 1148.3855001945228 0.0026939330030177
0.14288967966984306 12.826087092346123 1148.5363343082756 0.0018720037271063264
0.13055789656330796 12.82970406917589 1148.3397925553925 0.0046698244453213635
0.12402846225642727 12.828393484689556 1148.3091882383212 0.003258771384077116
0.13361757923854606 12.827211395238223 1148.5397252113726 0.0011423506448671613
0.12721402183877897 12.82865883506166 1148.509604901513 0.0030104475255842843
0.12903317306565415 12.829192292162285 1148.318675948115 0.00369663382987935
0.14000274396226106 12.827924651195351 1148.545203684285 0.0022949856062125856
0.1442550240037644 12.823328280312374 1148.836769023026 0.020304331771832572
0.1431855183839468 12.824223766735823 1148.95694906804 0.014359858489049162
0.13777015703978857 12.825569853210162 1148.7589192997673 0.008597823531773095
0.15049238313825086 12.8241605784675 1148.6227857691626 0.009867106349383264
0.15997490316424645 12.813781975366068 1148.9119266041025 0.011797675229769834
0.14998168188839972 12.820943360607002 1148.7675975316945 0.004811338395482252
0.1573191283226201 12.811317731679814 1148.6004794438022 0.0022384862427012237
0.1576706312558392 12.820339142403112 1148.8423437793388 0.011741418388428832
0.1496438447690227 12.816968733093917 1148.8986923063453 0.014674845741407387
0.17229313280509298 12.813823644004906 1148.4744975113665 0.021902072490461163
0.1722280540838587 12.817359908092438 1148.4133606942592 0.002620044710734536
0.17899213278780762 12.806079886507318 1148.687786506193 0.008903508670297646
0.1880126609595403 12.810143949363805 1148.6417889429138 0.002618138307966789
0.16700437172311305 12.817691859725551 1148.5398402382257 0.0037849130360120818
0.17620068059702362 12.816767663582214 1148.619110626063 0.009031684070246767
0.19081072651089995 12.81512638439193 1148.7315913433317 0.013970533574774598
0.18726136060308463 12.814087262903891 1148.6508518501116 0.010430600285014902
0.17357199248565056 12.819291288534192 1148.8001609011812 0.012436137438416647
0.18685180929991832 12.813006876166135 1148.8273507885615 0.01132720583827294
0.1823246564306823 12.816298421925204 1148.549881133895 0.0030099252996638555
0.1623362402210692 12.820178527439824 1148.8637385531126 0.015230588619620814
0.16726982292350223 12.819419652604276 1148.644260613815 0.002469069751416224
0.1834868940405138 12.820688974325021 1148.9089919648122 0.0063132179944128414
0.17116915362855442 12.808625231027008 1148.8416573093384 0.00845686763045079
0.1629407922375728 12.824324624500997 1148.969735083832 0.008808156066350504
0.16847534638418965 12.816780365240367 1148.7287958610796 0.013335227607451481
0.17155048772182574 12.819267901282087 1148.8764296670306 0.01950228159034672
0.19064899843559047 12.816765882384551 1148.9701555836002 0.030458851948250862
0.16909845994576547 12.818163540802203 1148.7490632328656 0.004858065347145311
0.17078764364985832 12.815834519394487 1148.7212477725986 0.010841414957216322
0.21233683360812527 12.815413014594213 1148.3077556219416 0.010229094320039973
0.19112061985726334 12.815795342023167 1148.49546856791 0.010835687711807816
0.21457516606511037 12.806657042737347 1148.3968422477774 0.0016347123551062356
0.20642101107119512 12.81469645937075 1148.3114983351645 0.010997115116622562
0.19965011715273426 12.809705542015802 1148.387490892314 0.010229220675147494
0.20993345135329242 12.810376650045395 1148.3475675365628 0.008673743028729928
0.20145875928547935 12.808098183868097 1148.5764380945911 0.00761589143399494
0.22252599409780544 12.808684911602345 1148.5628378025758 0.005773566360866945
0.20990921716571342 12.805124495870423 1148.467716093763 0.011826021456067523
0.19620545183671564 12.817786516993554 1148.9074579296037 0.009681658081378762
0.19101326337354943 12.817040694238417 1148.8808500659618 0.005116055424407458
0.19509606539894594 12.803115811705096 1148.7100624975064 0.012939520102344443
0.19806620487015125 12.816509964839986 1148.791844957595 0.008752009313834588
0.2123349653129961 12.814999925343544 1148.9252483524942 0.008239875928305574
0.19230143419882792 12.817003101306994 1148.9601629832923 0.011926344712913175
0.21316122095834772 12.8042002858858 1148.742758629177 0.017776906810672507
0.21421954756863779 12.81413697847341 1148.8784879965663 0.009239218838499806
0.21198199965132547 12.807351760096905 1148.654108844278 0.0021475319190789235
0.21088309441226682 12.812839551886874 1148.6691010468385 0.010690065640260083
0.2087620393662925 12.808471891722565 1148.7940295314102 0.00756265913585898
0.2159203966755923 12.813041347026509 1148.8857653220466 0.009924668676718594
0.237088748606967 12.813755238050991 1148.9431335169418 0.009564926754021357
0.23750317854967193 12.804169903459295 1148.8363079914097 0.009601717376713047
0.24645076316107695 12.810109834354929 1148.8447726226689 0.020269841607899425
0.23549209134012086 12.803600732152766 1148.875366650218 0.009115751946327163
0.2307430870710694 12.80823516096808 1148.822642199362 0.010886404776449494
0.22455162116960156 12.80979170568183 1148.9128616759904 0.007374867409427749
0.22624637590861627 12.81108803800284 1148.728956866869 0.014453099972425873
0.23378046676762027 12.812688185861411 1148.8078181191827 0.010348008807108705
0.26652675772488216 12.810358937354358 1148.5563706861717 0.01208559670545814
0.26211543083510624 12.809697323091223 1148.5919389243086 0.003719495458090347
0.2676532558349086 12.807660609846245 1148.4059596627058 0.0004302845787355916
0.2732709269838178 12.812988088719477 1148.5791381644883 0.011983559397011049
0.2735227758383281 12.810266909446735 1148.4950088033897 0.004003514445365828
0.2696906772062975 12.804134277059115 1148.5203381458482 0.006002994383310301
0.2626431973268133 12.812561913419547 1148.537197957633 0.011842945745927234
0.2645427844492432 12.810413116605385 1148.4458677212576 0.0030025408830519663
0.27285906609588007 12.807791375168707 1148.3821660986637 0.00232803448182019
0.2694957191406285 12.808388304405577 1148.2988765636442 0.016601767266215612
0.2517940540049839 12.808436414119138 1148.7913832756972 0.004519493221234283
0.252485941685171 12.804722559666716 1148.7566088326748 0.006454639953236238
0.25905615053135006 12.811645771014806 1148.806703328398 0.009423919792042627
0.2473591286054106 12.813618182844664 1148.9647038785517 0.059451278188596524
0.2521952813975583 12.810944288629813 1148.7103339019845 0.010168889705046251
0.24636468054453903 12.809091350555455 1148.5952213499475 0.0049041840324437974
0.2589172391512364 12.814072798920481 1148.7237810818347 0.007857804131299247
0.27795714475494654 12.807555917341375 1148.9449895597916 0.008556674504727422
0.2650334959432366 12.806104563395342 1148.620805109232 0.010385528839275576
0.2745004632896725 12.81416807708558 1148.9235951605488 0.02706806313452259
0.2737470017259804 12.810526577412562 1148.590054418136 0.004478543359326118
0.257583456628714 12.800307306493819 1148.6627474647512 0.0030871489340342706
0.26859419082949176 12.809117827239392 1148.693821324013 0.005336330747490731
0.2930555394839722 12.815415853483048 1148.84612713017 0.0095976390685374
0.2821370569415526 12.810291671419204 1148.863732269676 0.029404109888719072
0.28381206383922225 12.811295059841054 1148.7078523883167 0.005951811173993808
0.29493029636624774 12.809914897228921 1148.7638660853145 0.0065851670749497515
0.282522682426116 12.812771928399998 1148.692060674722 0.004173602523676082
0.2838789781944628 12.806420353767262 1148.6656476406038 0.007640003372311449
0.30423348950605406 12.812668915592175 1148.710009498276 0.008554854039104286
0.29429742485872373 12.812068235205517 1148.6649719640197 0.010867239699931888
0.275269097549474 12.807130912276895 1148.9704306018689 0.014336957275248422
0.28923423581465696 12.813016996548802 1148.7862377680012 0.006858425554837026
0.27717909491735615 12.808775948572961 1148.7359067269279 0.004120981413929262
0.28474511620426574 12.812271609802355 1148.788527350355 0.015964665735007634
0.2921282613153929 12.809191806738927 1148.3673109390265 0.005365471996386373
0.3009451912811256 12.809444580392817 1148.4905800625859 0.006130124900929817
0.29696824029033536 12.815365089898961 1148.5599047099079 0.01288965040941488
0.2996259313361173 12.807676579665104 1148.5177867496107 0.007374010889891548
0.3009377710013529 12.815101679870176 1148.5749045640653 0.012795503217201316
0.30557063861287054 12.814942912971013 1148.3138333699283 0.0052160873710163855
0.3042195973990962 12.810644211999696 1148.3917424765555 0.004426421585322462
0.30469913787698627 12.810319406920776 1148.3886009000198 0.0021713206594394323
0.3153486659670142 12.812616492292415 1148.5326488228052 0.01949662052119
0.3224925967590586 12.814926326798343 1148.5209656273714 0.01447063101764575
0.3060651601871993 12.816463089071172 1148.5559802346809 0.02239395627633182
0.33275196624007386 12.805860898813393 1148.5430501544513 0.013795833482550635
0.3596457962711163 12.828693134683423 1148.783818002225 0.011737231256629007
0.3391620960616191 12.81671795759516 1148.7621225908947 0.021172888797872377
0.3550747698061682 12.821635938701043 1148.525864004715 0.009102327095183363
0.34150183260950534 12.823226335824224 1148.8510251731036 0.00404901880385988
0.3393579376429128 12.823603049856157 1148.6952367674903 0.013169509678726873
0.34002695251251364 12.822294186165534 1148.8071571473572 0.008828411333821756
0.3413922959206665 12.821851353023739 1148.6870400585572 0.01587507306235748
0.31712780460049694 12.819432839786318 1148.9596976759801 0.015519032871732265
0.32157771524365153 12.820339000325472 1148.962348321649 0.018314706780685367
0.33784862777850433 12.816360151635363 1148.6094019744266 0.00572659658047166
0.3345608325433962 12.820580107651878 1148.8100351306641 0.009198702616896554
0.3373128357948614 12.81568470700828 1148.589706116992 0.007508603169600633
0.3466226165081188 12.823833072342815 1148.8485603222293 0.005879867117325129
0.3259573187259325 12.81635756695569 1148.8473585125796 0.011976153653006224
0.35674207878969955 12.827088368838291 1148.4723609829935 0.00731204135156975
0.3545231904885172 12.826754640985207 1148.3811250249664 0.0026279763673564454
0.37221506349111966 12.829529666610153 1148.5045902368156 0.003385062436019187
0.38681874906375613 12.830759008685577 1148.5882135716597 0.002223998514865595
0.383305696910675 12.83271700290271 1148.5173719411898 0.0013674286947776707
0.38801546230498174 12.829577717228547 1148.459532598448 0.004398423842735331
0.38718599495715367 12.832473381234099 1148.3266942511257 0.004665672099463093
0.3908879125481333 12.837752635358184 1148.4978032793313 0.0057231310508635
0.410417593928939 12.840021603273511 1148.3365147350369 0.003440102995686283
0.39088755829372485 12.83845405708157 1148.48775670539 0.006336851997805505
0.3919484108955812 12.8351731493689 1148.3675964303509 0.002872307643297685
0.40220511547489946 12.840323605951257 1148.6130359101019 0.006437715325799387
0.3662336376076835 12.824942887841758 1148.9368211437588 0.007642494648940891
0.37280749529915097 12.831708241806641 1148.9538473410666 0.006652617787924704
0.3558489018724854 12.822707575486682 1148.9528512389177 0.007596791374665707
0.35606214765774424 12.821893745903203 1148.9164745065518 0.007131453780761021
0.3643371005166764 12.830156149411739 1148.7322311507098 0.021268226524234667
0.3587785699018681 12.825864645244051 1148.8478572243127 0.00633641380306863
0.3618734581464651 12.823179557417193 1148.874508200189 0.0026799830857444722
0.3674261521710896 12.826962365553102 1148.9193923612968 0.006747463918944688
0.3725466342143529 12.827469519869625 1148.9782472752051 0.04249043868870372
0.3665721535708886 12.826894563527151 1148.8924967325472 0.003128900997274467
0.35805579552008093 12.826304847140346 1148.974765018012 0.06411594859533783
0.38701662620372507 12.835418443449885 1148.7689122243764 0.0124147023080257
0.38018635118749733 12.830052367478912 1148.6424455488313 0.01169530217941596
0.38051277124912153 12.834086799355056 1148.7351680227287 0.019544734492397655
0.4021772871347262 12.831094333065991 1148.6408674662464 0.00456659296584368
0.3881276831676534 12.832397396713285 1148.8397674370383 0.0053973465463792785
0.4013708052017007 12.834760933197817 1148.795181864257 0.007137356518858023
0.39510105276122365 12.83655226416104 1148.8641199098236 0.0056884773372464035
0.4109354997497778 12.844715253402645 1148.6040993664153 0.0031967264948974034
0.4117522597730739 12.842827361802506 1148.4781282553804 0.0020029072269813273
0.41224000263367033 12.845132004791363 1148.3599035353193 0.0031243043521286757
0.4171832134420061 12.847237913719637 1148.492699272111 0.00784476654381272
0.41603424101701253 12.838012643054288 1148.5304267603667 0.004111059783441589
0.4200970797089342 12.844234814753696 1148.4289726594775 0.0025507855389929157
0.42717933543974895 12.852886765635693 1148.4845354211936 0.0057702758454320525
0.40602955218267905 12.840374284298035 1148.9877274723876 0.06796565589271487
0.41363147664645006 12.84263025573912 1148.7969734400303 0.013590975273241223
0.3988867261423885 12.84210029081729 1148.7280847500042 0.01541826647860599
0.4000881892540448 12.84004278144383 1148.9338133838826 0.006520250442552115
0.4227708257912415 12.846261261226873 1148.9576733133374 0.011915145862127515
0.4188054372203793 12.84787045012617 1148.8425981209289 0.004291601557156063
0.41159335558758864 12.840610626034609 1148.6759818534038 0.008040554112549943
0.41708126807769297 12.839792788516451 1148.7087374446094 0.007909266484185145
0.40910081413505384 12.84033445235547 1148.7621640532589 0.005620129426702184
0.44533912417915095 12.864255459161056 1148.3614264378705 0.0015152963010642948
0.4381431326356997 12.851221571745395 1148.5872090678997 0.0006984703864439269
0.43816203045129537 12.859518932455407 1148.4918824364745 0.0023961752127039594
0.435938284619937 12.856732420006757 1148.5265040358122 0.0040976488144723365
0.4552683876094255 12.868033012654493 1148.641797200485 0.0030308222796269703
0.43903676304761424 12.860939157389511 1148.5435888992213 0.008076612304223383
0.4306341519134074 12.849655160284646 1148.6363382140623 0.0025331824859392096
0.4264970577675895 12.850752813904487 1148.9722659131246 0.023186892660580095
0.43179144618040627 12.857493397455231 1148.7775558452624 0.008058554929962264
0.44506872267366177 12.862886698232874 1148.9762505551992 0.00274299159074545
0.4430062929168376 12.86319741659427 1148.8141991481339 0.01366398430197894
0.43709212132677583 12.855754888813609 1148.688061726734 0.003656060881036518
0.45124892406634853 12.86652781997862 1148.4690842823582 0.00428881271412031
0.4703445246285676 12.87450377558524 1148.35454340478 0.0038609548674077717
0.47229319638576184 12.872636649386683 1148.363159580434 0.002132283675246852
0.4521930685109711 12.858828778740397 1148.437322441948 0.0009704729432039608
0.4828786642915532 12.88734970461056 1148.4891311844008 0.0032865515076898675
0.4727811758263817 12.88010747891282 1148.4327422001973 0.0042977556745830104
0.4829074565968058 12.886569480702576 1148.5265901976313 0.0012286362274651838
0.4811191549029182 12.889386442100543 1148.5013076263162 0.0018302882245865156
0.4608494186157525 12.871367868529028 1148.4868533446413 0.0025608977482576884
0.4705994935705707 12.880881653126623 1148.4961466089198 0.002891090384994039
0.46896947500980357 12.874456564505364 1148.48584520248 0.0012840319071301858
0.46016713265341247 12.874428652505417 1148.5102327381933 0.003091723239668934
0.4713701068797458 12.871643936359183 1148.5977009511105 0.0012413542304568121
0.44885762153309994 12.861916542525481 1148.9122924016722 0.0032288042079344427
0.4542377774100091 12.865574618044583 1148.8544886089833 0.0017767918784443227
0.4395602481091807 12.859044222994479 1148.955622135491 0.006416324125888466
0.4761220522382261 12.881485420678887 1148.689962211179 0.0032029903849243187
0.4693130496333265 12.877274763190748 1148.7436145015988 0.007515822888502997
0.4664471787476363 12.875040642930754 1148.6684131191878 0.008436813455644376
0.4554026559553038 12.865962108483773 1148.899398896244 0.0051813163350187975
0.4776024400771228 12.877676669253853 1148.7202320565184 0.011928324210191623
0.47661059567692826 12.868589092972044 1148.8024958098952 0.017448496139055625
0.4641815033624756 12.876010073357651 1148.9061331677833 0.0027570442799978454
0.47283292278694006 12.872045409892625 1148.844562226413 0.007978387536825208
0.47746430131657774 12.880762860059622 1148.69721899929 0.002920112709120442
0.4769318564797332 12.886264319478656 1148.9180434713844 0.002494186924749505
0.48008637541107146 12.887356429059352 1148.9854111213601 0.002411111583721674
0.022151258227004998 12.880222323484016 1148.3384414363404 0.010116231342985895
0.02075422330730814 12.885450055929809 1148.3998596187264 0.0042189436177284476
0.027996274646264314 12.877154705435668 1148.50779223462 0.009537750406164013
0.017945879197627298 12.889963394511565 1148.7284326377178 0.02975974248494931
0.023238091387769895 12.884607469516807 1148.5621635308494 0.0055094818133016
0.014154754865927375 12.894950684189117 1148.4018333521285 0.02610756196269643
0.005830069868629612 12.907443900089097 1148.6295312456036 0.019400693384521973
-0.0006191159003967051 12.906040538713178 1148.70177049494 0.024100658088120643
0.00836159262596732 12.898150773507034 1148.529495446672 0.02359701568695983
0.009278176456821538 12.903143159326165 1148.6589631939626 0.018381664132821576
0.005356391634764745 12.892035715790959 1148.5051888990015 0.02166704404187487
0.009256246871984572 12.889652671141883 1148.4462695868626 0.02177728555085361
0.014858137035788983 12.886839046508781 1148.693275797943 0.00957020969352903
0.00773077206574843 12.898645769644611 1148.8864191417388 0.011885417407139335
0.015080703702201728 12.89012117022429 1148.857967636053 0.01072271111335213
0.007912348352371057 12.891868506128835 1148.9325947831237 0.01981708666033336
0.021859492677340168 12.887685889874033 1148.8860900012116 0.010063759101714271
0.02845430467559546 12.875920984261422 1148.7625360980874 0.004274135915818516
0.016612380519562656 12.883774264653495 1148.9811843969255 0.010322063950392717
0.1604984876328065 12.820733233801265 1148.3501956392063 0.0029512464181780953
0.16626181864173784 12.814817635429891 1148.3184391039053 0.008505544383722035
0.1579903497769974 12.820990885184724 1148.402449963417 0.002988086960178145
0.24271002739868058 12.804502758100261 1148.3985851056225 0.002533122492729769
0.2505321551536532 12.810207781730409 1148.5745536576953 0.01064496634530901
0.23970432518201226 12.811382393810632 1148.3318850722528 0.010830192106090174
0.2591390991045386 12.805125283661148 1148.3933544144961 0.0032051783140136115
0.24642202977302421 12.812985781898345 1148.342125956364 0.006141096668508187
0.25500859422541383 12.80691839466751 1148.4313012649072 0.0019041816605664223
0.24028611552902168 12.80927440718024 1148.5185859351452 0.005275050232722255
0.3359741401185735 12.821860990507819 1148.3591911726617 0.009723985954059686
0.33550200511156575 12.821904694081901 1148.3501608771617 0.009079761494954652
0.3266445493966109 12.815755223335668 1148.3812015354722 0.001664636875612416
0.48995520715005536 12.887566303379737 1148.8023056936001 0.027405157894859363
0.5020873211038777 12.901562503912242 1148.4746085294908 0.0025940989359863704
0.4999371558112125 12.89753414212866 1148.578799575238 0.0004242108697516647
0.49340161527536036 12.89330279396884 1148.813919040247 0.022157659034073775
0.5005401338811766 12.90378237191715 1148.9525196653879 0.009140412486027349
0.49781961960107934 12.90169000704669 1148.9235478908306 0.006004063551609851
0.4991562024812987 12.8961089469561 1148.4225561548628 0.01378365096977875
0.496174079990653 12.889842159263496 1148.8695238350758 0.0034357639142359544
0.4811479844255318 12.886071572301738 1148.9031099601968 0.005240682956656813
0.481260395583715 12.885622483209549 1148.9727193130054 0.0045940786683396065
0.4877120155675883 12.891059919368168 1148.8818646049776 0.010120938972738113
0.4836833670265873 12.889514768494022 1148.5604775293252 0.0034606380596609566
0.4998401881362115 12.902072252070978 1148.765825079982 0.020480109371600982
0.5069106381202194 12.916530418626797 1148.630124777057 0.0004474722731489518
0.49999879306140943 12.90292158990417 1148.7844756923996 0.0036782285285026756
0.5063392027466113 12.912599397471874 1148.425907953683 0.000447774956481984
0.49914937971743334 12.899330452041903 1149.0077831047493 0.1373852190711562
0.49806415106656193 12.900479934661277 1148.6469520570147 2.859575468201067e-06
0.5064816757754099 13.086591079948994 1148.5762290868568 0.00147394327402117
0.5057430167805959 13.097781804597597 1148.5334387563428 0.002152679226050729
0.507081823710316 13.099898185079867 1148.3990051728179 -2.2881774435302137e-09
0.4580333300052948 13.134146646986569 1148.5356209657018 0.007906374946939389
0.46219267266846403 13.128707984552525 1148.4368764161866 0.004740846810027192
0.45688052115907546 13.138906928456995 1148.39916047356 6.686013093017688e-05
0.46602320214243703 13.124653068050437 1148.5538856917437 0.003889920496121361
0.4701200962907558 13.124957159491121 1148.352816876875 0.0013364710027427664
0.4672889439615139 13.12740330684173 1148.4874610982924 0.003068309180842963
0.4687397149952026 13.126076356542733 1148.4611307103796 0.0018826912016792602
0.4558538715435611 13.133331535858945 1148.6162856734475 0.007031458084564853
0.46886038410030917 13.130841893251564 1148.8411361370424 0.0005348961961542149
0.45364066824584764 13.135343233896847 1148.7434683930323 0.0035734827710520714
0.4657175006636383 13.126807253508186 1148.8885987270144 0.0009217601909068251
0.49711419305667476 13.113011017623679 1148.7831297487 0.005236994209304152
0.4879826979690567 13.116438475486099 1148.6662659616172 0.014355544984183436
0.4918091963268111 13.112793605252742 1148.8362084198636 0.017560770574044114
0.4623222914689975 13.13164776709077 1148.9139569238932 0.004914568355509192
0.48530959241631244 13.112583526614019 1148.9606870548475 0.005336510511471084
0.4619327359756552 13.131033730165655 1148.978939080767 0.001565349947571109
0.4770776256968763 13.122188841905869 1148.8822133115382 0.005506407771112529
0.45196542802918643 13.134625659181566 1148.6614772826217 0.009398720582780181
0.435155904318707 13.148087909779676 1148.624636465528 0.005970772529952333
0.4506412817573634 13.145619396698471 1148.7929804355456 0.007233382421413821
0.44048845641824 13.142633897326538 1148.6015414229382 0.007333412485850076
0.43698220831093926 13.143679778358473 1148.7567710471565 0.006721916359696743
0.4513250422542602 13.133602845144278 1148.9478424756946 0.004074748269964176
0.4559539287965344 13.13859089082129 1148.766737383652 0.006684272038435308
0.45775045336808556 13.132600532613331 1148.9654302944227 0.01076672888856699
0.44382592527830445 13.14088218712808 1148.9372425741176 0.006275172157241092
0.3784382788460656 13.166393178584311 1148.7338847462042 0.01313551339904151
0.3986388613346634 13.167748877635743 1148.9629167577398 0.005705441174850028
0.383531534244753 13.168796290345147 1148.971211795166 0.021924042895343488
0.39739491539510724 13.165957197160159 1148.868992902692 0.005406146098424052
0.3870998035752993 13.16215888834033 1148.6566869645837 0.004500879441168318
0.3824969112577824 13.16945604279027 1148.8523490710086 0.010437274758535203
0.39232307686651163 13.17201637634223 1148.9503030506019 0.013046069253719471
0.3841568980890512 13.171366347064795 1148.980229734938 0.030191065560548104
0.3744447069532981 13.177089469790804 1148.8958394374836 0.0033159551483805593
0.3619618497645064 13.179800644198552 1148.8504518900104 0.006973626171467934
0.3799087434713867 13.170222249147253 1148.5625357033869 0.01224941258976196
0.355617305735155 13.175169942214495 1148.7273337683373 0.006856420225382862
0.3554152782236405 13.180366797583945 1148.9119478323612 0.01260189776019651
0.3657854005607926 13.174051905741651 1148.5906603147923 0.006660265668186138
0.3695710260081308 13.17376403916113 1148.680546922933 0.001754523999201393
0.3410595750807835 13.178948080444055 1148.960096677684 0.04384526410643533
0.35185819094732784 13.182135050722108 1148.5888022327968 0.006920139058774902
0.35021195680221323 13.177081201757563 1148.5395019491616 0.005584232724821254
0.3650377108980789 13.17196868517451 1148.6643866115949 0.005130763232889929
0.35502255632750196 13.180078914652603 1148.4738918011865 0.0009863657992488757
0.36081797592257164 13.184410341896891 1148.400822214191 0.007041693721323001
0.3364383563204608 13.183516363514304 1148.8511655972445 0.01160924957312087
0.3381863386053022 13.186945895573203 1148.7407439807885 0.006019950537906521
0.3488607111593871 13.178696152846216 1148.3683878227976 0.0024769773063374047
0.34559027012855653 13.180511933813118 1148.618134982116 0.0056827552227112395
0.3539828119673766 13.184394988716363 1148.5178390149433 0.003548591619656995
0.339674739220992 13.183283570622692 1148.6108515642636 0.005727375235296633
0.3391221509937116 13.185145978113592 1148.636324008617 0.011159149211052913
0.33477447977419494 13.176917835812269 1148.7913607309897 0.005345240101348415
0.3169275282397315 13.188249966673258 1148.9619185788042 0.043577962584637496
0.3204278983787647 13.191945912700984 1148.4535020184942 0.0024138148945548415
0.31046183780210385 13.181875123857784 1148.8604313653595 0.009724726971402057
0.3231013181742236 13.183127380124144 1148.7427701143436 0.015154537742496338
0.31745656983872955 13.185015677434412 1148.754609754943 0.011464762379350754
0.30667377933385165 13.192529207017799 1148.9794602816253 0.06009604209338683
0.3127413456795291 13.187066876969823 1148.728340616443 0.013057613601013037
0.3176200691742782 13.19112698424645 1148.6477925719832 0.023204275989961866
0.3258095493775596 13.187243803370551 1148.8426623098374 0.005243900349659242
0.3200200959967186 13.18853214385231 1148.8241079521065 0.009524193815340214
0.3156951318044247 13.188741149709319 1148.9013866422454 0.007453731792832725
0.31030792945198604 13.185050321383693 1148.7073336991004 0.008537844738319984
0.31364732448875904 13.189730863602039 1148.9444888592207 0.0177229698769956
0.2982613090092044 13.198648596021968 1148.5647559006784 0.004617412966067147
0.29804060234298796 13.187951203050956 1148.7807712797485 0.009677283641338715
0.28423633072047394 13.193955514422615 1148.7968679630583 0.012889732475924204
0.289914747090431 13.191504955656786 1148.8967386202903 0.006111718897183188
0.2907266989136962 13.192607380370442 1148.8839394270324 0.00618909681875933
0.2886340389543927 13.18820730187608 1148.6740354859676 0.010376788346315271
0.2967620178366073 13.193792002613053 1148.691643207899 0.009879418292525928
0.27082901579199925 13.198745588037216 1148.6487097421407 0.0173530897217098
0.26948325468740236 13.19155329717544 1148.840111868932 0.009902122851052606
0.2618614264910393 13.189535950341655 1148.3487727934817 0.003987008171464819
0.25612201615269575 13.201513277878036 1148.824199783448 0.01087370773210511
0.2531910034270554 13.191522763085125 1148.899675294698 0.009010984185014925
0.2645022768602655 13.1971524916044 1148.648757408228 0.018146811339135652
0.2502398107073927 13.18965032669092 1148.954369622802 0.017949398299919306
0.2581377468468256 13.1990400115761 1148.4103916721479 0.002227298654819334
0.22280487079579234 13.188278211636675 1148.5457268230462 0.0029092184989436224
0.23435603072406824 13.192011582941344 1148.7160354898938 0.012133216478091484
0.230250845389791 13.192333681644644 1148.587392425156 0.0070171564641365435
0.21973315198852558 13.192376886629855 1148.438971038231 0.0024850065143126117
0.22503918569385753 13.195143783756977 1148.3798298460517 0.005102548062342596
0.22899586106844183 13.189508839379858 1148.6764356694584 0.006008085413615539
0.22675633747751534 13.186374708729874 1148.8530989776668 0.009681549904575598
0.22342298956928794 13.189208499568924 1148.5208876029144 0.0025643180980836782
0.23514988378494173 13.1985310614156 1148.4100398214327 0.006206800056055808
0.21141223829111316 13.189197211964258 1148.495009870407 0.0035473192995659182
0.19624336676947066 13.18628147531478 1148.8789321706413 0.009725586491614823
0.20675305090203788 13.188990813372566 1148.6682373398166 0.014642350719138497
0.2103484375092331 13.194635446075072 1148.7374706735545 0.009930417043868836
0.19553368421591674 13.187914370225789 1148.7857335530468 0.003331251644282583
0.2198776265850292 13.194113210726643 1148.9362919724413 0.005343631072994416
0.2180546623479206 13.194031612866027 1148.677574085163 0.006394973443221914
0.22370781723706556 13.187814700200825 1148.4858083103309 0.0021432076170878086
0.17450665628711745 13.180763876205576 1148.8391189196832 0.007980900699374491
0.16040937577872078 13.17883829034296 1148.776696037377 0.008021981395879646
0.16873782278836266 13.186202003353733 1148.5117027905083 0.0047364996687272445
0.16810243974238612 13.180082763289127 1148.7430784248522 0.008208153093286508
0.17301928497498514 13.185038789982205 1148.5156780642913 0.005672240835894936
0.17638486234747666 13.189077328595596 1148.4759492982905 0.0028871686331905524
0.16495501141113833 13.18276532190207 1148.3822181793475 0.0032410117709163267
0.1656746705644463 13.187646095744107 1148.5964276007326 0.006992563871371307
0.17398200317654275 13.182358436001081 1148.3513310206388 0.0014869908106217538
0.14975924848756456 13.181517450319165 1148.48490697224 0.004069897969599247
0.1461454294779445 13.181417096026644 1148.4287280982858 0.00917076105198856
0.1462147392945742 13.182624375085782 1148.3280246844113 0.0018044726406824107
0.15005118379261978 13.18193952281819 1148.6136138938102 0.005334084192583988
0.13629758999376868 13.172262166246384 1148.971597156547 0.012039516932450147
0.1594587620492949 13.180926999442901 1148.9487349015471 0.011974357546470393
0.1537971315376259 13.173740701031623 1148.5634951107115 0.013183464028645958
0.13388460907514332 13.184945410675633 1148.8015725200016 0.0052443209608165975
0.13009840739759082 13.1686598719875 1148.9793778810879 0.02716660414414625
0.13623721048633233 13.176472859663907 1148.907699733928 0.0065365287528527305
0.11077480759178394 13.165224063299393 1148.9321622889956 0.009452408015724861
0.11846827938791692 13.165697055750517 1148.512026454398 0.005091503882880205
0.11711263500744672 13.17076218963451 1148.8620884468844 0.0043289971402618215
0.12292244755111302 13.170621116899852 1148.9050304573634 0.007611960253748711
0.11981922814759301 13.167528483006427 1148.487313389196 0.005470365363966029
0.11218551876728006 13.17260825154186 1148.9179430886704 0.0032015753652894826
0.1016659377974945 13.164998327232599 1148.741680073886 0.009842778915520947
0.09160927033961537 13.158332269724573 1148.7360751061124 0.0015554501634096694
0.1007924416389131 13.160704923713165 1148.5434599459663 0.01296803991847281
0.09157841014693244 13.154168640394698 1148.900672123419 0.009964872814198665
0.0987777553717966 13.161288042518581 1148.7943708556109 0.00449578295537955
0.09465396712516243 13.15913522728129 1148.3878751484538 0.0032733597297825217
0.10069033904338003 13.160872901066186 1148.3935204420718 0.002707022056121012
0.10707784466318009 13.162868894255865 1148.5377087608013 0.008480361104141673
0.10329924247740076 13.167225717718281 1148.7047594502556 0.0023025919837967868
0.110162890928384 13.165308588421244 1148.8998289002839 0.007291337396292307
0.11432215418703584 13.167146169764317 1148.5809936238675 0.009445593615951122
0.10322877731937662 13.160926952801779 1148.811795979715 0.007916754058477655
0.10024650877860752 13.162501265099959 1148.867542438484 0.002924947953407538
0.10219571901156713 13.160577708986958 1148.8518790858493 0.009134363058328238
0.0936375119915911 13.16154301975756 1148.8232539163184 0.004676322972939701
0.07324579445418289 13.14175028589732 1148.9345006260796 0.004725939734642832
0.06114265408058724 13.13835721699434 1148.8157020235155 0.006078259557637063
0.06419097609561136 13.144758823517265 1148.8538199817167 0.005205270135260089
0.058220502217656796 13.140305815203853 1148.6250838007807 0.0030665033214192163
0.06679153167301025 13.147847567213597 1148.9113682574252 0.004708159034683699
0.06648717857994671 13.148402773220893 1148.6069353417106 0.0033231666270903803
0.054060107041647376 13.143294819947833 1148.5319363846893 0.0006905839313704641
0.07805483653146911 13.152549557869849 1148.403433035749 0.001922729586945243
0.08322651597511248 13.155335131066227 1148.6886072985676 0.007306580498878647
0.0688825882835495 13.145253778500868 1148.5167210410634 0.0063425835462629495
0.07207667172008976 13.152094017586666 1148.7239656732227 0.0016135714315204817
0.07442906322203693 13.157905837087153 1148.4647446444558 0.0011951131414961599
0.06908791265956771 13.1442926733361 1148.3704315307489 0.003223662902921367
0.07389679044613487 13.152574005638769 1148.319561510044 0.006191579330506417
0.07842920553800993 13.147927501200988 1148.5040392478209 0.004928038851969888
0.07388791345057842 13.152222629840727 1148.4423783557975 0.0058694826618210785
0.06543238502436938 13.142138695454706 1148.9540825383392 0.00860195277750342
0.033943812035218277 13.125636220938048 1148.3826113027073 0.01884638157173869
0.0550539875930704 13.141078104123073 1148.3151691579612 0.007574587927299841
0.043538038703563965 13.131226096331856 1148.482191543025 0.0013452527949380513
0.04194082981000255 13.134353714432219 1148.430182312038 0.001916853911263806
0.06002470001134196 13.140906950773513 1148.3663199167381 0.008644632402679623
0.052451089189309255 13.134549474237968 1148.7019936279721 0.000900396716178896
0.0400790197159991 13.128449479678972 1148.6982090131085 0.0010825603781236973
0.035829081419428976 13.125188112853886 1148.5674608196837 0.007056948360906265
0.04383112308432281 13.12743187422108 1148.5853707234317 0.004272574669887244
0.026090363740748156 13.121056582767276 1148.7348798446903 0.02500021072937882
0.047135841857209225 13.135411145591572 1148.759706372445 0.002706881142826134
0.03462233436520808 13.135272409961141 1148.7851128872492 0.002208778228606039
0.027883236513160554 13.11985293999288 1148.873281848114 0.013540170848969744
0.04965991615371331 13.132861861502109 1148.806921188923 0.008774862974935908
0.014216269440996618 13.10648252555072 1148.9995697123493 0.06084785932492952
0.019552818405179473 13.109946134965783 1148.9852076176494 0.022676420690842157
0.49965188458478976 13.099715555949285 1148.3351955757275 0.0016755388132714006
0.49777683527265953 13.100797067646244 1148.6338200324524 0.019215871823105427
0.4995171215244713 13.098700861231666 1148.5856204920026 0.010109601081191535
0.4902696776840976 13.11028976123506 1148.5739426416576 0.011795038680214974
0.49482317961093963 13.104394942046477 1148.360379036967 0.0005176651006525788
0.4813646126355468 13.111761841072745 1148.4332333945574 0.00022444446788771685
0.4774580603376647 13.117464406062243 1148.5441924561462 0.0029267942445036356
0.4714075763918558 13.120486092986836 1148.6118172705853 0.019417526784417848
0.4828146473057755 13.117655572075227 1148.5583503151202 0.0019100179304441603
0.5000921456869057 13.093218003954894 1148.972030566586 0.0062063200064125836
0.5016169791204593 13.094688139727783 1148.9214771658403 0.005559690255499065
0.49714336219574884 13.103261085653454 1148.9388960171786 0.002446189488963083
0.49444180443390945 13.108331956775274 1148.825319313737 0.017989851963890306
0.4976963014221709 13.105374692746961 1148.8776751521582 0.004778171365397101
0.31050216765379723 13.182995033457717 1148.2963605547848 0.012930434555063455
0.29060115183287283 13.192393344241804 1148.355271096353 0.0035367705329872115
0.26681748118036447 13.19791929130067 1148.2981398274349 0.005690923355820599
0.2772386782612697 13.18982104435494 1148.35252730173 0.003402799970409438
0.25666981502791464 13.190625433957669 1148.3405001503693 0.004735121522657881
0.26312832241486156 13.18892028612308 1148.344544973766 0.003758374861505572
0.27672756282676814 13.189735986177327 1148.3311338493302 0.005339412776141236
0.24481675678906442 13.191666608634582 1148.3142017386162 0.003511196892887512
0.1299875364087441 13.172844321475218 1148.3289433498646 0.016481002979120075
0.009813835754817042 13.104058764503785 1148.3305941170306 0.00682612842910603
0.01061588137332006 13.119780374034375 1148.4166524402347 0.003445424305445649
0.027375409019820905 13.12308010759658 1148.5998123229203 0.005364900781019701
0.027610343429671714 13.119263891772633 1148.4477182439127 0.008921786318546832
0.004947881840756069 13.092785634563487 1148.516428196699 0.005802102807496161
0.012318449547763793 13.106898261329755 1148.6233481620359 0.01601417768378705
0.006519107549530832 13.103111945748552 1148.516503745371 0.001367649150449513
0.014963782801627877 13.113888507574769 1148.5914921893602 0.017527020851506817
0.004285533761944902 13.1056035551396 1148.9414451435152 0.050663378344620986
0.0006500951515401986 13.097456785643871 1148.9276169920886 0.043809405600243385
0.003680782340323459 13.018204949464304 1148.296754677273 0.0034972942807607386
0.009645246085346466 12.99236405184316 1148.2910124591267 0.005051873343888205
0.007885200314392353 12.92383801980233 1148.2803307312788 0.0027036015008514267
0.3928154561102715 13.172677693744568 1148.2960924832846 0.0017008009305447909
0.22521404067111286 12.814404008355082 1148.2973483978935 0.011354344943330163
0.2952897797803134 13.190403575786029 1148.295828940812 0.018482633767397852
0.49145558012522145 12.894487786042383 1148.2936542436748 
0.19542626717413628 12.808157928583604 1148.610858185501 0.007285647926903286
0.19447620242321056 12.808079854875883 1148.8571369557712 0.010179102163249652
0.20465133855301992 12.807273876304132 1148.628752065969 0.005994266416389402
0.203182238660778 12.816301096051545 1148.82539903366 0.009395720009800209
0.19123730863241606 12.818402991040733 1148.8929623933504 0.011954570913703487
0.23981294594455985 12.807348957645296 1148.9016194755122 0.00938768430151593
0.23352613369475278 12.810901251179049 1148.8148076636546 0.010868829982006395
0.22845966190800912 12.809881138541325 1148.958914527597 0.011493229290996238
0.22534842131262564 12.811092667931534 1148.934675847125 0.014602396278199793
0.23648085994564616 12.813436665554116 1148.920025467939 0.009501284100869997
0.23176380487994108 12.808295279351727 1148.9117877602544 0.007733539929239201
0.23902176928975202 12.813317775262052 1148.7203473316004 0.010389190002825843
0.28411254640486716 12.806370686221033 1148.6278609041708 0.012745949098842248
0.2959553281175178 12.813082689329427 1148.6170239024786 0.005821150755345841
0.2868917745952383 12.80895267596058 1148.5003111589126 0.008584159625149518
0.28205793193426015 12.803506228882814 1148.468808328696 0.0027690381422523307
0.28820045712301695 12.815495181343639 1148.5649560212892 0.010441082558494514
0.28679509967754696 12.80897737351867 1148.910404249005 0.02886159707645144
0.2852761858388039 12.811181758222096 1148.9477178359948 0.008051584376432884
0.3236409197102941 12.815179497837418 1148.2993986558329 0.014111985494048695
0.3249222589939977 12.81996883293085 1148.59118840316 0.008890065361939991
0.32439192784886445 12.80985458657195 1148.4235040941285 0.0009543470135743947
0.3472327138001923 12.824412339653179 1148.3730226526814 0.005517007909064812
0.35385620782693084 12.819188328682626 1148.6145209617139 0.005471085951568051
0.3513366483829377 12.818580156722215 1148.4958793650187 0.004768270528740974
0.35428955821411945 12.81732771054034 1148.5572156148382 0.013901590065682106
0.4471692058556935 12.861874666563127 1148.4150026685431 0.005955082286179003
0.4479529901584008 12.863088531623127 1148.3975176771125 0.003170318750581159
0.44515379373188185 12.860134511440053 1148.5643249244604 0.004141159367851637
0.4316477372353384 13.159131161315331 1148.8893806558817 0.004096939595909566
0.4358667067418169 13.153721309275243 1148.6899944236452 0.003988488517290172
0.4317055530655452 13.154484055377042 1148.925752736096 0.012427035582021297
0.4235647635523392 13.152811698512146 1148.9317608832373 0.008660358174765903
0.43837462415854916 13.144823197084268 1148.5725962875852 0.006163854652718925
0.4331293070457285 13.152205737520475 1148.8336617996504 0.0012491461115697571
0.41042630822184334 13.157621549114499 1148.9256055546934 0.004002965377661966
0.4134134292492682 13.155910195996087 1148.8976980453208 0.008873307972431741
0.4056563300387686 13.168359996784385 1148.7643903540018 0.016257371765733077
0.4067108495216133 13.161362804985849 1148.8942688421146 0.00938879594624209
0.4181092485615105 13.155778789044302 1148.9202358512632 0.011573700303938972
0.3314420945943524 13.184567933452081 1148.683558793304 0.01232508041140659
0.3320240867186478 13.185282920312693 1148.8109653816357 0.011127013748917145
0.3396007814216056 13.18147467106558 1148.5685207292233 0.006668006583273412
0.35336933845366747 13.180962220892088 1148.4948267889083 0.004010046100842417
0.34490477386375823 13.182903328182348 1148.6101463293867 0.006172538254529779
0.2865081123860271 13.191921078766962 1148.4646021504338 0.00384843704007405
0.28727483463665704 13.188136552365604 1148.8595107609688 0.006824517317340722
0.27894716155723326 13.189748116548142 1148.880926999772 0.011335823956397853
0.29361266075754444 13.194336638499585 1148.9738183765564 0.05227935291922027
0.2827215506967397 13.193732251061304 1148.7675230396776 0.006507047244452502
0.2854904172940847 13.196431361733246 1148.5979654893667 0.00959894488922414
0.2952406084343733 13.19524590458765 1148.7264777288306 0.004340894070067441
0.293939071930122 13.195371332844552 1148.930359598403 0.004400185827360683
0.28493535084216304 13.193216290737476 1148.6955250326585 0.013909291193276841
0.2882346038297353 13.187088758928326 1148.3909005414455 0.007160355155657876
0.3012155046989409 13.193579782827532 1148.5049450697861 0.0019286990688991178
