x y z curv
0.5051857948955667 0.3398055107507777 1475.0600519379122 0.0028895746485844164
0.47882400113944784 0.3689024277373051 1475.1699012697716 0.005124927137132003
0.4827144962976639 0.3807625104597366 1475.0098113106997 0.004720476188824351
0.46994593988162475 0.39648123574488514 1475.108093404915 0.0069815597449505405
0.453411414044031 0.40660059480759425 1475.2022136841981 0.005312346381666735
0.48324260550399073 0.3680736287354361 1475.1215205470137 0.004653553234159935
0.5161335946466751 0.31244572193142384 1475.1314892778207 0.007575043482091576
0.47626728052480605 0.37771555804901186 1475.0794283426399 0.003270784962159805
0.4926000343624257 0.34623801175085067 1475.199742324317 0.0018270981487440144
0.506955581857897 0.33277193351374035 1475.1687247283046 0.0034811417534812866
0.452039235691765 0.43092907598959196 1475.158275148032 0.013456634191200597
0.5091185347645748 0.34476266910206704 1475.013355158661 0.00728310773489354
0.4821366993501665 0.3752309997001608 1475.042304090629 0.008005037012545636
0.46236295380137094 0.38707608846260644 1475.1352003929624 0.013258876635229372
0.45322617997073456 0.417538775330118 1475.071231972211 0.004621572615477576
0.46631518496877383 0.39237039986634387 1475.066783173825 0.0018320163293421344
0.4806145532835628 0.37739073074609997 1474.9462684101309 0.006249142289085614
0.4215990649979595 0.45067879054594423 1475.2272233523747 0.0020285265100419975
0.4627235393643511 0.38115497819119415 1475.2115538094104 0.002275274843262838
0.46648284946868385 0.40179451208573336 1475.0471629555689 0.0015969948861909375
0.5341308839378309 0.2500279245282096 1475.2651532062064 0.01102223061533611
0.4743646036453432 0.3667294215612885 1475.1486653319782 0.008732754066237516
0.5170229453960957 0.2947516669089195 1475.1437605378644 0.009389772293080594
0.4427226877302175 0.4164477893230221 1475.265282359351 0.009194760155281324
0.5312532288106887 0.263840892751106 1475.2543657099673 0.006801396567192894
0.4648033491371449 0.3806644515304598 1475.1377006736404 0.010575081694541574
0.4946161166698626 0.3301943906803233 1475.240368899262 0.0010960541428132633
0.45647346087524776 0.40766743055803384 1475.1771097177757 0.013136857209194254
0.4719615197546467 0.37548657104783945 1475.1936310919505 0.0037025663635825174
0.4300305139012967 0.4458424939591041 1475.272762664079 0.001936271583500857
0.4946648372626081 0.36239715701865316 1474.9194610340041 0.00892651140851625
0.4893926696343177 0.36698646518144074 1475.0582602955774 0.00319705608200133
0.5058928347688494 0.3115313560851135 1475.2434329175137 0.0035019223058565157
0.47973983597253855 0.35832381322310175 1475.2358418811646 0.0015210252962666413
0.5099925802514761 0.32415143695296694 1475.0790810655324 0.0138056655729193
0.5287085712959761 0.2840973756545046 1475.2619409626693 0.005396904484338395
0.5039254182739646 0.3340540783357929 1475.1975933475806 0.002920808543571239
0.488410229581459 0.36075938685900694 1474.9403696596853 0.004721689779417049
0.44966902415253107 0.4107601708220468 1475.1437965110165 0.010480059200556315
0.5053714007144806 0.3223066329492289 1475.1086297273307 0.010020170527527083
0.49113897116707894 0.38101949904733906 1474.9122027358403 0.0033136806851875476
0.5230804611325053 0.292027159258676 1475.1809519784167 0.002009759092694421
0.452163618599338 0.404816460696126 1475.2464514207566 0.017040058133363928
0.509285214554696 0.3051856917610531 1475.2025709854051 0.009759181593332129
0.4173899595618911 0.45349795558024636 1475.253927764577 0.005329466119890489
0.48610184819619595 0.3687126327045837 1474.964863539668 0.004268321863105061
0.5100935659084276 0.30606000081532403 1475.2220172160546 0.011208514661933702
0.4888338634892483 0.347136102009143 1475.2116794716208 0.002911853596530308
0.44588356114018796 0.42483877706848383 1475.232545532081 0.004824279126873163
0.47598590139822083 0.3805643232678174 1474.9724132994158 0.0041435212696003185
0.5079038094272186 0.3076873618663789 1475.250741332081 0.0024570151453643728
0.498351706968677 0.34966828515981263 1474.9549350669836 0.0048490231593547916
0.5019832917091752 0.3216131080768068 1475.2574812196278 0.0008592186799527426
0.5190765106023433 0.28942072694774823 1475.1685197917 0.006375322032532195
0.4865909872641546 0.3445380408544996 1475.223121508394 0.0030591621888047243
0.5001443831392309 0.3392931721655205 1475.1332150921187 0.007291380972554653
0.37812202492446667 0.5034695918436887 1474.9096057540903 -6.219523181337154e-09
0.37485238427562234 0.5047014438461069 1475.0215464450457 0.00337706511719565
0.4173664526624661 0.47329678511201345 1474.8570455086517 -4.288111527720123e-08
0.3640318559355023 0.5130773382273911 1474.9287707151263 2.8540551243720037e-11
0.35258084406538237 0.5210682417198965 1474.9659436443244 
0.3856780940834694 0.4985121004680983 1475.02182595006 0.0009350706599249344
0.3849383937804725 0.4976302203770963 1474.9724667295284 
0.35625747558046367 0.5174026765913846 1474.8945144833 0.004020003667793543
0.3665433406617742 0.5043343651849946 1474.8638346737998 0.0002479652649374039
0.37338345677859214 0.5023801933188438 1474.8827143440901 0.00027391435008520756
0.33597085104790503 0.5337336461389216 1474.8857855110618 0.0009361691641841026
0.4681253027328274 0.3838179357067188 1475.360792028642 0.01217211498892103
0.48685587214750514 0.36387710392013867 1475.5546723203772 0.008472530730889164
0.510041587957287 0.31102267694358915 1475.3115389288548 0.002594892272654793
0.5086848262229047 0.3366890586059733 1475.394346769016 0.0019533987457109286
0.43156295082773777 0.44274983394741174 1475.344775899615 0.00023256120496908795
0.47732116079963816 0.37932711774795586 1475.502545182062 0.002492356554493169
0.49576166409250705 0.32957751112324324 1475.4434365610557 0.008001585086376727
0.4490439482525671 0.41592447046328523 1475.398355822866 0.005780991408085536
0.5014896140382994 0.347312247168569 1475.5566505630063 0.0031757656890852837
0.5279314352384987 0.26553413072921306 1475.3179769934882 0.006085413056950665
0.480919131484979 0.3458536800711698 1475.3023293613041 0.00905243006248665
0.47838397109758596 0.37415446767589516 1475.534090966227 0.00892444234925553
0.5302431084670645 0.28560949742122665 1475.3987882217325 0.007276935278342627
0.4960092500268454 0.3257032433621291 1475.2823278833919 0.0048602829192573435
0.47237649822246863 0.3733478441892724 1475.4268336277198 0.004346812047053926
0.507035918996708 0.3187691409366567 1475.4484158422665 0.007919551019984896
0.47472915641335023 0.3645388837267316 1475.27916114416 0.016200911914306018
0.48780212683888463 0.36039398908321957 1475.336134913335 0.0020746293552822074
0.5202779137140062 0.2956593730781767 1475.3740389686996 0.014825587048410969
0.4536321435997003 0.4233359280636629 1475.4326956386283 0.009414551610595923
0.4800440016530475 0.37275347359595945 1475.5870938303833 0.011262031980958712
0.4614298828938253 0.3988871050567332 1475.4675510744876 0.009513698248151806
0.49605740510155666 0.34765345219268223 1475.4950046434085 0.0072660895670136815
0.421582467002574 0.4496004215844572 1475.2969947925806 0.0051996038504550654
0.47860697666122004 0.36644486249688274 1475.3636179960915 0.00460073294549455
0.46132475164023584 0.39105113838332084 1475.396741853605 0.004523847079495356
0.4653311165700955 0.3927175605780422 1475.5384018851696 0.003938904967243992
0.45884374543497813 0.39653756711982746 1475.3534900725717 0.008629218578151965
0.5331846717312902 0.27468073608118304 1475.3655208583305 0.008541991292821845
0.46704205945919147 0.40014277018330086 1475.513829616818 0.004227015681883785
0.48472607624374703 0.34014148176037895 1475.2851996821046 0.004510811017449507
0.4633609729029301 0.3853841697938508 1475.3870653323722 0.003972070564688826
0.4759762670383207 0.37971275150208705 1475.5253851510802 0.007222519067725789
0.499856527395894 0.33346142334025736 1475.5080262764309 0.0032779155487598173
0.4754711259876627 0.375323854194048 1475.463169703979 0.0058269547045640855
0.4985614610208361 0.3357564047107648 1475.4170640812054 0.01269258624442395
0.48920271323494924 0.3578041385067588 1475.6194554642668 0.015948677376393428
0.4478794991373288 0.42535886991198796 1475.3443072498378 0.00574650397091556
0.48378620974549535 0.35913447783865715 1475.4353315928522 0.011408312911099302
0.5178575462214595 0.3025785561810271 1475.4193563595766 0.008716269485131291
0.47234294385228326 0.38470214276662823 1475.4651353329396 0.007891576943333705
0.4380864767947918 0.4329918497823302 1475.3300126313359 0.0030042369799218377
0.46314555125210866 0.38749727191027383 1475.3709889150389 0.006268379821370619
0.47854492127410864 0.3778669551572465 1475.6102480765355 0.0031465201016776766
0.4734621705757965 0.38551905698968747 1475.4411711465348 0.006908920707409435
0.49856643065543516 0.3202341350233219 1475.3013603532709 0.006122803595406604
0.506595169026564 0.33590010059104747 1475.5434884098224 0.010657638620443348
0.4714025964482523 0.38860499857339786 1475.2703246618787 0.0021073996860950612
0.47760542379895377 0.3880006172142717 1475.559754675888 0.0031388552148804974
0.4746437633631585 0.3612208426404834 1475.38228959294 0.0034700584630368418
0.5026959738073823 0.325264983292557 1475.4225307803026 0.01521670648291651
0.4559183609769393 0.4073989547183312 1475.298957137588 0.009233139983081616
0.5065558674001125 0.30920003596717116 1475.2742665182477 0.0029794088611752563
0.4147991069886071 0.4542181698595724 1475.3016671629448 0.010462689245232897
0.46072738082150644 0.4011100906685108 1475.4089933643045 0.0015423896350514718
0.5088644704845715 0.3291177163609131 1475.372690223393 0.011124871753767876
0.46109526388850874 0.39130532927193884 1475.308361466894 0.011351655109583017
0.5128404610583179 0.3034138086304025 1475.4056332699188 0.01222742563524607
0.44568715921150337 0.41919473441300104 1475.3779015329405 0.004059456934991458
0.49139913905817106 0.351621407193173 1475.5663807645399 0.014481323491726083
0.45751316771494316 0.3911931466751265 1475.339448057634 0.003277999219398636
0.5083713306236469 0.3099240867322637 1475.331525991279 0.0036242016206066378
0.5187266293334961 0.28889231621172057 1475.3134187834162 0.0027905214198505213
0.4782115608954001 0.3555109184339036 1475.3151314311028 0.007054155829785772
0.46326960083794755 0.39948136800534656 1475.5000404385653 0.003937244961610276
0.5273014984004435 0.266387371090337 1475.2816649003842 0.006031938833717813
0.48679215583707314 0.3644853589109852 1475.5488534767721 0.00844793833747849
0.49699130558199855 0.3343596780035508 1475.3209352825456 0.00865402251147229
0.4562922186138384 0.410487720681121 1475.3550093039332 0.004407091960338395
0.48844037051327116 0.3502624433534473 1475.4509126838807 0.008342247970056199
0.4940293936619651 0.3390406821336091 1475.4621193989453 0.005465280711028411
0.47816885787045443 0.3644393923639077 1475.4095218022144 0.009284027044219786
0.4407396673990931 0.4279969862010938 1475.3850802352028 0.005973211097152554
0.49281015738649875 0.35024839528147494 1475.4831289994193 0.008182723547610071
0.4997815377157254 0.34570812323372346 1475.4924670275802 0.007947327257692366
0.5000532033246171 0.3524166117299204 1475.536276483249 0.0075214723193422674
0.48138739434698213 0.3775040700181569 1475.5174865833903 0.004074685961360035
0.4698830513860503 0.3773403511223345 1475.3527556555832 0.015229875564836565
0.47021047976726144 0.37770880337823226 1475.3423431584308 0.012183378168975502
0.5162448648220088 0.30217174347160347 1475.4379961567297 0.007768365973703355
0.4815916081760196 0.3669960923612948 1475.5738109698 0.0070912700942123985
0.5023378598777193 0.32066020994118366 1475.4336438868293 0.007843554357533419
0.4636855384861704 0.4034779050715972 1475.4319983902801 0.005420652995627147
0.43154462025628393 0.4293882581632461 1475.3052952343392 0.007964028552689295
0.4627164012575323 0.38559276270718545 1475.3288378598288 0.011676255813505466
0.4940797376686108 0.3447507061468476 1475.405882090373 0.01759914993221661
0.48843141872008744 0.339244232064998 1475.4316154755322 0.009342478845520868
0.4872878766951132 0.36643639013478796 1475.457871968785 0.004070743295759782
0.5008583934878488 0.332624649596114 1475.3346879123535 0.006210343560880584
0.4944655739209828 0.3464962631702 1475.464990161279 0.006213959434730426
0.4967944304737532 0.3391014854919199 1475.4742491555244 0.00879121659265265
0.48810663732151116 0.3737542224542261 1475.6649635550773 0.009932702500907619
0.5176113027777854 0.29347616043894786 1475.3416872459309 0.006811527680620115
0.4610229715800019 0.40341860747992686 1474.99749314133 0.0015300763370313802
0.4467153541812102 0.4272163997305284 1475.0639983288436 0.0021522151662385306
0.47596556723350636 0.39221439608464864 1474.9256634685316 0.010726785812465292
0.4227640105815534 0.4603100801893432 1474.8798999020503 0.01793153839919351
0.4444587220345481 0.42778435870065706 1474.869571736414 
0.44307521582346443 0.42391168955402586 1474.9167884636931 0.00045789562908889946
0.44119175918681036 0.44695678405353423 1475.141170555423 0.018597921033111097
0.4335662521892543 0.44283128622247375 1474.9079429899778 0.0008677618995885378
0.43486588687408306 0.435093069337968 1474.9535817753633 0.004294597905610181
0.42085780378516463 0.46520862294926135 1475.0083780616133 0.0011809230083592046
0.4269912492109066 0.4549574534780801 1475.1953995865015 0.010511385940619471
0.4486633895578765 0.43057260869467545 1475.0983984700783 0.0026349503955084637
0.4431429364177363 0.4339647495998382 1475.1075315519026 0.01396201265973243
0.43454445361951216 0.4373419699862918 1474.9283888172442 0.0007720254295690988
0.4292469315577826 0.4532636827990684 1475.0511982047142 0.005828973469218544
0.4169937627340105 0.4703777377463929 1474.9094493150856 0.0011853101481363857
0.465540415615718 0.40964711250961433 1474.9092479551518 1.75492492509799e-05
0.4456044945132453 0.4345125603731436 1475.0327757429734 0.0006157975004871839
0.42796841963869897 0.4508243435860832 1474.9493923796365 0.003137902656912693
0.467802173252399 0.402654349516795 1474.9553005901666 0.0028922550732587704
0.4405724169764129 0.42818521603170107 1474.9673588113 0.0028289510825604694
0.45854390317399324 0.4113141736647312 1474.9696987810362 0.005944369845773409
0.40997792449758225 0.4705815346817907 1475.0295905379905 0.001677286671501711
0.4197930782330971 0.45585852567703145 1475.1744878568306 0.0050013447624461084
0.4315480230943105 0.4455660376515326 1475.1620477834222 0.018849347221500536
0.42139256011771237 0.4599017603771145 1475.1437649465681 0.010955272787082046
0.42303446431610964 0.4636655121376677 1474.9388246808771 0.001504574241756172
0.4220022123842831 0.4647284789929354 1475.2096009161198 0.007225654197944816
0.4079240858135246 0.4746722337026003 1475.0546581244998 0.0019356460384099643
0.42839864705180375 0.4543222680359526 1475.1060176290625 0.00881436347156913
0.4317558154110893 0.44199771073378114 1474.9318647159455 0.0011283530970577801
0.4477874413157849 0.4266341856488403 1475.0493422684644 0.0006552934566697832
0.43952435835800097 0.437375898821179 1475.0774295430492 0.0015940385413787835
0.4336338520150956 0.44350538997875955 1474.9922705077404 8.593092515896534e-10
0.46826903748388815 0.40571811696550875 1474.88678430769 0.0028034811863215815
0.4766235440057878 0.3874388836684864 1474.8774005194928 0.007239985972171309
0.434371242187359 0.43855269115620615 1475.3961204943355 0.008235118761322298
0.4284629038410347 0.44630629368237673 1475.5419249859433 0.00540465453515082
0.41941624771143304 0.4548378584354859 1475.4102914301816 0.01037112379259203
0.42914360543177893 0.44880882384852416 1475.5913389601435 0.01378711010258174
0.45809134149216063 0.4145634718690129 1475.5331992147035 0.0024482935923785466
0.43722061622440617 0.4395673588109102 1475.5240136681034 0.0018427168994296019
0.44300463678990404 0.43322146063847095 1475.5356596136357 0.0037180684577881925
0.4591616185927616 0.40771688741432033 1475.6514570559132 0.0024231894445516104
0.4356219142798128 0.4411181718754366 1475.4883512826855 0.01294477615366785
0.4112381635907402 0.46303815558760997 1475.5950338397517 0.01303940638315757
0.4572487159111115 0.4138116526618837 1475.4935455496664 0.0010417213988176929
0.4526011356059829 0.42298964616531864 1475.6442298074844 0.0031092888011700313
0.4430439029261567 0.43252094603174773 1475.4851301265226 0.006567336688516867
0.45933030912890355 0.4230220361186472 1475.5734705761813 9.973248239726227e-08
0.4242598098861709 0.4615024713727477 1475.6695722880354 0.09629740465956013
0.465834340031054 0.4006274482728187 1475.6153884111097 0.006183521300268032
0.46304097877579636 0.3947796740151752 1475.5994120265784 0.006305832825519148
0.4598327515783629 0.4100099078828585 1475.6466478929203 0.002062113997497939
0.4485007416111587 0.42735877177745674 1475.6103986119535 0.013991763433892584
0.475163646175052 0.38674725811018645 1475.6331021507767 0.003816987186898852
0.43511274089709 0.44356978266102354 1475.4573884756346 0.012952538444033155
0.4389824382741832 0.4388911937471832 1475.408049758807 0.01275773461439307
0.44081224632124 0.4337899991389532 1475.623437589527 0.004770116897143012
0.4255649859173046 0.4520952883547705 1475.3373243960314 0.0019971547749584526
0.4242422208478857 0.4495895363088455 1475.6073315091567 0.015556138939573865
0.4170183512181222 0.46020210639376735 1475.4193216398673 0.012335553161156332
0.45341292950029066 0.4121647283847383 1475.624127892705 0.004732777880338321
0.4328047397494885 0.44743320836858025 1475.5203685219965 0.0005039813763064432
0.4389281043282297 0.42430861813778814 1475.4562931695718 0.006811527886608764
0.4441087103987601 0.42986986972772967 1475.5062138656765 0.0015794342907723376
0.4219509501556898 0.4628450176490637 1475.5608416051962 0.0009935581452055894
0.418328211209642 0.47016357216028115 1475.6180320175336 0.012095942426218413
0.43422026719871326 0.44897423273744785 1475.3712178220042 0.004046460662333783
0.4227815052260871 0.4517196247393317 1475.6394926535688 0.005953063000442089
0.46229602663938063 0.4095304171248946 1475.5833677536832 0.007512780643409874
0.435423002685885 0.4399044892477728 1475.6568294930478 0.01556609512307825
0.4126351723232425 0.4619890219432954 1475.4867918018867 0.009104057577724128
0.38314378149322353 0.4924440403030675 1475.5675524840053 2.795921771617109e-10
0.39479623399568514 0.4862558635763052 1475.6111679394712 0.01661609687489434
0.3800550468661948 0.5005458029483184 1475.665260226387 0.002560823815127558
0.3341933482484398 0.5272135316200844 1475.6255270233858 0.002382322375748643
0.38000752487457057 0.5046044245166741 1475.6148801641216 0.003728963647771404
0.3924252201629861 0.4819037159603839 1475.6370165323835 0.0026422075698104355
0.36531547184656715 0.5129914436567233 1475.5480829232017 0.0022291565206269794
0.4148322082645915 0.4670582027105764 1475.660047474693 0.012649282755377961
0.3766514463115751 0.5005428764283597 1475.6420755616653 0.009642107521239545
0.3583117062919406 0.5153291973230049 1475.6480944560783 0.0017289547735208125
0.3802034426571703 0.4975187383237663 1475.5328718875319 0.0010541188971887078
0.34459054073337086 0.5213476009913887 1475.6214080452285 0.0006398444894687645
0.34520948619656106 0.525205102617366 1475.5799897446 4.4970079608260944e-08
0.3653703083054616 0.5083226288606095 1475.3204793609377 0.0018268953822406402
0.3534219902869611 0.5171641290127916 1475.4080114820508 0.0002596986331913506
0.3677259588584394 0.5042629257049618 1475.3398059131152 0.0009963403591899884
0.36175251332497843 0.511772402230211 1475.2987459516742 0.004217981103371987
0.3589125482328876 0.5171482174014881 1475.5119601895437 0.0014317670124405868
0.3687038728197087 0.5121974250053513 1475.4610170313144 0.0037155658333928986
0.33497052010794776 0.5286062081148001 1475.5569096782865 0.0013547933315766808
0.3581022564110194 0.5123676446837241 1475.4386364685101 0.008120051424601999
0.376467230596064 0.5062011412678049 1475.2281881207543 8.932332635992328e-10
0.3658572641947081 0.5069760056589439 1475.3516197553918 0.0008104094889288234
0.35132451166243844 0.5163835146343863 1475.4765976451276 0.007433966965094897
0.3574496305816341 0.5128203221899348 1475.3404181214964 0.001223362333647925
0.37178058862648006 0.5092836910168025 1475.2566816708631 -9.530342892373195e-09
0.35605803827637866 0.5158998813168301 1475.398741196247 0.00032697731393300004
0.34840046678930214 0.5203252969266846 1475.336223487287 0.002587528357544257
0.3352205380317803 0.5341553149240781 1475.3150252356318 0.0036816227170312224
0.36082233645593204 0.5227405040904949 1475.0733843315372 1.5908813408585126e-08
0.3380493392974855 0.5306148594959434 1475.3959595270283 0.005556376949101485
0.32121760733644006 0.5445143287387098 1475.505791740198 0.0016911858227990231
0.3451834374969079 0.5274169742457178 1475.2053721878597 5.431894823043601e-09
0.3502072026248506 0.5291583723808215 1475.279480604745 0.002066639668232971
0.3226265172005741 0.5470158638726639 1475.2238198802152 3.57383118384965e-08
0.3562581587478446 0.5269523000767793 1475.077922816813 6.872949720163563e-07
0.32976026476213494 0.5384168648706973 1475.515541353303 0.006194555649035392
0.33964031776076076 0.5348175119835554 1475.445652461974 0.006798545495210027
0.32852182424142895 0.5324744589335054 1474.9054696651583 0.003222106173686402
0.33649013399402244 0.5336228827748759 1475.2335820223418 0.0007975511001120014
0.33905431749608494 0.5308650523793602 1475.0894869569759 0.0012141121118433955
0.35273589628423296 0.5235127818132153 1475.0059843980216 -2.996833241254065e-09
0.3234974642240525 0.5404909323016148 1475.4113408580813 0.0032635675692349276
0.3507540873124763 0.5267540774837953 1475.136552087107 -7.774609329384088e-08
0.3459218373020245 0.5270675575781685 1475.0013959103128 0.0011546073698250057
0.31652790267233377 0.540204921495042 1474.9442714921568 
0.3289664410066834 0.534451220338386 1475.0984713150813 0.000650877261422257
0.31352094038197037 0.5405289076605134 1475.3846652411073 0.0010481635425478968
0.321317634795663 0.5393849457295078 1475.0770306339894 0.001140941577913669
0.34474403258497816 0.5262223166713179 1475.362314198119 0.0013387474434810203
0.32150383414436395 0.537695873603535 1475.359785190977 0.003152148851647943
0.3321862508741665 0.5339842953996489 1475.3357030438908 0.004046300856574506
0.3534912405903844 0.5188544515398634 1475.036621943224 0.0004950479814668004
0.336481330300325 0.5324812923798905 1475.2113078891373 0.009895927431496754
0.3593618483254722 0.5199949547950414 1475.1262128859976 0.0004233711210842267
0.33030937066613736 0.5346946880944473 1475.402981461979 0.00593167941938624
0.3263714744188894 0.5359624328882964 1475.4728213858316 0.008074208677262823
0.35098006708596646 0.5230309701504855 1475.3028842414085 0.0014508948147617308
0.5371264311855667 0.09137603169988134 1474.9703446849792 0.01073046811875757
0.5413576536577713 0.0845625867438726 1474.8903259732067 0.03111804783257974
0.5403899318445691 0.09540260672510276 1475.1351632277679 0.008883597597191763
0.5306375037645569 0.08262865935002588 1475.4333678458963 0.005304965522011752
0.5318538136263561 0.09074012171236505 1475.4829618215626 0.004905984965678271
0.5447371658351903 0.09941799469469755 1475.3195217839618 0.006244822522924804
0.5335752680004475 0.08935403709166867 1475.5366239137616 0.004455086606135092
0.5415682927012194 0.09260060371702715 1475.3702942862885 0.016203115930662117
0.5275620322153555 0.07677859105375626 1475.5008480900492 0.004303687882981926
0.5382441190284933 0.0925084069179792 1475.4157984309397 0.015020965226511624
0.5351863801882457 0.089352614292449 1475.272424721922 0.017129499285925085
0.5368892567581944 0.09155404540068945 1475.450526842059 0.007614756906767592
0.532935548949252 0.08991143335588309 1475.4323539924983 0.028285924688877924
0.5379856986189563 0.08488892195111655 1475.348096535651 0.014103944751972708
0.5342909198277709 0.08927378956577338 1475.3969583643209 0.01605066101647011
0.5306065716038258 0.08999079121715135 1475.5135964791941 0.004625190825966228
0.54216552387238 0.09492149083337274 1475.611220830629 0.011528041805784392
0.5408820754278381 0.08652440180572472 1475.3651938541686 0.01718038915413178
0.5394469511589783 0.08532519595523134 1475.2049040362986 0.00428815799495535
0.5409651070833762 0.10050766805285209 1475.526201192266 0.01309133558163042
0.5478375821554561 0.1034948318864461 1474.9469504766816 0.017292687351358547
0.5550966194711086 0.1151898582598022 1475.0394883028746 0.0014082895863359974
0.5498177838024094 0.11936359321363893 1474.8877763666117 0.006975837512619742
0.5458333096116867 0.1076799830519871 1474.9634232003878 0.009363849108103468
0.550971735547027 0.09331847669486495 1474.918956777765 0.023440469699414632
0.5408590809194779 0.09460268570666361 1474.9441586119342 0.037778197499277
0.5427128034337954 0.09137197707339102 1475.002102114551 0.0072691408333176956
0.5436116797527506 0.0965738489851613 1475.022088425446 0.0030033213865473113
0.5415139960782028 0.09924568920615512 1474.978604710871 0.00542093751259605
0.5435209495063128 0.10132968362563922 1475.0913766623469 0.008010533414970452
0.5457217729079201 0.11549039301625251 1475.0677335824853 0.01818727417977677
0.544751407521646 0.10390687210614927 1475.0369359493586 0.002834374604812188
0.5395495991361513 0.0965147812907482 1475.5877421841608 0.010632098476107103
0.5449830678851016 0.10378823055965267 1475.493220134049 0.014993505055687525
0.5452668647493397 0.1027150959698763 1475.6397463176042 0.02042277505966268
0.5388260558467758 0.09501319701324092 1475.4539044740575 0.007181453067108143
0.5480528081045442 0.10849837767449515 1475.4463391822533 0.03180417841035847
0.542187664880532 0.10802058441026559 1475.6745510614944 0.041677497280766834
0.5390643602941254 0.09678684245556869 1475.2866258158144 0.006665971907520746
0.5447927926205175 0.09641807746217784 1475.2626128038075 0.01576412298790381
0.5451871534415531 0.10008766056359115 1475.5385099958442 0.025256197973459155
0.5539174189354155 0.10230858670650866 1475.2394512834983 0.0056338007685954195
0.5459392313766754 0.11031405544455583 1475.355550300913 0.006369121873448974
0.5400571154609674 0.09879298350123566 1475.176186734237 0.011769637014403912
0.5436780502066265 0.11123930072853197 1475.26250520986 0.013382021137076757
0.5468847276170707 0.11939464578121248 1475.1245890285645 0.0020954627225867476
0.5459459229487256 0.10510973175047186 1475.3288952365297 0.007509657682282552
0.5435634406298445 0.10169732844025542 1475.1590914276028 0.007180884243002892
0.5436827347815676 0.09907702056342035 1475.1276286042944 0.010384414899326457
0.543719914827503 0.10889295853451586 1475.3935780958825 0.02469450323660816
0.5531104776653492 0.10709080285206694 1475.4179972698926 0.012192837163395882
0.5467786119541215 0.11941942393006007 1475.215755933429 0.010294777338455144
0.5521268182252264 0.11165025470809811 1475.3190653753313 0.0037605756414211262
0.542951508116972 0.08956026113401902 1475.1009400375083 0.00940988032011597
0.541206289561311 0.09971073238372602 1475.1944546759305 0.01689189466365661
0.5434117339122273 0.10310291111655713 1475.1502134342293 0.012289308601476735
0.547302695384807 0.10436202097446502 1475.4891015360265 0.013461989844881443
0.5533161862149147 0.11144833523405734 1475.4767939181277 0.010635480785544415
0.5238862633860789 0.07593360809936785 1475.5373585627835 0.010771054215453543
0.5248807304542983 0.07394681543663612 1475.6364815693544 0.004488119070661778
0.5166190013532546 0.06828695514932778 1475.5513202473105 0.018931717507637218
0.519346631987076 0.0658841182773172 1475.5666909628328 0.007420951696721699
0.5239491990361117 0.07996701150881096 1475.607587884655 0.013434595329313645
0.5222304740947827 0.07489191379342523 1475.6593691392527 0.006446451476336222
0.5173961457053426 0.06544374822471452 1475.3646879938958 0.014343500102884352
0.5173521200762644 0.06877918222483828 1475.0485580110753 0.009280374003914
0.5157382553105989 0.06408854269796808 1474.9749023941324 0.020557498348255165
0.5037494998034572 0.058460156298988514 1475.5099160604157 0.005024243840014769
0.5148490416859387 0.07037341221855355 1475.0651361523896 0.02229060288499712
0.5260632426705951 0.06810929800947359 1474.8836867923221 9.060728945820207e-05
0.5208660261717348 0.06189156340942254 1475.1594076570007 0.01594882561652494
0.5202742084323433 0.07384523888325327 1474.931493853925 0.007878706257027192
0.5210839068537629 0.07685138838117803 1475.4714199038158 0.01078054255346048
0.5259638603822206 0.07228906499345741 1475.2846342018254 0.017656035207596704
0.5133968372535351 0.06950530576026373 1475.2330188648114 0.0074134115128316625
0.5150470639437753 0.06032519031774563 1474.9425978557365 0.008479546185292224
0.5141369273729933 0.05813045210880416 1475.2696633709966 0.012690120004652156
0.5224486047975866 0.06791319219101832 1475.2103827590327 0.0071095236028240125
0.5240736342445987 0.07249440163737578 1475.502173028656 0.0129609106391043
0.5208019128321179 0.06733869422983231 1475.401148086343 0.011319906075111833
0.5244025326214212 0.06989254601158504 1475.0417175960379 0.008028668230139263
0.5140325033506361 0.06447853194981856 1475.4656792682472 0.01203027579244965
0.5103153890469068 0.060173084622392084 1475.4910362677026 0.015990526638282845
0.5123576101915478 0.06802389164595919 1475.4404619654952 0.012673865557132886
0.5257717854442387 0.07307789382159012 1475.3215821034496 0.007284569856505453
0.5239113129721955 0.0676424236997955 1475.396114110239 0.014521559348961863
0.531869463491494 0.07442342024111914 1475.2576108314593 0.022852683475161263
0.5221302515054459 0.0724152388922602 1475.4111672406825 0.017284598938850978
0.5210625199206351 0.06817990906445796 1475.5225731381365 0.017086354987543073
0.5238722470534931 0.07463187571296281 1475.1856746840222 0.0056984810081067904
0.5245390780477651 0.07383856698863075 1475.1146032883892 0.00728566812817302
0.5263162596377792 0.07259407680508272 1475.1569097963747 0.02068171549111143
0.5109674305815726 0.06529585385149053 1475.6064144081279 0.015567746571882476
0.547832672646352 0.09807211251266673 1474.8646405108204 0.00034530644837813245
0.5547620971616994 0.13108044798875065 1474.8674291750203 0.013750735409626057
0.5468541877251827 0.11512041336427103 1474.8939029204787 0.01020188870005857
0.5481012130882532 0.11723687545612763 1474.9082435542405 0.012206045401215197
0.5471139752664601 0.11623572771391645 1474.9234813414575 0.008959163100938118
0.5575399785105002 0.13589933801243956 1474.885909726859 0.0073918415373730355
0.5479435178186831 0.12909741955833282 1474.9366480147933 0.008487720094251833
0.5499276410662368 0.11916704806220767 1475.0532449294521 0.022703369923004625
0.5471261583722153 0.13163094934281577 1475.5594254924747 0.016199636826184752
0.5468601249946561 0.13655153166408746 1475.4433547410351 0.012630642822059657
0.5525160253385566 0.12240345045694119 1475.5126535481716 0.02173562013758234
0.555221489266046 0.12417638528188282 1475.6054096087657 0.026037599973634352
0.5556829260820271 0.13403203654696363 1475.4963181362634 0.017287888816196445
0.5496731900506135 0.13663957446711447 1475.5392205800422 0.01984544629695865
0.545855281377735 0.12442657964087407 1475.6308683621764 0.037485027334118994
0.5499988420865474 0.13599984046802124 1475.1341463372985 0.011010876204686885
0.5531074753531693 0.12166760015669241 1475.5694711389165 0.020335308815632298
0.5565017940427426 0.13020150692964313 1475.593579790979 0.023741874240372215
0.560901974500754 0.12870515568220384 1475.5267962798634 0.012118956434931624
0.55095513519803 0.13916737477977675 1475.2045073904362 0.013352149890497902
0.5523226761083649 0.10989581378439556 1475.558080908381 0.021655902562312764
0.5439482352309374 0.1325574177943465 1475.4062573975011 0.016458996070089743
0.5514976059689046 0.12577925581927854 1475.5888764761798 0.02738879381149383
0.5533161977216753 0.1211796590880237 1475.4789477949723 0.018320499233000012
0.5531147665292241 0.13156323867767306 1475.183135267721 0.017373803252263384
0.5569301964400479 0.1210585643697041 1475.661739422019 0.029685472384869262
0.5546884306127633 0.1287775114398187 1475.2229856780732 0.010469088265905957
0.5506005930540492 0.11403310132937705 1475.6404982050285 0.0319339960118086
0.5457090288832602 0.11250312893156318 1475.6135409322476 0.016045142710662066
0.5527454680091154 0.1203576606469613 1475.2928111912117 0.007904562967942591
0.5513878561045594 0.12412235232569443 1475.0695777017363 0.0109841446494149
0.552595028796626 0.11752780422606666 1475.3331761280456 0.005063981755508118
0.5562729456574376 0.1307358681965277 1475.043512528515 0.013028911678554802
0.5432798718380485 0.12488128557908706 1475.4185674516484 0.021812433132121604
0.5595494501037223 0.11927568620969552 1475.0033906829326 0.010484297070160669
0.5499349657388537 0.11955080548411345 1475.0899329663168 0.0029489184370561435
0.549498674100775 0.11969606499835232 1475.152994555747 0.010192209441839411
0.5480022613300135 0.11927408177082555 1475.4436336832816 0.020771282528062315
0.5499795274486403 0.12162315070281889 1475.308154180862 0.00980047022341014
0.548457591453881 0.12657416569957464 1475.107599341746 0.001870749810286616
0.5526276652040238 0.12688985722042276 1475.331889295945 0.004336682931066003
0.5450316316002767 0.10691617218469585 1475.4945783825915 0.01835339587688955
0.5525631315172658 0.11063872863753597 1475.1751973399564 0.009360807768438584
0.5567972044910449 0.13089018821200143 1475.164386536793 0.013307417268899181
0.5545580891534051 0.11929153548051183 1475.5337653399654 0.03142873675133673
0.5539804062917423 0.12945329325259433 1475.2700935833743 0.008545699617157017
0.10767100516718665 0.035358473675759235 1475.426213474531 0.019645834924347173
0.13550075817791002 0.021555067652366804 1475.502868796169 0.005852935149035292
0.12912747561871454 0.027017778847057163 1475.469907598532 0.017504170165596643
0.11784099045596809 0.034898520793330355 1475.3743658520953 0.014418029978256707
0.12339836169784048 0.030512377879454752 1475.4389491789368 0.016632126152159792
0.11255793291200905 0.025350422053331337 1475.460742943095 0.012166227431480837
0.11637807656004737 0.03109237185472471 1475.427951132141 0.008159225023378056
0.11761605506003496 0.032905940996201186 1475.4095817952532 0.020964035387808288
0.13234425707987468 0.026105335138478056 1475.5201509004746 0.006828717118825944
0.1434611548278693 0.01712097589206845 1475.6011029773074 0.004996958174570242
0.10180908650189173 0.027217429679690798 1475.3805903879143 0.013277741286964555
0.11627663754433452 0.03143728495623106 1475.441045806608 0.009703560709385214
0.112018008785312 0.030262040232082017 1475.339182560697 0.008618530060822553
0.10598263969370873 0.030964163612946655 1475.2870155394269 0.02110058913179062
0.11345362859728332 0.039361857035727935 1475.2302150911646 0.023864378126937053
0.10967030538941765 0.03805344067449911 1475.495342967891 0.010934873455031682
0.12493744983316793 0.031288832479793464 1475.335748645238 0.004476291141661042
0.13384316532731885 0.025823764333168672 1475.566322462337 0.008285373976181148
0.13154403107257015 0.027367765762420875 1475.538837754533 0.006597273742068046
0.10349815135635879 0.03496110233235579 1475.3540792964984 0.01952803417115744
0.12445076805919472 0.03227456937206793 1475.5296810460375 0.007378977173450138
0.12253699235173554 0.030860726321699124 1475.552073946832 0.008209424007185554
0.10864394379271469 0.037624952709194644 1475.1988619709498 0.018846413814163274
0.1491004063875005 0.024762817818435617 1475.6486680240296 0.007907675639862456
0.09304743698900383 0.039745162767984496 1475.1233855623877 0.008564174118141555
0.12560927938907704 0.02852769349065852 1475.5718461451693 0.00991692391725438
0.402693755636267 0.015956002096640682 1475.1705448928487 0.007700212826391216
0.44782688713843594 0.03663869322706231 1475.3272390881073 0.007697122477185747
0.40653925010780456 0.016003318296550384 1475.2833333162007 0.007623345764063068
0.416246544029471 0.022968143173945636 1475.1544229237372 0.009986005202219147
0.4128123345067631 0.020789757447952074 1475.192399963928 0.010354347581372415
0.403476814890841 0.01285480585427962 1475.0788766409926 0.0022181616847548316
0.4602507925144959 0.03291796724720667 1475.4291384624985 0.010919147684743629
0.4076323413859684 0.01943668442580141 1475.2864431124153 0.008663680286171366
0.39991956853375915 0.015413479738097376 1475.2676715322943 0.013769241111252176
0.45132530361652035 0.03561181132190709 1475.3241445863368 0.008798196317685544
0.41650241751203204 0.024787490688355573 1475.3104688667186 0.018835659540557798
0.43781602295592825 0.025770898701115548 1475.376745031585 0.0055164124740678154
0.4105159294814243 0.02376389480410633 1475.0421050134714 0.0055473692525283445
0.4025363855383081 0.020438023433066218 1475.0411052399872 0.00828874992372513
0.43041830064690645 0.022080298410515425 1475.2750443728742 0.0035227324729262912
0.395609509683466 0.021400532301179352 1474.9848041310195 0.0030081525547086697
0.42533848474146346 0.02386771321520957 1475.3302980215585 0.002529149621581307
0.4018104216813106 0.01762511993870472 1475.0146000588445 0.009332356911130813
0.4196249023207761 0.0262631393401667 1475.1467994761708 0.010381627882422528
0.4078177654872118 0.020047893312729402 1475.2066923371392 0.009484717847601128
0.42512001993968357 0.025631858209618063 1475.3139199898428 0.00998646094157805
0.4152934486543252 0.01901555893806866 1475.1823807880194 0.007216889018505897
0.4459961441445466 0.0345393803902329 1475.3953100012393 0.01083404046573029
0.40422124613882165 0.01767016268677782 1475.1181514008551 0.008609462961148806
0.4279548699938714 0.030155069595964704 1475.2251091929986 0.003027782597258549
0.4263000612904165 0.026346785193334565 1475.3552595672543 0.0068187441992894615
0.3994836553183229 0.020756664279725404 1474.9097074603687 0.00464907431040474
0.4432541580692458 0.032602129763299556 1475.4116640505495 0.011672846899549057
0.41468321109646533 0.020099055161727355 1475.241544863597 0.010037481263505161
0.4240760655365406 0.027357038424394752 1475.1888503045727 0.0049770183510466455
0.2140142197338495 0.013453832077660585 1474.9761913912723 0.00730468329342139
0.16621955847064349 0.02510700716357562 1475.154445452923 0.007446063861794078
0.1915628798636504 0.015180008902748615 1475.086745198562 0.01071895971402932
0.17543009593699943 0.020101711654104956 1475.0651657030282 0.0028515084623030526
0.20545481319507852 0.015006550106487654 1474.9060969551053 0.008390288885098244
0.2208745487992697 0.011718292601266783 1475.036842702221 0.005423804645715152
0.22907010918797185 0.006706022923998323 1474.9006599771237 0.0036445724377807995
0.1967438684176389 0.01660731058737649 1474.9665155393277 0.005204552013007489
0.1591745378474831 0.023468677800068356 1475.167758304564 0.013172362613263123
0.21728391201445132 0.013328368407793058 1475.0633569619254 0.007108104685516697
0.1834339240919351 0.015549786231337672 1475.1136990519446 0.009453438939606845
0.16376721692384305 0.01603081110202383 1475.126139141128 0.012444520282808279
0.2767580374710411 0.004064640522855477 1474.9015102414314 0.012331097837387879
0.17822115716823592 0.010528050349717405 1474.9504368777245 0.009992116279837758
0.18786913968016047 0.015271795970424476 1475.1536062279029 0.012099242032809399
0.19139224293198934 0.01426603876738745 1475.0265216380897 0.0020290164967463834
0.22047835417485717 0.009795841922515139 1475.0589014353927 0.006429697197878507
0.2701797005354607 -0.0025862874677405005 1474.8820500928766 0.0032036819222614928
0.21951195170336002 0.010738305150205331 1474.8657418209214 0.01042929428549211
0.17603173927377444 0.019545511810797327 1475.2128911001378 0.007716416107201601
0.18965973587301133 0.009077617046134339 1475.1052038603282 0.005899021066271654
0.21393879145585254 0.012731539364874027 1474.9304636480838 0.009598771308146514
0.21163825765789823 0.011705917505724086 1475.0536631167117 0.004272703934592859
0.19367873532282845 0.007874689077944124 1474.9250032954687 0.011049338581640233
0.1883425006030033 0.014737920914380365 1474.8837013748944 0.012005360751767157
0.16563245034864293 0.017481781535397468 1475.0758793735206 0.008965278902565257
0.23786721615508055 0.00948524506035581 1475.0116995320975 0.01658921600978476
0.19822871593044722 0.013469043767819683 1475.0483773550645 0.0032705066508812155
0.16548443864917894 0.018893905007822384 1475.0068761746581 0.004883257099472997
0.22768639809794952 0.008476360890560003 1474.9152367846416 0.010018803478644827
0.183403705124107 0.015470360524252312 1474.8721233387357 0.01379052118603922
0.15813722681775272 0.017792028956592605 1475.116393460039 0.016797221143815034
0.160878465364214 0.01842483508268939 1474.8675855916788 0.0170987741786729
0.20545224490008893 0.017700968151572693 1475.0698681606523 0.00635182943305717
0.18078307907282953 0.013907036303517611 1474.9557406894244 0.011903496519926112
0.21957283445953177 0.012359171229779248 1475.0211976984767 0.0023379874446508957
0.19269586478506615 0.01352703335647593 1475.0369163668686 0.0031317250796081652
0.20243113082876502 0.011614158946358304 1475.109662072907 0.013744027986357365
0.19243526714059164 0.021625061756716083 1475.1324284365915 0.016207117712040944
0.215263287551573 0.016750854412445025 1474.9567381449033 0.0075269535915796215
0.16831754177252942 0.02051375914754382 1475.0195747847465 0.004570197494218715
0.23542312982093047 0.009945653701380966 1474.989666102962 0.013856942062397994
0.19348397005737183 0.013213611705716806 1474.9957342516975 0.0028069491164291064
0.17032286610852768 0.012930228118803375 1475.2666561037986 0.007197861874889813
0.1818759419858617 0.01663365335355059 1474.9684063993816 0.0107157819651396
0.2081464783790609 0.013359846370853884 1474.8750452257077 0.00686474926667303
0.25728595132288484 0.006619922301268246 1474.9059607938304 0.007976333578691859
0.25426935746981966 0.003641556735035921 1474.9566389452061 0.007272385186724722
0.17616358762244794 0.013104667075692905 1474.887441829429 0.012171140727251863
0.19432609494146047 0.013873820202542984 1474.9971599485516 0.0028245903288067853
0.17950346310019677 0.017881093088474583 1475.0476705875199 0.006746898238006515
0.22461010833658812 0.012665146118026886 1475.0300475281633 0.0037054560884149366
0.22051969799272803 0.011665050894993534 1474.9885043242145 0.005460229069201398
0.16288857430658396 0.021001850418209504 1474.99732911049 0.003910186205548827
0.1712490104944268 0.014705659614372278 1474.9868963241788 0.006408779323346061
0.17817062692681931 0.019731814522020698 1475.1753331333455 0.007082072914937701
0.19572105587443475 0.015228092601509487 1474.939746134536 0.009411284955340346
0.1675335235665563 0.017562617841810693 1475.039765300282 0.008630769589701576
0.1377636881803224 0.022976945168226036 1474.9414048091778 0.01156000629259986
0.07042865213171212 0.05323182218817369 1474.9237290861847 0.003695973268444136
0.06470397818356204 0.05654189409003512 1474.8915235321317 0.005053048292373646
0.07994361746158606 0.045233334343580706 1474.9742512251341 0.004495035065167658
0.09657345619124683 0.04280874430369015 1475.0035705773887 0.0040152341397018355
0.1314347300949835 0.02542431286876948 1474.899932500699 0.015831765088375818
0.10658722451986104 0.034789186517563984 1475.013271939514 0.002943114574698088
0.0953242993716677 0.04480280152510419 1474.9052912246975 0.004015063994895596
0.07282937110691498 0.05172014807540531 1474.8837092424935 0.007547214250006766
0.09243367742441695 0.04616898977221549 1474.891672244831 0.005037955817496452
0.09350615799771006 0.046251378313985084 1474.873395466021 0.0026796703031931116
0.0858297132826846 0.039277809763744106 1474.9729532624483 0.0022430387296182414
0.06338586642096801 0.05222324994912411 1474.8767800702622 0.000973790930431969
0.11114221174281091 0.037893167852416525 1474.8782585768677 0.001522544504639936
0.12012968850899482 0.028498527837663122 1474.8678759840345 0.00989384938940032
0.13463969902993592 0.02718002077848937 1474.910067299992 0.005039965657669824
0.10964698443196938 0.03438118579558032 1474.9774633060886 0.0038781934738051694
0.11934879116251602 0.025282044279560982 1474.9342503924433 0.001642783519469306
0.11749627990428614 0.034432226385629865 1474.8925112671918 0.0021989849096252915
0.07539947975057384 0.04673016626364061 1474.9169438840158 0.0007049651797040469
0.13215113192924527 0.02319177209399731 1474.8670088453962 0.007650028851096764
0.0969845880220048 0.044277746729457806 1474.925270443761 0.005373340187391412
0.1000727638878605 0.03852178618294538 1474.9586585675804 0.008632104128043586
0.049488271003544665 0.06593421102616857 1475.497204961232 0.007963337499453325
0.0729129910112966 0.050571855155084895 1475.5339331451864 0.0033953278268827884
0.07788476588063989 0.036977483695872324 1475.414815898971 0.017620912065545242
0.05140644653515353 0.05856871059741243 1474.9506298697668 0.0031025317787488176
0.057628726023949535 0.058601763026672735 1475.2055624191862 0.011803859035355446
0.057487405799777375 0.05749881306458403 1475.3279554026772 0.028404390520538975
0.07271922520520707 0.05351123609175998 1475.2591920548957 0.02030116770977397
0.06523282412242128 0.05935516895694401 1475.3049415967694 0.007251052073972081
0.0820908780043315 0.04451055634298064 1475.520548728689 0.0049013744041760685
0.06516024561628225 0.041151905691022 1475.4315323156964 0.01664665201951609
0.052645379808942724 0.06517872715275083 1475.2110401628902 0.007273156085778765
0.05020571224534656 0.06669114726289625 1475.484718822862 0.005381985606854663
0.04300882682988818 0.061755023587248215 1475.5706419902913 0.004463898598773909
0.06471456363765742 0.0575704841442535 1475.1874398372754 0.007478045292686951
0.06330273526888139 0.057225384189034834 1474.98307326526 0.007090559383728565
0.0703684568858954 0.05305329501292113 1475.3348569526518 0.024338217931064488
0.04928249284556698 0.05842376805186722 1475.0099818896033 0.0010768926815764644
0.04814530854744448 0.06407090143502481 1475.5188649399443 0.0031953351753379704
0.04391526034452656 0.06745807588854076 1475.6246339415247 0.007943761343410285
0.06822022637476555 0.04717964277297595 1475.4824528658428 0.015453796429222087
0.0561005914666463 0.0606676618978758 1475.2534049358258 0.008194404428173891
0.07925864637872755 0.05188143367565226 1475.574923245893 0.00771357769131011
0.06217530328345382 0.05768698083321461 1475.4988950076415 0.0062365774855376345
0.04800883897312331 0.060436792210168705 1475.2701447713455 0.005342707571287956
0.04852944822586042 0.056329184167101455 1475.0798171657261 0.01157713495288122
0.05275651911179283 0.06073973504017636 1475.5985767743534 0.005745799753085934
0.07574466433976423 0.04748127858862885 1475.3747319680404 0.02406070870740058
0.0628492591177379 0.057808733539452685 1475.3589086913244 0.01768276498175461
0.06143259178502369 0.044140478276863016 1475.066158970987 0.008567439132052048
0.05652540684797053 0.04969552196093483 1475.0584942662779 0.016216813235265155
0.04874145736864347 0.05608970567230535 1475.380830792356 0.039172510256584754
0.06663770177754033 0.05375424566047259 1475.5508586793837 0.00508439458583621
0.07018360818087063 0.05505146978411851 1475.225827789969 0.0014776028885020202
0.0762972892538905 0.050449599942181685 1475.3204915320687 0.007084833240833458
0.04833518473559569 0.06309146095261844 1475.6612251483732 0.0195629786380407
0.06410084332665832 0.053617989146059086 1475.5636811716447 0.0026817132914206602
0.0827605619089245 0.04625784161230696 1475.4618192212972 0.01825748456355216
0.06214643120804208 0.05368133816968615 1475.513563655657 0.005796704154725109
0.08286892013577303 0.04816669031680895 1475.449436037838 0.013084279889553761
0.060161243591859564 0.05364680700607045 1475.5320694763407 0.0016357235909538665
0.06544055856232597 0.05360842136054165 1475.098513701313 0.007337135683340004
