x y z curv
0.6369711600909824 5.040043115615846 1.1606524445744872 0.06802804166656225
0.7124020112912451 5.040043115615845 0.9015989945361444 0.0663720872791693
0.6319063442866818 5.040043115615845 1.2836548150651477 0.06408320623142857
0.7858239947308844 5.040043115615845 0.5995897632362445 0.06456247611698805
0.8687180439981952 5.040043115615845 0.30265062347517735 0.06633292779344518
0.6099527979804759 5.040043115615845 1.3161465466566273 0.06545134137935792
0.7268010511604046 5.040043115615845 0.9092626113228118 0.06966811594721384
0.7514478464603236 5.040043115615845 0.783707908013864 0.07305117761211767
0.6425386377330401 5.040043115615845 1.1943473865765324 0.06394506839378605
0.6458905655590983 5.040043115615845 1.148620081366888 0.06933313953331269
0.6752967432006096 5.040043115615844 1.033682409549032 0.06670448363065819
0.6140023613458836 5.040043115615845 1.2536121494100307 0.06296323901365387
0.5878551946850834 5.040043115615845 1.364230424565191 0.06222351729219317
0.666443544137066 5.040043115615845 1.3042008154305882 0.06840376113352739
0.6748718240477517 5.040043115615845 1.193694006974185 0.06408071510204857
0.7046369517221427 5.040043115615845 1.0514693345782486 0.06958854971522384
0.692041052657659 5.040043115615845 1.1392929417838475 0.06595497025336981
0.7868194473480121 5.040043115615845 0.7211930870175455 0.06626174002439178
0.6433690356291148 5.040043115615845 1.4109755814816307 0.06055946863309213
0.7354691358802871 5.040043115615845 0.9735496413432966 0.0683754448434751
0.6521304819626885 5.040043115615845 1.3423323473034128 0.06633310272944691
0.6326605878267849 5.040043115615845 1.3928408892067776 0.0771518775002945
0.7516985779932979 5.040043115615845 0.9043246758521359 0.06649863598960272
0.6862253366592361 5.040043115615845 1.152964356602891 0.06908704472611682
0.8277157385213918 5.040043115615845 0.5179465334005309 0.06611090097989464
0.7314522875027696 5.040043115615845 0.9644423531590021 0.07257916953991067
0.7761059188264361 5.040043115615845 0.7235564662534393 0.06806029523512308
0.8192014523295177 5.040043115615844 0.5870238719696301 0.07038194983581703
0.6701860252272082 5.040043115615845 1.2075787450727142 0.06642921392956956
0.7496025045233762 5.040043115615845 0.8914428688741309 0.06436473858821386
0.7967528082577329 5.040043115615845 0.6412128437036534 0.07029671095863116
0.6942145959247082 5.040043115615845 1.2211918262803727 0.06413786463331382
0.7052418636556598 5.040043115615844 1.1669514269006653 0.06900971823609484
0.6426414179159537 5.040043115615845 1.3114731538893638 0.07103444303139363
0.6471326807131794 5.040043115615845 1.271713240311222 0.06505198830302364
0.8173319347169576 5.040043115615845 0.5573968740665668 0.06744686657980369
0.7165080657527032 5.040043115615845 1.029817561479773 0.0694974088181698
0.841818136246186 5.040043115615845 0.4735314666040751 0.06580126076983245
0.659169137575787 5.040043115615845 1.3202574456671075 0.06345361460992094
0.6489995153483636 5.040043115615845 1.389008564281406 0.06737883463834757
0.8909954106626725 5.040043115615844 0.2392376141335728 0.11011806655685576
0.6846634763504948 5.040043115615845 1.1724458004486518 0.07185753138890107
0.6582340689135855 5.040043115615845 1.2545595508812486 0.06852369435837503
0.6815887093486458 5.040043115615845 1.1840194620515192 0.06479454719979676
0.6481933508753273 5.040043115615845 1.3669583713440412 0.0669196563678722
0.6696918046766609 5.040043115615845 1.2571564369314614 0.07301586433351742
0.8278312977408333 5.040043115615845 0.5074009652667503 0.06703592289668875
0.8880185052185878 5.040043115615845 0.26886386128014217 0.09478806504407668
0.7672273319872069 5.040043115615845 0.8127472449654511 0.06858302852437188
0.8241254443497169 5.040043115615845 0.5470211468262152 0.0668653309832254
0.6722545223355051 5.040043115615845 1.1657726926423422 0.0721909935140539
0.7902560909667287 5.040043115615845 0.7462867118923646 0.06664606804317859
0.8267087809491855 5.040043115615845 0.5678442442279851 0.06908103806682586
0.6626640597528418 5.040043115615845 1.243646526580505 0.06773574185403271
0.74897320255373 5.040043115615845 0.9176330406986937 0.06945658334877883
0.8415048028026791 5.040043115615845 0.44146637739444206 0.06950784960911006
0.7467446006823785 5.040043115615845 0.9293232222581502 0.07166692078041685
0.7242975853946507 5.040043115615846 1.0720205013167288 0.07191832336327368
0.6449168589780438 5.040043115615845 1.298509345255854 0.07127291103359601
0.7852643444223226 5.040043115615845 0.7349464122516938 0.06712733188509686
0.676235738336229 5.040043115615845 1.2470131457949147 0.06988384893744462
0.8600196807088293 5.040043115615846 0.4046823200494525 0.06811975082390721
0.6194480057626023 5.040043115615845 1.3968041338342911 0.06401330249717524
0.643981079550074 5.040043115615845 1.3524687204085994 0.06934335657664806
0.8703291588173275 5.040043115615845 0.35083604495078075 0.0682774109615261
0.698673458608184 5.040043115615845 1.061271177893158 0.0691288874219493
0.6946111077617239 5.040043115615845 1.1621088924920076 0.06533689255844347
0.8949928115923365 5.040043115615845 0.22344649105542336 0.11874843751899568
0.6619404906252574 5.040043115615845 1.3818520973852866 0.06957177935660638
0.8765416525620212 5.040043115615845 0.3105337465867555 0.07771391894253522
0.8064445616288541 5.040043115615845 0.6665935702758875 0.06815016052680026
0.71050761617293 5.040043115615845 1.0830865299319856 0.0663963850445838
0.7642364298584502 5.040043115615845 0.7806021158268717 0.07077060764857344
0.8786510049043454 5.040043115615845 0.28132304785309725 0.07493469741261388
0.702819186090508 5.040043115615845 1.0928470336492084 0.06950898838952067
0.6818425512762754 5.040043115615846 1.2566496043914712 0.06981707823936291
0.68459393019308 5.040043115615845 1.1217379121064628 0.07019467044755322
0.7086738251654574 5.040043115615845 1.1036081496614965 0.06894994914593194
0.7209273167957789 5.040043115615845 0.9653578221948944 0.06842667073442317
0.7153889806366918 5.040043115615845 1.0443817163670617 0.06780864024655725
0.7893722591590266 5.040043115615846 0.6978767296878572 0.06396816360395234
0.7110814905402414 5.040043115615844 1.142446343831456 0.0697463785897196
0.6689674931675776 5.040043115615845 1.27837543926353 0.06755443574361526
0.7270367578512448 5.040043115615845 0.9989672859640248 0.0674301580845112
0.7548405826871922 5.040043115615845 0.8548533635371693 0.06764887854648065
0.70521635157704 5.040043115615845 1.036374340338389 0.07011249313881687
0.7758988332149642 5.040043115615845 0.7514862357118983 0.07143247848414161
0.8661181672475836 5.040043115615846 0.36977448602332347 0.06773668602373303
0.7825333486631088 5.040043115615845 0.7106566118110215 0.06531156200811425
0.6944771915474698 5.040043115615845 1.0837490445653206 0.06709163457992427
0.7268100061393615 5.040043115615845 1.035217372862613 0.06669740268031822
0.6602473702899789 5.040043115615845 1.2666583540611493 0.06463875957788529
0.7179589954297441 5.040043115615845 0.9930906198597539 0.0693955727771517
0.6990395762738049 5.040043115615846 1.1898320708266137 0.0652877463607218
0.9025169939004865 5.040043115615844 0.1926753431151205 0.15520820418167292
0.805679385044703 5.040043115615845 0.6329670963120861 0.06893318338057355
0.8144081495747302 5.040043115615844 0.6259162300205133 0.06614787662123857
0.6824625101001879 5.040043115615846 1.2803243743671064 0.07262221959852622
0.6244696551208739 5.040043115615845 1.3809735496185063 0.06990651731975897
0.7393902785106558 5.040043115615845 0.9519897325501533 0.07049376083814211
0.7201081533361446 5.040043115615845 1.0073606256484489 0.07249301729594715
0.7229224056392679 5.040043115615845 1.0529434857671927 0.06674112133232281
0.7272971171952475 5.040043115615845 1.0180726261753952 0.07224686784290728
0.8958190999942135 5.040043115615844 0.2067683689567706 0.13013051464609454
0.7653362037986687 5.040043115615845 0.7687147258585854 0.06726515630338496
0.6785782834659614 5.040043115615845 1.2348999235559313 0.06616324986903925
0.69908669369295 5.040043115615845 1.1248148393434039 0.07422936961354928
0.7464153236089606 5.040043115615845 0.9651587250948241 0.06717553626979332
0.8737426995499662 5.040043115615844 0.3219682584131852 0.07251396161493476
0.7287918039789667 5.040043115615846 0.9878246946404448 0.06948672783162091
0.8646009477823736 5.040043115615845 0.34105903739412863 0.06715940861518642
0.6581626593751304 5.040043115615846 1.3936639925032395 0.06366141736804533
0.646366786381342 5.040043115615845 1.3784714595505694 0.06810894972112341
0.6859411585767525 5.040043115615845 1.1957129254087735 0.06609377836125131
0.6754364946497973 5.040043115615845 1.269432234096033 0.07380976470302185
0.7564165317786449 5.040043115615845 0.8396484889005893 0.06694801660414541
0.7749524064425726 5.040043115615845 0.8034063456634285 0.06550357736620675
0.7118980647098025 5.040043115615845 1.0141460718902355 0.07168883496561125
0.6352927049009789 5.040043115615845 1.37689111427899 0.07091216754405927
0.8514448337988739 5.040043115615845 0.42183044532576647 0.061903601432067426
0.6538110823883471 5.040043115615846 1.4219400653660699 0.061445077499894564
0.8291575867523869 5.040043115615845 0.5564709453817326 0.06453026664444843
0.7788983212096251 5.040043115615846 0.7929973698913566 0.06775450890255585
0.6438345424320686 5.040043115615845 1.3982406488258794 0.061756703069701005
0.7803524505053888 5.040043115615845 0.7678958575876043 0.07055945668114547
0.8466992056850198 5.040043115615845 0.46026304825977316 0.06522177790702782
0.7634064595437331 5.040043115615845 0.8325575866950112 0.07238330782704466
0.6386331838185328 5.040043115615845 1.3405669191726453 0.06801605317704337
0.8134570077541743 5.040043115615846 0.60572127807865 0.06717412421305284
0.7578318064435758 5.040043115615845 0.8676742076248922 0.0653749604772055
0.7544365424932973 5.040043115615845 0.8148191530678071 0.06788427377052197
0.8799731888257365 5.040043115615845 0.2964993126519254 0.07982787716336602
0.7006243916031165 5.040043115615845 1.146239748404088 0.07255432726737494
0.8537003942210906 5.040043115615845 0.4328707270195355 0.06785109284146677
0.7362378332310333 5.040043115615845 0.8965758766919367 0.0674576091248096
0.6556865943683584 5.040043115615845 1.305441750666633 0.06653710012493208
0.6952682521109426 5.040043115615845 1.1118848969924386 0.06737729897578318
0.637754018240195 5.040043115615845 1.365457446158664 0.0667170586917157
0.6706154946180956 5.040043115615845 1.294185729767269 0.06893242535213612
0.6808960249717044 5.040043115615845 1.223321608259484 0.06270239976013857
0.634980835423347 5.040043115615845 1.4045595016090493 0.06384680452147817
0.7362402719961209 5.040043115615845 0.9189433380570949 0.06867062780603733
0.8105202745100829 5.040043115615845 0.5692336845863523 0.06911471085308198
0.6625236001251027 5.040043115615844 1.3655213162435442 0.07573761831582534
0.6685648634784642 5.040043115615845 1.2289551906949168 0.06897473434423607
0.7953461218378858 5.040043115615845 0.7121226782508517 0.06771013640823988
0.7889509344326691 5.040043115615845 0.7575495471398075 0.06572850710416471
0.7121981170372274 5.040043115615845 1.073473117168075 0.06491403087599887
0.795637487091306 5.040043115615845 0.6771429801159241 0.06312925639192828
0.7607305372236364 5.040043115615845 0.8001166258614338 0.0658229358934335
0.7075709098400643 5.040043115615845 1.0233582104629726 0.06519329806777713
0.6874036287943673 5.040043115615845 1.2131597301564836 0.06692815411244461
0.857646170414821 5.040043115615845 0.38666352530807563 0.06577638609240377
0.7126981085789932 5.040043115615845 1.0588675214188616 0.06368561706886101
0.7342757123777515 5.040043115615845 0.9358022793577163 0.0702124673862043
0.7170995425645534 5.040043115615845 0.9832562856222568 0.07137828087695877
0.6561705649158853 5.040043115615845 1.2833356282410429 0.06648638396025965
0.747330090675294 5.040043115615845 0.8751103293996494 0.06709702236176748
0.8384606827796208 5.040043115615845 0.4544067344952999 0.0652882459460129
0.7076548422946891 5.040043115615845 1.1173590825518547 0.06940506654008263
0.7397242267429243 5.040043115615845 0.8834374474563987 0.06829952197365445
0.7644303019149563 5.040043115615846 0.8466381492433901 0.06629790890922203
0.800476659726697 5.040043115615845 0.6175744885402413 0.06799998602685021
0.667584118050398 5.040043115615845 1.1851944593060741 0.06795570895629954
0.6792680254336723 5.040043115615845 1.1452104709608213 0.07063600892046626
0.8337601114982036 5.040043115615845 0.5316185406179442 0.06791533794462615
0.8715428827422054 5.040043115615845 0.33297301352679065 0.06616527225279026
0.8009909495723969 5.040043115615845 0.6547617040775333 0.07119864736705896
0.6571081985002302 5.040043115615846 1.4089819138818884 0.06251346766455503
0.6637679332176357 5.040043115615845 1.3346275898849527 0.06400087386149594
0.6487144748851763 5.040043115615845 1.3271264222485075 0.06301381055160722
0.7374490609029329 5.040043115615846 0.9985269210922969 0.06650668560725542
0.7657206459990805 5.040043115615845 0.9180763232912623 0.06578375140064925
0.752776991380543 5.040043115615845 0.9432556682086437 0.06504737573174468
0.6883754218111633 5.040043115615845 1.4080459767646665 0.06801357888169704
0.6965797821861703 5.040043115615845 1.252159624194663 0.06301563039962131
0.6902647207374044 5.040043115615845 1.2959235038697545 0.07269814025634126
0.7403773969579643 5.040043115615845 1.1092110548984022 0.07028590078186812
0.6694585543377665 5.040043115615844 1.3518774927420933 0.06868868622142194
0.733241792033387 5.040043115615845 1.1704711513762645 0.0640362596272328
0.7418706962191646 5.040043115615845 1.0079393308197517 0.06844996119961443
0.776105796083814 5.040043115615845 0.8722635806623829 0.07094534339512866
0.8352244532427567 5.040043115615845 0.5459769352164404 0.06391079559801681
0.8525576395626154 5.040043115615845 0.4887190485217827 0.06665884249945292
0.6739544126174932 5.040043115615845 1.40667229103117 0.05884937957892529
0.6808299148842167 5.040043115615844 1.2988028801006568 0.06293008578653428
0.754415897010063 5.040043115615845 1.0407986568000989 0.06549081917110489
0.8125825547853285 5.040043115615845 0.644785467940564 0.06878685310335955
0.7113105418705878 5.040043115615845 1.191937346645439 0.06761616267076795
0.7882090489962756 5.040043115615845 0.8480245567177642 0.0661582423345305
0.7586013997091048 5.040043115615845 0.9946952042402553 0.06668067029939476
0.7922600935958828 5.040043115615845 0.7695073376405024 0.0682688196717082
0.688462899403978 5.040043115615845 1.3501245688231474 0.07468401560466224
0.8001615140875893 5.040043115615845 0.7325529163595487 0.06594890091093109
0.7942031711569869 5.040043115615845 0.7858508616541662 0.06505538519321316
0.8461874664251263 5.040043115615846 0.4960854913563335 0.06649490564850412
0.7165270011281253 5.040043115615845 1.1629718747471451 0.06939726787621787
0.7278750996846594 5.040043115615845 1.1219867668218644 0.06759760225119474
0.74028240227747 5.040043115615845 1.0341998662725471 0.06635110283243507
0.8734207212906822 5.040043115615845 0.3800019510850392 0.0688409255330337
0.7159997591524907 5.040043115615845 1.2179456175051255 0.06623317194012117
0.7239935566452971 5.040043115615845 1.1848827711819112 0.06561067346061884
0.6812728732791196 5.040043115615845 1.3723292611607247 0.07270103204487084
0.6958512751576971 5.040043115615845 1.3352145084653615 0.06745804624402779
0.7493615497013755 5.040043115615845 1.0579820051348483 0.0674830683044146
0.7486640693796851 5.040043115615845 1.0256565372578108 0.06900608067275993
0.8309087764587493 5.040043115615845 0.5801821398690228 0.0662140014958714
0.745964095395503 5.040043115615845 0.9841080436245792 0.06981560398396375
0.8079956585087158 5.040043115615845 0.7054579192289016 0.06828285501346355
0.7052845906594609 5.040043115615845 1.3104567537462788 0.06701582608530718
0.6703401405435516 5.040043115615845 1.371785356318692 0.06884704340600743
0.7418567051741852 5.040043115615845 1.067240124883376 0.07136664253234236
0.7092355011299643 5.040043115615845 1.2483559660428063 0.06286442857552008
0.8453250201469172 5.040043115615845 0.5070860590516916 0.06529752641137256
0.6768933765499848 5.040043115615845 1.3267663959348746 0.07100003558332343
0.7543259037946182 5.040043115615845 1.008496721432243 0.06783586640181748
0.7844488801188514 5.040043115615845 0.8806456225682096 0.06995260555757951
0.8369113493910934 5.040043115615845 0.5642927189666085 0.06801451092756233
0.7162913739547524 5.040043115615844 1.1240010978211092 0.06387028037334307
0.8572192899770534 5.040043115615845 0.4701310537663949 0.06986556043201195
0.713728659534504 5.040043115615845 1.2040175740029853 0.0679040613132294
0.7180124515226686 5.040043115615845 1.1347336724501778 0.06755598605936756
0.823224087392431 5.040043115615845 0.5999458478668551 0.06634989410688864
0.7038413137339805 5.040043115615845 1.2237136921442933 0.06456767585031607
0.6902135781248514 5.040043115615845 1.3817747714252944 0.07191432136337435
0.757459790454487 5.040043115615845 0.9808631658005286 0.06706939815066769
0.721666772763187 5.040043115615845 1.1475189559165584 0.0716935178530514
0.6749528975063483 5.040043115615845 1.3902628591294517 0.06946699747240587
0.7369585969653504 5.040043115615846 1.0236399988833662 0.06680231230849601
0.6814390716968938 5.040043115615845 1.4230962269321736 0.0604140093473908
0.6970186378693013 5.040043115615845 1.322680121287168 0.06851928880931103
0.7639937512764496 5.040043115615845 0.8893083820750823 0.06788725604633365
0.8200618075707977 5.040043115615845 0.6523743996543031 0.06574899631997848
0.7786227938623252 5.040043115615845 0.9169878634951617 0.06883189597126241
0.8325930658528496 5.040043115615845 0.5929883846964813 0.06804728880750804
0.8432270692155761 5.040043115615845 0.5183930302277784 0.07500756478532761
0.8051022980993172 5.040043115615845 0.7438418133154128 0.06845009452522204
0.7055496612210087 5.040043115615845 1.281407167388593 0.06883052082673485
0.8138823411128978 5.040043115615846 0.6773201589690311 0.06706939295760096
0.6930055507172302 5.040043115615845 1.2846741194740618 0.06990783286040032
0.8302557901782817 5.040043115615845 0.6255925064522874 0.06875220540991443
0.779709536158214 5.040043115615845 0.8406273121096108 0.07251302907957687
0.8634974911332658 5.040043115615845 0.42322112478461704 0.06868831170261787
0.7380375921913128 5.040043115615845 1.0945526731576958 0.06455177907226606
0.8226681700043665 5.040043115615845 0.6387959676288331 0.06859847777463134
0.7108383899901627 5.040043115615845 1.182136706726052 0.06469968596184483
0.8106848265243407 5.040043115615845 0.6895213778999876 0.06745803109924581
0.798752599885139 5.040043115615845 0.7562409924563362 0.06853484928234156
0.6686209210141248 5.040043115615845 1.42068407869763 0.06407005387982147
0.9383843763139915 5.040043115615845 0.022541836943184262 0.21216195325411072
0.7582404917443607 5.040043115615845 0.9259482819192439 0.06597376632985606
0.6886887712161374 5.040043115615845 1.2647589214943002 0.06995902906642866
0.7633011379783936 5.040043115615845 0.9395073259598068 0.06563839962163671
0.6792170098753588 5.040043115615845 1.3134915463376808 0.06635009689123361
0.7057516247570286 5.040043115615845 1.213368121807589 0.0678079641110056
0.6988593385904894 5.040043115615845 1.237702163617488 0.06900059334696142
0.7873548616143076 5.040043115615845 0.8320755220531817 0.06844501151202892
0.6768395190302106 5.040043115615845 1.3437342523988751 0.06935991558163078
0.7335377896060784 5.040043115615845 1.142220339348443 0.06880966594808462
0.9171179119922445 5.040043115615845 0.13574641353050163 0.18500049631801976
0.7095979809632855 5.040043115615845 1.1541557962526916 0.06802836874701107
0.6938081448304745 5.040043115615845 1.3648395820855963 0.07180367376858554
0.7891321275926121 5.040043115615846 0.816607103915692 0.07159109203234584
0.8191255319333816 5.040043115615844 0.6651436301668534 0.07068890196279172
0.7294792850548216 5.040043115615845 1.0872986516666 0.06636081015990945
0.6629230334004972 5.040043115615845 1.4321524096334248 0.0620405665565529
0.7673872405716021 5.040043115615845 0.9022414399736935 0.06697873610015957
0.7760007973763063 5.040043115615845 0.8510855658277974 0.06958025405081078
0.6816450519660844 5.040043115615845 1.4440893962890418 0.06665045407666419
0.7342501178248102 5.040043115615845 1.05553036962224 0.06523116366942865
0.7775036081448122 5.040043115615845 0.8207289892257772 0.06952690606017509
0.7409799523349152 5.040043115615845 1.0833609339400545 0.0665045161029241
0.7747522425960822 5.040043115615845 0.8940110997324342 0.07238092391560008
0.7556251686542904 5.040043115615845 0.9598749309380362 0.0660025311719907
0.7188499486937575 5.040043115615845 1.1115523927410953 0.06518298383202341
0.7046659370381543 5.040043115615845 1.2974795819044602 0.0687166983342409
0.7215878643041053 5.040043115615845 1.09997787582234 0.06941980575271244
0.6955308887109315 5.040043115615845 1.3072982132106779 0.0676121743656379
0.6769995522371228 5.040043115615845 1.3615296500843475 0.06874059236182245
0.7310883154198464 5.040043115615845 1.1562855313705331 0.06976400962571157
0.738313085610227 5.040043115615845 1.0460466513657842 0.06814464376384798
0.7495225450801546 5.040043115615845 1.0740262094462627 0.06972255293917344
0.6732870804939239 5.040043115615845 1.434520319688258 0.06361466180691912
0.8115814169716797 5.040043115615845 0.7275055793192925 0.06838846763850469
0.687750956904027 5.040043115615845 1.3946046357762147 0.06854867941162972
0.856004942311119 5.040043115615845 0.45002918458881425 0.06788546333070257
0.8436412890547081 5.040043115615845 0.5292704107942404 0.06706630733582275
0.7169246857368977 5.040043115615845 1.2373873440961813 0.06605001998633411
0.7907246860890296 5.040043115615845 0.8018806523949653 0.06767360070604572
0.7006542748822284 5.040043115615845 1.3497543199151387 0.06650234871999634
0.7000639191602656 5.040043115615845 1.2653644621580646 0.06914785470423584
0.7024276522755057 5.040043115615846 1.4594205189719902 0.06478137813532757
0.789870941061417 5.040043115615845 0.8698613437472154 0.06652343213171097
0.7343235598189038 5.040043115615845 1.2691780129903143 0.06819765948408371
0.7404573628791842 5.040043115615845 1.180255661564918 0.06802947355035432
0.691572598633367 5.040043115615845 1.418357538347476 0.06355011015278611
0.9212931820764905 5.040043115615846 0.11945614282297184 0.18648978607464736
0.7128177062126166 5.040043115615845 1.4050509642819722 0.07076278196138513
0.7456853162517572 5.040043115615845 1.1630530900193738 0.06873973834518937
0.706043176185966 5.040043115615845 1.3293549090166 0.0677845791551713
0.7727494375819979 5.040043115615845 1.0369314531449005 0.06625641694953938
0.7504477300309687 5.040043115615845 1.1529428805748487 0.06906845447973459
0.818379472797242 5.040043115615845 0.7165395575001932 0.07075426092814283
0.8772123352718662 5.040043115615845 0.36932363932657924 0.08029157627489314
0.830805461906635 5.040043115615845 0.6561220055559489 0.0694469641100543
0.7269251394683685 5.040043115615845 1.2303612673127082 0.07588340696789697
0.8923027584149354 5.040043115615845 0.30391798495967 0.1128183596223515
0.6948855802703198 5.040043115615845 1.4702345367117706 0.06748688977573261
0.7632877304344523 5.040043115615845 1.0493174522475608 0.07018066462332553
0.7187240490813028 5.040043115615845 1.2825572541608743 0.06390406627943923
0.7105672161811123 5.040043115615845 1.4326665119990887 0.06900238383560182
0.7316157231195641 5.040043115615845 1.2455788965805452 0.07098635971089498
0.7954733987697895 5.040043115615845 0.8261959850259802 0.07168530522475823
0.7146277323407785 5.040043115615845 1.3194658179422774 0.06882227894181404
0.7457741668209142 5.040043115615845 1.1431559339601234 0.06766139640894096
0.8222940137251888 5.040043115615845 0.6873150902617908 0.07125634445789443
0.7368710653636332 5.040043115615845 1.2113659709311921 0.06447415551101665
0.8486225979854377 5.040043115615845 0.5405060218016695 0.06241508109229463
0.7202513000612196 5.040043115615845 1.298702676473997 0.06854802791493567
0.8042145455431262 5.040043115615845 0.7831445697346097 0.06953097397349753
0.898039466773857 5.040043115615845 0.258154731965783 0.13296411899119934
0.7898748589500086 5.040043115615845 0.930881935501062 0.06683988503086642
0.7342599489067132 5.040043115615845 1.224130885350823 0.07092612146904768
0.8109500043900617 5.040043115615845 0.7942822942930592 0.06748439118825113
0.7734679599720076 5.040043115615845 1.0017811587697436 0.0722707830878164
0.7837088992318669 5.040043115615845 0.9037565580467548 0.07072636288367078
0.7993635595521194 5.040043115615845 0.8552759167460313 0.06485574859440368
0.8215485221220917 5.040043115615845 0.7024231296336572 0.06561854449943373
0.7783394257689513 5.040043115615845 0.9348005883514057 0.06804989556431182
0.8011582248118325 5.040043115615845 0.7962241640325654 0.06580540452523473
0.7063612833607891 5.040043115615845 1.3787604730120075 0.06923335208254341
0.8555343823472863 5.040043115615845 0.5150155488664565 0.06499425112825599
0.7931869069331224 5.040043115615845 0.9178057613832663 0.06878905291754178
0.7011115381403022 5.040043115615845 1.3883386934018305 0.06648563165509545
0.7772248547448737 5.040043115615845 1.0164792350741034 0.06812723910945134
0.8403735909199597 5.040043115615845 0.627227961400016 0.07073600436084922
0.724693029218866 5.040043115615845 1.2530196454202633 0.07111764502587123
0.8097738634679055 5.040043115615845 0.7589503019809574 0.0681548205924427
0.7538579837113517 5.040043115615845 1.0905239823155601 0.07100983837086355
0.711611916496735 5.040043115615845 1.3429169727976484 0.06488697617794519
0.796799685836199 5.040043115615845 0.8979367188397506 0.0709585200693124
0.8231724851323095 5.040043115615845 0.7283288358075857 0.06751653556786132
0.8834222935274137 5.040043115615845 0.3421028754495106 0.08734444872027666
0.7670721569348915 5.040043115615845 1.0121453515984198 0.07191776269362031
0.6999066250968544 5.040043115615845 1.427324199007816 0.06714794523269316
0.8008449869010241 5.040043115615845 0.8694866785515108 0.0700108463998534
0.7003389436197278 5.040043115615845 1.4821715277162328 0.06730368654605078
0.8041549097594856 5.040043115615845 0.8431098458857323 0.07179135536895768
0.6885754203470246 5.040043115615845 1.4588458489026621 0.07128891998060506
0.7212853807894873 5.040043115615845 1.3506717438942875 0.0668425832258871
0.8755589947174145 5.040043115615845 0.40568638758186726 0.0776086770218007
0.7274704464425723 5.040043115615845 1.2056823952978937 0.06969943756222045
0.7625596281810658 5.040043115615845 1.1094354805922468 0.06779851285093727
0.8369210687662996 5.040043115615844 0.6078924075856751 0.07182841922642622
0.7521004353768823 5.040043115615845 1.1090748537628665 0.06396328204347314
0.7422073388461359 5.040043115615845 1.1929939631007134 0.06889414888865199
0.7662490487541294 5.040043115615845 1.0627838524069906 0.06996907644433938
0.6975930796947898 5.040043115615845 1.4504297058257993 0.06587403437904704
0.8026454104370803 5.040043115615845 0.8177422388920159 0.07262521019149408
0.710291152929049 5.040043115615845 1.4210239091196346 0.06436918375222185
0.8681649053070696 5.040043115615845 0.4377340537819026 0.06932467170403582
0.7432095278468029 5.040043115615846 1.1207810683563122 0.06549925675699861
0.7014964088432905 5.040043115615845 1.406156838993795 0.07273054408583954
0.8721684421230101 5.040043115615845 0.39570909123677367 0.07347795922983749
0.6924016424709329 5.040043115615845 1.4362928133217387 0.06850273081417997
0.7727832848366671 5.040043115615845 0.9514585007964358 0.06767773059355253
0.7124925133414908 5.040043115615845 1.3889735153250413 0.06950125532635118
0.7707195694047826 5.040043115615845 0.9679575997941997 0.06936637604813006
0.883354912308089 5.040043115615845 0.3558317606012799 0.08907638146649902
0.7978549447556957 5.040043115615845 0.8856382815447629 0.06777325474877695
0.7832715684722653 5.040043115615845 0.9561792479824588 0.06434714706899052
0.81065315960321 5.040043115615845 0.7705891244461973 0.0690403765511628
0.7462027712460975 5.040043115615845 1.1320950263634804 0.0685581012018616
0.7886607303243377 5.040043115615845 0.891056463128621 0.0675785913453255
0.769142858628127 5.040043115615845 1.0258628298441181 0.06344167462055905
0.7681110923759804 5.040043115615845 1.0759996653360349 0.06497246753656193
0.7540689938870083 5.040043115615845 1.1225504125947843 0.06629460874648385
0.8504219689412695 5.040043115615845 0.5584449830672314 0.06498431303622257
0.8351223384176001 5.040043115615846 0.6439603171267814 0.06613625637890895
0.8440975995535981 5.040043115615845 0.594038907182389 0.07006783482311923
0.7793441145022253 5.040043115615845 0.9892882868173464 0.07061844627413467
0.7282295844272495 5.040043115615844 1.322580969293338 0.07238024559489185
0.7071922206320996 5.040043115615845 1.3623215039986782 0.06803070796333605
0.7384379523879689 5.040043115615845 1.2355495203559121 0.06681627978169727
0.8929539396668363 5.040043115615846 0.2878603582666474 0.1118837864236152
0.8327706507136328 5.040043115615845 0.6719367181913569 0.06821739678119239
0.7182195026948661 5.040043115615845 1.3329512004792519 0.07237909038821419
0.9049355549379523 5.040043115615844 0.4942356587623217 0.15681282679729425
0.8704689179704336 5.040043115615845 0.8602660381206739 0.07456685182594544
0.8848868618275246 5.040043115615845 1.4862086791032532 0.09169841661581479
0.7371904314172049 5.040043115615846 1.420073294223141 0.0683766359910088
0.9037029000586689 5.040043115615845 1.2998629813118092 0.13829517162716026
0.8468292050691943 5.040043115615845 1.4063831733511098 0.06794452785416427
0.9015791273504987 5.040043115615845 1.0447579648011507 0.1626211532970177
0.769376563088598 5.040043115615844 1.449037053000193 0.0662873250243802
0.8110805337084506 5.040043115615845 1.591201710305027 0.06802685822946251
0.9137100095004265 5.040043115615845 0.6392310203391836 0.17852704589311907
0.8470980140766292 5.040043115615845 1.1930932588611856 0.06818008556638125
0.7949159739634957 5.040043115615845 0.9830831206557895 0.06799328590490199
0.8910827977122393 5.040043115615845 1.8345183320724965 0.11212406117282066
0.8982895899975514 5.040043115615845 1.5698652453605042 0.13327168482096527
0.7857795052538865 5.040043115615845 1.4123001334912382 0.07128156840102358
0.8413619239578576 5.040043115615845 1.122637487252562 0.07244705407944162
0.8905701768287095 5.040043115615845 0.928952937257463 0.11537149792867804
0.7818549914998416 5.040043115615845 1.4337680194392948 0.06736536936816247
0.8280693882804698 5.040043115615845 1.317560400039306 0.06520832078331562
0.8796546624292935 5.040043115615844 0.38831696986811504 0.086164363128262
0.8440440109479854 5.040043115615845 0.6817630477384587 0.06883760316546338
0.8921593254811097 5.040043115615845 0.6191932605848025 0.12009991336799154
0.8625582025816373 5.040043115615845 1.7218982757335326 0.0682662695022531
0.9177563905691598 5.040043115615845 1.375461911038189 0.18292947329878048
0.8716392585235488 5.040043115615844 0.542318526796489 0.07653401284641845
0.8701448965204837 5.040043115615845 1.442060499455974 0.06748487034086138
0.7931433934560007 5.040043115615845 1.0686157910104224 0.066110731930788
0.8903047330233135 5.040043115615845 1.2958535379827945 0.1113435207671836
0.9189638469186985 5.040043115615845 0.2461513304862674 0.18508465422288362
0.9210191242316559 5.040043115615845 1.1752649849496277 0.20036591798470746
0.8902186340229115 5.040043115615845 1.3470806131616968 0.11794730365885905
0.849271436840906 5.040043115615845 1.4389189287933823 0.06469757399170563
0.8572164275087348 5.040043115615845 1.293140184381263 0.06602906922178314
0.8363732004962945 5.040043115615845 1.6285501596059522 0.0680189914229019
0.8581550362734724 5.040043115615845 0.8289954875781286 0.07147027995798463
0.7519026669106981 5.040043115615845 1.4368992285134312 0.06753725085130408
0.8870393766271237 5.040043115615845 0.42938082088619023 0.10323709295859669
0.8816709206505374 5.040043115615845 0.5323891607900773 0.0850552872495501
0.8921941982799675 5.040043115615845 1.1178825149224978 0.11680434778294006
0.899141851642663 5.040043115615845 1.5346522720364613 0.13865282659223668
0.9299645515484418 5.040043115615845 0.21510834007084423 0.20455517985089033
0.8897744053065773 5.040043115615845 1.0611649670553394 0.11081145979862284
0.7705028111700639 5.040043115615845 1.570312229502753 0.0713475450288108
0.8292091139378233 5.040043115615846 0.9551344983098069 0.06856392234269752
0.9016394471949978 5.040043115615845 1.651437001374183 0.1586995060496927
0.8672534023808909 5.040043115615845 0.6839890793914987 0.07244435012024156
0.921008069337425 5.040043115615845 1.2336439730897892 0.16941494357449804
0.9263730954873447 5.040043115615845 0.30513319068489436 0.1792223205682829
0.8296335593289055 5.040043115615845 1.6636034912495081 0.06466777788668837
0.8250734197509577 5.040043115615845 1.3306468466657222 0.0684879672698566
0.8931876881336169 5.040043115615845 1.009935199194076 0.11922598960691122
0.9245345405343288 5.040043115615845 1.1096211492508818 0.19970960030641022
0.8914303630808009 5.040043115615845 1.4608733048463978 0.10561087640904722
0.8808387223634335 5.040043115615845 1.111944643384035 0.09396356330759448
0.8819808994544054 5.040043115615845 1.4490354863940833 0.09325829380288463
0.8711221630899799 5.040043115615845 0.5277113540610341 0.07231849509375315
0.8436064167751463 5.040043115615845 1.548957747373299 0.06457592597538281
0.8886484823842105 5.040043115615845 1.3970580608628411 0.10309141166814953
0.8368169410979897 5.040043115615845 0.729805548368532 0.06968421981164484
0.816278781402336 5.040043115615845 1.2411366438730018 0.06905094541546107
0.9320704703033494 5.040043115615845 1.8360854129484148 0.20134931151774418
0.8271640782586558 5.040043115615845 1.416361308431516 0.06779505370738793
0.9149795815666396 5.040043115615845 0.9298848747072987 0.17369400036356067
0.7960033355417231 5.040043115615845 1.6335016893088925 0.07480185426205241
0.8355905588731654 5.040043115615845 1.646558533642894 0.06335021081157272
0.860083691869125 5.040043115615845 1.815707330107975 0.06819329578922231
0.8771245567494826 5.040043115615845 0.6218249924068574 0.08129938475169764
0.7668018241946597 5.040043115615845 1.517090128441067 0.06754441616838414
0.7144758900188972 5.040043115615844 1.4672770899410048 0.06743594314467159
0.8222916330650167 5.040043115615845 1.543311220177461 0.0681010459381302
0.9173306999336872 5.040043115615845 1.5368149171156886 0.16800708162974848
0.9009268741361379 5.040043115615845 1.8774898393885255 0.1475109172506321
0.875447299512352 5.040043115615845 1.7017261802722907 0.07954355331537295
0.7815077902351676 5.040043115615845 1.6536433435573823 0.06997013519474773
0.9304387120760178 5.040043115615845 1.5819888443483647 0.2066272442629942
0.8193132862793351 5.040043115615845 1.5174027392767706 0.06568257390525627
0.921267440103521 5.040043115615845 0.6467497026214691 0.1944013284070198
0.7847087585788773 5.040043115615845 1.3936070753921332 0.06443398660200583
0.8142510385770347 5.040043115615845 1.2014765728889985 0.06747081582245765
0.8889360099517629 5.040043115615845 1.8703791097295732 0.1061272184691593
0.7478490528060219 5.040043115615844 1.5368352199941415 0.0648679093643956
0.8998818274527398 5.040043115615845 1.4885609824719912 0.14271534376583148
0.8599514430076582 5.040043115615845 1.0796613928962742 0.06848624192636348
0.8982266806202004 5.040043115615845 0.6577561931289543 0.1422976000268333
0.8498604338934601 5.040043115615845 0.6107319099762655 0.06665224498819336
0.8963101829711798 5.040043115615845 0.6362100343074104 0.12121525474025888
0.866449370746317 5.040043115615845 0.5910329222046042 0.06536845434741233
0.8674579829357538 5.040043115615845 1.692860881198419 0.06844033618409459
0.8846121483688683 5.040043115615845 0.6337888100343305 0.08898111146677726
0.8505271852080856 5.040043115615845 1.4771429937932044 0.06705246557385526
0.8437636592361872 5.040043115615845 1.1466537924671916 0.06887257028891355
0.8679046372147813 5.040043115615845 0.7571923995406806 0.06540786494139553
0.8255373863083411 5.040043115615845 1.5045520975609676 0.06422442583479585
0.9039718521849648 5.040043115615845 0.2891139371661292 0.14984966877427353
0.8282845173107409 5.040043115615845 1.374781564971876 0.06729311805746489
0.9163017739728084 5.040043115615845 1.0156232665690323 0.19888328373062233
0.8719571251916288 5.040043115615845 0.9596567980706774 0.07184275186612428
0.8442500960466645 5.040043115615846 0.9563687570707939 0.0703404182177744
0.9395848185972961 5.040043115615845 0.11492028960708373 0.20522004117584186
0.8188783701707079 5.040043115615845 0.9473686790432636 0.06649754691663565
0.8892122668631679 5.040043115615845 1.3085901691350694 0.11149299983714325
0.7280624276307547 5.040043115615845 1.3647380036957864 0.06997290220748136
0.8501857586035133 5.040043115615845 1.4560462966112937 0.07043553406299051
0.8312862474680711 5.040043115615845 1.4413234557575045 0.06883101497531761
0.9181549210777942 5.040043115615845 0.7277327503561787 0.1739943499983588
0.8383868451809517 5.040043115615846 0.968018008262794 0.06673753574646943
0.8502910402971022 5.040043115615845 1.1153501892224418 0.06503691046494521
0.7959068804573124 5.040043115615844 1.0783645199994454 0.06329275317215752
0.8345346343288027 5.040043115615845 1.254901989196727 0.07565562240115176
0.7875899921608475 5.040043115615845 1.2605417205335834 0.06888153585123166
0.877896602597612 5.040043115615846 0.489764466284388 0.06796835356852803
0.7495244112871998 5.040043115615844 1.2284150736409019 0.06808608537030376
0.8612125242322834 5.040043115615845 1.4251243271015976 0.0647496887809956
0.7393295206532445 5.040043115615845 1.3700525641487105 0.06661702839735277
0.7807943404709645 5.040043115615845 1.1543540260644343 0.0650810258591479
0.7321514448450867 5.040043115615844 1.3538862212782448 0.06951019940184329
0.8076147151399007 5.040043115615845 1.397136141320372 0.06694066523455294
0.7727543856693609 5.040043115615845 1.2109408524539191 0.0694347398028543
0.8293093097173833 5.040043115615845 1.0510379003584571 0.18310538357906142
0.8999923175724488 5.040043115615845 0.37363463423769566 0.11577787764736365
0.8394204649145943 5.040043115615844 0.9952781393225816 0.06734449883845514
0.8769107129441005 5.040043115615845 0.9503063589308667 0.0868192220100629
0.8266742198784954 5.040043115615845 0.8488812313864263 0.06879454268503447
0.8320908697292563 5.040043115615844 1.0658916764540902 0.10980623335768905
0.8644847554240942 5.040043115615845 1.0902016741561236 0.06483249172995076
0.8554780482056517 5.040043115615845 1.2326966993452775 0.0683200234069246
0.8861861177207783 5.040043115615846 0.6982049970883356 0.09716365617688592
0.8955082562139342 5.040043115615845 1.3813399335699286 0.12015116026813732
0.7793128640003834 5.040043115615845 1.5760766964210888 0.06787564176612348
0.8214071253138121 5.040043115615845 1.057866753319916 0.13837802204748997
0.7588201374348773 5.040043115615845 1.1674964974739597 0.06631753616068121
0.8465861433591564 5.040043115615845 0.8107085182002085 0.0781425723121866
0.9053333701267041 5.040043115615845 0.5644318858061981 0.14280740686454846
0.759772053541153 5.040043115615845 1.4803053783861033 0.07165922460838985
0.8149835397753761 5.040043115615845 1.1758347856923033 0.06857810893024967
0.926555629764654 5.040043115615845 0.33931926518538935 0.1869217756364108
0.8765961067571908 5.040043115615845 1.5013419190600228 0.07829867884740209
0.8291099755874609 5.040043115615845 0.7195962023377621 0.06861337995650826
0.8694062271076362 5.040043115615846 0.5596153499554847 0.07491594892550422
0.8715567839833849 5.040043115615845 1.1747150204173877 0.07379283347165441
0.8700887893073145 5.040043115615845 1.5498326592391407 0.06860855622364956
0.8142567712506537 5.040043115615845 1.6858425816421443 0.07250554558785043
0.9217183014215975 5.040043115615845 1.4173659329190416 0.19095860473835605
0.8136405657414667 5.040043115615845 1.609244406489719 0.06184456133544763
0.8481696779491548 5.040043115615845 1.3588751851493432 0.0702391740073744
0.7502448492584325 5.040043115615846 1.5863706674632108 0.07204472490851968
0.8291366104986444 5.040043115615845 0.785040465889025 0.0749479289958376
0.926766347492525 5.040043115615845 1.2990839483522147 0.2024608050839322
0.9395483558316209 5.040043115615845 1.0345153680360129 0.23858867211939006
0.8607190198038895 5.040043115615845 1.2443502163476627 0.06477463695569961
0.8719504799894272 5.040043115615845 0.7671847366425929 0.0737223466563085
0.8159584218338009 5.040043115615844 0.8777144474936736 0.0695563499033706
0.7649824899874516 5.040043115615845 1.4248672896949353 0.07114458529281321
0.9222042179752992 5.040043115615846 0.4751128160557023 0.19008122465597774
0.8439319256599098 5.040043115615845 1.3434338730499216 0.07005694526151122
0.9017482301320225 5.040043115615845 1.637933976005964 0.14717913979650935
0.9073670695134213 5.040043115615845 0.3508650786222205 0.1620918928037851
0.8271475137718654 5.040043115615845 1.0841926545753036 0.06615926138566831
0.8081755360009508 5.040043115615845 1.628912606875641 0.07356571972742865
0.8949641969876996 5.040043115615845 1.2217493768119956 0.12100519289283586
0.9229557496589778 5.040043115615845 0.8046925261640538 0.19073228477909107
0.8244564042271142 5.040043115615845 0.8868608577935176 0.0715259660727686
0.9333604964377616 5.040043115615845 0.7549881681118925 0.19734529675815654
0.7680186863874138 5.040043115615844 1.1206789308371046 0.07072948015992582
0.7786683273097137 5.040043115615845 1.3642911352396065 0.07158280311744095
0.7855463939101865 5.040043115615845 1.640971685259681 0.06922396664913509
0.8246095403072834 5.040043115615845 1.4614395839014753 0.07318667049798169
0.8937642530900168 5.040043115615845 0.6850627327119647 0.125495192644818
0.9208871037375213 5.040043115615845 0.7904277593340614 0.19405333789414805
0.8319072231477401 5.040043115615845 1.118018429518982 0.07019555123587984
0.9161206714312303 5.040043115615846 1.8092694132828961 0.16998222518243267
0.874975602866221 5.040043115615845 0.8448772280881223 0.0747072682937427
0.8580748616616756 5.040043115615845 1.3168230041072597 0.06911721099642545
0.8648889728613313 5.040043115615845 1.794576855256231 0.06695121503925631
0.8723188828611865 5.040043115615845 0.98412045454828 0.07028917500223533
0.7782126200154662 5.040043115615845 1.404832268937609 0.06376267425159177
0.8577142116551593 5.040043115615845 1.757583135236295 0.06557146959887719
0.8834136697237311 5.040043115615845 0.6862411880250658 0.0908367570529778
0.7684880161421347 5.040043115615846 1.3710742389271833 0.06886983173678289
0.8031222731251197 5.040043115615846 1.1696217329984133 0.06605560569734127
0.9344792700792849 5.040043115615845 1.7621102967883457 0.20906418296413207
0.8818044180675843 5.040043115615845 1.1621092453131765 0.09179683879471465
0.8242199320742745 5.040043115615845 0.8248372954429402 0.06682231302250356
0.7537476286771153 5.040043115615845 1.3929871162103873 0.06606800226196968
0.9206241353897651 5.040043115615845 0.16178361115580767 0.19652615501120296
0.7851585929969411 5.040043115615845 1.493879436486886 0.06615583325252573
0.8093107350418323 5.040043115615845 1.2105902810389542 0.0695433615155766
0.7981699174414981 5.040043115615845 1.103728767018005 0.07010632895852806
0.7996308437249402 5.040043115615845 1.0192640382645948 0.06595995210201397
0.9045522540358408 5.040043115615845 0.7434400921397235 0.1383538186877656
0.89764314979666 5.040043115615845 1.280521336259178 0.1373350429518582
0.7531580078043877 5.040043115615845 1.4248456255212476 0.07352659401661314
0.8121231644652124 5.040043115615845 1.6595606075365015 0.06634397051104701
0.9114964028241216 5.040043115615845 0.5956468143143743 0.1612173884004529
0.7989538349343975 5.040043115615844 1.2377770177271237 0.06337407371694094
0.7720883923023798 5.040043115615844 1.3309076260993655 0.06408167994412106
0.899618962125867 5.040043115615845 1.825197578344079 0.1325740200330991
0.8999282392476844 5.040043115615845 0.7017462163478448 0.14673154546178616
0.9345662898777646 5.040043115615845 0.4583563165826983 0.22077941407188034
0.8637562855764954 5.040043115615845 1.4957293974484727 0.06959718571313377
0.8662984747011969 5.040043115615845 1.8329695006139985 0.0678758444643606
0.8694343893299715 5.040043115615845 0.4653432205176163 0.06896457598028256
0.885142816917557 5.040043115615845 1.0857633937644096 0.09794008361537089
0.8565870278422524 5.040043115615845 0.9357692429346498 0.07154224309237699
0.8150222710512861 5.040043115615845 1.2690144978075877 0.0663034445956929
0.8480580780560977 5.040043115615845 1.497110724826161 0.06837203579646497
0.8512948725863807 5.040043115615845 1.0855880923186805 0.06563137270687393
0.8330782728812279 5.040043115615845 0.6972721287007521 0.07004638839215299
0.7237172969479979 5.040043115615845 1.395027266412232 0.06848596592597958
0.9289656530010675 5.040043115615845 0.5325118816337461 0.20089499402065536
0.7598985710735584 5.040043115615845 1.5924006717666626 0.06825558735705851
0.8450640891145409 5.040043115615845 1.78930632097628 0.07337020600548665
0.8390855551372867 5.040043115615845 1.4676626197057887 0.06574423141908846
0.8397918356252283 5.040043115615846 0.7140206300546386 0.07016972570641469
0.8931132544133396 5.040043115615845 1.2428252855625401 0.11448540923274801
0.8152902622118343 5.040043115615845 0.8209602127012945 0.06484478210102479
0.8352347767906505 5.040043115615845 0.9334093117910902 0.06800495763993589
0.7468816873694066 5.040043115615845 1.4870483130554497 0.06580085235715825
0.8504032129508141 5.040043115615845 1.1036501885292553 0.07029756611685216
0.8675842353539926 5.040043115615845 1.7509386138275964 0.06629272711891825
0.8520317544041642 5.040043115615845 0.7490204921557804 0.0677558346617151
0.8379846473581403 5.040043115615845 1.1328812270839663 0.0696597940346216
0.8583281903550528 5.040043115615845 1.4467595861452294 0.06865644532906291
0.8213017977180131 5.040043115615844 0.7637158825739792 0.06544774014812435
0.8342902613973497 5.040043115615845 1.3864056499004551 0.061276517509933945
0.9031584029228767 5.040043115615845 1.774221707472971 0.14422085287708966
0.8869405071419282 5.040043115615845 1.6706689206369365 0.10324399296566616
0.9348539060162512 5.040043115615845 1.7778127875966085 0.20855615942297218
0.883865796834709 5.040043115615845 0.5607093357588222 0.09409565756625321
0.8942058265533246 5.040043115615845 1.856157362975428 0.12116963568033985
0.8213217508235385 5.040043115615845 1.2934491700333877 0.06695129684907976
0.8884574262043784 5.040043115615845 0.6726765224623041 0.11028370725265889
0.8603792436653362 5.040043115615846 0.7090359684582239 0.06950835040091231
0.8437168914625995 5.040043115615845 1.5638269088704004 0.06781778525820356
0.865481245936628 5.040043115615845 0.5012484778110461 0.06742923348619757
0.938357815456602 5.040043115615845 1.296980772023031 0.22079120997616974
0.7922158374080802 5.040043115615845 1.6820317045208708 0.06502592314391176
0.8057629715368019 5.040043115615845 1.6453785736216078 0.06796852593769319
0.8844312148176678 5.040043115615845 1.3731760800398964 0.08966080847910653
0.8384889536946399 5.040043115615845 1.7253844040998956 0.06758213667166449
0.8079100880064045 5.040043115615844 1.1465927796114426 0.06569281255404537
0.8790003012960774 5.040043115615845 1.4327156878019882 0.07815248517199727
0.8707302465133235 5.040043115615845 1.323849933777419 0.07572187969963566
0.8259749398378982 5.040043115615845 1.2602807193625905 0.07005203503550003
0.8531682935716218 5.040043115615845 1.525970582107961 0.06498445931885949
0.8047005426070988 5.040043115615845 1.4993230252564695 0.06994008330873865
0.8532434075903803 5.040043115615845 1.5818215394210797 0.06740998725298196
