x y z curv
1.1030339002609253 0.08873743928066638 1.3154375099575573 0.13065428153434605
1.1030339002609253 0.0890434381511223 1.0394867493389541 0.14964941953157354
1.1030339002609253 0.09560077681390716 1.198704381951503 0.12319357094410124
1.1030339002609253 0.08895562213042595 0.22286949931018563 0.13335511203271744
1.1030339002609253 0.09793785433373162 1.6581782207344384 0.13740374475049177
1.1030339002609253 0.09433980447508825 1.8250457727916864 0.11106434287293812
1.1030339002609255 0.08824682201077791 0.27562238068537154 0.13011861873205152
1.1030339002609253 0.08830019308930862 1.7353640806180763 0.15129322358002512
1.1030339002609253 0.09037278157423026 0.4572820508458141 0.12789568783348207
1.1030339002609253 0.09006969603229945 1.2524480411584116 0.13264294855295147
1.1030339002609253 0.09223250009690402 0.9914100286801485 0.12160914651031914
1.1030339002609253 0.0919246757315779 1.4845140165761568 0.1136773637083033
1.1030339002609253 0.09489489718123827 1.1393118473278423 0.12845352858417244
1.1030339002609253 0.09327627103133432 1.6744518897951046 0.14467666376724017
1.1030339002609253 0.09204511786880419 0.6738625362785339 0.1353889490588551
1.1030339002609253 0.09740448257197559 1.767771569099637 0.12633074540438413
1.1030339002609253 0.09638027437936739 2.019552575385104 0.12818067468435776
1.1030339002609253 0.08903873771329623 0.4112649344943802 0.1284065382051309
1.1030339002609253 0.09052533504600453 1.4314087420592303 0.11604265881752522
1.1030339002609253 0.09014689030430313 0.9135318557393939 0.13003848886814554
1.1030339002609253 0.09592134460191928 1.9557627736278236 0.10276232742755419
1.1030339002609253 0.09677174316771495 0.6152458377297245 0.0983348824374986
1.1030339002609253 0.10164673176938424 0.09996280116279356 0.10601891559377337
1.103033900260925 0.09929087597184236 1.514151766122178 0.14028139979217877
1.1030339002609253 0.09522137484935816 0.07408840747898082 0.12198548480125129
1.1030339002609253 0.08990382315424131 0.1930271646175502 0.13325838087184502
1.1030339002609253 0.10199667358128187 0.8939935977187349 0.12848308956766327
1.1030339002609253 0.09980309231519788 1.5721164602280302 0.1117203676335718
1.1030339002609253 0.09050832096618501 0.02069051731533093 0.17099214903511117
1.1030339002609253 0.09357819599403583 0.3818108930893103 0.13208660034534458
1.1030339002609253 0.0906368690145042 0.24324807761995024 0.15519502068587618
1.1030339002609253 0.09998305132289687 0.04922029062585424 0.14584069190523186
1.1030339002609253 0.09818693962794534 1.0723038924779889 0.14371351291583265
1.1030339002609253 0.10059676593136273 0.6278011950809395 0.11825470617318326
1.1030339002609253 0.09763777756150058 0.6457463777010192 0.10245857976086072
1.1030339002609253 0.08863246638740083 0.1074917654868702 0.17988041847111527
1.1030339002609253 0.09744803344990943 0.16270262575032532 0.14593154332843736
1.1030339002609253 0.10020156312131295 1.6324589369914295 0.14014431933732532
1.1030339002609253 0.09807670752574141 0.849845540117676 0.10447203648134533
1.1030339002609253 0.09651537337217012 0.8042243884568089 0.14495670884170425
1.1030339002609253 0.09546579429724485 0.3109409015034074 0.1459876714261849
1.1030339002609253 0.09796091256429774 1.0925380860862668 0.125261055794693
1.1030339002609253 0.10192659353754374 0.8808396456441746 0.16179431406731323
1.1030339002609253 0.09589778528329916 0.4827984846593441 0.1587141517269001
1.1030339002609253 0.09178332630571596 0.08916438003519934 0.12124383378171928
1.1030339002609253 0.10056710567618139 1.5256086108029203 0.1330153048295846
1.1030339002609253 0.10251489019217025 0.41193696079268477 0.1465053188393312
1.1030339002609253 0.10086702813065322 0.21374858455454662 0.13129465413330588
1.1030339002609253 0.09916746218579005 0.4496359127945634 0.12833848649475782
1.1030339002609253 0.09856169326806963 0.6916524807334312 0.13572054968591798
1.1030339002609253 0.09533883539311337 0.9699829746743923 0.1152045479137256
1.1030339002609253 0.10001649638089029 0.5310201073719915 0.12969413739163144
1.1030339002609253 0.0974744647699329 0.7179366880098137 0.15451334449405893
1.1030339002609253 0.10089565758550056 1.2721744480063908 0.14805022648438187
1.1030339002609253 0.09086216365224789 0.2948297831451217 0.13407087700024817
1.1030339002609253 0.10157900844770232 1.0609726787825164 0.1944768979456695
1.1030339002609253 0.09324950397795914 0.7623399268769101 0.13454858768556469
1.1030339002609253 0.10107374067443392 1.3885113746323852 0.13788942326152215
1.1030339002609253 0.09503751760178022 0.34170476884920503 0.1439733549765343
1.1030339002609253 0.09566467307088725 0.42185721340039195 0.12593924724950056
1.1030339002609253 0.09177946831521158 0.436686061866199 0.10952102145324835
1.1030339002609253 0.09164577151206989 0.5156900462560534 0.10681691322909825
1.1030339002609253 0.10115142925035533 1.2263380662897307 0.15999092284660926
1.1030339002609253 0.10149238914261594 0.5944759331292544 0.14464073351830756
1.1030339002609253 0.09890403863884603 1.112774385768929 0.10907811203307505
1.1030339002609253 0.10159232712394442 0.2257482626250182 0.09257186345947567
1.1030339002609253 0.09739029634288898 0.5420971621735301 0.14215795773810108
1.1030339002609253 0.09625488539166162 0.2852417822850993 0.11841880429362608
1.1030339002609253 0.0980070322606414 1.2407453744348522 0.1315269507900358
1.1030339002609253 0.0897084139267704 0.04385757998047182 0.14002995437953975
1.1030339002609253 0.09842843393778417 0.47167638792031347 0.13519309473940855
1.1030339002609253 0.10155143599865474 0.11341475735717771 0.13028467438285546
1.1030339002609253 0.09918231394933574 0.8154282094055116 0.16260550847331887
1.1030339002609253 0.0986619443543814 0.5530796460107009 0.12079783169031162
1.1030339002609253 0.09851000223880052 1.3335949847161095 0.09751850845210949
1.1030339002609253 0.10185578717335197 1.9362818953875098 0.15249031060671075
1.1030339002609253 0.0934795920188066 0.6633592100337478 0.12113717738584269
1.1030339002609253 0.09889410422203036 0.354707345950114 0.1428844085493686
1.1030339002609253 0.09927657577464871 1.1530222223237165 0.10787145045917067
1.1030339002609253 0.09514667223250753 0.4959354568410334 0.11183909640339147
1.1030339002609253 0.1010637298293018 0.014149829939713999 0.1556669084206803
1.1030339002609253 0.10207601764164739 0.7450281275432407 0.11592937611869104
1.1030339002609253 0.09630267904481873 0.731343813095512 0.10860390900378186
1.1030339002609253 0.09060161104940649 0.18130941612086268 0.1768852966245403
1.1030339002609253 0.0901741396065391 0.20621600013178115 0.13581845414630292
1.103033900260925 0.09846237042564288 1.4169858545205087 0.12168599938901745
1.1030339002609253 0.10017430450425363 1.0331689201386773 0.14676467546548036
0.04993993116741648 0.08750999718904495 1.8182393827494998 0.15177299211912912
0.049349565086461926 0.08750999718904495 1.2729255131513435 0.15794548293532806
0.04900367907159536 0.08750999718904495 1.3363609453597578 0.1318555490396703
0.048713455516053814 0.08750999718904495 0.08598813941719988 0.17141877692322802
0.049750482455600514 0.08750999718904495 0.17967014855911223 0.14852225035472652
0.04978818259731293 0.08750999718904495 0.3396961668179047 0.10159518030423721
0.04925013437950839 0.08750999718904495 0.15472848882343723 0.14668017075081446
0.04954749741187127 0.08750999718904495 0.03244085910168498 0.20493193586427713
0.04920992722298399 0.08750999718904495 1.0901737184032358 0.1367148766500244
0.049967046583694434 0.08750999718904495 0.37717265099059005 0.13306259620099195
0.049467840339508774 0.08750999718904495 1.1859313806958292 0.17416429719719773
0.04964362196125993 0.08750999718904495 0.2385121220211765 0.13635496544595394
0.04958547385569907 0.08750999718904494 1.526061875347518 0.18355007103144372
0.0497990168176358 0.08750999718904495 1.5784660000151145 0.12804222280942223
0.04745908031034557 0.08750999718904495 0.13224978223902276 0.13988569699174874
0.04840457460561103 0.08750999718904495 0.3646920946547728 0.1168229843495884
0.049144304841775684 0.08750999718904495 1.3676531189050767 0.14478486875120897
0.04822085310432073 0.08750999718904495 0.9499442855947415 0.1633589015814899
0.04719941660637074 0.08750999718904495 0.9204009207470929 0.1365182339617528
0.04763176900936651 0.08750999718904495 0.8160172703176941 0.17147342067343113
0.04726123657823533 0.08750999718904495 0.8802290406851613 0.1788165752687807
0.047493190394191934 0.08750999718904495 0.831278137520868 0.15288079042042024
0.04843936768133217 0.08750999718904495 1.6000264043772812 0.13561228300482198
0.048190579460094085 0.08750999718904495 1.9280897975002111 0.15996943894406596
0.04737631309965032 0.08750999718904495 0.328419043516595 0.13864113168153086
0.04816702218932592 0.08750999718904495 1.1447645384700558 0.14897998537153553
0.04735941869497248 0.08750999718904495 1.0019020293131682 0.14559107844603075
0.047234781273533234 0.08750999718904495 1.0747850747630379 0.136552284675913
0.04772932537734073 0.08750999718904495 1.629378827950604 0.17735134030719588
0.047483859474954426 0.08750999718904495 1.7664487372754143 0.12867650843480272
0.04768725167784776 0.08750999718904495 1.4859468179623325 0.19399321721450363
1.1012547860709885 0.08750999718904495 1.0988162660141074 0.13106883407466072
1.1011080705460046 0.08750999718904495 0.9612314009692695 0.15499337452342846
1.102193474385314 0.08750999718904494 0.36360284933697934 0.1642589092530405
1.1006971207337282 0.08750999718904495 1.149885979187004 0.149800099774326
1.1003032738881822 0.08750999718904495 0.8916042223063535 0.15016890078750872
1.1010228780476803 0.08750999718904495 0.15008803045359187 0.15500376492904216
1.1008460145618248 0.08750999718904495 0.4673101464487804 0.16343253652098755
1.1005784500830047 0.08750999718904495 1.6487770078346633 0.13238828300724995
1.1000904245742484 0.08750999718904495 0.9459823713286684 0.13976732321098903
1.1004465982920693 0.08750999718904495 1.6913469925461564 0.16907315622560326
1.1010430274265501 0.08750999718904495 0.33314642993886023 0.15188203233387684
1.1005196988146324 0.08750999718904495 0.2591500308702927 0.15999819084318037
0.7824355540420057 0.08750999718904495 2.1008801762166422 0.13094468840068352
0.6731481976229917 0.08750999718904495 2.1007885485154727 0.14874046589193804
0.1600938162783583 0.08750999718904495 2.100314083100735 0.16003625688193732
0.49569482310291957 0.08750999718904495 2.1000726129783542 0.13764266832140626
0.9332957039500622 0.08750999718904495 2.1006803772367824 0.15503972308368472
0.5936594368708292 0.08750999718904495 2.1011600196537614 0.1558237949959875
0.9210420458828223 0.08750999718904495 2.101317251857966 0.1460073179177269
0.19925952983891457 0.08750999718904495 2.1022709607470214 0.12803479746987598
0.8332871305733329 0.08750999718904494 2.1027319512526095 0.1572461704763716
0.29669913447591223 0.08750999718904495 2.102779848282763 0.15643844976119145
0.6927130157106064 0.08750999718904495 2.102973282269521 0.1751457239567694
0.5201362836556895 0.08750999718904495 2.1029852645182623 0.12807142271961913
0.0742721993822205 0.08750999718904495 2.1019981784017903 0.1978501608794617
0.4814116564037145 0.08750999718904495 2.1017375671174774 0.1493187129981783
0.4550146331337759 0.08750999718904495 2.1019835665508424 0.15881184798237502
1.1013999793984053 0.08750999718904495 1.4210411286165607 0.13564057725271048
1.1014245921950474 0.08750999718904495 1.965241379375608 0.14044317992315658
1.1021085419504453 0.08750999718904495 0.7229858599825835 0.15120675410338782
1.1024897413536068 0.08750999718904495 1.1627724388119949 0.14095009398974798
1.1022494146770638 0.08750999718904495 1.0762661321347915 0.13502105549795343
1.1023485930720958 0.08750999718904495 1.2675150154514743 0.14566445804590183
1.1020109630631962 0.08750999718904495 1.6370395931975268 0.16487261400856282
1.1020310121671149 0.08750999718904495 1.4641070519166903 0.17583635476687118
1.1008456647760885 0.08750999718904497 1.6255355425359477 0.14922151280286852
1.1013284412537938 0.08750999718904495 1.563155871328856 0.11615942406924698
1.1014402062450017 0.08750999718904495 2.0066285360940657 0.15125293842595416
1.101302160214784 0.08750999718904495 1.7594603414033956 0.12504483796778937
1.1014808815766306 0.08750999718904495 1.3952299798598293 0.1233565840833082
1.1000138521194458 0.07249517964986192 0.7380693256733464 0.2304351745410343
1.1000138521194458 0.07486042644755811 0.5177713803456842 0.22159118634478547
1.1000138521194458 0.07430354611087317 1.575149969960307 0.2003573795362847
1.1000138521194458 0.07517900016710931 1.1586229867846538 0.2582443005901456
1.1000138521194458 0.07632969667163397 2.019508441285978 0.21640021077543806
1.1000138521194458 0.07523892472165364 1.899434118672829 0.1898329014895021
1.1000138521194458 0.07662850414047066 1.0066784988564006 0.2406663284760705
1.1000138521194458 0.07467517290454835 0.6144725350722176 0.22444368906593595
1.1000138521194458 0.08285488768323472 1.9172567147550734 0.17640118863650656
1.1000138521194458 0.07805024282251688 1.1901953001094903 0.18397486338745958
1.1000138521194458 0.07573894746993898 1.7624536805442101 0.20836861538373946
1.1000138521194458 0.08246699844289056 1.8536169728765672 0.23465593701781912
1.1000138521194458 0.0751111597001953 1.39957808128136 0.2178227117058527
1.1000138521194458 0.08492197219284463 1.9904971390198856 0.14064049194930456
1.1000138521194458 0.07728470501265458 0.9558536208463199 0.2185262776551907
1.1000138521194458 0.07973683214937173 1.1380175198104856 0.21950065190456997
1.100013852119446 0.07273783702504517 1.254280586542746 0.20605194546581723
1.1000138521194458 0.07499779517184324 0.5666343997793462 0.24335400038805263
1.1000138521194458 0.07589790115256169 1.025450102655803 0.2168093347196339
1.1000138521194458 0.0791073994180203 1.7844630915798398 0.20115916285632207
1.1000138521194458 0.07498747299756371 1.9296350135879599 0.23806309858175764
1.1000138521194458 0.08629301345156318 2.0845231004291427 0.2131709198747932
1.1000138521194458 0.07417104734162977 0.7573143154929262 0.2464659398262881
1.1000138521194458 0.07797501875925592 0.8187823326915905 0.17818490442086368
1.1000138521194458 0.0753441626211887 1.6431312262400712 0.20203607186209913
1.1000138521194458 0.07733418683563101 1.5097886672772352 0.22246730982227786
1.1000138521194458 0.07406034066139755 0.6821621369878295 0.23338266490526255
1.1000138521194456 0.07277952989642714 0.8935963018700976 0.22271100958174145
1.1000138521194458 0.08348496492987906 1.613546803970318 0.19626155908029816
1.1000138521194458 0.07982685395922698 1.3002750041170956 0.2070151158389933
1.1000138521194458 0.07419632461249746 1.3168802301472078 0.2088699033700901
1.1000138521194458 0.07379490115475479 1.102066941750732 0.2509230588215634
1.1000138521194458 0.07407622024090346 0.5796134349156501 0.2589145406824975
1.1000138521194458 0.08481211556004303 1.9379921980706412 0.16797628677697685
1.1000138521194458 0.07457246026716385 1.1247583210916794 0.26981398433761766
1.1000138521194458 0.07780204044137394 0.939894232194068 0.21957509775042958
1.1000138521194458 0.0739687127028941 1.9681759230979314 0.18998631857277395
1.1000138521194458 0.08455586259370534 1.954321588786777 0.1538879145933157
1.1000138521194458 0.07557497468186614 1.7977395115412 0.2268619319204504
1.1000138521194458 0.07513835579255956 2.072458531309062 0.21398950314915935
1.1000138521194458 0.07655958973093041 0.8044065971242059 0.2294483798788231
1.1000138521194458 0.0737134256046535 1.4246134084652642 0.21263636866373412
1.100013852119446 0.0753786201745503 1.0377083833911969 0.23357801894488156
1.1000138521194458 0.07286556354641649 1.5541972772322967 0.20014088768289773
1.1000138521194458 0.07455348269064031 1.8121341018810417 0.23416082827327644
1.1000138521194458 0.07856305349054687 1.1736462393380496 0.21017595895842187
1.1000138521194458 0.07782377860228537 1.8791542778279045 0.20435349026361693
1.1000138521194458 0.07430163031110527 0.7730374725571842 0.23886574473535793
1.1000138521194458 0.07648210672494593 1.6591781207025385 0.23468152349976065
1.1000138521194458 0.07812411943295919 1.3871505996163012 0.19629882385175912
1.1000138521194458 0.07725180208737781 1.731783008366103 0.21799222169165608
1.1000138521194458 0.07236474657909918 0.25165280259471196 0.2216134391690628
1.1000138521194458 0.08205021764147771 1.680448151014506 0.18393531341811825
1.1000138521194458 0.08043662671881852 1.9786518662726373 0.18026206738878067
1.1000138521194458 0.07647897512057256 1.4541703036480218 0.2075779252343182
1.1000138521194458 0.07425440879230909 1.5927189755376807 0.23138355164718571
1.1000138521194458 0.07268837066518977 1.5224128112970858 0.24602996211280648
1.1000138521194458 0.07593255168611607 0.9100994407189155 0.2508030237647477
1.1000138521194458 0.08376148571973359 2.037099144592158 0.15519346933075984
1.1000138521194458 0.07686660310995341 1.2154565988929895 0.19681166486518734
1.1000138521194458 0.07360033749115741 0.2781091720876851 0.23662235416204075
1.1000138521194458 0.07332569417461104 1.861241302820742 0.23677766812619003
1.1000138521194458 0.08165100517146705 1.3398195715821613 0.15716050145367416
1.1000138521194458 0.08296378560130355 1.8210656607661686 0.16104179001104624
1.1000138521194458 0.07286779748483307 1.2401085120155195 0.21086645497175452
1.1000138521194458 0.08244787204834012 1.5836933343940025 0.16383667519954823
1.1000138521194458 0.07224063489899489 1.827599945218166 0.23615091007170147
1.1000138521194458 0.08376563601615984 2.0484186446635206 0.15930523369600016
1.1000138521194458 0.079523285329819 1.4869337310836768 0.22268776372552695
1.1000138521194458 0.08223397579469183 1.5460779951284147 0.16475900241889513
1.1000138521194458 0.07635800573975365 1.670280741731917 0.23930798944377427
1.1000138521194458 0.07275369251002937 0.6302944537297256 0.20449569170409027
1.1000138521194458 0.0724189385967059 1.472510847896147 0.2058822954323527
1.1000138521194458 0.07827415114590883 1.8431105083206347 0.1888024722086376
1.1000138521194458 0.07318330222527036 2.008060996348866 0.2040607907034111
1.1000138521194456 0.07280151518249596 0.9719326172793173 0.26299364899916333
1.1000138521194458 0.08503746088774021 0.4823375442391424 0.16611883786665432
1.1000138521194458 0.08671183703372774 0.6432432028308924 0.12840701702156168
1.1000138521194458 0.07550148279449108 0.33269742534138586 0.22206517264660885
1.1000138521194458 0.07790509125374186 0.4504783426070736 0.2006840552448931
1.1000138521194458 0.08262896399306412 0.07769463523432231 0.22073587059739186
1.1000138521194458 0.0744632709144975 0.12476225680348564 0.1921620985065374
1.1000138521194458 0.0865341220720136 1.2238252578906992 0.16898553775420042
1.1000138521194458 0.08295256576804097 1.1167121232230932 0.20748867949692537
1.1000138521194458 0.0839960064662294 0.863352714068289 0.18377214761330954
1.1000138521194458 0.08045541741998904 0.6053550080368199 0.18899710685374146
1.1000138521194458 0.0856298057668957 1.5164141462920266 0.14559764756301152
1.1000138521194458 0.08356839798697208 1.3602319780053647 0.13501677714710686
1.1000138521194458 0.08377898143310006 0.321305365367448 0.20644088094056476
1.1000138521194458 0.084476187483007 0.28544375145352713 0.19035888059001524
1.1000138521194458 0.0809645997104661 0.9828435344499998 0.25390807159883666
1.1000138521194458 0.08099783745326153 0.0998108030697287 0.20782829779416404
1.1000138521194458 0.08045841257010668 0.024123593841378254 0.24723490756456915
1.1000138521194458 0.08632795095266418 0.12507761425785027 0.1318710157905152
1.1000138521194458 0.07670712756924777 0.20358502428596487 0.2022939797417287
1.1000138521194458 0.08208695118316096 0.3998185564197347 0.17922622471433863
1.1000138521194458 0.08108059132437133 0.4958215127797014 0.1660750649602247
1.1000138521194458 0.08673960900953642 1.6634126992135074 0.18433863765031505
1.1000138521194458 0.08023825833305297 0.08888802177060108 0.2335888190153094
1.1000138521194458 0.0805853006301149 0.43355560706901825 0.22044619597791354
1.1000138521194458 0.07517488566202346 0.22197256319822758 0.21659436643513413
1.1000138521194458 0.08064934650491438 0.4217128726558424 0.1780926727746527
1.1000138521194458 0.07661041644294753 0.30292444008867925 0.23299073737083575
1.1000138521194458 0.08559533701878161 0.6218586599007152 0.15314144195191404
1.1000138521194456 0.0748490209764904 0.34932133856774383 0.24450871565827378
1.1000138521194458 0.07543389136017159 0.374934322385512 0.23498568095587402
1.1000138521194458 0.08723298471766294 0.7730694589937614 0.14533623094772058
1.1000138521194458 0.08149678509496391 0.6616142309709971 0.1673314778646952
1.1000138521194458 0.0775944166884467 0.5470766636068578 0.2266674562330334
1.1000138521194458 0.08119140640798242 0.8369444447480137 0.19980276330373567
1.1000138521194458 0.0764462523153724 0.23273036760416135 0.22892059829602707
1.1000138521194458 0.08039022184798933 0.037096896858202034 0.23854460818510123
1.1000138521194458 0.07747922657983976 0.6509401819605876 0.2159782274381592
1.1000138521194458 0.08322297424174316 1.0646149238846045 0.15955578959073613
1.1000138521194458 0.07708888168208722 0.361111264661262 0.21575867816289643
1.1000138521194458 0.0752325772171077 0.3904896713461665 0.18146744048018248
1.1000138521194458 0.07560045042553465 0.19304860898466486 0.2178579825780314
1.1000138521194458 0.08738040004607045 1.601970728416306 0.12875982651522855
1.1000138521194458 0.08535105135230073 0.9253195455506094 0.19271973317538
1.1000138521194458 0.08329878878522047 0.01324842381593248 0.17135733198845596
1.1000138521194458 0.08219123133928644 0.8519787556909446 0.18642348688405316
1.1000138521194458 0.08453811802432144 1.288232257929187 0.17064851794196373
1.1000138521194458 0.081793545940123 0.6913816580389059 0.18112620332998536
1.1000138521194458 0.07588926394547575 0.4623671912196508 0.216256691354524
1.1000138521194458 0.08136624194952541 0.13733070900852282 0.20274431046536878
1.1000138521194458 0.08135877079151953 1.0476814939271955 0.22346760484301564
1.1000138521194458 0.08290808478743306 0.06329257487332723 0.1713964791217024
1.1000138521194458 0.0824027558444332 0.7464458454160102 0.18207883556265828
1.1000138521194458 0.08735313530591338 1.8002905613861722 0.16718560527290066
1.1000138521194458 0.08068591473263641 0.5894476254670549 0.18680149056969594
1.1000138521194458 0.07780378062750323 0.17033666338095368 0.2177221895000655
1.1000138521194458 0.08411265848304077 1.443298532910261 0.19829114390561292
1.1000138521194458 0.07872471113372931 0.8809151962550592 0.2179300058787681
0.06193146176979497 0.07199999783188105 0.3018292897340179 0.20489024028817282
0.0560940889422967 0.07199999783188105 0.016214606075270765 0.20249049257427826
0.0588147465831404 0.07199999783188105 0.27023309108841087 0.21958531717907842
0.0569165954753867 0.07199999783188105 0.21437670398682748 0.2541331575763714
0.05868490925192416 0.07199999783188105 0.9267772464417874 0.25554675119732273
0.057132145518664135 0.07199999783188105 0.4441959935963829 0.21255079316549735
0.06464806278347623 0.07199999783188105 0.7770597999019273 0.18025941801238257
0.058762426398311765 0.07199999783188105 1.0106722104998471 0.2623114673382645
0.0503886054008453 0.07199999783188105 0.8136239340400673 0.22053061846791722
0.05013800500135532 0.07199999783188105 1.3044411066294896 0.22543269298992658
0.05516917687291892 0.07199999783188105 1.9808761724850692 0.22494008069049184
0.05323116021289408 0.07199999783188105 1.951284346766773 0.2501828988063799
0.05270493764744735 0.07199999783188105 0.4006121839613893 0.2049282263818643
0.05249139290486629 0.07199999783188105 1.3786929461538626 0.2376511460397712
0.0541872231088326 0.07199999783188105 1.328745061040674 0.20823233260472557
0.050708307422875076 0.07199999783188105 0.7459398211787707 0.2167681765431318
0.05029619262871821 0.07199999783188105 0.25151755600777786 0.20521879674791788
0.05083028124519261 0.07199999783188105 1.2285661618977903 0.2462381168439328
0.057107524024333264 0.07199999783188105 1.4171044909089034 0.2013641412686283
0.05180879086840524 0.07199999783188105 0.5575510802439224 0.2097853473772646
0.051248872375010156 0.07199999783188105 0.1977042532310258 0.242911957904173
0.050793781155348515 0.07199999783188105 1.0315254939007714 0.2201359477825929
0.05037741810631276 0.07199999783188105 0.5140390709427586 0.20951747652098518
0.06257932764640753 0.07199999783188105 2.009884127693518 0.17261265536251927
0.05088822546674607 0.07199999783188105 1.31533008310899 0.2524146750331714
0.050606551443768605 0.07199999783188105 1.4883740717491252 0.21369918327663376
0.052463019036924255 0.07199999783188105 0.688638562004114 0.2076180441590022
0.051476198181998105 0.07199999783188103 2.0177785972313647 0.18555216146183448
1.0888789041604836 0.07199999783188105 0.7981250724107967 0.2165286208414785
1.090389542144149 0.07199999783188105 0.5092631386088814 0.2015823206258991
1.0883781864028061 0.07199999783188105 1.1338305535022817 0.1615443746851541
1.090860328846188 0.07199999783188105 1.1747564732403397 0.22423182815495857
1.0890204763979545 0.07199999783188105 0.5650922408517465 0.1975204413584445
1.0858688173470195 0.07199999783188105 0.9050379694219045 0.16280032782954015
1.091020140173743 0.07199999783188105 0.4277844553008285 0.206605077639611
1.0879697774926267 0.07199999783188106 1.5799628552186256 0.18330927205715286
1.095581721017989 0.07199999783188106 0.012635206844518137 0.20156726552944323
1.0868034682857612 0.07199999783188105 1.353944125383199 0.15778771624211899
1.09524345069698 0.07199999783188105 0.05661692389306781 0.23009151131653233
1.0853165374942189 0.07199999783188105 1.5695780498528322 0.1808897755627402
1.0942508128132848 0.07199999783188105 0.29425501371861074 0.22047190231263167
0.4113951939573308 0.07199999783188105 2.090386076681812 0.24556654741814662
0.2263315357360035 0.07199999783188105 2.0893015735988896 0.20457346098502172
0.09444972000059247 0.07199999783188105 2.094106130335047 0.2220169377518504
0.3998235468951893 0.07199999783188105 2.0897416386745706 0.2179393340484713
0.8172128325156728 0.07199999783188105 2.086608974912894 0.19201470365642173
0.18404596965322426 0.07199999783188106 2.0886973830534448 0.22377683462491044
0.13019330967975512 0.07199999783188105 2.0963314908095385 0.22686937990614717
1.0802356329776095 0.07199999783188105 2.098817462407328 0.20752075713629256
0.21649421915106465 0.07199999783188105 2.0996363320766354 0.2072025539984822
0.6349863752284903 0.07199999783188105 2.09960938156536 0.22396401121650997
0.5321428981037907 0.07199999783188105 2.096542235774038 0.20527364771431325
0.36563356546194403 0.07199999783188105 2.0963391696171048 0.23146430863461398
0.9082549014238398 0.07199999783188105 2.0981820054612115 0.20891479940625468
0.46981865209637574 0.07199999783188105 2.0944396962297884 0.22131033347942605
0.7776159495352591 0.07199999783188105 2.0915577968883183 0.23288121612617438
0.7217331178614547 0.07199999783188105 2.090411825046208 0.20390886377174783
0.34016337621129916 0.07199999783188105 2.0978029808705205 0.2406158982070437
0.878323432795709 0.07199999783188105 2.097596778294878 0.21789276153247103
0.7321353275548995 0.07199999783188103 2.098614358032055 0.22523482483151433
0.5986565289754311 0.07199999783188105 2.092759745248063 0.2078250812751912
0.9309251393409066 0.07199999783188105 2.089318513908757 0.2046740442722649
1.0944534004054782 0.07199999783188105 0.9188702140374252 0.21826646978784983
1.0976697556192754 0.07199999783188105 1.4953816453005733 0.23259660007627003
1.0980368267785168 0.07199999783188105 0.7114222024013841 0.2321145820512583
1.0995225535122342 0.07199999783188105 1.3349291565117352 0.22228540345917536
1.09990671549579 0.07199999783188103 0.32253058511940386 0.2169920173084484
1.0986801987644217 0.07199999783188105 1.3599362087799232 0.2056627716669348
1.0987975528582625 0.07199999783188105 1.2688708268419915 0.22985469053195906
1.098781846383255 0.07199999783188103 1.4425921549418723 0.21886418505107058
1.0950728960630396 0.07199999783188105 1.771707292036253 0.2172714968931002
1.091033612328547 0.07199999783188105 1.6236674019003314 0.19938079906563166
1.0912806221599152 0.07199999783188105 2.089203685363012 0.248720809205228
1.0972334058915643 0.07199999783188105 1.3754920228840712 0.19571807785956868
1.0964723972370856 0.07199999783188106 1.0704905114036327 0.20684598349171618
1.0963073300164505 0.07199999783188105 1.7460070947212925 0.2089329916689971
1.0850000381469727 0.06561153983010208 0.3685761439201961 0.13684441977131143
1.0850000381469727 0.0698635349825395 1.9141304559451449 0.1703378152381641
1.0850000381469727 0.06872452560566755 1.6517822458181324 0.15182644844633886
1.0850000381469724 0.06517420096555164 0.005122753819495805 0.12652382388585348
1.0850000381469727 0.06625041080932956 0.10128950900570169 0.16259525172866132
1.0850000381469727 0.0656446231850969 0.02008820886029383 0.17954342163720471
0.06499999761581421 0.06612802808652077 0.8047501254431386 0.12943383458160546
0.06499999761581421 0.06778301373732129 0.9695393171032312 0.13798650408837954
0.06499999761581421 0.06843290074530489 0.001297114878932504 0.1084604728528827
0.06499999761581421 0.06738550794259261 0.990823637570846 0.15966161720275687
0.06499999761581421 0.06560135740419576 1.6909643388129587 0.14135494548118924
0.06499999761581421 0.06577876818893533 0.1513080542948143 0.13505765640286227
0.06499999761581421 0.0677498958002326 0.41824467227398776 0.16581511910047078
0.06499999761581421 0.06513622524409794 0.6104829064177357 0.14265521172482268
0.06499999761581421 0.0667659866042175 0.36943545112802256 0.14802623807740586
0.06499999761581421 0.06553708352417188 1.0379220658599606 0.12172290936845194
0.06499999761581422 0.06512267681628425 0.28767303760940816 0.13071309448098023
0.06499999761581421 0.06828481239423576 1.3948143089937834 0.16913728838425204
0.06499999761581421 0.07152762978453772 1.9608663532560464 0.19695028231477305
0.06499999761581421 0.0681005132969953 1.308127596723314 0.16332385562481483
0.06499999761581421 0.06788970097376089 1.5239563600378914 0.13193814585504152
0.06499999761581421 0.06882726402875547 1.6391415162376024 0.1795679903635897
0.06499999761581421 0.06974437448872116 2.0217874543552887 0.1694056221852642
0.06499999761581421 0.07135135447318364 1.8894584067368532 0.164903736527504
0.010971093961896383 0.06641013143586469 0.0 0.09944141919360995
0.03128544744486785 0.08370285973465015 0.0 0.10517024953520135
0.04805749042062702 0.0810165796729729 0.0 0.10045056769159769
0.019254516683916423 0.07601063497332583 0.0 0.11206292818034491
0.0271695338569758 0.0972625495371613 0.0 0.10484145945472635
0.040474242648018216 0.09148410855382791 0.0 0.07864170470665784
0.03588961802585192 0.10455868553401378 0.0 0.12437121584640201
0.007019051635603464 0.08844265182083644 0.0 0.09800489911854954
0.01870542681624671 0.09088562369698146 0.0 0.10901306051520536
0.03891372933917434 0.12394268176345449 0.0 0.11815562088954551
0.02434778610972746 0.11496610833226066 0.0 0.11285087870122568
0.01219101145684635 0.11181015595551681 0.0 0.10886757441963411
0.0 0.06658924136310806 1.555057656343558 0.1026964736211018
0.0 0.06790805909128524 1.3970992332302608 0.061230128086670416
0.0 0.07017234397772126 0.7229071029789512 0.08783091039124313
0.0 0.07112261183727545 0.7123912261029397 0.08705469642068103
0.0 0.06512029695869162 0.17892469686493 0.08486898908113678
0.0 0.06886835375522872 2.124378646349643 0.08750302531890788
0.0 0.0702998645869998 1.597723820478914 0.07713237573062179
0.0 0.07875955142590083 1.4527238283618804 0.07351891784269188
0.0 0.07610650479119271 1.2314013078100667 0.0814498383680655
0.0 0.07832412039869364 1.5051776577903508 0.05876976410597634
0.0 0.08069370436095359 2.121626585723156 0.08133385663484888
0.0 0.06602161218069848 1.8419025170142793 0.08556088814614612
0.0 0.07017340656503582 1.3113054996020461 0.0961205239424008
0.0 0.07733464365029598 1.354493468533406 0.056772584378739714
0.0 0.07290088729655031 0.762751007149841 0.07913132885781639
0.0 0.07124710194893541 1.9162212140042176 0.09031175678787148
0.0 0.06712607428422557 1.7381907081651133 0.09055245049556428
0.0 0.07559253796938786 1.365377937869416 0.08839067460851462
0.0 0.06529338650492737 0.700677199550348 0.08132517493649485
0.0 0.07462211272984429 1.0244399102367032 0.07467268948264788
0.0 0.07643701774808415 1.7981910419521347 0.08364127184808344
0.0 0.07744856152050572 1.3039513554686761 0.09539320786632179
0.0 0.06811825881371628 1.1983472458754771 0.07041665336892997
0.0 0.06616343837839518 1.9468476054386503 0.09313284017424982
0.0 0.0744187363637153 2.011878168174954 0.07489169533081862
0.0 0.06716820263045527 1.4807412787221603 0.07721743283273606
0.0 0.07031922405591728 1.89068316143815 0.10342843013739055
0.0 0.0759963547316732 1.5722788676242607 0.0824951622977423
0.0 0.06916256682996577 1.7027940836202815 0.06763433429101871
0.0 0.074941484446676 2.0953711438191966 0.06608268680488652
0.0 0.07930758265457502 1.6363649971764425 0.06503124335073086
0.0 0.07484625783607693 1.9642979687503643 0.09420884375507864
0.0 0.07338445173153835 1.1294929092787058 0.09970656706162269
0.0 0.06676511504490279 1.0772650013103977 0.08932543761170678
0.0 0.07196211256498455 1.9357811820421684 0.0892781489922392
0.0 0.08151837095520956 1.6039923086099195 0.07761825396441506
0.0 0.07881225169131582 2.0490088212152866 0.09867585889948684
0.0 0.0686053518189347 1.2134685246498629 0.08136471892075563
0.0 0.0767090743656223 2.144792516919221 0.09956841212943922
0.0 0.07427396364426826 1.0458176355682178 0.07907393089385609
0.0 0.0817142132180266 1.7229828941544645 0.06312547594429656
0.0 0.06951278156664205 1.2407195881973612 0.08828854985744701
0.0 0.07336213535361574 1.6134402820862936 0.08377864679132899
0.0 0.08463032232343401 2.0165834568281547 0.06268669163811458
0.0 0.07655051808625227 1.6243679817068746 0.07912828742239854
0.0 0.06793647972741763 2.072241408929366 0.07847048174645482
0.0 0.06717241868321991 1.2952238626526875 0.09976054847190366
0.0 0.0729058056563367 1.275766361054055 0.09400428458794911
0.0 0.06609841300614097 1.5382375275446984 0.08898478805531898
0.0 0.0835779138664279 1.9192564473850566 0.07516779018314579
0.0 0.06575624179817072 1.8292944296126359 0.09512265771349988
0.0 0.07269768400720877 1.7640205724670626 0.08975034495924687
0.0 0.07680325102708493 1.5491474693680176 0.09841760514163854
0.0 0.06640641680306292 1.9819156241432492 0.09247506826477053
0.0 0.07809469235629625 1.6481831257617952 0.05696070321990633
0.0 0.07592261641323289 1.878261063538222 0.08885642650140328
0.0 0.07800554950220834 1.6942176536053348 0.0770417837455625
0.0 0.07385181169157712 1.1727347262856398 0.09574049880973803
0.0 0.06958949455300457 0.8274647331543088 0.08996324109446444
0.0 0.07981513803955859 1.8543472338871438 0.07218175527145666
0.0 0.07267447751365849 1.0140444884489632 0.0868093378342719
0.0 0.07788168502097492 1.4084608769363005 0.05455227458492029
0.0 0.0655179272107203 1.9016369305924088 0.09831594023651732
0.0 0.07950759689436035 1.840584173473542 0.07056082982043761
0.0 0.07233462088361704 1.5863010298404876 0.07721208875877346
0.0 0.07694125666525564 1.250869447140686 0.07017489840818891
0.0 0.07665133433730237 1.9037818075550905 0.09462329616407256
0.0 0.07848744269525884 1.3267294962510763 0.06703910715181052
0.0 0.06742888795943744 1.160432661623858 0.09590500173104805
0.0 0.06989237412079116 0.7373306903756329 0.08647502346225436
0.0 0.0664224835207735 0.31391506384286244 0.0664432203245939
0.0 0.07777409536271056 2.0602324998204438 0.07729641935865585
0.0 0.06766327871726867 1.3847117002840958 0.055673487640989575
0.0 0.07430767921862012 0.9552911981573333 0.07322096212457972
0.0 0.07366208887584212 1.6588226514896642 0.07297512472062347
0.0 0.07359797674386712 0.9201020713850421 0.08051200832879561
0.0 0.06999456053870862 2.038133154978288 0.09608044274406138
0.0 0.06880158002455501 1.493732776067058 0.07449018799256792
0.0 0.07159605690698587 1.671016937347214 0.07634909911408097
0.0 0.0798843263931403 1.953043281701486 0.0793938407967968
0.0 0.06799076522806397 0.3869164280574224 0.09054322166589276
0.0 0.06530042813704638 0.33474597677320544 0.08934814279440233
0.0 0.07231319583054993 1.9920067091543112 0.09873367162787544
0.0 0.07949465545500743 1.7109725856152451 0.07420153787164958
0.0 0.08332140948767966 1.97131387912198 0.062225500914817274
0.0 0.06950687316174411 0.6230524496450505 0.0681700359470262
0.0 0.06590012505060032 2.018820252890595 0.09209778209602414
0.0 0.07855063464174744 1.4313674390097078 0.08678087767225216
0.0 0.07349093472405906 1.0686202675007919 0.0775560435389619
0.0 0.06805456993522292 0.5111371242905142 0.09024805381749025
0.0 0.08055221970457055 1.6786101648671998 0.05482933162123692
0.0 0.06508584377730348 1.2684405021492784 0.07715796530576909
0.0 0.06623842893269995 0.8167448808096937 0.08920015012697363
0.0 0.06604516603768171 0.8425164661809066 0.11111292467481676
0.0 0.08096272646938134 1.7863459838973825 0.05922138834161978
0.0 0.065592461834849 0.372090968401531 0.08672264243168913
0.0 0.07548021059424151 2.027332398172911 0.08749096727334588
0.0 0.06569967618051781 0.8719354714260551 0.08989746971706851
0.0 0.07090500365414443 1.3371770585116725 0.06747599643062682
0.0 0.07979909324929986 1.4853976808296563 0.0587271984167421
0.0 0.06883336651600794 1.7901352538008601 0.061699601042139555
0.0 0.0737723476059135 2.1068810564110905 0.06705554814087147
0.0 0.0651508106910154 1.458247737245839 0.08355164252367304
0.0 0.07753016849614605 1.5280390502400052 0.08785068868938936
0.0 0.07633021153499522 1.8244959967427867 0.08537082665283877
0.0 0.06652736261134067 1.3238915953021544 0.0821360871159305
0.0 0.08496265694698066 1.3836111181054023 0.0542608677856546
0.0 0.08506250258124666 0.11353060911282466 0.04509998849462615
0.0 0.07855684852535455 1.290039242272026 0.09466901249146392
0.0 0.07901804534261883 0.6390805582476418 0.0591650204168646
0.0 0.08704858576076842 0.34441495845275044 0.03350681185735266
0.0 0.08702083038070559 1.237765359888872 0.035809477654596786
0.0 0.08532000650499555 0.396766874085996 0.04772300553025385
0.0 0.07989903060397735 0.02751842575424783 0.0640297721312809
0.0 0.07626771452561526 0.17469957016486948 0.08578208985499475
0.0 0.07770109300588995 0.23862785027712974 0.05730861627313709
0.0 0.07641251812759595 0.6731720669875852 0.07369399660058885
0.0 0.0784646097611401 0.4141576111595303 0.06970341517638919
0.0 0.08111654929216983 1.101607898003637 0.05677067697876891
0.0 0.07494012552429481 0.4836832475141342 0.06864669254648509
0.0 0.07969407138496414 0.1930185251446634 0.0625881498018068
0.0 0.07931948842830303 1.0782466685362773 0.07261375769006996
0.0 0.07572404405049146 0.208704899773743 0.08677618282211691
0.0 0.07175141703671249 0.26708353040645927 0.06818998324981772
0.0 0.07800867893956348 0.7777894519845331 0.06061824849070528
0.0 0.0751636934977987 0.8491681291249668 0.09726374561666541
0.0 0.07195814260390246 0.46868565921231836 0.07843549981853983
0.0 0.07708899083884992 0.4431389684556985 0.08716729805521908
0.0 0.08511332199612875 1.8940269807034424 0.038846007356269745
0.0 0.08616337332860693 0.8410172371390838 0.06169902661604955
0.0 0.07443125403819423 0.6116653576541848 0.08240420110553141
0.0 0.07357058387615785 0.42670159107789457 0.09543440136080647
0.0 0.07372035749173679 0.4973463708302366 0.07992191131819969
0.0 0.08646764675878238 0.46497129050243385 0.05148240546570782
0.0 0.07724221564848215 1.1185214671428896 0.051499311390266964
0.0 0.07872541319092481 0.8166845773671516 0.07679201516820895
0.0 0.08671559967323855 0.5306828931144584 0.06201017566417333
0.0 0.08267925886381362 1.3970688296376825 0.059510041930234514
0.0 0.07348190345947463 0.29120318201462 0.07874500644313132
0.0 0.0734432081446355 0.5288447984031142 0.07260283012886062
0.0 0.07615784709223994 0.7511882925731284 0.06921396844467001
0.0 0.08362497212595424 1.6666674631335827 0.050776856390566116
0.0 0.08225784802581292 0.27050127827903536 0.07281232468921754
0.0 0.08271545127285904 1.344078289217116 0.04328692607600166
0.0 0.0697466455640791 0.044136256592169264 0.09389636162132328
0.0 0.08050643722266769 0.30274793360744345 0.06113949470208984
0.0 0.08663934431200543 0.4316526668661855 0.05596891389165003
0.0 0.07134895511890652 0.01804246838393413 0.09680687723493928
0.0 0.08663223861394591 1.8195142407961704 0.06604378991483956
0.0 0.07855021855194894 0.09748326330894176 0.0794863980091497
0.0 0.0800773109794977 1.2653687759003294 0.07550324814985913
0.0 0.075380091187081 0.3459540091998196 0.08778074512437828
0.0 0.07555419952784347 0.25122577673104346 0.050586333041411274
0.0 0.07494147947726615 0.06508423000163649 0.08821177347936231
0.0 0.07862080840323055 0.5648909705386777 0.07537363632622822
0.0 0.08720895608423355 0.2106532183037823 0.04979392421698856
0.0 0.08561495986604883 1.8310103529121728 0.052647194536917054
0.0 0.06718611428912082 0.19796055103545904 0.0783418801164054
0.0 0.08675083334983047 0.7199415634816754 0.05596554858547748
0.0 0.07870084916660974 0.6519346952290599 0.07773627533237615
0.0 0.08558033395269532 1.3726506783002084 0.044752261172887046
0.0 0.08034738703927373 0.038463683169968746 0.06241207789908483
0.0 0.083292520857727 0.7680138341435583 0.042309612876076735
0.0 0.08360117241871551 0.1474312695863093 0.06582055271119244
0.0 0.07781360984510083 1.152889351447005 0.09656096900443828
0.0 0.074583643892699 0.5794488327322788 0.08444247092497228
0.0 0.0853297569112198 1.419118740673677 0.04071238411361397
0.0 0.0782578589184738 0.3210102165764994 0.06866545622119023
0.0 0.07490810654165776 0.8833797069626682 0.08233154435963796
0.0 0.07790944342167445 0.0021269735937903943 0.09952955048892886
0.0 0.08609898683900682 1.5656197764705169 0.05734233314308644
0.0 0.07523801837157892 0.5993200225114003 0.0778317913377327
0.0 0.08327320183445884 0.7405032524949032 0.06494361351272673
0.0 0.07609812468051334 0.126886134672817 0.08740693854332347
0.0 0.07784449790192972 0.3316418873112273 0.08806140653379901
0.0 0.08657033215148811 1.9964817358804863 0.06772214511095687
0.0 0.07607556205114231 0.9853769948561723 0.08441826112883238
0.0 0.08651096531270647 0.6102678139639415 0.039969600489239504
0.0 0.08019379171468713 1.2156961179909966 0.04435527584110048
0.0 0.08613237733543852 0.5917009195398325 0.05084296074923239
0.0 0.07650205900195868 0.15971712628455598 0.08690743084984819
0.0 0.07516192893030561 0.9433694901110432 0.06842699797739324
0.0 0.08212051981879505 0.9057350155193844 0.04741272997159153
0.0 0.08713639670599578 1.9322556258105554 0.05165728346102866
0.0 0.0842663416368763 0.9237707269451164 0.061531839120107845
0.0 0.0771849115546843 0.7001976095512825 0.0803673473028202
0.0 0.08012338894001902 0.9726073919457757 0.077535973309955
0.0 0.08364939687122962 0.47697502309251005 0.05263926836230643
0.0 0.07865632012094508 0.05442318727729634 0.08198043061661195
0.0 0.08738259314044058 0.8235969748813509 0.05872471160036717
0.0 0.07299369839367706 0.3989374525252017 0.06960727599432429
0.0 0.08235450219794345 1.0377389891607285 0.06955619921562113
0.0 0.08538037036374675 0.6661635787334663 0.049910096293232314
0.0 0.07460578266836086 0.6883538394321483 0.07493829591546994
0.0 0.06867402183988724 0.2181048319440217 0.07495809243779657
0.0 0.08421748355175204 0.227005222913284 0.04665254555795523
0.0 0.07654223904201973 0.3743687286929412 0.0872426541294485
0.0 0.0833899866844537 0.2819985286981561 0.07697170510964231
0.0 0.08645068349975557 1.5410493069599114 0.0630135291693901
0.0 0.08424986505902732 1.7449978862196167 0.05802140844273862
0.0 0.07958373890108063 0.870311698486329 0.092866960417314
0.0 0.08449130116561712 0.4526683411494204 0.06293166694509367
0.0 0.076716702633878 0.7990831363516264 0.07539222261200758
0.0 0.08561305003194221 0.9620538076262684 0.05264939781551457
0.0 0.08087513971900577 0.5488209076852671 0.08222769479157868
0.0 0.08170952240446862 0.013652548800820776 0.09357886657359067
0.0 0.07243743878228112 0.36213892413360416 0.09602036621398463
0.0 0.10914713000075242 1.7005298747069881 0.06319357946193332
0.0 0.11014772458504093 0.8052814512227698 0.07428221639315341
0.0 0.11416927494846546 1.5520106414313524 0.07465829807077178
0.0 0.10541441643502765 0.795547833335265 0.05687043686484607
0.0 0.10644897097497558 0.4235568360435761 0.05210147665913317
0.0 0.10267704115414451 0.057102315077857 0.0650540872752223
0.0 0.10916066443276848 0.6974054803038866 0.06594687318286106
0.0 0.11220799042091224 1.9925271331718775 0.0962567628393624
0.0 0.10646180005535472 1.371750093147917 0.07327178768020923
0.0 0.11272064618292324 1.1223154285264816 0.09687726974108696
0.0 0.11303462626658847 1.7724324436668557 0.08554119431023614
0.0 0.11571883854082729 2.1204772004283945 0.08480491395004529
0.0 0.10260254584444534 0.7211364669425291 0.05912582066172542
0.0 0.10405264230720981 0.6176594563297063 0.04885345861622196
0.0 0.11322121691918817 1.3103144082565856 0.08906368730626033
0.0 0.11656867097301378 1.37994459242813 0.10337335634447983
0.0 0.10463187481784418 0.5069534641489782 0.06978008431085195
0.0 0.11978960552941952 2.01479192468562 0.07753076262951433
0.0 0.10457105609132411 2.129593576959232 0.07973469596254322
0.0 0.11358450970879991 1.2249214458307776 0.06208237742653111
0.0 0.10693852453139409 1.0532100889022145 0.07840859566521745
0.0 0.10793979740580943 0.9087065564035226 0.07290531404694958
0.0 0.11085403727041496 1.3570146398030714 0.08217693184230142
0.0 0.10751624624726056 0.49497668979919207 0.053492197440126496
0.0 0.10277298312896925 1.3401017282394325 0.0429744113317388
0.0 0.10339670061622411 1.0419100169273041 0.06740758413387882
0.0 0.10900054443933507 0.6613797306758997 0.06600690135329977
0.0 0.1139275136379143 1.4713765984697393 0.06449524861703307
0.0 0.10566576958740122 1.5179561573705405 0.05310371665615318
0.0 0.11593877498235011 1.4135954600206548 0.08386591581207414
0.0 0.10902497059168333 1.4023221750505968 0.0687113491675712
0.0 0.10334165819749633 0.5913157791361356 0.03904619750887153
0.0 0.1143352236149239 1.4984053399664545 0.06028035047664286
0.0 0.10450634568164979 1.2935711183379373 0.05696390628331097
0.0 0.10791398921318382 1.9813946898701569 0.0712034616072319
0.0 0.10314714421259756 1.504599870852475 0.05321425794106848
0.0 0.11203002580609922 1.821455788965057 0.060652540322732984
0.0 0.11685352502158351 1.8095046351581667 0.07273208880781558
0.0 0.11257648467162926 2.0473561293707863 0.08944672400772008
0.0 0.11221145168432028 1.866424822078002 0.049166483858984644
0.0 0.10276094955530059 0.9379463634420625 0.032899348531966396
0.0 0.10585600648332735 1.2784194520746865 0.06781242462490672
0.0 0.10968178019796222 1.7250672244228458 0.051088443577621614
0.0 0.11297141431358204 1.1583132755052954 0.09918185127171529
0.0 0.10692060926402007 1.5817251364307452 0.06333887965163405
0.0 0.10982703411040072 0.962466024969262 0.05431523182337538
0.0 0.11372116040747045 1.7125573970480532 0.10850613410449361
0.0 0.10267629629649996 1.4728927222882846 0.053019777613578144
0.0 0.11176260321629752 2.005523151724775 0.09153037035700387
0.0 0.11036518590284833 1.2636015776883616 0.055846697853575406
0.0 0.12152523846143312 1.8837893048839545 0.07845683619968158
0.0 0.10826795613072443 0.6054533997384934 0.041256665368520844
0.0 0.1238745770530774 2.0505566631915104 0.08681191282056576
0.0 0.1043346793968502 1.1504323723012284 0.06289728882475196
0.0 0.10918089975497618 1.8927708693348668 0.06962725381570137
0.0 0.10922274654649777 1.1693044739844918 0.07996090130111556
0.0 0.11009325025642219 1.2357243632842687 0.08387596589346198
0.0 0.11441984807642157 1.428578933186814 0.07930620316472763
0.0 0.11180080351977 1.8402050798273295 0.050134667791840386
0.0 0.11213959347999902 2.0255946413830634 0.06713593515553579
