x y z curv
0.852797047994898 0.09619727730751038 1.4593295799034391 0.06638256221118127
0.28279384217416303 0.09619727730751038 0.20617001377974026 0.0005436708125112014
0.5978806236074854 0.09619727730751038 1.263564596184133 0.0
0.44532384876193576 0.09619727730751038 0.9621383534417222 -6.085349955443343e-19
0.7596085756606709 0.09619727730751038 1.547265393943345 -6.8210489579585595e-18
0.4419668636804976 0.09619727730751038 0.30389037104215993 3.3660619931991256e-18
0.8200198424674096 0.09619727730751038 1.4078400001600662 0.0
0.4868195752069987 0.09619727730751038 0.3132269161608489 -2.5585050010367367e-18
0.8337987927176257 0.09619727730751038 1.4947454295187277 0.007326190863834522
0.7172431545487368 0.09619727730751036 0.2370080784026714 1.0001347677890547e-17
0.8015990916527215 0.09619727730751036 0.6574932435251933 -5.386494271403299e-28
0.6445513853130478 0.09619727730751038 1.2821272966509574 2.386234348048412e-17
0.3041816991392942 0.09619727730751038 0.22445127072417448 0.00020884798379346468
0.6408920369467871 0.09619727730751038 1.3212743203269048 1.3989718752018028e-17
0.6167662277230512 0.09619727730751039 0.9451090487091093 1.3712882779546954e-17
0.7652826524816592 0.09619727730751038 1.0065117708789773 0.17067786195181708
0.6542531254547004 0.09619727730751038 1.0644911601909484 1.2390267281103982e-17
0.24470837305062007 0.09619727730751038 0.44615345551168667 -2.2178727665445415e-18
0.379393304552924 0.09619727730751038 0.7264993005435759 -1.1185049726841905e-17
0.6371143289616352 0.09619727730751038 0.6311588543088422 -1.21697579027473e-28
0.8263635135133693 0.09619727730751038 1.2153991242785496 -1.3667395103633678e-17
0.6336343289136331 0.09619727730751038 1.4270533746154488 -2.489468817533469e-27
0.17312333886187542 0.09619727730751038 0.28915215396633487 -2.329581300149794e-18
0.7233434480480885 0.09619727730751038 0.9775889211011147 0.040760876286795304
0.8624326823435019 0.09619727730751038 0.5815249724524004 0.14530502663276973
0.8413371845172851 0.09619727730751038 0.5405775062982577 0.035554914917671335
0.7105935745614522 0.09619727730751038 1.1867588008246424 9.431019473792749e-18
0.8164076818135774 0.09619727730751036 0.5128888316258273 9.52602316848069e-18
0.7493435446233065 0.09619727730751038 1.0515210148168022 -1.2860139555310035e-26
0.858582797009234 0.09619727730751036 1.4132259055768792 0.11516182968928307
0.5037129041943768 0.09619727730751038 0.6775226017758113 -6.164550594631993e-18
0.6304161184739395 0.09619727730751038 1.414036125615467 1.2296788543111066e-17
0.38953442130830757 0.09619727730751038 0.7895968531786443 -4.1483775575579075e-18
0.5931457849147881 0.09619727730751038 1.1135563029643645 7.47607109716373e-18
0.4605296845151056 0.09619727730751038 0.31852355977055036 -1.727575222995227e-28
0.8007594390205408 0.09619727730751038 1.432166047981537 1.3968677905871385e-17
0.49891971630418636 0.09619727730751038 0.44566788837600246 1.4160136100858018e-17
0.8029347913597118 0.09619727730751039 0.7842323301660056 1.3656266577858381e-17
0.4484615731783136 0.09619727730751038 0.3697184296698885 -5.243287417814209e-18
0.7072777670737952 0.09619727730751038 1.2185215527879563 -1.2168297812461579e-17
0.7623378902346699 0.09619727730751038 1.5146020641572273 -7.827225392372391e-27
0.20199894426749393 0.09619727730751038 0.4020497440762365 1.431110960037288e-17
0.5358500598221868 0.09619727730751038 0.029528511836460034 0.07288826168425802
0.7766739070312625 0.09619727730751038 1.0889554639980377 0.00023790537762733373
0.6586267080478083 0.09619727730751039 1.3344085590286374 0.0
0.5421457450081352 0.09619727730751038 0.33485118458637275 3.0993451333037154e-18
0.20150573738454428 0.09619727730751038 0.28516630379657826 1.0857000252832509e-17
0.6127974085765309 0.09619727730751039 1.3188793241125552 1.402608255626719e-17
0.6527457550509707 0.09619727730751038 1.09069465927463 0.0
0.7723349689278636 0.09619727730751036 0.7367224025619659 2.486251341565052e-18
0.6219981170070686 0.09619727730751036 1.0644373941020422 8.838610064933363e-18
0.8124248615929467 0.09619727730751038 0.3780104795381485 0.0
0.5514282424042729 0.09619727730751038 0.879094135442979 -1.1461078222238077e-17
0.19948051493467128 0.09619727730751038 0.36164617764179524 -6.147346067411015e-18
0.5708334901059156 0.09619727730751038 0.14665368096563414 0.0005975244886900599
0.5148145746322406 0.09619727730751038 0.8156382533616707 -2.826564382812623e-27
0.495953558465663 0.09619727730751038 0.18208589630216107 0.0006286589341180401
0.756169903198806 0.09619727730751038 1.70197977086001 -2.186641384959206e-27
0.6532990577409544 0.09619727730751038 0.9330540121008136 2.200778698482298e-19
0.7918164670067306 0.09619727730751038 1.2937829106243288 -3.161719592983051e-18
0.7513604018347415 0.09619727730751038 0.2556601610592211 8.624937283446407e-18
0.727826442142988 0.09619727730751036 0.8620826981938259 -2.2350609160308474e-27
0.8217612720941916 0.09619727730751038 0.3929835933572664 -1.2797110950042637e-28
0.6429905956315893 0.09619727730751038 0.8688230934508685 -1.3937187540583263e-17
0.7664450265011257 0.09619727730751039 1.0448734871530792 0.05530984445582484
0.40169963576435475 0.09619727730751038 0.3792668234169534 1.340598383869323e-17
0.40247595924359875 0.09619727730751038 0.6192328300017038 1.3533775448278281e-17
0.6669373334602846 0.09619727730751038 1.0611907991101406 1.7254943830903193e-17
0.6387931232965096 0.09619727730751036 1.0009869574825385 1.546916900331535e-17
0.5552710309508158 0.09619727730751038 0.9557263790925543 -5.975138681375964e-28
0.6098981007158043 0.09619727730751038 1.1925563179507561 8.358577019922523e-18
0.8401203010838793 0.09619727730751038 1.3303259941083845 0.025982861924764088
0.37927719597178255 0.09619727730751038 0.16937735013966865 0.0005939915751866424
0.5870965686960639 0.09619727730751038 0.7190888873360424 -1.4466772012288264e-17
0.43164582854874356 0.09619727730751038 0.7287941813982345 1.3408418569762226e-18
0.5218193908795143 0.09619727730751038 0.883749621196735 0.0
0.45456565981503044 0.09619727730751038 0.24916697822756223 1.203241972192984e-17
0.8354357942446747 0.09619727730751036 1.0085267862119105 0.14546353867436027
0.792481961385803 0.09619727730751038 0.6805738751603261 -1.6106313342282094e-17
0.8660168169924026 0.09619727730751036 0.3326819849757449 0.12832962959613273
0.7828514593320409 0.09619727730751038 0.9751008429022952 0.12561559838147646
0.7440378862031145 0.09619727730751039 1.248160092450807 -6.67916337532998e-28
0.4053223558086842 0.09619727730751038 0.27640604846401307 4.769854337439985e-18
0.5423651889686222 0.09619727730751038 1.0292344542848204 9.972921178304516e-18
0.8309520740795374 0.09619727730751036 0.7340689905358788 -1.3211032602062411e-17
0.4710416420425645 0.09619727730751038 0.35804424550882513 -1.6784190488180124e-28
0.5861219025610579 0.09619727730751038 0.5125022067475565 -7.726027859369397e-18
0.8583428686787422 0.09619727730751038 0.43324425031564384 0.09322478008008467
0.7266510078483377 0.09619727730751039 1.6157954539550625 0.0
0.32358903117710613 0.09619727730751038 0.0836841204698543 0.00042418371678586326
0.8528402495481662 0.09619727730751039 1.746637815898593 0.09411883641682187
0.557195965640872 0.09619727730751038 1.0270523087652363 -6.462234133054557e-18
0.7478392815821556 0.09619727730751036 1.5453309076551773 2.9512709475024952e-18
0.6602075851249456 0.09619727730751038 0.13158117923374787 0.00043492890298920767
0.8175846973204682 0.09619727730751038 0.43678763731616066 -1.1060209700202282e-17
0.3483992927256541 0.09619727730751038 0.7204708987555769 9.937329898449119e-18
0.7426919675301455 0.09619727730751038 1.5361115170285875 -4.3520871557209766e-18
0.6515141791083074 0.09619727730751038 1.1817903073664775 9.767252819589767e-18
0.22928989118119908 0.09619727730751038 0.18996083500024388 0.0005463312579289416
0.39850129004576346 0.09619727730751038 0.8399814698296104 -5.447370718084605e-28
0.7214044966307905 0.09619727730751038 0.9584170135177181 -5.5188513843348245e-28
0.7486562880298815 0.09619727730751039 1.6356151459852788 -1.0805573565717236e-19
0.6307360657789516 0.09619727730751038 0.4052963987392858 -1.2664109883691522e-17
0.5337239415218555 0.09619727730751038 0.8983270949495541 -2.600326168572653e-18
0.2773758190222183 0.09619727730751038 0.5304517088008321 -1.7071934919033179e-18
0.2705625496025954 0.09619727730751038 0.5543747076969575 0.0
0.7689876552077894 0.09619727730751038 1.7222257485334036 1.1239671410330435e-17
0.6844945923937283 0.09619727730751038 1.427125861319513 0.0
0.5909601380265715 0.09619727730751038 0.6091628469278235 1.7122066371787275e-18
0.5175102922379292 0.09619727730751038 1.042391996877779 -3.660676960354726e-18
0.3836292478461945 0.09619727730751038 0.5367556101553722 6.701552152275593e-18
0.8301105082148634 0.09619727730751038 0.7127195146068759 -5.837134601862937e-18
0.5451167253796314 0.09619727730751038 0.7218627650092634 1.1189303676567703e-17
0.5364102514531937 0.09619727730751038 1.0913047923490204 -5.756447534899004e-27
0.39345014623560837 0.09619727730751038 0.6071861043076231 1.0012076169505683e-17
0.8462209600699337 0.09619727730751038 1.4484544970365076 0.06767103774818387
0.7302119813056658 0.09619727730751038 0.8413937056534964 -5.308648829855428e-28
0.8173801573391918 0.09619727730751038 1.7755105446960369 -5.025589014034354e-18
0.6459883027863842 0.09619727730751038 0.29133024714271866 -1.6514208442253066e-19
0.6474437136913144 0.09619727730751038 0.7304700943749681 -5.478889892133092e-28
0.8050062927653324 0.09619727730751036 1.7094723591952115 -2.467752232129201e-18
0.5833151453236769 0.09619727730751038 0.4333337905711091 1.3519809520415166e-18
0.33956507493242827 0.09619727730751038 0.36773388418689046 -3.1085920106684723e-18
0.7581486385558898 0.09619727730751038 0.30711592864014403 -3.784828618716488e-29
0.5414981840049383 0.09619727730751038 0.643376730437744 4.673039582047903e-19
0.7433424471036046 0.09619727730751039 0.21095451824370876 0.0002887261584211681
0.7337795149614532 0.09619727730751038 0.5078455557008188 -1.522648891572097e-28
0.7567340297478968 0.09619727730751038 1.2655232734757806 -9.444756726160797e-18
0.6241224328973146 0.09619727730751036 1.2509600931209988 -8.808542329348516e-18
0.5876932712814962 0.09619727730751038 0.4070489205704304 -1.5147112865447786e-17
0.5727099494390785 0.09619727730751038 1.1609421878052706 -2.808824381035601e-27
0.16755633260220404 0.09619727730751038 0.2322205570583221 0.0002998829017212937
0.6434235778884526 0.09619727730751038 0.451840838973049 1.057405060103681e-17
0.842301803985813 0.09619727730751038 1.319182437586801 0.03724389606586574
0.36821324657379667 0.09619727730751038 0.4041027621446384 -8.717278758395333e-19
0.6428606707540676 0.09619727730751036 0.2331843538621987 0.00010164365232162189
0.4425921306022926 0.09619727730751038 0.8797952974951677 1.771357723495743e-20
0.5679595470842187 0.09619727730751038 0.736552125646151 7.64584734732392e-18
0.40596650065799555 0.09619727730751038 0.5261237932857181 -6.432465825669254e-18
0.4949346474575351 0.09619727730751038 0.8976496286728428 -1.6863822729576553e-18
0.6075992896229433 0.09619727730751039 0.8597186244376079 1.1773192655922216e-17
0.824783008048106 0.09619727730751038 0.12830814348949246 0.0005595048808845357
0.7397988101684504 0.09619727730751038 0.6274371271957007 -6.460053411757135e-28
0.7449714513613488 0.09619727730751038 0.24466864412299444 2.2532745208904325e-17
0.31702345563808915 0.09619727730751038 0.44227297143501476 -1.3533832976775245e-17
0.6885685955229055 0.09619727730751038 0.79713155846198 2.3407581569511532e-18
0.8620128388517836 0.09619727730751038 1.7997248878271737 0.14150136308659406
0.6413809964471581 0.09619727730751038 0.7977284969672773 8.428763882660695e-18
0.8645518802241726 0.09619727730751038 0.04477436253618494 0.12529749791262107
0.44807578927686836 0.09619727730751038 0.322323749428861 -3.7278618703950355e-29
0.7369164076920525 0.09619727730751038 0.2558930162244853 9.647365743252556e-18
0.23357955119937818 0.09619727730751038 0.44852748189849034 -4.590420927582096e-18
0.816767951530506 0.09619727730751038 1.5982536148779474 2.6543393709832264e-17
0.818692337784527 0.09619727730751038 0.8624395430673584 -4.584446450671948e-28
0.785899420622208 0.09619727730751038 1.067553541712049 0.07930904156601336
0.8009258885200409 0.09619727730751038 0.5131527063238769 -4.534695315475306e-18
0.5518049715617145 0.09619727730751038 0.9826434556798683 -7.743904599942246e-19
0.6293750987497067 0.09619727730751038 0.35308076540278543 -3.359803353050799e-18
0.5710779081081943 0.09619727730751036 0.301894943234788 1.1352527212664331e-18
0.5276085764118031 0.09619727730751038 0.8720765171823186 4.588162675020204e-19
0.5873511154879436 0.09619727730751038 1.1706182722112688 1.2707298294672788e-17
0.7993204131956271 0.09619727730751038 0.24387925602041377 1.1891268967209536e-05
0.6154858031892207 0.09619727730751038 0.6395176036130847 -1.4236375622092003e-17
0.8430244844305724 0.09619727730751036 0.22437769417627107 0.037771780372664536
0.8569991453311038 0.09619727730751039 0.6004827720585508 0.10412052671770353
0.5904114126779598 0.09619727730751038 1.2972971592227358 3.923118808981074e-18
0.7145942392684348 0.09619727730751038 0.4161624073993525 -6.553873441118211e-18
0.7573671870892944 0.09619727730751038 1.1555547688566081 -2.033051930159302e-27
0.5691363768795954 0.09619727730751038 0.7170802468504511 1.0782412870602234e-17
0.6898829136269622 0.09619727730751036 0.8937925001075109 -1.6108641957668693e-18
0.8692386366278438 0.09619727730751038 0.7134756148512524 0.1583644254198879
0.7849127128760323 0.09619727730751038 0.5286759281240381 -2.891264368734154e-18
0.7534691807455797 0.09619727730751036 0.4521255295079658 -5.599035185902899e-18
0.7674024772849735 0.09619727730751038 1.3702032932256776 6.98408534424547e-18
0.6438117452911648 0.09619727730751038 0.9036741240038919 -5.145721493203009e-18
0.2501697068320622 0.09619727730751038 0.297617798627596 1.1334843769319512e-17
0.7510917425297111 0.09619727730751038 1.1469448291668558 -2.135848395219966e-27
0.3893912415771539 0.09619727730751038 0.16449258389673405 0.0006032435610674006
0.8170017617652947 0.09619727730751038 0.0590494012450028 0.0005437348960662853
0.7666346523767806 0.09619727730751038 0.25443534444012234 -3.078547584679887e-29
0.772363069635916 0.09619727730751038 1.2542127211904355 -5.2748962048689235e-18
0.656241153719306 0.09619727730751038 0.31244996964796773 1.7370721665647312e-17
0.8395717266284759 0.09619727730751038 0.4531907335256432 0.029992975912663068
0.6714657538739696 0.09619727730751038 1.2922568350483525 -6.146840391843349e-28
0.2971199408231273 0.09619727730751038 0.23330610699348897 0.00016558786896934873
0.5165175980986743 0.09619727730751038 0.731421218083472 -2.094706575531205e-18
0.29459434408942486 0.09619727730751038 0.31090271376264045 -3.4609509035052793e-28
0.424012813154413 0.09619727730751038 0.39632393796103393 -1.1979597137704151e-28
0.7375855956810102 0.09619727730751038 0.34724739814028766 -2.623942410129323e-27
0.7484374428400924 0.09619727730751038 1.3169968480402972 -9.989830659699846e-18
0.7834832465766312 0.09619727730751038 1.3186298479387508 -3.034707386379959e-18
0.8088081755207236 0.09619727730751038 0.06658419623669568 0.0005729132434795777
0.7334612203541623 0.09619727730751036 0.5758984845385993 -2.570570712608979e-27
0.6792106500965502 0.09619727730751038 0.9185329060769598 -8.061602345771761e-28
0.49604222090490885 0.09619727730751038 0.38089251305834365 -8.008503917085818e-18
0.6607539160987879 0.09619727730751038 0.7331087905867963 1.049023175446662e-17
0.6347497227532959 0.09619727730751038 0.7018527329391864 -9.499619281986008e-18
0.8682162433512874 0.09619727730751036 1.7550043769521517 0.11837621871495967
0.66078613798906 0.09619727730751038 0.70095050354928 0.0
0.8534750102322023 0.09619727730751038 0.24493893405892578 0.08711194672219857
0.44221303800222406 0.09619727730751038 0.6401784065065835 4.814040193757355e-18
0.28500185079298085 0.09619727730751038 0.12847887255449728 0.0005009911799521244
0.5391801646423208 0.09619727730751038 1.1665204436792658 -7.178233433828823e-18
0.6912712267118125 0.09619727730751038 0.5686290683354541 -1.5508183414281876e-28
0.5291919807874536 0.09619727730751038 1.1360463897242215 -1.0149462670389321e-17
0.5915382648731777 0.09619727730751038 1.1305992113545367 1.628239403019869e-17
0.7057875298375561 0.09619727730751038 0.07906958956684701 0.0005211086669400563
0.8288864845380703 0.09619727730751038 1.3840321646627838 4.065765781782861e-18
0.8450256930079012 0.09619727730751039 1.136187590083589 0.043891624730064686
0.6083156547965515 0.09619727730751036 0.4079870939292759 -9.218020747377062e-18
0.5603634642906868 0.09619727730751038 0.19684635109477308 0.0005733551999078946
0.7929566494871301 0.09619727730751036 0.27757566524745136 -1.0882118535010192e-17
0.3643296959398464 0.09619727730751038 0.6093979866691256 -5.072690116143516e-18
0.8183175482374779 0.09619727730751038 1.637985599068216 0.0
0.7745938411648932 0.09619727730751038 0.40627992761597115 -1.240363909100191e-27
0.5972051363628945 0.09619727730751038 0.6205215527222849 -5.551372551659458e-28
0.643889299822004 0.09619727730751038 0.6407676710771796 -3.922763704568477e-18
0.8481280655034613 0.09619727730751038 0.06345238203007324 0.057431844682417826
0.5421737153789861 0.09619727730751038 0.9959391213743641 -6.133342958625892e-28
0.5620571029057936 0.09619727730751039 1.1166163954229837 1.9621411446781356e-18
0.8073962984036974 0.09619727730751039 1.3395882737805906 -2.782952241281574e-27
0.4594236495911912 0.09619727730751038 0.6838552922515568 1.8215612161738738e-17
0.7444812739175743 0.09619727730751038 0.703878809039233 -1.3363715995390528e-17
0.2135902825707399 0.09619727730751038 0.2230893867008979 0.0004892420992455932
0.7686074010097257 0.09619727730751038 0.05178244380797048 0.005505264059905157
0.47512492762465947 0.09619727730751038 0.49314208159853057 -1.6063184673110144e-28
0.8024505539138742 0.09619727730751038 1.3059363720229027 8.743116742425761e-18
0.7754378957245608 0.09619727730751038 1.521357643769201 -1.9901972197816965e-27
0.4484240927784405 0.09619727730751038 0.2663140487201714 6.809192461216085e-19
0.7747476144238447 0.09619727730751038 1.0133656059217888 0.20708037212759933
0.5138823211684714 0.09619727730751038 0.3239157408285185 -1.3989469784377336e-17
0.7760623681210631 0.09619727730751036 1.2935334819707873 2.5133332641604915e-18
0.572336483283718 0.09619727730751038 1.2595358520335793 -7.41056789213716e-18
0.21145578318160999 0.09619727730751039 0.2978538794295681 9.765691953274056e-18
0.2592893978034395 0.09619727730751038 0.3514448042793819 -1.0844423602132836e-17
0.5198815243128885 0.09619727730751038 0.45106587689001604 -1.2073430428391968e-17
0.48366926825162504 0.09619727730751038 0.37253545201404165 -7.612062441861072e-18
0.6127948417905684 0.09619727730751038 0.3782963791122336 -1.4292963559088303e-28
0.8370547290053242 0.09619727730751038 0.1686064031526731 0.01756719993705179
0.7859429996520024 0.09619727730751038 1.109761631515263 -7.390599014665048e-18
0.27810432729027235 0.09619727730751038 0.5767933243808157 -1.4672055423786922e-17
0.6835748190080201 0.09619727730751038 1.3692019767666896 -1.5773519307627485e-17
0.8404250674889993 0.09619727730751038 1.6371600552272583 0.014823161413888671
0.7972445486633377 0.09619727730751038 1.0608555660886505 0.14482353519355232
0.836323397420501 0.09619727730751036 1.819394532784594 0.01987079262271156
0.48583859923231576 0.09619727730751038 0.2648107868084023 -3.381859084605169e-29
0.4821842348574546 0.09619727730751038 0.7029603519746042 5.560898166957691e-18
0.796235428112058 0.09619727730751038 1.5676402162201049 -2.4583193853047715e-27
0.48360918764715266 0.09619727730751038 0.6623998592179612 -9.907843032033485e-18
0.6464748045661237 0.09619727730751038 1.025832240609723 -1.5095512021445475e-17
0.4941166759207721 0.09619727730751038 0.5426851742160379 -1.4824262041857612e-18
0.5868260580622168 0.09619727730751039 0.029782182177739133 0.06723289440420847
0.43144789466555455 0.09619727730751038 0.2726469857655668 -1.352496092474963e-28
0.8510395834278748 0.09619727730751039 1.3335538249620542 0.10297781470786488
0.7935914234238721 0.09619727730751038 1.2818991251388656 -4.2074264654484414e-18
0.6540309475678238 0.09619727730751038 0.24985002765513217 0.0
0.7235811798251574 0.09619727730751038 0.7981267795755164 0.0
0.7726836871978595 0.09619727730751036 1.3446593488260572 1.2176651328731958e-17
0.5219769416931208 0.09619727730751038 0.08995498569280051 0.0005115633329415354
0.5977215735565999 0.09619727730751038 0.4574886474025471 -4.882422206884262e-18
0.7624161573831376 0.09619727730751036 0.8340240981398901 -5.188075389737875e-28
0.7548632684589266 0.09619727730751038 1.3381936709621647 -6.62234495329945e-18
0.5504573146026659 0.09619727730751038 0.7409540645374388 -1.5681679018305256e-19
0.675190959743835 0.09619727730751038 0.7987748056692258 -5.168611909792894e-28
0.5600517757042776 0.09619727730751038 0.9734569764812557 1.1166648382997703e-17
0.3934232947103273 0.09619727730751038 0.31709749834450757 -4.531334301458564e-29
0.5052818841278314 0.09619727730751038 1.0453074266200926 -1.562218641876593e-17
0.28118609056831445 0.09619727730751038 0.4025490353044229 2.8120422604183777e-18
0.21187899440657484 0.09619727730751038 0.4214502758661748 -1.4072775925984483e-28
0.7698172310469814 0.09619727730751038 1.5310381220113112 -1.6820594059508475e-17
0.7639954297057551 0.09619727730751038 0.40232791952844965 2.306898220356771e-18
0.5352501908723722 0.09619727730751038 1.1532787029632783 -1.9953547317448685e-26
0.32096953230359293 0.09619727730751038 0.5316678370617546 1.1698933152248245e-18
0.672363465750228 0.09619727730751038 1.3814412156601312 5.122887047686622e-18
0.8384220795818783 0.09619727730751038 1.5835566139674626 0.024464714082680347
0.7644047413562531 0.09619727730751038 1.1701770718963502 -5.661114665980797e-28
0.863899083342236 0.09619727730751038 1.449956230146056 0.13477555513073045
0.5451638272730593 0.09619727730751038 1.1284403332537243 2.4873099405431718e-17
0.7992426277066533 0.09619727730751039 1.7798194897948858 -3.3506037422702627e-18
0.5700372098689759 0.09619727730751038 1.1327333278522627 1.4393719845727887e-17
0.7111476920756262 0.09619727730751036 0.31014140711270577 -3.408901959857859e-18
0.7933077654853987 0.09619727730751038 0.48316870651019156 -1.4303252502053952e-28
0.3122023804242035 0.09619727730751038 0.31944142499695966 3.7923972231533234e-19
0.6339169997137252 0.09619727730751038 1.0145325769384879 1.119840280083699e-17
0.6794699073126416 0.09619727730751038 0.9368249072048647 -1.8718140922028446e-27
0.3737656592393732 0.09619727730751038 0.6937988242087005 0.0
0.1195229787709113 0.09619727730751038 0.07133768815317658 0.00059813170086284
0.6277204629754133 0.09619727730751038 1.3176045463513826 7.146782859238372e-18
0.770082774601691 0.09619727730751036 1.0559121119918837 0.06005959134341972
0.8280493807044489 0.09619727730751038 1.6748846859197555 1.010920928381171e-17
0.7032384594866955 0.09619727730751038 1.274609187892821 -2.3941931920396635e-27
0.7841141778891378 0.09619727730751039 1.3477357386998334 1.1379662468047277e-17
0.31049377844837506 0.09619727730751038 0.33322766722960084 -2.1550685606274305e-18
0.7046874328275017 0.09619727730751038 1.1956549035713373 -2.0978239918966393e-18
0.7741093886764412 0.09619727730751038 0.3212781925953196 3.495487171572305e-18
0.8094946476807106 0.09619727730751038 0.9801775000621218 0.13315374790480908
0.4935373625471543 0.09619727730751038 0.7276783477550044 -1.2745444298924263e-17
0.47464649310520557 0.09619727730751038 1.0397453626629114 4.5934737078320855e-18
0.6093108765839342 0.09619727730751038 0.30403385182255716 -9.699480892222774e-18
0.5526144022262394 0.09619727730751038 0.5999093957589674 1.2038300165329741e-17
0.8524930372422902 0.09619727730751036 1.8567908521015417 0.11339094503801947
0.7813144195440549 0.09619727730751038 0.8113235573481316 -1.0359048205423843e-17
0.2657508686184558 0.09619727730751038 0.5350772956589314 1.4124314454513027e-18
0.8282578525647185 0.09619727730751039 1.2941191136278782 -4.73102109401665e-18
0.7721732134260406 0.09619727730751038 1.55860289081036 8.354297618682237e-18
0.6040688448684611 0.09619727730751038 0.6287634326092614 1.0812044217590782e-17
0.6478424491701225 0.09619727730751038 1.2429450153892447 1.9857862165182765e-18
0.8609946149690962 0.09619727730751039 1.2479510658753048 0.11637318116567145
0.51742919355516 0.09619727730751038 0.38574923058207067 -1.6417796295777898e-28
0.855460468947066 0.09619727730751038 1.3724959511875536 0.13247315281269428
0.6391319885338052 0.09619727730751038 0.1243798062565395 0.0002689825971971619
0.5422415342982936 0.09619727730751038 0.4921867133261172 -1.1520007620192667e-28
0.6754313654808205 0.09619727730751038 1.4812449648560058 -1.3669536559709863e-17
0.7048409697787209 0.09619727730751038 1.2587306625033061 -4.517230832363071e-18
0.4160667810623943 0.09619727730751038 0.6478872650806446 -5.220306898217181e-28
0.7079738529223042 0.09619727730751036 0.22945501458980372 2.738534048231419e-17
0.5729354070606199 0.09619727730751038 1.0306534875460147 1.0227735986312716e-17
0.5575230823472161 0.09619727730751038 0.9090682198904775 -5.8652006449271045e-28
0.5736211545350957 0.09619727730751038 0.766597564633361 -3.806250097748162e-18
0.44535488120101197 0.09619727730751038 0.5966783075198832 -1.9837813030262302e-18
0.5528022824941116 0.09619727730751038 0.8205349034064853 0.0
0.8242907814654268 0.09619727730751038 0.8055876742506851 -1.854954588097699e-17
0.4250105751331703 0.09619727730751038 0.16816419613419734 0.0005637569341772967
0.7424554614042181 0.09619727730751039 0.23022727746309157 1.184255600905597e-05
0.8011527721588038 0.09619727730751036 0.7958674190613261 -4.943726856734142e-28
0.4761406090375043 0.09619727730751038 0.9818127721079538 1.080729217977355e-17
0.4352378332921981 0.09619727730751038 0.03650390874142653 0.0472030511868826
0.8643261242680376 0.09619727730751036 1.5941478721921256 0.1253897562097367
0.6025304271013902 0.09619727730751038 0.8925261087751335 0.0
0.6928652865783392 0.09619727730751038 1.2930432520185107 -1.639483192044349e-17
0.5372974339653541 0.09619727730751038 0.5216348904516094 9.696601862546537e-18
0.5942139755801352 0.09619727730751039 0.8632313579534225 4.2304010964453606e-18
0.7156343831862314 0.09619727730751038 0.1816027304003663 0.0004986996506433439
0.6150207235694021 0.09619727730751038 0.6122125747937929 -3.889666255208274e-18
0.6433989566629136 0.09619727730751038 0.9160557454701705 6.828265895175087e-18
0.4950896740302124 0.09619727730751038 0.7080214550085886 -2.1418994158350803e-18
0.7688178363621273 0.09619727730751038 1.461507912117607 -9.831627931573952e-18
0.851865917585747 0.09619727730751036 1.8838654490070026 0.09644108814171938
0.16903321557878026 0.09619727730751038 0.09630380102489487 0.000708846208991139
0.8357033437885121 0.09619727730751038 0.4384044223221742 0.007562228601993755
0.718181132007613 0.09619727730751038 0.43522631220433067 -7.890776199915376e-19
0.7961867739369104 0.09619727730751036 1.685944429863599 1.0456544802398783e-17
0.8511487297385117 0.09619727730751038 0.5232730908234563 0.08266416801156395
0.38257057918704324 0.09619727730751038 0.608326806572638 -1.0699773953471082e-17
0.6676875334580514 0.09619727730751038 0.2685276254505788 -4.9877474607313624e-29
0.7046812778396148 0.09619727730751038 1.2449110628792688 1.4497287299393152e-17
0.7989068932389711 0.09619727730751038 1.7215427854407706 -1.974125603517429e-27
0.6748703099228771 0.09619727730751036 1.034802630251992 -4.22346304115679e-28
0.5718432156393954 0.09619727730751038 0.10264208493164206 0.0006328214671980413
0.6091080718097596 0.09619727730751038 0.368013521433024 -7.754424120795838e-18
0.8602968805650686 0.09619727730751038 1.1056545385381296 0.10316561942114903
0.5052378383170624 0.09619727730751038 0.7716747297660489 -2.3056777651713837e-27
0.7237696393633468 0.09619727730751039 0.04668069072669274 0.03184077405742214
0.6747625160647666 0.09619727730751038 0.6767950729856135 0.0
0.8505052244307127 0.09619727730751038 0.9538674678449104 0.15151835934312652
0.31800511303973755 0.09619727730751038 0.27280157644527814 -3.754731299471531e-29
0.35758142336459864 0.09619727730751038 0.7102602583625375 3.2266969779294035e-18
0.7532214328590998 0.09619727730751038 1.6757423625434833 1.7231201632783868e-17
0.3677186532010374 0.09619727730751038 0.5977976284990527 7.175968290097936e-19
0.7838473646388304 0.09619727730751036 0.2866697064379379 0.0
0.8044020533872188 0.09619727730751038 0.6963527327771056 1.9573516173981528e-17
0.39829906401039744 0.09619727730751038 0.6490285194583457 -1.1772011159916128e-28
0.7381554275931331 0.09619727730751038 1.3598811482430282 -1.3344291760013885e-18
0.5530122659616854 0.09619727730751038 0.3095865366349375 1.5091430294561701e-19
0.7665295536082126 0.09619727730751038 0.747561857875145 3.2373447756052904e-18
0.7838647241429094 0.09619727730751038 1.0432306540758969 0.1077114637285896
0.8495237236563832 0.09619727730751038 1.496070975071212 0.06006135508565547
0.6514755711431425 0.09619727730751038 1.0376607173475203 -1.6524924782240872e-17
0.7220780048407871 0.09619727730751038 0.5414174649441679 4.5561366993505324e-18
0.32968310938720147 0.09619727730751038 0.10340268480966851 0.00043275050808106824
0.412303097050044 0.09619727730751038 0.5873773791770336 -6.726748663088397e-28
0.551094438458561 0.09619727730751038 0.7007795394585623 -5.226399786857345e-18
0.7212399738154166 0.09619727730751038 0.5299601214475573 -1.0560516462417339e-17
0.7751827372074179 0.09619727730751038 0.39077167916574496 -5.231749114623899e-28
0.7973176094709106 0.09619727730751038 0.9544438735184488 0.17847202412669108
0.7966800736003774 0.09619727730751036 0.8198661570289825 0.0
0.6123766373968309 0.09619727730751038 0.34652959717242515 -1.4911825557373456e-17
0.8317614119585671 0.09619727730751038 0.4964529154138178 -4.3026075887238754e-18
0.7236402078845706 0.09619727730751038 0.4936887026040632 5.895260983987904e-18
0.597339308583681 0.09619727730751038 0.3504157888484507 0.0
0.6959511536438626 0.09619727730751038 1.385314767694135 -8.471730280170004e-18
0.7882897760087337 0.09619727730751038 0.38490002506452975 -2.5407195003214848e-17
0.6860838249913273 0.09619727730751038 1.4463809751618733 -2.2454907963443722e-27
0.511144012764403 0.09619727730751038 0.9467166569617091 -8.42629866685056e-18
0.49349815995096913 0.09619727730751038 0.21866432392403826 0.0003824816519257298
0.44026466844668455 0.09619727730751038 0.6793118327076719 -6.349834250180584e-19
0.7411258453555115 0.09619727730751038 0.47406452941649124 1.2185522115429593e-17
0.7630258302642484 0.09619727730751036 1.1821818382052245 -1.9166497940802753e-27
0.5261420427265778 0.09619727730751038 0.20691774512959432 0.00042744941152185435
0.6233085649691364 0.09619727730751039 1.036792580805446 -1.4101547752717633e-17
0.6061067909223722 0.09619727730751038 1.1367448087213896 1.09150739537772e-17
0.5506163568307576 0.09619727730751038 0.3253124689850211 -1.3013531897033641e-17
0.8017679226162198 0.09619727730751038 0.29278148651650776 1.6652284137069256e-18
0.6407304096171885 0.09619727730751038 0.07938628309297305 0.000591639236899779
0.4707406855085881 0.09619727730751038 0.38580293152429557 -6.581867155134243e-28
0.7733451638389506 0.09619727730751038 0.7961135346842603 -5.719221125687723e-18
0.4553997401966787 0.09619727730751038 0.7818618008497003 -1.2761392011218912e-17
0.35600234679682896 0.09619727730751038 0.5966978663087873 -1.419778776808219e-28
0.5576885994138902 0.09619727730751038 1.1527707191754635 -6.573670234914163e-28
0.44183433130187877 0.09619727730751038 0.5139340094542688 -6.733873082064149e-28
0.31918889085030144 0.09619727730751038 0.486463657243501 -1.289483353877784e-17
0.856664814098489 0.09619727730751038 0.7290774564376606 0.09486524867390374
0.8643149432208591 0.09619727730751038 0.8184740955805231 0.10653501192512868
0.6080317363385407 0.09619727730751038 0.9959802143977592 -5.985859107069418e-28
0.7418381421192368 0.09619727730751038 1.3718505893421087 0.0
0.8484314272117617 0.09619727730751038 0.640665724466425 0.08058153303923384
0.4078064460835711 0.09619727730751038 0.2175126963254418 0.000367019315328366
0.6105142385743328 0.09619727730751038 1.1479693785117182 2.5432356790913077e-18
0.2929386921963927 0.09619727730751038 0.49180921136427896 5.0831199311941e-18
0.8447486163951882 0.09619727730751038 1.215349382767847 0.04633130162504628
0.5681811816847958 0.09619727730751038 0.565296629946957 1.2224016401212142e-17
0.8479448232661092 0.09619727730751038 1.3964504868151624 0.06089869140200878
0.6130446657462867 0.09619727730751039 1.3681390735797023 -4.36478886909798e-18
0.5984117991576118 0.09619727730751039 0.8133549928640982 -8.515608432209002e-18
0.7656445333161955 0.09619727730751038 0.9839071141154058 0.13403855972467366
0.7792283864041233 0.09619727730751038 1.1789685900233848 -9.487518991941803e-18
0.8094303073517317 0.09619727730751036 1.4519963053774836 -2.530747875579587e-18
0.2124901183234338 0.09619727730751038 0.17364586902835683 0.0005447370776832591
0.1478652642544423 0.09619727730751038 0.2567342334962162 1.0172595961766708e-17
0.4908069258526856 0.09619727730751038 0.3005856212846709 -7.162069497578824e-18
0.5071986305672018 0.09619727730751038 0.37325993285871356 -4.714579280142738e-18
0.6306287408935446 0.09619727730751036 0.15494998346967204 0.0003294207218279774
0.5820809109814465 0.09619727730751038 0.4963552811553791 -4.538715051414529e-18
0.7563585356333881 0.09619727730751036 1.039258205768798 0.011313374396764612
0.704938585210608 0.09619727730751039 1.558520794107837 -1.5215680561700262e-17
0.4830032981137379 0.09619727730751038 0.5635566741393541 -6.405248138589826e-18
0.5658803446442313 0.09619727730751038 0.6048511062929257 7.724972152942556e-18
0.8091208157598254 0.09619727730751038 0.4273665215203927 -1.2010456958897594e-17
0.6464257307656057 0.09619727730751038 1.1473339790945292 -6.4832809599014325e-28
0.5942721591677464 0.09619727730751038 0.7887964404695346 -5.5367182718873155e-28
0.6483061046690181 0.09619727730751038 0.7043181051202881 4.472050645971207e-18
0.496007659310933 0.09619727730751038 0.3692039917028744 -1.038378569697345e-17
0.7263349805468592 0.09619727730751038 0.24755259653734682 9.092492931069199e-18
0.7498761239591076 0.09619727730751038 1.610518717099592 -2.5596995607328078e-18
0.10484097035324752 0.09619727730751038 0.11643114995422249 0.000590422250541512
0.7207079950305496 0.09619727730751038 1.372903271285013 1.085464627440783e-17
0.6565432811683517 0.09619727730751036 1.3663711578995517 0.0
0.5387999606800294 0.09619727730751038 0.3078630921743892 -8.314407542773525e-18
0.6368648985743455 0.09619727730751038 1.1120899440659051 1.8413217571629522e-17
0.7436005029666447 0.09619727730751036 0.37653830650166176 -1.3423305923811977e-18
0.616673687916648 0.09619727730751038 1.127152731399658 1.491646876123961e-17
0.29026945220992945 0.09619727730751038 0.43722274531365674 -5.1494439454648105e-18
0.8490120620217398 0.09619727730751038 1.759919521638396 0.052278554993185164
0.27385257696492676 0.09619727730751038 0.5117138002682767 -3.65092496181263e-19
0.7918705723729231 0.09619727730751038 0.7341466063875605 -1.1363492128719151e-17
0.8025639840097102 0.09619727730751036 1.3609046539400238 -7.50482856725648e-19
0.560590751285108 0.09619727730751038 0.38665810272520607 -4.0497614949671954e-18
0.22208787958969603 0.09619727730751036 0.44931471346895574 -8.685324533890648e-18
0.4915833767353645 0.09619727730751038 0.861423211295356 -6.041317754135661e-28
0.3607451098039281 0.09619727730751038 0.6436880458748107 -1.1834201992512797e-28
0.8346254034172023 0.09619727730751039 1.205854461254793 0.009735473900181906
0.6541463970059787 0.09619727730751038 1.2620162197669136 -8.450605096909087e-18
0.8197878339058379 0.09619727730751038 1.3272274177876826 8.397871577135001e-18
0.5256336043120299 0.09619727730751038 0.47069143350517734 0.0
0.7457042251392958 0.09619727730751038 1.4056695571990245 1.2720863389865935e-17
0.6541990913106377 0.09619727730751038 0.7178668271464009 -3.3447384184982286e-18
0.7916213777947279 0.09619727730751036 1.5560710336368568 -1.0369882996155667e-26
0.8256152937296464 0.09619727730751038 1.4254869414606388 0.0
0.6193001107678063 0.09619727730751038 0.8474550613447068 8.892223969821143e-18
0.5774511426209206 0.09619727730751038 0.6266283159321145 1.1635775544137257e-17
0.8055488238095674 0.09619727730751038 1.2824935054778959 -9.86002817546882e-18
0.644986180516571 0.09619727730751038 0.24494339289516617 -4.6842980190913306e-29
0.5532812725155687 0.09619727730751038 0.23391638723254252 0.0001657652890449989
0.76368793978266 0.09619727730751038 0.029213338533822797 0.06513194889853634
0.6219961271758142 0.09619727730751038 0.44084538333615325 -9.49933649882204e-18
0.677306915969828 0.09619727730751038 1.3026927953630847 -7.371409002207898e-27
0.6038344042243196 0.09619727730751038 1.3045681875107447 1.4694034275661213e-18
0.49422776718860506 0.09619727730751038 1.0571039506178537 -8.28375008233991e-18
0.5088593863538944 0.09619727730751038 0.932472702281322 1.2138141660609674e-17
0.6454108591678646 0.09619727730751038 1.4284672664300093 -9.719313543129253e-18
0.4976448265095818 0.09619727730751038 0.9799267884556396 7.185273041576764e-18
0.7088937692078476 0.09619727730751038 0.9662704274724859 -5.115307329705802e-28
0.8134286002166212 0.09619727730751038 1.8191372711035105 -8.014116165941727e-18
0.7280667001644064 0.09619727730751038 0.624823941007218 -1.1455879863939779e-17
0.1837108503571838 0.09619727730751038 0.06484285012341168 0.000598431362576569
0.6227577115200433 0.09619727730751038 0.9147199855672253 -7.757381299118634e-18
0.33971365921757773 0.09619727730751038 0.2649617545941989 -5.655417634667334e-18
0.7187902513036297 0.09619727730751038 1.211948592097229 -9.739277474359834e-18
0.7523071654516165 0.09619727730751038 0.7687100276914406 0.0
0.6525237035340976 0.09619727730751036 0.4213808971296295 -4.5934782369250805e-28
0.8120120986996969 0.09619727730751038 1.1578329232658429 -3.1359320424124677e-18
0.6674081200306778 0.09619727730751038 0.6389353701326239 7.653071373052575e-18
0.22804937643488837 0.09619727730751038 0.15672364630153215 0.00046781632046937003
0.8628314027365199 0.09619727730751038 1.905771118253179 0.15315837535490026
0.624494196973313 0.09619727730751038 0.3953374130127528 8.62361043600956e-18
0.311118850253045 0.09619727730751038 0.5698073768634794 0.0
0.4163883109827142 0.09619727730751038 0.751330085961962 0.0
0.8246140645815264 0.09619727730751038 0.5240343258337068 -8.200886681773848e-18
0.687355442111025 0.09619727730751036 0.05845691104985466 0.0006673277105630666
0.5300340548641935 0.09619727730751038 0.42988535792853255 1.4315393420175947e-17
0.524127268381181 0.09619727730751038 0.9790912027330455 5.395750652991441e-18
0.6349911522591014 0.09619727730751038 0.7841876713064178 -1.3265432230908263e-17
0.5082045307531593 0.09619727730751038 0.5201490159641922 1.2963891770797401e-17
0.4541342893429912 0.09619727730751038 0.29883472207202305 0.0
0.7819154346853676 0.09619727730751038 0.5107435403142063 -3.7687743893367985e-18
0.09617804495873017 0.09619727730751038 0.08906014962909282 0.0006402246207725324
0.48349806266227086 0.09619727730751038 1.0650779205063237 1.1157818420951847e-17
0.27744903844493607 0.09619727730751038 0.4958430665003585 5.034048851267639e-18
0.35962707376733155 0.09619727730751038 0.23384745116985314 0.00016527952145471006
0.8371454514766935 0.09619727730751039 1.39694269183959 0.01422603848861357
0.7816375913679717 0.09619727730751038 0.634410658047947 -5.052463096660987e-28
0.8610337079537125 0.09619727730751039 0.5276814189859618 0.11686334429277431
0.411674057939821 0.09619727730751038 0.4639306279675632 -3.4310724572602936e-18
0.5965736431146463 0.09619727730751038 1.0947788743044617 -1.1623467948189272e-17
0.5948715694054426 0.09619727730751038 0.5681767684939808 -9.73079594548154e-18
0.12331864384958267 0.09619727730751038 0.14523659663610244 0.0006292844124687252
0.47699947495422035 0.09619727730751038 0.9655054290215075 -1.6023927863275653e-17
0.4130397221713689 0.09619727730751038 0.8726418810338299 -1.6045405457818885e-17
0.7805745027005064 0.09619727730751038 0.2739226765404553 -3.6849014086312286e-28
0.8050633743192285 0.09619727730751038 0.673442715936768 8.06462874341351e-18
0.818551710491376 0.09619727730751038 0.5541451632489306 6.45119554877239e-18
0.33068411287030064 0.09619727730751038 0.6034231056697252 -8.777469147928261e-18
0.7041499242926409 0.09619727730751038 1.0943090338226686 -3.711265545902353e-18
0.5047428881085049 0.09619727730751038 0.7196295533049457 9.493967451461429e-18
0.16918831058464928 0.09619727730751038 0.278163204835849 -1.0193018921892122e-17
0.5836266491907677 0.09619727730751039 0.21163724261722117 0.0005347441142467705
0.45981200311542325 0.09619727730751038 0.46393936005217407 -1.1487121923736997e-28
0.554746551225513 0.09619727730751038 0.537567555783875 8.735803231448048e-18
0.718228943438018 0.09619727730751038 1.5120134340456035 1.9288843230068813e-19
0.7597363151597856 0.09619727730751038 0.4866290768184868 -1.929535458102962e-18
0.7810914530336318 0.09619727730751038 0.8232139077873883 1.9835822040178368e-15
0.800662554675674 0.09619727730751038 0.4744432357653813 -5.952161428062069e-18
0.6282876277720281 0.09619727730751039 1.1988949079858437 -1.1066605464586831e-17
0.8322814928523008 0.09619727730751038 1.2776778198939662 0.00023034815923521687
0.630958685735177 0.09619727730751038 0.5277004303470394 -1.303991225145771e-28
0.4873718026038114 0.09619727730751038 0.5066806736742966 0.0
0.820579209952683 0.09619727730751036 1.2061505678999729 -2.1044435363015212e-18
0.36891197573857903 0.09619727730751038 0.552196632451569 4.299034025807644e-18
0.8509301857034641 0.09619727730751038 1.8428892626725668 0.07851797777043175
0.8307314581171744 0.09619727730751038 1.7117904146922025 0.0009122074399387054
0.6364051355164384 0.09619727730751038 1.0393042085696298 1.3864041719928231e-17
0.46035403314439444 0.09619727730751038 0.7130891019656087 -6.353273578386847e-28
0.7923476809307615 0.09619727730751038 1.7665497079323025 -1.4760670305835273e-18
0.34181084903742476 0.09619727730751038 0.4276390080459645 1.1315080132595357e-19
0.7502902554218184 0.09619727730751038 1.4157152536264628 1.0473213488108496e-17
0.6929853023760988 0.09619727730751038 0.08916974102464104 0.0006739353539001051
0.42255542806228974 0.09619727730751038 0.4082819765734734 -1.320760908538405e-28
0.2725926575437532 0.09619727730751038 0.3275196540340695 9.531724311173643e-18
0.5120337742146538 0.09619727730751038 0.3972611809974167 -1.167697086358928e-17
0.5078133841005308 0.09619727730751038 0.5779482936320883 -1.88494631249451e-18
0.6088690344262211 0.09619727730751038 1.2460960808292973 -9.560985761889655e-18
0.8190837836071716 0.09619727730751039 0.2587744577884108 -3.838435356417663e-29
0.34046462787427056 0.09619727730751038 0.11341209510037409 0.0005068360374627107
0.13243684249388357 0.09619727730751038 0.25264962030549326 5.8185335111761926e-06
0.8454797835206387 0.09619727730751036 1.0377688131520753 0.12341567896556738
0.8075236927381443 0.09619727730751038 0.3936279227858393 -5.023560184025003e-18
0.6179845576332809 0.09619727730751039 1.3402967100819245 -2.9011661726659697e-18
0.48071796031177566 0.09619727730751038 0.9011644898676111 1.1243760604548836e-17
0.40685581218333433 0.09619727730751038 0.3252411106088261 -1.8750199212073165e-28
0.7071750421358287 0.09619727730751038 0.43822090309294487 0.0
0.6824645760346522 0.09619727730751038 1.3337124362871566 -2.2633841902435506e-27
0.8119691341488299 0.09619727730751039 0.2244790141275384 0.000255335089934504
0.7150276387480652 0.09619727730751038 0.2685513402335832 -7.609959180004252e-18
0.8478860817438816 0.09619727730751038 0.3476693034079615 0.05962624764838599
0.6839856751017321 0.09619727730751038 0.9959545616574506 1.0503828502396265e-17
0.720232238533232 0.09619727730751039 1.05358568996033 -8.21627098216672e-19
0.8383917832527389 0.09619727730751038 1.8552600863735336 0.0200658763501395
0.752855066052429 0.09619727730751038 0.43547143884009537 -4.318771484442903e-28
0.744433524831691 0.09619727730751038 0.4988009014318467 -1.3058473261379645e-28
0.44295192493421226 0.09619727730751038 0.45846095017837446 -1.266049951209361e-17
0.7661152280929164 0.09619727730751036 1.3920716803816526 -2.3897037045424035e-27
0.6740500646841665 0.09619727730751038 0.14031500935561922 0.00048212208502387117
0.8453115675254907 0.09619727730751038 0.48877853681310346 0.0463137853698961
0.6412786345945958 0.09619727730751038 0.8408067178318294 2.446036900731913e-18
0.20839705257795135 0.09619727730751038 0.37706327563055964 5.4632424816099055e-18
0.702380244018543 0.09619727730751036 0.24081448096280106 -4.743594458566001e-18
0.767738813820341 0.09619727730751038 0.23183133052893568 9.698575948318383e-05
0.6005948670754222 0.09619727730751036 0.1381043354740517 0.0003476208232967712
0.43855027734567015 0.09619727730751038 0.5267979503910531 -1.5593556150973476e-17
0.5899952021626131 0.09619727730751038 0.915142087503522 -7.068932835896093e-27
0.747150536543739 0.09619727730751039 1.4268474520265335 1.85749541976797e-18
0.3864790924402419 0.09619727730751038 0.5164394175120981 0.0
0.727837436141912 0.09619727730751036 1.627441867067725 -1.1967902336011845e-18
0.6214804741023419 0.09619727730751038 0.7355607801669142 3.872406126567069e-18
0.7369492114739907 0.09619727730751038 0.32446289765860187 2.2713786865445015e-18
0.820378757183114 0.09619727730751038 1.028368900054405 0.1327734953783237
0.46562211315929813 0.09619727730751038 0.615613586450607 -5.747783068804032e-28
0.7287986451317446 0.09619727730751039 0.9006519021363242 1.0488802733233445e-17
0.7662879689620485 0.09619727730751038 1.6693959267941965 3.865537516863441e-18
0.6916344013672154 0.09619727730751038 1.410997617608632 -1.1027715975481211e-17
0.5512587522579009 0.09619727730751038 0.8343186305479982 1.3160195277608985e-17
0.8575376430091723 0.09619727730751038 1.0794409698509095 0.12240150788160895
0.32189980555198283 0.09619727730751038 0.14061325799746904 0.0005350169027043886
0.8092388247080358 0.09619727730751036 1.5032067048730298 1.360773035874285e-18
0.7955273794904273 0.09619727730751038 1.1191101703811932 9.502835262385138e-18
0.8589014450310253 0.09619727730751036 0.34264477050912057 0.1124350199661836
0.5103211429306107 0.09619727730751038 1.0597873822746178 1.4670143627779252e-17
0.845254080628483 0.09619727730751039 1.6280312220064812 0.05005755698689839
0.7754150325287373 0.09619727730751038 1.100380158797576 2.214087667957547e-18
0.83449162771155 0.09619727730751038 0.4844528994117982 0.0107390720195816
0.4034824633006702 0.09619727730751038 0.544581574223094 7.650999505609993e-18
0.698506717104217 0.09619727730751036 0.9712154479649296 -5.4507553759304525e-28
0.5359709059024198 0.09619727730751038 0.5845694735131587 -8.438661796424038e-18
0.5089329778558264 0.09619727730751038 0.3132036306596882 -1.0321991471521001e-17
0.828117974192275 0.09619727730751036 0.752953608990979 0.0
0.31618533492021467 0.09619727730751038 0.6815957768205604 -6.34299940114528e-28
0.86905389460009 0.09619727730751038 0.596922620531856 0.1290672334953341
0.16736982158825903 0.09619727730751038 0.331336127481398 -4.988903874179327e-18
0.41464735959718724 0.09619727730751038 0.23218534584887524 0.0002533127276399994
0.6980790469776824 0.09619727730751038 0.04335410510275645 0.03349082209577082
0.5673397459578667 0.09619727730751038 1.0201294497924862 1.1372809347503822e-17
0.8622037393781329 0.09619727730751036 0.7988258798363062 0.09881709857861928
