x y z curv
0.06099998950958252 0.04190893883758663 2.0070338758963473 0.17005304821632794
0.060999989509582526 0.043419588704372854 1.649171655876623 0.2227605425668668
0.06099998950958252 0.03457408125530235 1.0150090046607823 0.15723617338089935
0.06099998950958252 0.04395952158015212 1.260818958180628 0.2037536444890325
0.06099998950958252 0.05005037829406811 1.089483037205188 0.21934238348737142
0.06099998950958252 0.04148344187054159 1.0780027182660552 0.1767156115000352
0.060999989509582526 0.04559212791997385 1.7658729497212857 0.20045721960542162
0.06099998950958252 0.030802274343799202 1.9864157748869484 0.1784032642356134
0.06099998950958252 0.034556843743257896 1.4412459431313904 0.1655398578833958
0.06099998950958251 0.017394265982027597 2.045942585950402 0.16902728350864338
0.06099998950958252 0.046390924602903 0.5615125856418103 0.22922787916312487
0.060999989509582526 0.022073330115567086 1.9776567172009833 0.09855224245362336
0.06099998950958252 0.03548260087194235 1.862219629214084 0.1835047332043034
0.060999989509582526 0.028222712964594013 1.6485396885844386 0.14486613877768656
0.060999989509582526 0.027620433453948788 1.4140117065996298 0.12574450383232746
0.06099998950958252 0.030915255200832478 1.949216180207147 0.1869017155982284
0.06099998950958252 0.03494893590117708 1.9165986065082015 0.1823782745727087
0.06099998950958252 0.03156561454070979 1.5427629141702406 0.17989257689967067
0.06099998950958252 0.0507981022455087 1.9740681588715596 0.2293244222665874
0.06099998950958252 0.05129753855771483 1.0515059597533234 0.25491027825542395
0.06099998950958252 0.039071734914470954 1.41013907366901 0.18916376868810716
0.06099998950958252 0.03770433481179712 1.5943178069840531 0.1875777725431031
0.06099998950958252 0.037426608208605994 1.16146673248913 0.1778023144589354
0.06099998950958252 0.048559186337757305 1.2069585564950636 0.238903298744272
0.060999989509582526 0.044243526220445355 0.6216913410660007 0.21844960287444254
0.06099998950958252 0.05031891806591899 1.611935689884794 0.22019505408213813
0.06099998950958252 0.03790874680755739 1.3970843736415854 0.16838845086123425
0.06099998950958252 0.037703062429887864 0.8026853673602674 0.1891941479362177
0.06099998950958252 0.048257274446346005 1.6289944176766022 0.2642479232143091
0.06099998950958252 0.05151264556605353 1.406589081105158 0.20631181257347234
0.06099998950958252 0.03752238593945298 1.710118205029493 0.1703051103138202
0.06099998950958252 0.04025126152981202 0.9874064613249047 0.21970931238308233
0.06099998950958252 0.04095219567873924 1.116225221244127 0.172147938242334
0.060999989509582526 0.051694500403453955 1.922400722215165 0.2511751172650143
0.06099998950958252 0.04705373618384506 1.243152660367889 0.24003740950184324
0.06099998950958252 0.04620892791716753 0.954169132925071 0.2071120655852784
0.06099998950958251 0.019638191733555747 1.839224433395521 0.12981690513717362
0.06099998950958252 0.04033080976631943 2.0391911075862548 0.23875224997854516
0.06099998950958252 0.03731999292250841 2.057001965760456 0.20732473849112995
0.06099998950958252 0.036751738944073846 1.975419513263674 0.16744016897474828
0.06099998950958252 0.05083327778227757 0.7239539332557612 0.2353273439547759
0.06099998950958252 0.026270060998619074 2.027651404824768 0.16130593409391572
0.06099998950958251 0.022180788118018147 1.3376126174640492 0.14858081661666586
0.06099998950958251 0.04791191435815701 0.1452348884766174 0.23969228404463128
0.06099998950958252 0.025153561336262432 0.9732119860922911 0.1466437989779601
0.06099998950958252 0.04493240322649182 0.29322544613351137 0.19990327704469474
0.06099998950958252 0.02968202698165173 0.4457910035384963 0.18004804314568149
0.06099998950958251 0.015565585983318475 1.4072072990426685 0.11557730637044275
0.06099998950958252 0.01595085558300044 0.7237048333022114 0.12142104832007443
0.06099998950958252 0.04259231721420369 0.09000112549044409 0.21252538473010113
0.06099998950958252 0.03175842748566235 0.12964939930078329 0.17016890136964744
0.060999989509582526 0.017041386929652236 0.28673114072452277 0.10938135363544743
0.06099998950958252 0.026632518117009896 0.9361543728899346 0.17744523118488148
0.06099998950958252 0.03519134981225336 0.27221357111625416 0.168334941788161
0.06099998950958252 0.039244059049639526 0.35317632069560884 0.1655473451169773
0.06099998950958252 0.019856546873338595 1.0574683993634535 0.10176985965016182
0.06099998950958252 0.025085410308686402 1.4856479251075996 0.15173513322917942
0.060999989509582526 0.019292451261688017 1.2919781977487403 0.11965962694735487
0.06099998950958252 0.027549515045314762 0.708902898821461 0.16922916354734333
0.06099998950958252 0.015435870478062741 0.8969197042566234 0.12027289560701271
0.060999989509582526 0.02685160103158233 0.2532586409142117 0.16076679690968712
0.06099998950958252 0.021478973689985966 0.750683431789339 0.1323381436382434
0.06099998950958251 0.0229712388383052 0.09130946664998428 0.12405714837274107
0.06099998950958252 0.032616447310538935 0.697538644996048 0.1776644451452038
0.06099998950958252 0.03505993621167813 0.4939704424881244 0.18221339569658715
0.06099998950958252 0.030782342456302417 0.5125733264263231 0.12410543121754496
0.06099998950958252 0.03522798639244369 0.6494330122606166 0.19049246242897488
0.060999989509582526 0.030227116749341726 0.06855850329119408 0.17025144203156917
0.06099998950958252 0.018444378111868834 0.919499929366702 0.13055212032145802
0.06099998950958252 0.02702338158146718 1.370115412343729 0.15985797382694356
0.06099998950958252 0.04430124957150901 0.05904228590018846 0.19523239905934445
0.06099998950958252 0.04287038881481575 0.2092994919739781 0.1984973727582403
0.06099998950958252 0.016362157831408757 0.05249547834223913 0.1503106592571954
0.06099998950958252 0.027578037789805977 1.1757246335977056 0.11782294681567085
0.06099998950958252 0.04690882385023252 0.2731131794197662 0.2237836025940636
0.06099998950958252 0.0352954468183708 0.613653678353459 0.20621520161690074
0.06099998950958252 0.0411588969065238 0.5042061697708877 0.1959963455929051
0.06099998950958252 0.01961972214172451 0.610330501797342 0.14262609522959757
0.06099998950958252 0.02399527333781245 0.502556236207098 0.15696638007331018
0.06099998950958251 0.021122494814031854 0.41252475118024284 0.14130585035688326
0.06099998950958252 0.021837553143193567 0.6928009002728623 0.14906897532147834
0.06099998950958251 0.020885605477848866 1.5705614228413076 0.11249820640099581
0.06099998950958252 0.020819568046878185 0.22036452359130218 0.11303824129191099
0.060999989509582506 0.026662828692047523 0.02026592734228923 0.15551763306757332
0.06099998950958252 0.048801633329452976 0.009695861544075314 0.16934782331341355
0.06099998950958252 0.024326445130354944 1.1864052553145676 0.12604204404065306
0.06099998950958251 0.01601195048970864 1.7865832578248748 0.13388803684788758
0.06099998950958251 0.02340409617747808 1.2800807468834177 0.13503161907572764
0.06099998950958252 0.025540170705570915 0.33728798259976306 0.1379381770244008
0.06099998950958252 0.024843127170334503 1.0696132757998609 0.1049794045132327
0.06099998950958251 0.022966603707027126 0.1862610770081578 0.11403175887595311
0.06099998950958252 0.023687062219752912 1.1645955507901575 0.1293692361610948
0.06099998950958252 0.026188685405493736 0.8868608082085895 0.1193760299413146
0.06099998950958252 0.033281412616549995 0.38076423074649135 0.13753031825563625
0.06099998950958252 0.04322571727201067 0.15595909581516598 0.23440727102606382
0.06099998950958252 0.0273545923571848 0.5234721043962731 0.14235312020589316
0.06099998950958252 0.043415719997357764 0.418836021028476 0.22109070894725538
0.06099998950958252 0.021389763332988077 0.16186817702523326 0.1462774420160487
0.06099998950958252 0.027618211570835393 0.24132420355054232 0.1779131963824118
0.06099998950958252 0.026469486449968622 0.3951612436929979 0.15052982064753678
0.06099998950958252 0.03209366524961399 1.0995976851153748 0.13530020100880857
0.06099998950958252 0.023439312668982287 0.9894804538107763 0.12430745706255199
0.06099998950958252 0.016024679781829667 1.446804430797849 0.12461954512621787
0.06099998950958252 0.023106608897257967 0.5624584015926347 0.10708117496229169
0.06099998950958252 0.033249514871740604 0.5352687642266873 0.14781492217372208
0.06099998950958252 0.040458287705160564 0.4378247356199376 0.19384274090841805
0.06099998950958252 0.02949088637152259 0.7228766716771098 0.17371017659997673
0.06099998950958252 0.029099158723536557 0.43452688058814004 0.1462078460036786
0.06099998950958252 0.04268689517100779 0.36643059254304705 0.17724766875208808
0.06099998950958252 0.02469391750577734 0.36453418163932744 0.13154306700986243
0.06099998950958252 0.03039918574666922 1.1410923514544575 0.1546591670951898
0.06099998950958252 0.030882763341035048 1.0527921073553077 0.1493354650386606
0.06099998950958252 0.02117783439767685 0.6791822257659785 0.10037249546233419
0.060999989509582526 0.015056011814423474 0.5277450763138314 0.10752265298260766
0.06099998950958252 0.03313704215866262 0.16796794396785653 0.16371072105346152
0.06099998950958252 0.0401931905440728 0.520026577736044 0.2004861080218996
0.06099998950958252 0.03351529120052621 0.8579118932499515 0.13461494759904413
0.06099998950958252 0.02380963389635246 0.03889197737122926 0.14614970302927635
0.060999989509582526 0.020550490957578427 1.3251966247789364 0.11558587479765618
0.06099998950958252 0.022470375253317684 1.4347556991396708 0.14256342286054954
0.06099998950958252 0.016621072223837144 1.682370828352455 0.1324495112090426
0.06099998950958252 0.0252376195807715 1.0065746379876404 0.12590635059232308
0.06099998950958252 0.04422262390432937 0.40176981061298245 0.17664680522582066
0.06099998950958252 0.026685034340240967 0.9026379757408006 0.13319117745000528
0.06099998950958252 0.035310962167453226 0.04191050965527921 0.18689413919432127
0.060999989509582526 0.026802338866158973 0.35021515646782503 0.12878466205502906
0.06099998950958251 0.01825132711723023 1.2340453710122805 0.12018403424803625
0.06099998950958252 0.03177207597305217 0.9601635917839954 0.17299810837538399
0.06099998950958252 0.03091854794165469 0.000209076990240129 0.12830030813182497
0.06099998950958252 0.03307197321159552 0.30207538753705 0.1626747794906649
0.06099998950958252 0.016324295158394522 0.08048951543735343 0.16224972474849533
0.06099998950958252 0.02172113564539843 0.11347918347696441 0.12187468873993379
0.06099998950958252 0.03163288273890933 0.8741519373696187 0.11516096798044524
0.060999989509582526 0.020201974003564525 0.6678887208308795 0.15654957113997162
0.06099998950958251 0.018608053605328783 1.464115347005618 0.14600132448738248
0.06099998950958252 0.039673786412407056 0.3274615361499872 0.17061668069615712
0.06099998950958252 0.03456175271831357 0.40778383602453283 0.1800214113996719
0.06099998950958252 0.03520739662950209 0.6821814920891208 0.179501272875528
0.06099998950958252 0.03119651170997393 0.46591962242637264 0.11600615135188133
0.06099998950958252 0.0204502849587802 0.768207114998958 0.09356500334962449
0.06099998950958252 0.03524430921101251 0.14131150251045926 0.15598532887158487
0.06099998950958252 0.03223527819761968 1.025607602479705 0.1384672807033797
0.06099998950958252 0.020589014383885794 1.0253716043077767 0.1163636655635838
0.06099998950958252 0.018501012272646996 1.5305089428195684 0.11833496688878933
0.06099998950958252 0.017896125978753397 1.7274441263301898 0.12714610847814353
0.06099998950958252 0.020524873375697722 0.8026765750592615 0.15107387644551631
0.06099998950958252 0.024199526910581977 0.7905257620595875 0.11923566672166735
0.06099998950958252 0.027926979148354607 0.9256907621118434 0.16478972667644914
0.06099998950958252 0.03990162158861454 0.1157446243609059 0.16027346180069899
0.06099998950958251 0.036744471036415434 0.47574143319706236 0.16473660583607636
0.06099998950958252 0.03892112092873732 0.022117001153779983 0.19508255735982177
0.06099998950958252 0.023011723364030304 0.20213526551595373 0.167205743121323
0.060999989509582526 0.019475758887671217 1.0421253653762004 0.12780719583690034
0.06099998950958252 0.03282936279601764 0.7574087399870325 0.1596546900300443
0.06099998950958252 0.04054775735541152 0.10105520787068892 0.17339429074486312
0.06099998950958252 0.026459660559580298 0.829591289124299 0.13931264769324503
0.06099998950958252 0.01948179074480932 0.5985565996062927 0.13816172038298669
0.06099998950958252 0.0473653977350929 0.2576081430292029 0.2456570291805737
0.06099998950958252 0.018766582839351537 1.1314201603689547 0.11587507596503334
0.06099998950958253 0.018824122490900763 1.0981799340253597 0.09946664697931962
0.06099998950958252 0.015534956457672196 0.45860489919631553 0.11292435196572755
0.06099998950958252 0.04244421109160419 0.2469724228850491 0.21900564430278915
0.060999989509582526 0.024205042011904914 1.216911754254099 0.15481122378997852
0.06099998950958252 0.03114046901810804 1.1524214020000478 0.20794694208704995
0.06099998950958251 0.01942930506824103 1.5458427942137538 0.11247404425711816
0.06099998950958252 0.03541305229728817 0.7384261669237512 0.18281750511282055
0.06099998950958252 0.025586945840854445 0.2797726286325932 0.1500805522960934
0.060999989509582526 0.027617916696432356 0.10415965732596416 0.18159896803649941
0.060999989509582526 0.016711236693562368 0.817587029189969 0.13818825112739622
0.06099998950958252 0.022358459658428968 1.117980629804922 0.13464369181861446
0.06099998950958252 0.017007522255527797 0.9589736259513698 0.1351463744762523
0.06099998950958252 0.030307062295791706 0.5940905404437041 0.16037905089919693
0.06099998950958252 0.026426657536928785 1.2440213953932722 0.18336805146983565
0.06099998950958252 0.018016961075395015 1.6945537795983359 0.10095297812295705
0.06099998950958252 0.04566581576251416 0.3176762250152614 0.22375341777054694
0.06099998950958251 0.01803176781011126 1.152192193242008 0.12545372082438458
0.06099998950958252 0.01733716070806314 1.4932359822947554 0.1259790758535743
0.06099998950958252 0.032553073252300196 0.5820899142010834 0.18775983314153752
0.06099998950958252 0.018384069875629912 1.655081466079726 0.11496037516652484
0.06099998950958252 0.021417217145674697 1.3145423065465696 0.1275465235461891
0.06099998950958252 0.04672573711677103 0.1874517261630605 0.23890458734427505
0.06099998950958252 0.028583947520607778 0.5511229063135362 0.12796164915371805
0.06099998950958252 0.03818079165688952 0.19629269003895408 0.18356009921825608
0.06099998950958252 0.03298659509527693 0.42327624000346353 0.1825826258588139
0.06099998950958251 0.02509496704310971 0.31019920444704174 0.11537101612890273
0.060999989509582526 0.023197461693832043 0.2961846957482898 0.11511821827845048
0.060999989509582526 0.0160382596153245 1.0154647611948324 0.12223567248332635
0.06099998950958252 0.019678433252450347 1.6387090950404066 0.11240172655636556
0.06099998950958252 0.0313506185474152 0.21664280196122293 0.18571792693307682
0.060999989509582526 0.03433495408781769 0.18649735289577551 0.17329515867011341
0.06099998950958252 0.017914569312313902 1.8230374606037079 0.1182138482590584
0.06099998950958252 0.026807700175058263 0.14911474511069922 0.15221689697914437
0.06099998950958252 0.03541056803910178 0.23097683244988476 0.18139659523015814
0.06099998950958252 0.030657518806282827 0.6280516266319499 0.19483944900271138
0.060999989509582526 0.027257728117896986 0.3220119518307617 0.17169485617573335
0.06099998950958252 0.03648294914332837 0.33981947083436675 0.17256183473972356
0.06099998950958252 0.0354008944947555 0.26032107189099873 0.1801650175973425
0.06099998950958252 0.02239844716776385 0.7343797697674904 0.13195596088156233
0.060999989509582526 0.016362198003428644 1.254099274869332 0.12349000474508266
0.06099998950958252 0.03770043784112334 0.5703388712151171 0.1748988336274438
0.06099998950958251 0.02226390428389083 0.2678781433463859 0.13093146222357
0.06099998950958252 0.03820980873405322 0.4574861235290309 0.17084880246059225
0.06099998950958252 0.020783774669370723 1.6026793656601146 0.10753283279044501
0.06099998950958252 0.022411790712684225 0.38157115300080735 0.15403052329461178
0.06099998950958252 0.01818010606083088 1.2668941467993584 0.15580047321435667
0.06099998950958252 0.02973794509645197 1.0813637647150316 0.12784397927978422
0.06099998950958252 0.02025914601887441 0.8726696675267407 0.10792491042412207
0.06099998950958252 0.03456872000690993 0.8183041744337012 0.1803983793342685
0.060999989509582526 0.0189626698431021 0.6338985483157568 0.15724223585846708
0.07300001382827759 0.06401656933488893 1.847567102598136 0.12156393863059993
0.07300001382827757 0.06313696826508672 1.5935769707765277 0.08020910876607835
0.0730000138282776 0.06626080534877349 1.1133214372000981 0.1161420122924875
0.07300001382827759 0.07570155012262217 1.7115994245347503 0.15770533004204496
0.07300001382827759 0.06585601255596789 1.4356574479436992 0.07988265948933003
0.07300001382827759 0.06342611378864355 1.5557150014987784 0.08188340085169574
0.07300001382827759 0.08262227472333528 1.9697397953982756 0.14566010842207303
0.07300001382827759 0.07398512940134372 1.9457970400754534 0.16136324165468544
0.07300001382827759 0.076816707852951 1.3074815227537093 0.18596140889800397
0.07300001382827759 0.07553438570459979 0.9317772860560131 0.19981977859659222
0.07300001382827757 0.07614286093964379 0.6418497621457371 0.17353579398662256
0.07300001382827759 0.07323444142130014 1.1539705714270685 0.16097577528888482
0.07300001382827759 0.07459897171679605 1.4056094558341625 0.19705436428280348
0.07300001382827759 0.0699074216647737 1.3770540477373951 0.157927485185397
0.07300001382827759 0.07346945422690981 1.1403917998275968 0.15021341126416085
0.07300001382827759 0.06836666753613398 1.1865068078734247 0.16815100550104845
0.07300001382827759 0.0750942130609914 1.4171611741779866 0.19165730178406237
0.0730000138282776 0.07561249165376026 0.6282031009689037 0.21328681798759816
0.07300001382827759 0.07200894217580894 1.5226013639569236 0.15476063540289217
0.07300001382827759 0.07507693067537466 0.9665129739540703 0.1501903635465944
0.07300001382827759 0.07699012794623483 1.4913027783136823 0.23788842256996162
0.07300001382827759 0.07666226507840951 0.46387301174915474 0.17570711721023657
0.07300001382827757 0.05510842913590363 1.9123810561337902 0.04375018730574008
0.07300001382827759 0.08069217568641382 1.192524265239206 0.22045522888236438
0.07300001382827759 0.06688425560858655 1.9911647525938996 0.09879377018855481
0.07300001382827759 0.07684187042714324 0.7562107601000846 0.18286619555303077
0.07300001382827759 0.0719924367624932 1.6392345098750587 0.13772716671973712
0.07300001382827759 0.08224240241164506 1.5019160092601984 0.19999840364609536
0.07300001382827759 0.07390198256264006 2.0479610924161036 0.16233237739555165
0.07300001382827759 0.07515271680292461 0.8056901940620541 0.15923592242887016
0.07300001382827759 0.05814368752653486 1.670537342903313 0.050142237748558284
0.07300001382827759 0.07096532087280076 1.452905771533471 0.1332849594887642
0.07300001382827759 0.07077336590746192 1.934440232449679 0.1485651342698015
0.07300001382827759 0.06833035321720211 2.0120259038335786 0.1063482992974274
0.07300001382827759 0.07477877272118094 1.8650687365146004 0.15624944909019242
0.07300001382827759 0.0738251251877391 1.7738667756867113 0.1711386400731329
0.07300001382827759 0.06410739994245067 1.8847514538009595 0.08280489330113486
0.07300001382827759 0.0813398874831167 1.8558209861977557 0.1735396369071403
0.0730000138282776 0.07072916532728132 0.8677470788676359 0.1245787117971543
0.07300001382827759 0.06557691617177135 1.70178655366463 0.12426812373475164
0.07300001382827759 0.07120312645153071 0.8891055927499509 0.12840306282739214
0.07300001382827759 0.06320073116852241 1.6125950070248904 0.11259919569469967
0.07300001382827759 0.07067447686221126 2.0226423838828187 0.1508496642623049
0.07300001382827759 0.07194303773937549 1.3620325230341865 0.14739135548430424
0.07300001382827759 0.08288697858411484 0.8683704818485272 0.21288397190028924
0.07300001382827759 0.07836506179147058 1.1661834914241134 0.19374150409836885
0.07300001382827759 0.07716435161798191 1.395109346369792 0.18354399590494674
0.07300001382827759 0.07782899609802667 1.1014107618682245 0.17863654908171162
0.07300001382827759 0.06620392180433306 1.2450976706560515 0.1351588306825579
0.07300001382827759 0.07521214508700452 2.0019525539857623 0.16527705694226894
0.07300001382827759 0.08040970464999453 1.2947574609247716 0.1697900039703393
0.07300001382827759 0.0655895236735382 1.4792852816330018 0.13150093148472752
0.07300001382827759 0.07805535949863072 1.3441361629256958 0.220948554422191
0.07300001382827759 0.08228894040546308 1.3842043345298078 0.19535950719677597
0.07300001382827759 0.07405829001147503 1.6246478575580623 0.14707783735712737
0.07300001382827759 0.07609819150042105 1.5744703914878286 0.2152496371516344
0.07300001382827759 0.07054884256076652 1.501864861648405 0.140731245113769
0.07300001382827759 0.06457044834521763 1.3947200178647032 0.11034949071759029
0.07300001382827759 0.07248204162056954 1.070365845701208 0.18202580643804914
0.07300001382827759 0.08136052644535527 0.7115142636106252 0.23105339202266117
0.07300001382827759 0.06396213360722924 1.7238288431600282 0.10260682419333429
0.07300001382827759 0.07069208842967525 1.041781377305437 0.1443917379108157
0.07300001382827759 0.07031361729933568 1.3332849430075961 0.15623081879688805
0.07300001382827759 0.0724121289610374 0.949626795371314 0.1701633086450311
0.07300001382827759 0.06533190945082988 1.9007885723485578 0.12626180612977655
0.07300001382827759 0.07657498683065328 1.4411264397532624 0.19151182796515895
0.07300001382827759 0.07457783687719352 1.8204123970829889 0.12028119509123672
0.07300001382827759 0.07781138465794425 1.9156490135755457 0.21162983374059316
0.07300001382827759 0.0763676023702579 0.5421118198204764 0.2190479793303959
0.07300001382827759 0.07948481984916449 0.3386844993747672 0.16766426840841683
0.07300001382827759 0.07205822070527076 1.5869895862582968 0.1463514630330505
0.07300001382827759 0.06813200039074999 1.7335834140281579 0.1327659601508304
0.07300001382827759 0.07252828041635137 1.6707940115036293 0.14173209224839975
0.07300001382827757 0.07521084705157007 0.7930426300537456 0.16334541507907166
0.07300001382827759 0.08065914763235044 0.9003010330090263 0.18469356218309335
0.07300001382827759 0.07536010510082494 1.7612169026107347 0.15313487168833984
0.07300001382827759 0.07879693099930485 0.6537012526946788 0.19560557779527815
0.07300001382827759 0.06912131804156191 1.0907513053960678 0.13126003693939386
0.07300001382827759 0.06319748653059507 1.805745988179362 0.08524298584795688
0.07300001382827759 0.0746479120405144 1.4725121872345304 0.1947024205779915
0.07300001382827757 0.06845376530476453 1.0059552978259252 0.11804245111787875
0.07300001382827759 0.06763341123077245 1.9212654061591625 0.11190980853658763
0.07300001382827759 0.06508723026420035 1.826394247150919 0.09615483282211043
0.07300001382827759 0.07447899648093706 0.7668499507030047 0.15660429380682586
0.07300001382827759 0.07578699548457954 0.5632186969985954 0.2177115257214805
0.07300001382827757 0.06720465384477942 1.7454661562609206 0.11925641101068273
0.07300001382827759 0.06773302376338808 1.2798260371336132 0.15327952478180862
0.0730000138282776 0.07799387806424189 0.9173573510934588 0.18770769837688792
0.07300001382827759 0.07131868269094341 1.2123581782607953 0.12188161103303949
0.07300001382827759 0.0661193602822478 1.954431303535053 0.07913688262015005
0.0730000138282776 0.08060525911211344 0.17524063077169355 0.19143531512026413
0.07300001382827759 0.07368693162509585 1.694696862435241 0.17671993914552292
0.07300001382827759 0.0694066511320593 1.9666284864566723 0.11626734023106483
0.07300001382827759 0.07818243065818636 0.3983330060645588 0.23785586838704884
0.07300001382827759 0.07550574429376883 1.2668853003344398 0.18954980311654365
0.07300001382827759 0.07427551468520896 0.8782752992568535 0.1760640713521133
0.07300001382827759 0.0616286392207565 1.516274393681004 0.09200058312914444
0.0730000138282776 0.055639589408908334 1.9405150966343225 0.05862355784529894
0.07300001382827759 0.06724877626154374 1.65955650446229 0.11333870424673625
0.07300001382827759 0.07752267572346477 1.325028549950681 0.1894836920860216
0.07300001382827759 0.06782881928929624 1.784137249410918 0.14830571625579098
0.07300001382827759 0.07440712948604904 1.6825672177714917 0.17392768543893442
0.07300001382827759 0.0617688805816887 1.9788743238814184 0.08803367987895339
0.07300001382827759 0.07353847259665983 1.127237540608311 0.1564750891897595
0.0730000138282776 0.07903674708320202 0.7782121281104426 0.17349381341610207
0.07300001382827759 0.06798676952335225 1.2997469160505075 0.1291449156626938
0.07300001382827759 0.07659511024434244 1.6109483424434465 0.1481589465243892
0.07300001382827759 0.0753042521995265 1.8878250103431222 0.15125664750371548
0.07300001382827759 0.06534666165745734 2.0330331975056013 0.15956040688711792
0.0730000138282776 0.06910767849682693 1.3162478710120538 0.13350898173323764
0.07300001382827759 0.05919211549175166 1.7744572326754855 0.08543930646155459
0.07300001382827759 0.07945395674522131 0.6863678332044569 0.15712340890152068
0.07300001382827759 0.07062134723792066 1.0590019461976934 0.1706881926212917
0.07300001382827759 0.07501512614519684 1.5561647675422385 0.17635351521892698
0.07300001382827759 0.07413607865663516 0.7302004873832091 0.15385291000943863
0.07300001382827759 0.07640376569186509 0.992111743315676 0.17621903784306064
0.07300001382827759 0.06250497206394445 1.6816651683194683 0.0973508866786253
0.07300001382827759 0.05723710473776909 1.7908661687299237 0.06366767302785527
0.07300001382827759 0.07494111055475523 1.2531748755442584 0.20759049572843644
0.07300001382827759 0.0735679596674252 1.8332977575125236 0.1654966562953155
0.07300001382827759 0.07424776438027916 1.981493755068624 0.15035582959155042
0.0730000138282776 0.08011194394796095 0.2712933666361452 0.20837852591928147
0.07300001382827759 0.060902712397719244 1.541027278144538 0.09644332791686666
0.07300001382827759 0.07733922263041743 0.4166977347864179 0.20916229562750846
0.07300001382827759 0.0637741804131153 1.4177723769897064 0.09839654838918689
0.07300001382827759 0.06167194375247923 2.002054167258608 0.06198224814814426
0.07300001382827759 0.0665199053098073 1.5678756681248467 0.12743210191199145
0.07300001382827759 0.06500168674982555 0.46288506745131003 0.09580562918262124
0.07300001382827759 0.06426210430161933 0.573515801252429 0.10005011713384022
0.07300001382827759 0.06009534301957324 1.0758372627738333 0.06216894741725588
0.07300001382827759 0.06534252610561118 0.02776833813021797 0.096136933678811
0.07300001382827759 0.06530668495253056 0.9768535465005753 0.10410830918094936
0.07300001382827759 0.06127891859905249 0.7847507694624023 0.10776373946288052
0.07300001382827759 0.06622179429135494 0.20065881661341692 0.11388621891378072
0.07300001382827759 0.05771155436408623 0.26079708005567753 0.04233060807072791
0.07300001382827759 0.066548182882089 0.03927986648392075 0.09438904333597269
0.07300001382827759 0.07157875326792726 0.4453820299793332 0.14030682898582567
0.07300001382827759 0.05465317733940065 0.0732570529089596 0.051858358383024716
0.07300001382827759 0.07319185160120795 0.20946041639560087 0.1696273985042463
0.07300001382827759 0.07971186851138236 0.14631065641423305 0.18057577629429558
0.07300001382827759 0.06040450411843404 1.4051573087483042 0.06885310726328349
0.07300001382827759 0.053749497568289506 0.9966856836654616 0.0342972571617608
0.07300001382827759 0.05906190269520083 0.8976342788464762 0.08522470650453243
0.07300001382827759 0.05202106125448956 0.6653244527382971 0.04036490728334579
0.07300001382827757 0.053827368647269905 1.626995051748094 0.0433331808079598
0.07300001382827759 0.06658228707472442 0.05542810308852705 0.16812018980313492
0.07300001382827759 0.0615143988102957 1.0482828478827872 0.07961041717523394
0.07300001382827759 0.07556657440036751 0.3579787615200777 0.1489974715616446
0.07300001382827759 0.05400293533896292 0.15806301713389678 0.030674854863856443
0.07300001382827759 0.06842110631913932 0.29299060384123954 0.1434879316223727
0.07300001382827759 0.052959324075650085 0.5428179388648625 0.037298078602678024
0.07300001382827759 0.06654589644476631 0.853323322342617 0.10944311149013415
0.07300001382827757 0.055009530652048284 1.7634052172029488 0.04216877954706966
0.07300001382827759 0.054822324479332246 0.829155738042725 0.04225924482402784
0.07300001382827759 0.06198132839635012 0.3058617789314639 0.09260703778449848
0.07300001382827759 0.05417448849119034 1.738137627171763 0.02647757785964227
0.07300001382827759 0.06961559628935043 0.11112992933815487 0.13194006140953846
0.07300001382827759 0.0595182232080821 0.6418680675387193 0.08171536015813127
0.07300001382827759 0.054119311789113916 0.8701667047552403 0.03899511046223325
0.07300001382827757 0.05691197837786505 0.11208791805165624 0.07095297403115955
0.07300001382827759 0.05484806836031242 0.2983023337078462 0.03343859746849915
0.07300001382827759 0.05201783238873925 1.9645384538859783 0.04151575156407529
0.07300001382827759 0.05312684081924741 1.1130116234433245 0.026786713275580142
0.07300001382827759 0.0708680712272292 0.7402684378050117 0.1434929823182575
0.07300001382827759 0.05615001239133037 1.4701217144683971 0.04195239708057476
0.07300001382827759 0.0651814404125201 0.0980584020760263 0.09603892268670962
0.07300001382827759 0.07005533593485552 0.8359192229140272 0.12815712675306684
0.07300001382827759 0.05725210646668456 1.4886696910472996 0.05789129800401679
0.07300001382827759 0.0625086896050954 0.7626712359353908 0.09166879131531137
0.07300001382827759 0.0707504985627942 0.2238166820831821 0.14465610199857792
0.07300001382827759 0.058654796589348634 1.3570989695292957 0.0633699543719052
0.07300001382827759 0.06128200678291247 0.17669319660729357 0.0852576200862196
0.07300001382827759 0.05389790344215706 1.8919313056542675 0.030752691206844505
0.07300001382827759 0.06189112436028567 0.7286332478340891 0.11349787318620351
0.07300001382827759 0.07156813896401638 0.6163719200535691 0.15453963252003464
0.07300001382827759 0.06347677731512388 1.124404461793956 0.11710105467379837
0.07300001382827759 0.06924413050106054 0.24811515545482912 0.1086371434037788
0.07300001382827759 0.06914377948604775 0.4058343627860236 0.148582615062561
0.07300001382827759 0.06697409102826132 0.6553347372605492 0.12856865670385206
0.07300001382827759 0.05267748800830144 1.040697762219184 0.041928366136976536
0.07300001382827759 0.06290008872716904 1.229142719945936 0.08675558997675571
0.07300001382827759 0.06820336675387477 0.26647666152090693 0.13066781270442726
0.0730000138282776 0.05741678005115871 1.2947959948239822 0.05354959899827485
0.07300001382827759 0.05635621997397672 1.2841507187269667 0.06154318209744563
0.07300001382827759 0.05763752795783486 1.1654364691742245 0.04528697246259777
0.07300001382827759 0.0637415409621066 0.2358030610995392 0.08778263010617758
0.07300001382827759 0.06832601681385386 0.5512241907092703 0.16161352422102243
0.07300001382827759 0.06446161436196776 0.9577293432003604 0.1059509582863279
0.07300001382827759 0.06423305628951212 0.4961571077147173 0.10293585661441607
0.07300001382827759 0.05328012504855496 0.0989572292241588 0.04082090960183847
0.07300001382827759 0.05803526124125863 0.0491047190724844 0.07385707904521728
0.07300001382827759 0.06613693343449677 0.7750272340287276 0.13470122297109507
0.07300001382827759 0.060832619582528794 1.0632278188357354 0.09124694257773407
0.07300001382827759 0.06617878694117535 0.16400197342511658 0.13815140628148523
0.07300001382827759 0.0679583396396076 0.18930527362439795 0.11297950116801092
0.07300001382827759 0.05535318354463587 0.5831338487221391 0.05127874992023701
0.07300001382827759 0.05740056092639299 1.4552494519035981 0.03067115434571062
0.07300001382827759 0.06483357426213827 0.3346564430002998 0.09316922720273021
0.07300001382827759 0.052612499615751374 1.530490279389905 0.027704337532362053
0.07300001382827759 0.06585629881986649 1.017491374276062 0.11233684305408154
0.07300001382827759 0.052383704695271725 1.8377750721679464 0.03873832263563063
0.07300001382827759 0.06055800896972743 0.4211539709201432 0.07231806694851298
0.07300001382827759 0.05219084384153857 1.4283734897450053 0.02233676540879126
0.07300001382827759 0.05655138013670144 0.936823927274336 0.07564506749187715
0.0730000138282776 0.05205447447190395 1.8238319909607477 0.03249724033885269
0.07300001382827759 0.07106386414000368 0.7175382110467922 0.16261384971294754
0.07300001382827759 0.05291232130680708 1.4168465729811448 0.03194474481881649
0.07300001382827759 0.05747544498860074 1.2576637735944545 0.0804117971624298
0.07300001382827759 0.0620301526494691 0.48044016227061437 0.07451159223098618
0.07300001382827759 0.07259100837590074 0.1344577009069947 0.12833565423863458
0.07300001382827759 0.07453591570829944 0.06624401737696252 0.20162030407612222
0.07300001382827759 0.057227783909578216 0.5979308031995644 0.036904309848245095
0.07300001382827759 0.05817923848800651 1.2692117262311278 0.07203772145429123
0.07300001382827759 0.060886630700097866 0.21177700881481765 0.08899508275876004
0.07300001382827759 0.05872785068392514 1.1396050505330428 0.07812771261481585
0.07300001382827759 0.0657835604746957 0.3737902589913624 0.11737265043278051
0.07300001382827759 0.06186865012188432 0.7099492577190523 0.09338763493022595
0.07300001382827759 0.06974883426355735 0.824845838058511 0.1172885356786317
0.07300001382827757 0.05511783720983032 0.6793799547038141 0.03944640868060554
0.07300001382827759 0.05276381995408866 1.7056954291824453 0.03386116531693432
0.07300001382827759 0.062088508651022764 0.8823430440248806 0.08962550388806921
0.07300001382827759 0.06942051199267546 0.2770098227046164 0.15983635455739534
0.07300001382827759 0.07526317250105208 0.3077369180065352 0.16718387812430285
0.07300001382827759 0.05744003063795991 1.576348630887366 0.047053414980859125
0.07300001382827757 0.052122685962534776 1.638640807510603 0.03273077733731555
0.07300001382827759 0.062065235432068974 0.6094312383485246 0.09413692313203856
0.07300001382827759 0.06260847432156087 1.3436700503702437 0.12490519051491236
0.07300001382827759 0.0671943566421985 0.5310280952461167 0.10585861244135603
0.07300001382827759 0.0744204201194282 0.48193631543917526 0.19137988380722346
0.07300001382827759 0.07406483822525532 0.5778601420193703 0.16850710437699418
0.07300001382827759 0.07920855403580748 0.037860748894838155 0.19299355201937696
0.07300001382827759 0.052607674802445915 0.41346057177413836 0.038495112541734065
0.07300001382827759 0.07019282493364884 0.42638475479395865 0.1431133901753188
0.07300001382827757 0.05287097891328742 0.2747814807375633 0.026597785559336385
0.07300001382827759 0.05994589674147553 0.6237423214857358 0.08368830950457574
0.07300001382827759 0.06331370712632159 0.9919527453452615 0.07332255523757306
0.07300001382827759 0.05945668785743716 1.028738214844792 0.07873090831927924
0.07300001382827759 0.07770499167044946 0.019802682479953537 0.16000571093523114
0.07300001382827759 0.07294055743785935 0.6053309692884448 0.17119935972534767
0.07300001382827759 0.06501808412218021 0.6672971248777669 0.13382779947035886
0.07300001382827759 0.0737103857999045 0.007616188380244511 0.15052999248323617
0.07300001382827759 0.05651992336045365 1.64966447169162 0.0555838268591253
0.07300001382827759 0.0618865099254059 1.3247408019931017 0.07360230166585355
0.07300001382827759 0.06069717927379681 0.36024773687811523 0.07139928249232669
0.07300001382827759 0.05232152254644257 0.006237052646773953 0.057254993769402907
0.07300001382827759 0.06402508138384952 0.8094754200505601 0.07548763006916034
0.07300001382827759 0.07213388546035945 0.3201977537181066 0.1549614410405593
0.07300001382827759 0.06713470114475661 0.6782424741593446 0.12549011281055647
0.07300001382827759 0.056615956905976296 0.9690064862637054 0.05313031609946026
0.07300001382827759 0.07243391046863495 0.5893886329345167 0.14482059928456303
0.0730000138282776 0.06187970618325561 0.14958013029546965 0.09413380186781145
0.07300001382827759 0.05766816330521543 0.325385566545738 0.05465473058174096
0.07300001382827759 0.06533403811956315 0.6970451000381025 0.10205831610461989
0.07300001382827759 0.059786155040855174 1.211976541930982 0.07929720168834474
0.07300001382827759 0.05255182624737066 1.7193538152561654 0.033720487094765134
0.07300001382827759 0.06403227247648068 0.798450080661354 0.097477671010296
0.07300001382827759 0.054494826106346726 0.44880392405157543 0.05029646303648743
0.07300001382827759 0.0644684976301292 0.08661109897850364 0.1083942756214442
0.07300001382827759 0.06388907662019602 0.12345349739789856 0.11231787740864592
0.07300001382827759 0.05930985605719746 0.13798608666749357 0.07296166509952307
0.07300001382827759 0.05989444163265345 0.39319846731217134 0.08487373899209923
0.07300001382827759 0.0668603885364116 0.9203301553361052 0.1275029733461035
0.07300001382827759 0.06021144609414962 0.5225363903953328 0.061560716082551876
0.07300001382827759 0.06878398141198472 0.51390801842438 0.13847297504359382
0.07300001382827759 0.06448316372894165 0.34918252904505664 0.08394487269906731
0.07300001382827759 0.06310773651947209 0.008672781960424996 0.09001267327681736
0.0730000138282776 0.05230751226956491 0.19654869447513718 0.04119459636814116
0.07300001382827759 0.06341850713801854 1.198325503576876 0.10895921348348363
0.0730000138282776 0.0790142628765624 0.11615050900993625 0.21334186565185123
0.07300001382827759 0.07514164059360362 0.38624677079239184 0.15922070682734804
0.07300001382827759 0.06123495036300755 0.7485103193677447 0.08161690760974959
0.6836354813325856 0.04907809601534305 2.062999963760376 0.2103198485560436
0.4337027509725747 0.03576323796957923 2.062999963760376 0.1940940686238349
0.762957771123424 0.04073711564147744 2.062999963760376 0.18419011816251465
0.5091484247978084 0.043025555097367565 2.062999963760376 0.18650661660964551
0.7241488187431657 0.033627509350646054 2.062999963760376 0.19413428994542395
0.6461129779063803 0.04011826239782731 2.062999963760376 0.2079135471157125
0.8906729588184549 0.03121487586716789 2.062999963760376 0.17362595414775484
0.46796645017600424 0.05091516583461307 2.0629999637603755 0.25396707591269574
0.7083420132998504 0.04793935462961702 2.062999963760376 0.24000275151493491
0.6945750223652392 0.03938005207704018 2.062999963760376 0.20322386373119228
0.3332889347247075 0.05170594506863793 2.0629999637603764 0.2543934886317315
0.812746067898426 0.028756516731237698 2.062999963760376 0.17677768410442476
0.678313179766414 0.03687652221566484 2.062999963760376 0.15754598168689166
0.7340202730787877 0.03725661102516907 2.062999963760376 0.18173834458580487
0.8036749234541645 0.02363003868763136 2.062999963760376 0.12171557691747366
0.8568838458044237 0.049241156513535944 2.062999963760376 0.20000073073041744
0.7663291403399323 0.027147954006199796 2.062999963760376 0.13800995488366619
0.647715741772808 0.051965519436355315 2.062999963760376 0.23945480997359242
0.8857968630233057 0.04369072095459059 2.062999963760376 0.19291552122927694
0.8525965074125876 0.02774230155692472 2.062999963760376 0.14067842810958944
0.7854018900475817 0.0457556751588162 2.062999963760376 0.22382579050355159
0.3931546068770444 0.03886361564942906 2.062999963760376 0.22791238264456673
0.48166904583961434 0.05058132037909354 2.062999963760376 0.231400988824606
0.8001546085256672 0.0391667301988698 2.062999963760376 0.1999348594546436
0.6130803241812816 0.046262399227134085 2.062999963760376 0.2162384056716814
0.38432200373019765 0.04691742251907771 2.062999963760376 0.23947319981372936
0.5916020409259847 0.03611912854820664 2.062999963760376 0.21747797441654274
0.7870910191318696 0.025115022064580304 2.062999963760376 0.10674483431614833
0.8445564168876367 0.04696541706667987 2.062999963760376 0.19634142235228316
0.7217829130798503 0.05016754835079858 2.062999963760376 0.1940416595515825
0.7114303853453682 0.03587813880079336 2.062999963760376 0.17848123018794976
0.63469493228332 0.045925873601938526 2.062999963760376 0.22078354239409473
0.6380108526592596 0.03145263112571098 2.062999963760376 0.17015716140615178
0.5539952918057474 0.04100698788301704 2.062999963760376 0.1805233799564251
0.8334975320140048 0.04013749975762809 2.062999963760376 0.20227905293812853
0.30101923799151037 0.04947288949863401 2.062999963760376 0.2530177407513709
0.5193470120668309 0.03729763185691144 2.062999963760376 0.1776248295707722
0.797880563068536 0.050880599889447604 2.062999963760376 0.19111759002193468
0.5722615409174383 0.045159302625191154 2.062999963760376 0.24337426481815141
0.2173114754102174 0.04992229616840086 2.0629999637603764 0.24091553471288915
0.8829997694503146 0.019989461767099138 2.062999963760376 0.12931671485745377
0.8113777127527273 0.04365678344853644 2.062999963760376 0.2217424365142937
0.6055669014271162 0.03614536978059393 2.062999963760376 0.18318780483041855
0.3173431774509169 0.04552648358854712 2.062999963760376 0.18053300298932387
0.8213611553830036 0.038368471127885016 2.062999963760376 0.21333129385511704
0.8284911874987968 0.02886009156640474 2.062999963760376 0.1695450259734766
0.749690974292284 0.024678365690162296 2.062999963760376 0.1286109768740032
0.3508073456162902 0.050730822773548005 2.062999963760376 0.24170838352223314
0.5223793338246993 0.05053129507401036 2.062999963760376 0.2262952374817938
0.8733247858931183 0.04344832939748309 2.062999963760376 0.19778060303141617
0.6694886168289611 0.04700856107879075 2.0629999637603764 0.2214234805387202
0.5336987955012154 0.04085175709825622 2.062999963760376 0.17096664889481067
0.5685013680707302 0.034101166832552196 2.062999963760376 0.16009232743967539
0.7737338903753981 0.03714496740387991 2.062999963760376 0.18272862557912417
0.410452191997948 0.039531791756849885 2.062999963760376 0.18795891634032968
0.4969646306726017 0.04955414978979761 2.062999963760376 0.22965076750766605
0.6586732190202451 0.04145987222719275 2.062999963760376 0.22077267176365403
0.6202316516324404 0.037687128227740896 2.062999963760376 0.21688696894501894
0.7456802952561059 0.0388050272281712 2.062999963760376 0.18189493210597113
0.48992258752872153 0.04135836463564646 2.062999963760376 0.1695573252398799
0.8606016860070657 0.017822968772188315 2.062999963760376 0.11824644427158412
0.23839954949024778 0.04858792946812249 2.062999963760376 0.2369844393980151
0.2862226843494116 0.050736965401239294 2.062999963760376 0.25964338283770877
0.8787235762947798 0.03195203191085003 2.062999963760376 0.16763863856485733
0.6680440795435337 0.0262630001435247 2.062999963760376 0.17034030167198508
0.5848838464368848 0.05143140672278096 2.062999963760376 0.23927946372162456
0.6948351298149574 0.02629291360243021 2.062999963760376 0.12280733772121918
0.15520295079533683 0.0318345269956686 2.062999963760376 0.15380141955675988
0.7266609659601964 0.01521048651342724 2.062999963760376 0.121250581130087
0.18933036425662167 0.04469547106309421 2.062999963760376 0.2362890291768016
0.11313227386141197 0.017384262017672267 2.062999963760376 0.12629977447189752
0.1670686696023159 0.03711162021254727 2.062999963760376 0.18107363671946058
0.3707471386007123 0.034900211870259074 2.062999963760376 0.1492524842978698
0.33215776947267206 0.03219392022403107 2.062999963760376 0.1432867847487924
0.627161515353714 0.026042252381866415 2.062999963760376 0.16047980053293628
0.31785784641006326 0.016253809430714052 2.062999963760376 0.1079940265230084
0.11374383685555232 0.042707646066284875 2.062999963760376 0.22470449899144243
0.17799669412306876 0.016241787503271432 2.062999963760376 0.12560660858901365
0.17795370538786598 0.041475566786799034 2.062999963760376 0.18645451705469257
0.1756540335147432 0.030409054267577253 2.062999963760376 0.1627106658540398
0.12501061306158673 0.04286822314825808 2.062999963760376 0.1535805605711669
0.4492862474113177 0.031374438109419825 2.062999963760376 0.124812485505239
0.0954561310619495 0.041323418814033154 2.062999963760376 0.2271186364928889
0.7777883963313639 0.016750846542058634 2.062999963760376 0.09299152926504856
0.30811951118167863 0.03276903252960124 2.062999963760376 0.15344225528405947
0.479053624286414 0.03186396062867891 2.062999963760376 0.14386284602062718
0.23256706860150397 0.038180440607801076 2.062999963760376 0.2011228446539793
0.252868656709503 0.035527167851481016 2.062999963760376 0.20003346829399465
0.6467310047267315 0.025546741803204036 2.062999963760376 0.1393138312534635
0.4163591584798329 0.02783175801696197 2.062999963760376 0.17226487199578705
0.29526893470916954 0.025676181825107128 2.062999963760376 0.1810027631141333
0.38050792913303916 0.020793009838094654 2.062999963760376 0.1355706931789626
0.6806856076380509 0.024083266624152354 2.062999963760376 0.11651139962724098
0.10134635354239563 0.019178506431574448 2.062999963760376 0.12546322554713718
0.16782020051469493 0.020047420944246143 2.062999963760376 0.1264265318923894
0.12111021133914854 0.025694891309458373 2.062999963760376 0.14715578029500573
0.21080089854264109 0.037575756001578975 2.062999963760376 0.18716691163038643
0.2822374697628648 0.0265141907990348 2.062999963760376 0.15302390502545116
0.49883987973068283 0.029243785307079755 2.062999963760376 0.13898801087633836
0.19067084721963756 0.017317219237506235 2.062999963760376 0.10529583612717759
0.24075146571608644 0.027263690907281608 2.062999963760376 0.17004762621522096
0.48754483882173233 0.022650847234700643 2.0629999637603755 0.12657923267955484
0.5112137329952974 0.02928196541394307 2.062999963760376 0.15515355999955024
0.06841237690848657 0.044407052373617584 2.062999963760376 0.13931931191698133
0.156750503138369 0.04464693444786979 2.062999963760376 0.206879647083838
0.537812492139901 0.022302234905748692 2.062999963760376 0.10639166090864878
0.1993851467673449 0.03767441843946809 2.062999963760376 0.1868229707218364
0.5798583667660255 0.026875237740119243 2.0629999637603764 0.14307377950040362
0.4599040641121813 0.028613602322382466 2.062999963760376 0.1581864832817575
0.35587580707452726 0.025355364095928166 2.062999963760376 0.1395491797753933
0.4356456581818474 0.01939862092698961 2.062999963760376 0.13900936898345437
0.14442338327427143 0.04150423004848197 2.062999963760376 0.1985320753478792
0.27400951772026017 0.015449892353687742 2.062999963760376 0.08592626105876953
0.20685388350936418 0.023280708069961888 2.062999963760376 0.14222282390411894
0.504741269191117 0.018053305631697283 2.062999963760376 0.09223195761157785
0.1065666338518444 0.028827472177682445 2.062999963760376 0.15244080387172063
0.39597991333065763 0.018600552968834866 2.062999963760376 0.128434135925999
0.7159626242322805 0.021877395707120256 2.062999963760376 0.13643314320319191
0.3447624179164385 0.016347517806147738 2.062999963760376 0.14323329634702786
0.6224256462437574 0.015068956079293993 2.062999963760376 0.09854705498862537
0.4690665556360283 0.022223177610551086 2.062999963760376 0.13878045502496664
0.5605176283278251 0.016421094657401124 2.062999963760376 0.11173623452333255
0.29263869649157753 0.03879754358397337 2.062999963760376 0.16880759014462934
0.5268988938735542 0.029451581201379803 2.062999963760376 0.14453173816399006
0.25347416509223974 0.024592454388752807 2.062999963760376 0.16546919606014554
0.4157967069617464 0.01653931282294838 2.062999963760376 0.13583780224435013
0.1559083064678509 0.019729584488895092 2.062999963760376 0.12083802840141214
0.7380056198047414 0.019226222364686657 2.062999963760376 0.13221770964762009
0.08040342980080233 0.032943991299898015 2.062999963760376 0.18340839866703967
0.18832156278381978 0.03355388067861923 2.0629999637603755 0.15537424953793252
